# .PCD v0.7 - Point Cloud Data file format
VERSION 0.7
FIELDS x y z intensity
SIZE 4 4 4 4
TYPE F F F F
COUNT 1 1 1 1
WIDTH 1513
HEIGHT 1
VIEWPOINT 0 0 0 1 0 0 0
POINTS 1513
DATA ascii
13.626 2.3219998 1.6140002 66
13.577 2.3339999 1.6190002 66
9.7264996 2.7964997 1.6165001 98.5
48.377998 0.99299926 8.1800003 50
50.153999 -5.6190004 4.9029994 65
30.877001 -2.9269998 -1.6680002 43
31.309999 -1.9539999 -1.6640002 99
13.599 -0.90499985 -1.6660001 42
29.43 -0.61599988 -1.665 72
12.305 -0.15899985 -1.665 111
12.719 0.57800013 -1.663 123
11.408 0.61800009 -1.669 52
12.753 0.81700009 -1.6659999 95
11.152 0.87100011 -1.6649998 73
12.288 0.89400011 -1.6619998 50
47.171001 -14.195001 8.1919994 90
11.114 1.4180001 -1.6629999 104
11.153 1.6350001 -1.6689999 86
11.323 1.9130001 -1.6679999 69
9.1619997 2.3690002 -1.6619997 21
9.165 2.3790002 -1.6649997 21
9.184 2.3930001 -1.6699997 17
9.151 2.4020002 -1.6669998 1
11.382 2.7810001 -1.6629997 17
10.544001 3.1480002 -1.6669998 48
11.458 3.3230002 -1.6619997 1
11.696 3.3640003 -1.6649997 1
52.462002 -9.342 1.6209992 50
48.27 -11.282001 8.1989994 97
16.072001 2.0379996 4.9050002 2
16.094 2.0439994 4.9039998 2
16.118999 2.0509996 4.9029999 1
53.581001 -4.9219995 -4.9440002 50
13.048 0.77499986 1.6210002 118
14.684 1.0399998 1.6270001 114
13.229 1.1119999 1.6290001 89
14.63 1.1379999 1.6250001 105
14.809 1.6759999 1.6250001 107
24.278 -8.4090004 -1.6530007 63
11.394 1.8269999 1.6200001 32
11.386 1.8419999 1.6290001 30
9.6070004 2.1609998 1.6200002 69
13.537 2.3479998 1.6230003 65
9.7379999 2.8009999 1.6260003 99
30.408001 -4.4770002 -1.6520003 6
46.837002 -5.6810007 4.9129996 46
31.143 -2.4079998 -1.6590003 117
45.779999 -14.147 1.6339988 25
12.584 -0.63899988 -1.652 57
12.295 -0.34599984 -1.655 112
12.503 0.044000145 -1.652 126
12.588 0.14700015 -1.655 109
12.582 0.33300015 -1.656 95
11.426 0.60700011 -1.652 44
43.034 -1.9540005 4.9130001 31
11.198 0.87800014 -1.6529999 58
11.161 1.6240001 -1.6539999 84
11.309 1.8940002 -1.6569998 73
11.345 2.0000002 -1.6569998 64
9.2290001 2.2800002 -1.6509998 38
9.1359997 2.3350003 -1.6519997 9
9.165 2.3330002 -1.6559998 3
9.1470003 2.3470001 -1.6559998 19
9.158 2.3590002 -1.6599997 20
11.389 2.7720003 -1.6529998 20
10.5555 3.1455002 -1.6569998 37.5
11.689 3.3550003 -1.6549997 1
11.727 3.3590002 -1.6529998 1
31.297001 -4.9929996 -4.9320006 2
49.608002 -8.1890011 8.2009993 97
29.160999 -2.9559996 -4.9330006 3
12.909 0.45499986 1.6339999 3
24.288 -8.4060001 -1.6420007 64
11.351 1.8519999 1.6340001 15
9.6090002 2.1679997 1.6300002 71
9.599 2.1719997 1.6380002 67
13.519 2.3659997 1.6310003 63
13.484 2.3799999 1.6360003 61
9.7325001 2.7999997 1.6325002 98
46.602001 -5.7680006 4.9279995 39
30.898001 -2.8719997 -1.6460003 66
54.82 -4.3030005 4.9289994 44
13.361 -0.66899991 -1.645 41
12.569 -0.44499984 -1.649 55
12.309 -0.15599985 -1.641 111
12.721 0.5660001 -1.641 107
12.763 0.80200011 -1.6469998 125
11.159 0.8580001 -1.6489999 51
12.323 0.8860001 -1.6449999 49
47.191002 -14.191001 8.2119989 96
11.103 1.4010001 -1.6489999 96
11.296 1.8750001 -1.6459999 74
11.34 1.9870001 -1.6429999 64
9.2030001 2.2540002 -1.6409998 118
9.1960001 2.2620003 -1.6419997 107
11.396 2.7630002 -1.6429998 43
10.565 3.1430001 -1.6489998 28
10.581 3.1440003 -1.6449997 28
10.633 3.1560001 -1.6469997 28
10.664 3.1610003 -1.6449997 19
10.693 3.1660001 -1.6419997 14
10.736 3.1740003 -1.6429998 10
11.74 3.3550003 -1.6459998 1
11.799 3.3640003 -1.6459998 1
48.259998 -11.336001 8.2189989 92
16.047001 2.0169995 4.9260001 4
16.08 2.0269995 4.9289999 3
16.077 2.0309994 4.921 3
16.103001 2.0379996 4.921 3
48.800999 -9.8170013 8.2179995 106
49.724998 -5.5209999 1.6409996 41
13.064 0.7899999 1.6440002 119
14.819 1.6999999 1.6430001 112
24.316999 -8.4099998 -1.6330007 55
9.585 2.1749997 1.6450002 71
9.7340002 2.8009999 1.6400002 102
9.7399998 2.8029997 1.6450002 101
48.653 1.1429993 8.217 49
49.463001 -7.1740003 4.9319997 75
30.386 -4.414 -1.6380004 11
30.438999 -4.3629999 -1.6300004 20
20.885 -3.4689999 -1.6380004 26
50.195999 -5.9090004 4.9319997 97
31.49 -1.9139999 -1.6300001 108
16.624001 -1.8279998 -1.6350001 13
45.747002 -14.181 1.6569988 30
13.557 -0.88699991 -1.6380001 42
42.623001 -3.1510005 4.9379997 38
12.585 0.32900015 -1.631 102
11.47 0.5990001 -1.6390001 30
11.17 0.84600013 -1.6339998 48
11.202 0.87000012 -1.6349999 59
47.181999 -14.178001 8.2249994 90
11.087 1.3830001 -1.6339998 91
11.151 1.6080002 -1.6359999 89
11.315 1.8610001 -1.6389999 73
9.1759996 2.2260003 -1.6309998 123
9.184 2.2390003 -1.6349998 116
11.404 2.7540002 -1.6339997 88
10.759 3.1770003 -1.6389998 9
10.794 3.1830003 -1.6379998 8
10.828 3.1880002 -1.6359998 8
11.802 3.3570004 -1.6379998 1
52.429001 -9.4289999 1.6549991 49
16.045 2.0079994 4.9380002 7
16.056999 2.0129995 4.9359999 4
39.389999 -5.3689995 -4.9100003 111
48.682999 -6.7249999 1.6589994 30
51.069 -3.9710002 1.6529996 17
12.9 0.45999986 1.658 3
14.693 1.0589999 1.6500001 114
14.63 1.1519998 1.6500001 109
24.313999 -8.4020004 -1.6220007 86
9.5799999 2.1799998 1.6540003 71
9.3260002 2.6589997 1.6580002 82
9.3409996 2.6659997 1.6570002 83
9.4069996 2.6909997 1.6590003 74
9.4119997 2.6939998 1.6570002 67
9.4219999 2.6989996 1.6550002 62
9.4499998 2.7089999 1.6570002 58
9.4700003 2.7159998 1.6570002 54
9.7270002 2.7999997 1.6520002 102
9.7369995 2.8024998 1.6545002 104.5
54.042999 -12.204001 11.511999 7
20.858 -3.4269998 -1.6240003 102
30.913 -2.8139997 -1.6220002 88
31.190001 -2.3579998 -1.6240002 83
12.573 -0.6329999 -1.627 55
12.599 -0.44199985 -1.628 55
12.288 -0.33899984 -1.63 111
12.495 0.040000141 -1.626 134
12.59 0.14600015 -1.6289999 107
12.759 0.78700012 -1.6259999 118
11.204 0.83600014 -1.6219999 51
12.35 0.87700009 -1.6259999 49
11.102 1.3690001 -1.6239998 101
11.286 1.8390001 -1.6259999 66
11.321 1.9700001 -1.6259999 67
9.177 2.1950002 -1.6219997 120
9.1759996 2.2050002 -1.6249998 115
9.177 2.2160003 -1.6279998 117
11.406 2.7440002 -1.6229998 93
10.811 3.1790001 -1.6259998 7
10.824 3.1770003 -1.6209998 8
11.785 3.3450003 -1.6269997 1
11.836 3.3510003 -1.6249998 1
48.252998 -11.392001 8.2389994 101
16.032 1.9969995 4.947 9
16.049999 2.0039995 4.9460001 8
49.16 -5.4729996 -4.9050007 64
49.700001 -5.6139998 1.6699995 36
50.238998 -5.848001 8.2369995 99
44.243 -1.8880007 8.2370005 24
13.064 0.80299985 1.6660001 117
45.533001 -1.5280007 8.2390003 37
13.314 1.1309999 1.6620001 105
14.83 1.7229999 1.6610001 112
24.365 -8.4130001 -1.6140007 63
11.406 1.8939999 1.6610001 1
9.5699997 2.1839998 1.6610003 70
9.3035002 2.6424999 1.6645002 79
9.3140001 2.6449997 1.6670003 84
9.3220005 2.6539998 1.6610003 80
9.3769999 2.6779997 1.6600002 79
9.3970003 2.6859999 1.6610003 75
9.5139999 2.7299998 1.6610003 53
9.5629997 2.7449996 1.6660002 63
9.7270002 2.7989998 1.6610003 104
9.7410002 2.8029997 1.6680002 105
30.469 -4.3080001 -1.6190003 32
20.851999 -3.3869998 -1.6130003 102
13.519 -0.8689999 -1.6110001 42
13.323 -0.65499985 -1.617 41
42.813 -2.8560004 4.9529996 21
12.302 -0.15199986 -1.6160001 111
12.721 0.55400014 -1.619 112
11.51 0.81800014 -1.6129999 48
11.205 0.86100012 -1.6149999 62
11.371 0.86500013 -1.6189998 57
11.788 0.8670001 -1.6149999 32
47.195 -14.170001 8.2439995 93
11.141 1.5940001 -1.6189998 90
11.317 1.9540001 -1.6109998 63
11.397 2.7300003 -1.6109997 99
10.833 3.1750002 -1.6149998 9
11.105 3.2270002 -1.6179998 2
11.822 3.3390002 -1.6139997 1
16.023001 1.9859995 4.9559999 9
16.042999 1.9939995 4.9559999 9
51.077 -3.5280004 1.6799996 29
44.105999 -2.4970007 8.2460003 5
14.698 1.0779998 1.6730001 115
13.227 1.1339998 1.6740001 99
14.61 1.1629999 1.6730001 105
14.83 1.7449999 1.6780001 95
24.410999 -8.4209995 -1.6070007 74
46.472 -0.76600069 8.2449999 22
9.5600004 2.1939998 1.6790003 91
9.573 2.1909997 1.6710002 80
9.2869997 2.6149998 1.6780002 88
9.302 2.6244998 1.6775002 88
9.3079996 2.6309998 1.6760002 88
9.3150005 2.6379998 1.6730002 86.5
9.6389999 2.7679996 1.6750002 74
9.6750002 2.7799997 1.6780002 91
9.7040005 2.7889998 1.6790003 101
9.7270002 2.7974997 1.6740003 102
9.7349997 2.7999997 1.6760002 108
25.091 -5.4439998 -1.6010004 49
30.481001 -4.2529998 -1.6080004 46
20.878 -3.3529997 -1.6040002 102
16.563 -1.7989999 -1.6050001 62
12.575 -0.62599987 -1.602 53
12.591 -0.43799984 -1.602 54
12.279 -0.33199984 -1.605 109
12.5 0.03600014 -1.601 132
12.605 0.14500013 -1.6059999 97
12.585 0.32500014 -1.6059999 108
12.75 0.77200013 -1.6039999 115
11.243 0.82500011 -1.6099999 49
12.383 0.86900014 -1.6089998 50
47.205002 -14.162001 8.2599993 92
11.09 1.3520001 -1.6089998 109
11.15 1.5830001 -1.6049999 90
11.182 1.8050001 -1.6019999 70
45.759998 -0.26900044 4.9660001 21
11.403 2.7210002 -1.6009997 110
10.841 3.1720002 -1.6089997 9
10.86 3.1720002 -1.6049998 9
10.896 3.1770003 -1.6029998 7
10.973 3.1940002 -1.6069998 3
52.403 -9.5150003 1.6899992 56
11.789 3.3210003 -1.6009997 1
48.223999 -11.441001 8.2549992 108
31.556999 -5.9069996 -4.8830004 1
16.033001 1.9779996 4.9689999 7
16.042999 1.9839995 4.967 9
49.952 -3.8709996 -4.8810005 83
50.049999 -3.1169996 -4.8810005 65
29.488001 -2.7699995 -4.8860006 3
13.074 0.8179999 1.6890001 117
24.514999 -8.441 -1.5910007 73
24.464001 -8.4309998 -1.5990007 73
13.966 1.7899998 1.6870002 45
9.5649996 2.2009997 1.6890002 91
9.2720003 2.5869997 1.6870003 79
9.2840004 2.5964997 1.6865003 88
9.2880001 2.6054997 1.6840003 83
9.2860003 2.6109998 1.6800002 79
48.306999 0.99099928 8.2580004 39
25.061001 -5.3940001 -1.5940005 119
25.049999 -5.348 -1.5900005 124
30.507 -4.197 -1.5970004 59
20.926001 -3.3229997 -1.5960002 68
30.950001 -2.7579997 -1.5990002 76
31.393 -2.3199997 -1.5970002 107
12.31 -0.14799987 -1.592 114
12.722 0.54200011 -1.596 117
11.269 0.81400013 -1.5969999 51
12.416 0.86100012 -1.5909998 48
11.081 1.3340001 -1.5949999 111
11.175 1.7870001 -1.5909998 81
11.321 1.9420002 -1.5969999 65
11.408 2.7100003 -1.5909997 113
48.194 -11.489001 8.2699995 109
16.045 1.9749995 4.9780002 7
39.451 -5.3149996 -4.8760004 78
53.589001 -4.8389997 -4.8770003 46
29.007 -3.4519994 -4.8760004 3
49.68 -5.7090001 1.6979995 38
49.591999 -8.2270012 8.2679987 97
28.462999 -2.1929996 -4.8720002 5
51.046001 -4.0650001 1.6999997 10
46.922001 -2.6060007 8.2690001 9
14.693 1.0949999 1.6940001 103
13.208 1.1439999 1.6940001 101
14.814 1.7649999 1.6920002 69
24.521999 -8.4350004 -1.5800008 82
9.5509996 2.2039998 1.6960002 104
9.2410002 2.4779997 1.6980002 80
9.2460003 2.4859998 1.6990002 80
9.25 2.4989998 1.6990002 83
9.2370005 2.5009997 1.6970003 83
9.2410002 2.5079997 1.6970003 87
9.2530003 2.5229998 1.6980002 91
9.2589998 2.5349998 1.6970003 91
9.2729998 2.5489998 1.6980002 100
9.2639999 2.5569997 1.6940002 96
9.2770004 2.5559998 1.6970003 96
9.2600002 2.5609999 1.6920003 92
9.2720003 2.5689998 1.6930002 92
9.283 2.5769997 1.6930002 84
9.2835007 2.5834999 1.6915002 84.5
53.993999 -12.214001 11.551999 5
25.075001 -5.3099999 -1.5880005 121
25.141001 -5.2800002 -1.5890005 49
30.534 -4.1409998 -1.5860003 74
31.503 -1.8639998 -1.5880002 120
13.483 -0.85199988 -1.5840001 48
13.299 -0.6419999 -1.589 40
12.304 -0.32599986 -1.584 108
12.596 0.32100016 -1.582 102
12.756 0.75800014 -1.5839999 124
47.192001 -14.146001 8.2729988 83
11.079 1.3180001 -1.5819999 98
11.155 1.5710001 -1.5899999 90
11.166 1.7690002 -1.5809999 87
11.321 1.9280001 -1.5819999 64
9.1400003 2.0880003 -1.5839998 112
9.1379995 2.0980003 -1.5869998 111
9.099 2.1010003 -1.5839998 98
11.732 3.2970002 -1.5849998 1
16.046 1.9699996 4.9829998 6
48.798 -9.8550005 8.2749987 98
44.048 -1.9070007 8.2749996 41
13.064 0.83099979 1.7080001 109
14.754 1.7799999 1.7020001 50
14.676 1.7929999 1.7090001 50
9.5500002 2.2099998 1.7050003 90
9.2849998 2.4499998 1.7060002 71
9.3070002 2.4449997 1.7090002 69.5
9.2510004 2.4549997 1.7000003 71
9.2720003 2.4539998 1.7030002 69
9.2544994 2.4654999 1.7005002 73.5
9.2510004 2.4739997 1.7000003 71
9.2530003 2.4929998 1.7000003 83
9.2639999 2.5199997 1.7010002 79
9.2679996 2.5319998 1.7000003 87
9.2790003 2.5459998 1.7000003 100
24.184999 -6.4109998 -1.5710006 57
24.173 -6.3720002 -1.5710006 44
24.169001 -6.335 -1.5720006 26
24.191 -6.3049998 -1.5740006 15
24.209999 -6.2729998 -1.5750006 2
30.534 -4.0819998 -1.5730003 81
47.134998 -5.7880006 4.9989996 47
30.909 -2.6949997 -1.5720003 63
16.549 -1.7739999 -1.5790001 63
12.571 -0.6189999 -1.5779999 52
12.588 -0.43399984 -1.576 54
12.505 0.032000139 -1.577 130
12.596 0.14300014 -1.579 102
12.717 0.53000009 -1.572 117
11.349 0.7930001 -1.5729998 36
11.239 0.84500015 -1.5799999 40
12.438 0.85100013 -1.5709999 46
47.205002 -14.136001 8.2889986 86
11.135 1.5560001 -1.5709999 87
9.1239996 2.0610003 -1.5729997 112
9.1230001 2.0720003 -1.5769998 110
48.187 -11.543001 8.2889986 104
30.966999 -5.9309998 -4.8510003 2
31.247 -5.8949995 -4.8590007 2
16.063 1.9609995 4.9970002 4
16.07 1.9679996 4.9949999 4
49.053001 -6.8629999 1.7109994 38
14.677 1.1119999 1.7150002 70
13.654 1.1359999 1.7150002 43
13.53 1.1419998 1.7190001 50
13.217 1.1559999 1.7170001 97
24.506001 -8.4200001 -1.5680007 72
14.591 1.8049998 1.7150002 49
9.5279999 2.2159998 1.7190002 79
9.5410004 2.2129998 1.7120003 80
9.3929996 2.4119997 1.7180003 73
9.3649998 2.4279997 1.7160002 76
9.3730001 2.4219997 1.7170002 67
9.3190002 2.4379997 1.7100003 68
9.3449993 2.4339998 1.7140002 72
24.150999 -6.507 -1.5650007 65
24.167999 -6.4770002 -1.5670006 71
24.174 -6.4429998 -1.5690006 65
49.508999 -7.2460003 5.0039997 80
30.561001 -4.026 -1.5620004 78
50.030998 -14.126 -4.8430014 41
50.041 -14.064 -4.8430014 42
50.062 -14.005 -4.8440013 43
50.088001 -13.947 -4.8460016 42
50.205002 -13.712 -4.8480015 43
50.206001 -13.644 -4.8450012 46
50.209 -13.577 -4.841001 43
50.255001 -13.52 -4.842001 54
31.525 -2.2749999 -1.5660002 150
45.716 -14.301 1.7279989 34
12.317 -0.14499986 -1.568 112
12.746 0.74300009 -1.5619999 115
11.076 1.3020002 -1.5689999 103
11.156 1.7500001 -1.5699999 91
11.31 1.9130001 -1.5669999 69
9.2270002 2.0020003 -1.5609999 68
9.1719999 2.0140002 -1.5609999 72
9.2159996 2.0110002 -1.5639999 73
9.1590004 2.0230002 -1.5629998 73
9.1280003 2.0390003 -1.5659999 91
9.1479998 2.0320003 -1.5649999 76
9.1210003 2.0490003 -1.5689998 117
8.9650002 2.0810003 -1.5649998 48
8.8920002 2.1160002 -1.5679997 35
52.359001 -9.5979996 1.7239991 47
30.455 -4.8899994 -4.8430004 2
49.650002 -5.802 1.7249995 36
13.059 0.84499985 1.7290001 114
14.606 1.1249999 1.7280002 49
13.385 1.1459999 1.7200001 77
13.301 1.1559999 1.7280002 98
24.455 -8.3940001 -1.5530007 67
14.518 1.8169999 1.7230002 49
14.429 1.8269999 1.7280002 48
9.5270004 2.2209997 1.7280003 76
9.7360001 2.2669997 1.7240002 78
9.7770004 2.2659998 1.7280003 80
9.6870003 2.2759998 1.7220002 74
9.71 2.2709997 1.7230003 75
9.6529999 2.2879999 1.7230003 74
9.6739998 2.2829998 1.7230003 75
9.6450005 2.2959998 1.7240002 76
9.6129999 2.3079998 1.7240002 74
9.6330004 2.3029997 1.7250003 76
9.585 2.3199997 1.7240002 71
9.6059999 2.3159997 1.7250003 71
9.5570002 2.3229997 1.7220002 73
9.5319996 2.3359997 1.7220002 69
9.559 2.3329997 1.7240002 76
9.5135002 2.3449998 1.7215002 86.5
9.5170002 2.3589997 1.7260002 108
9.5220003 2.3689997 1.7280003 108
9.4779997 2.3759997 1.7240002 80
9.5019999 2.3729997 1.7270002 95
9.4329996 2.3899999 1.7210002 69
9.448 2.3849998 1.7220002 75
9.4709997 2.3829997 1.7240002 75
9.4309998 2.3969998 1.7220002 75
9.4069996 2.4069998 1.7200003 77
9.427 2.4039998 1.7220002 73
9.3950005 2.4199998 1.7200003 71
24.165001 -6.7820001 -1.5500005 43
24.033001 -6.5440001 -1.5540006 59
24.068001 -6.52 -1.5580006 60
50.242001 -13.448 -4.8360009 142
16.549999 -1.7509999 -1.5560001 63
13.45 -0.83499986 -1.5580001 47
13.262 -0.6279999 -1.5599999 40
12.302 -0.31899986 -1.5599999 109
12.498 0.028000137 -1.551 127
12.602 0.14200014 -1.554 102
12.594 0.31700015 -1.556 99
12.728 0.51800013 -1.551 115
11.38 0.78200012 -1.5589999 30
11.204 0.83400011 -1.5549998 29
12.482 0.84300011 -1.5539999 47
47.243 -14.134001 8.3099995 79
11.075 1.2850001 -1.5549998 108
11.131 1.5420002 -1.5539999 85
11.148 1.7310001 -1.5589999 92
11.316 1.9010001 -1.5529999 68
9.3050003 1.9690001 -1.5549998 68
9.3170004 1.9600002 -1.5519999 63
9.2799997 1.9760001 -1.5559999 74
9.2600002 1.9850001 -1.5569999 70
9.2480001 1.9940001 -1.5599998 73
48.160999 -11.592001 8.3029995 107
16.093 1.9479995 5.0180001 1
16.094 1.9569995 5.0120001 3
49.068001 -5.8299999 1.7329996 29
28.320999 -2.9039996 -4.8310003 6
50.168999 -5.874001 8.3069992 103
45.464001 -1.5250007 8.309 37
14.502 1.1349999 1.7370001 48
13.938 1.1419998 1.7310001 45
9.5200005 2.2239997 1.7360002 77
24.138 -6.8709998 -1.5400006 49
24.177999 -6.8499999 -1.5460006 45
24.183001 -6.8189998 -1.5490006 39
24.09 -6.7280002 -1.5470006 66
24.025 -6.677 -1.5450006 58
23.978001 -6.6300001 -1.5440006 45
24.023001 -6.6090002 -1.5490006 48
24 -6.5689998 -1.5490006 60
48.638 1.1689993 8.3009996 61
30.591999 -3.9689999 -1.5490004 73
50.373001 -13.126 -4.8240008 105
50.402 -13.061 -4.8210011 82
30.945999 -2.6389997 -1.5480002 41
12.552 -0.61099988 -1.55 49
12.572 -0.42999986 -1.549 52
12.31 -0.14099987 -1.5420001 115
43.247002 -1.9820005 5.0209999 31
11.066 1.2680001 -1.5409999 111
11.144 1.7140001 -1.5489999 97
9.3369999 1.9390001 -1.5449998 60
9.3219995 1.9480001 -1.5479999 66
8.8210001 2.0580003 -1.5429997 25
8.7700005 2.0770001 -1.5439998 25
48.139 -11.641001 8.3179989 102
50.990002 -4.1550002 1.7439996 9
51.089001 -3.6130002 1.7429997 22
44.066002 -2.5020008 8.3170004 5
13.048 0.8579998 1.7480001 109
14.412 1.1449999 1.7470001 48
13.22 1.1669999 1.7400001 103
13.302 1.1729999 1.7470001 107
24.332001 -8.342 -1.5340008 46
9.4919996 2.2289999 1.7470002 74
9.5120001 2.2279997 1.7430003 74
9.868 2.2759998 1.7410003 61
24.121 -6.9299998 -1.5330006 23
24.138 -6.9029999 -1.5370005 46
48.132999 0.98699927 8.3170004 37
30.629999 -3.9149997 -1.5380003 63
50.402 -12.987 -4.815001 55
50.451 -12.926 -4.8130012 21
50.487999 -12.861 -4.8100009 45
31.146999 -2.5979998 -1.5340003 19
16.525999 -1.7259998 -1.5300001 63
13.41 -0.8179999 -1.5300001 47
13.233 -0.61499989 -1.533 46
12.305 -0.31299984 -1.536 116
12.603 0.31300011 -1.5319999 102
12.738 0.7280001 -1.5399998 115
12.513 0.83400011 -1.5359999 47
47.242001 -14.120001 8.322999 84
11.124 1.5290002 -1.5379999 89
11.153 1.6980001 -1.5399998 102
11.291 1.8830001 -1.5359999 63
8.7869997 2.0600002 -1.5399997 24
52.362999 -9.6879997 1.7589991 46
16.143 1.9489995 5.0370002 1
49.279999 -6.9840002 1.7589993 51
48.831001 -5.8959999 1.7509996 31
14.305 1.1549999 1.7550001 47
46.445 -0.78400069 8.3240004 32
9.493 2.2339997 1.7560003 73
9.9879999 2.2709997 1.7500002 5
23.976999 -6.9200001 -1.5210006 18
30.646999 -3.8569999 -1.5250003 46
50.494999 -12.789 -4.8030009 73
55.084 -4.3800006 5.0479994 43
12.545 -0.60399985 -1.525 48
12.591 -0.42599988 -1.526 50
12.486 0.025000134 -1.524 130
12.595 0.14000013 -1.528 102
12.717 0.5060001 -1.527 117
11.062 1.2520001 -1.5269998 105
47.256001 -14.109001 8.3399992 81
11.126 1.5160002 -1.5219998 87
11.146 1.6800001 -1.5289999 105
9.224 1.9030001 -1.5209999 35
11.392 3.1920002 -1.5299997 2
11.636 3.2250001 -1.5279998 33
11.691 3.2310002 -1.5259998 34
48.139 -11.694001 8.3369989 105
30.771999 -5.8509994 -4.8090005 2
39.488998 -5.1719995 -4.8010006 10
53.609001 -4.7549996 -4.8090005 50
48.804001 -9.8950014 8.3349991 97
49.575001 -8.2650013 8.3319988 98
27.809999 -2.1709995 -4.8049998 5
13.037 0.87099981 1.7670001 105
13.24 1.1799998 1.7660002 97
13.312 1.1899999 1.7670001 106
24.228001 -8.2969999 -1.5170007 32
13.588 2.1459997 1.7630002 108
9.4940004 2.2399998 1.7650002 74
10.08 2.2809997 1.7630002 1
10.006 2.2969997 1.7610003 33
10.044 2.2949998 1.7640003 22
23.892 -6.9559999 -1.5100006 45
23.964001 -6.947 -1.5170006 58
30.316 -4.46 -1.5110004 9
30.671 -3.7999997 -1.5120003 32
50.527 -12.721 -4.7980008 95
42.919998 -3.2050004 5.0509996 16
12.309 -0.30699989 -1.512 115
12.315 -0.13699986 -1.518 111
12.739 0.71300012 -1.5189999 115
12.536 0.82500011 -1.5159999 47
11.057 1.2350001 -1.5129999 107
11.136 1.6610001 -1.5179999 97
11.221 1.8580002 -1.5119998 62
8.6479998 2.0380003 -1.5189999 27
11.44 3.1800003 -1.5109998 32
11.674 3.2170002 -1.5139998 33
49.955002 -3.8129995 -4.7960005 90
48.779999 -5.9860001 1.7759995 24
28.660999 -2.7119994 -4.7989998 5
46.450001 -13.496 -1.5050012 39
44.035 -1.9340007 8.3459997 41
24.240999 -8.2910004 -1.5060008 30
9.4750004 2.2399998 1.7700002 74
49.501999 -7.3070006 5.0699997 73
47.266998 -5.9060006 5.0689993 32
31.063999 -2.5319998 -1.5040002 63
16.546 -1.7039999 -1.5080001 87
13.364 -0.79999989 -1.5020001 41
13.221 -0.60199988 -1.507 45
12.589 -0.42199987 -1.501 52
12.502 0.02100013 -1.501 130
12.589 0.13900013 -1.501 102
12.588 0.30800012 -1.506 95
12.722 0.49500012 -1.505 114
47.269001 -14.099001 8.3539991 78
11.116 1.5020001 -1.5049999 89
11.125 1.6430001 -1.5059999 96
11.649 3.2000003 -1.5019997 33
11.899 3.4100003 -1.5019996 3
48.124001 -11.744001 8.3519993 97
29.806 -4.8159995 -4.7810006 3
28.181999 -3.3769996 -4.7840004 4
27.833 -2.8859994 -4.7870007 5
50.91 -4.244 1.7869996 6
13.035 0.88499981 1.7880001 100
13.238 1.1899999 1.7870001 104
13.325 1.2079998 1.7880001 106
24.291 -8.2969999 -1.4980007 39
13.585 2.1599998 1.7800002 107
9.4610004 2.2459998 1.7840003 75
9.4820004 2.2459998 1.7800002 75
47.321999 -5.8840003 5.0729995 46
12.536 -0.59699988 -1.499 49
12.318 -0.13399987 -1.493 113
45.368999 -2.1170006 5.0749998 24
12.741 0.69800013 -1.4979999 118
12.57 0.8160001 -1.4979999 50
11.05 1.2180002 -1.4989998 102
47.289001 -14.089001 8.3699989 73
11.136 1.6270001 -1.4979999 99
11.174 1.8370001 -1.4909999 73
52.318001 -9.7679996 1.7949991 47
11.212 3.1340003 -1.4969997 7
11.635 3.1870003 -1.4919997 33
11.836 3.3800004 -1.4949998 2
11.825 3.4010003 -1.4929998 2
48.105 -11.793001 8.3669987 106
49.265999 -7.0689998 1.7979994 59
46.460999 -13.441 -1.4830012 51
50.771 -3.7650008 8.3690004 17
46.971001 -2.6190007 8.3629999 22
24.289 -8.2860003 -1.4870007 45
9.4689999 2.2519999 1.7940003 73
23.476999 -6.8639998 -1.4810005 24
35.577999 -4.506 -1.4860003 80
30.329 -4.4060001 -1.4880004 31
46.764999 -5.8980002 5.0849996 44
50.666 -12.371 -4.7680011 82
50.692001 -12.299 -4.763001 80
50.695 -4.2870007 5.0809994 5
16.566 -1.6829998 -1.4860001 85
13.207 -0.58999985 -1.482 50
12.317 -0.29999989 -1.489 115
12.601 0.30400011 -1.482 95
11.044 1.2010001 -1.4839998 99
11.114 1.4880002 -1.4889998 89
11.117 1.6060001 -1.4839998 104
9.0220003 1.8490001 -1.4829999 3
11.204 3.1230001 -1.4879998 23
11.816 3.1500003 -1.4819998 1
11.731 3.3130002 -1.4809997 2
11.763 3.3950002 -1.4849998 1
11.816 3.4440002 -1.4899997 2
11.844 3.5180001 -1.4889996 1
48.087002 -11.842001 8.3799992 102
48.763 -6.079 1.8019996 38
51.027 -3.6930003 1.8049996 18
13.024 0.89799982 1.8070002 99
13.332 1.2249999 1.8070002 105
24.232 -8.2550001 -1.4710007 47
13.598 2.1769998 1.8000002 111
9.4510002 2.2559998 1.8070003 73
9.4680004 2.2559998 1.8020003 76
23.438 -6.8829999 -1.4750006 32
31.062 -2.4719996 -1.4780003 19
50.729 -12.231 -4.756001 96
50.777 -12.163 -4.750001 44
13.331 -0.78299987 -1.4750001 47
12.529 -0.58999985 -1.474 51
12.596 -0.41799989 -1.477 51
12.507 0.017000129 -1.476 132
12.597 0.13700013 -1.476 97
12.711 0.48200011 -1.48 120
12.722 0.68300015 -1.4739999 117
12.609 0.8070001 -1.4799999 50
11.044 1.1860001 -1.4709998 87
47.293999 -14.073001 8.3829994 72
47.269001 -14.050001 8.3899994 72
11.112 1.4750001 -1.4729999 81
11.111 1.5880002 -1.4729999 89
11.173 1.8230001 -1.4769999 77
11.784 3.0980003 -1.4729998 1
11.8 3.1160002 -1.4769998 1
11.772 3.1230001 -1.4749998 1
11.775 3.1530004 -1.4779998 1
11.709 3.1630003 -1.4719998 1
11.784 3.1690001 -1.4799998 1
11.617 3.1720002 -1.4799998 33
11.697 3.3160002 -1.4769998 1
48.778 -9.9280014 8.3899994 97
27.76 -3.3489995 -4.7580004 5
50.129002 -5.9030008 8.3809986 107
46.499001 -13.393 -1.4620012 63
45.417999 -1.5220007 8.382 32
13.241 1.2009999 1.8100001 102
13.603 2.1919997 1.8190002 111
9.4530001 2.2599998 1.8160002 71
23.986 -7.3280001 -1.4680007 12
23.416 -6.9619999 -1.4620006 50
23.389999 -6.9260001 -1.4640006 50
23.400999 -6.901 -1.4680007 37
48.650002 1.1969993 8.3879995 58
30.346001 -4.3530002 -1.4660003 46
50.816002 -12.093 -4.7440009 48
16.596001 -1.6619998 -1.4650002 88
12.33 -0.29399988 -1.466 112
12.331 -0.13099986 -1.47 114
12.643 0.7980001 -1.4609998 49
11.074 1.1730001 -1.4609998 60
11.103 1.5690001 -1.4619999 103
11.176 1.8090001 -1.4629999 83
8.9840002 1.8160001 -1.4659998 1
52.301998 -9.8559999 1.8299992 48
11.745 3.0730002 -1.4669998 1
11.588 3.1540003 -1.4669998 33
48.056999 -11.887001 8.3919992 101
48.860001 -6.5039997 -4.7480006 53
30.226999 -5.7909994 -4.7460003 2
30.016001 -5.7809997 -4.7400002 2
39.474998 -5.1189995 -4.7420006 120
53.681 -4.6759996 -4.7460003 48
48.740002 -6.1690001 1.8269994 55
49.527 -8.2970009 8.3919992 95
44.049999 -2.5070007 8.3920002 5
13.029 0.91199982 1.8280001 91
13.338 1.2429999 1.8270001 105
46.373001 -0.80100071 8.3929996 46
24.112 -8.2030001 -1.4530007 36
9.4359999 2.2639997 1.8290002 75
9.448 2.2629998 1.8230002 75
23.636999 -7.1950002 -1.4520006 12
23.606001 -7.158 -1.4540006 12
23.385 -7.0089998 -1.4530005 42
23.403999 -6.987 -1.4580005 46
50.834999 -12.017 -4.7350011 40
26.816999 -1.2119999 -1.4550002 3
13.19 -0.57799989 -1.456 51
12.602 0.13500014 -1.451 99
12.591 0.29900011 -1.455 99
12.705 0.47000012 -1.457 114
12.721 0.6680001 -1.4529999 117
11.106 1.1600001 -1.4519999 63
47.271999 -14.033001 8.4019995 71
11.105 1.4610001 -1.4559999 91
11.718 2.9760003 -1.4529997 33
11.734 2.9950001 -1.4559997 33
11.738 3.0120003 -1.4589998 29
11.58 3.1420002 -1.4569998 33
48.047001 -11.937001 8.4059992 101
49.262001 -7.1560001 1.8389994 44
27.995001 -2.6679995 -4.737 5
27.132 -2.1449995 -4.7319999 3
50.948002 -4.3429999 1.8349997 7
46.491001 -13.332 -1.4400012 83
13.263 1.2139999 1.8360001 102
13.6 2.2059999 1.8360002 112
9.4469995 2.2709997 1.8390002 73
24.077 -7.5139999 -1.4460007 12
23.954 -7.4239998 -1.4480006 12
23.714001 -7.2979999 -1.4430006 46
23.729 -7.276 -1.4490006 24
23.451 -7.0840001 -1.4490006 33
23.388 -7.0380001 -1.4480006 50
48.106998 0.9849993 8.401 39
30.374001 -4.3000002 -1.4440004 68
47.298 -5.9530005 5.1249995 4
16.627001 -1.6419998 -1.4440001 36
13.302 -0.76599985 -1.4490001 53
12.51 -0.58099985 -1.447 51
12.58 -0.41299987 -1.449 50
12.325 -0.28799987 -1.441 116
12.324 -0.12699988 -1.444 112
12.498 0.013000127 -1.45 132
45.054001 -2.1410005 5.1209998 25
12.672 0.78800011 -1.4419999 49
11.137 1.1470001 -1.4419999 64
47.266998 -14.013 8.4119987 81
11.109 1.4480001 -1.4409999 89
11.096 1.5510001 -1.4499999 96
11.173 1.7950001 -1.4479998 84
11.679 2.9510002 -1.4459997 33
11.568 3.1280003 -1.4459997 33
11.447 3.2210002 -1.4449998 2
48.021 -11.982001 8.4169989 101
44.033001 -1.9620007 8.4189997 41
13.353 1.2609999 1.8470001 108
23.93 -8.1289997 -1.4300007 47
9.4399996 2.2729998 1.8450003 73
23.723 -7.3270001 -1.4390006 55
49.492001 -7.3700004 5.1349998 61
12.71 0.45900011 -1.434 114
12.717 0.65300012 -1.431 114
11.17 1.1340001 -1.4319999 68
47.272999 -13.996001 8.4239988 89
11.102 1.5340002 -1.4399999 101
11.172 1.7810001 -1.4339999 87
44.845001 -0.29100046 5.1360002 18
11.63 2.9080002 -1.4349997 33
11.643 2.9260004 -1.4389998 33
11.555 3.1140003 -1.4359998 33
48.006001 -12.028001 8.4299994 99
29.634001 -5.7379994 -4.7170005 2
49.995998 -3.7579994 -4.7160006 97
48.743 -6.2649999 1.8529994 32
27.188 -2.8519995 -4.7150006 3
13.041 0.92699981 1.8500001 99
13.258 1.2239999 1.8580002 94
13.614 2.2219996 1.8560002 109
9.4239998 2.2729998 1.8500003 73
9.4329996 2.2779999 1.8590002 73
23.591 -7.3369999 -1.4210006 12
30.385 -4.2459998 -1.4230003 87
46.098 -14.627 1.8639987 33
13.269 -0.74999988 -1.4230001 48
12.503 -0.57399988 -1.4220001 49
13.153 -0.56399989 -1.427 49
12.576 -0.40799987 -1.424 49
12.502 0.010000125 -1.426 132
12.595 0.13400012 -1.424 99
12.591 0.29400012 -1.4299999 101
43.601002 -2.0160005 5.1459999 40
12.709 0.77600014 -1.4219999 49
11.212 1.1220001 -1.4229999 65
47.272999 -13.977001 8.4339991 95
11.111 1.4350001 -1.4249998 91
11.085 1.5140002 -1.4269999 106
52.257999 -9.9359999 1.8649992 48
11.58 2.8640003 -1.4239998 32
11.594 2.8830001 -1.4279997 32
11.454 2.9540002 -1.4259998 32
11.387 2.9650002 -1.4209998 2
11.539 3.0990002 -1.4239998 24
27.198999 -3.3029995 -4.7050004 3
50.980999 -3.7740002 1.8669996 17
46.522999 -13.282 -1.4190012 90
13.362 1.2779999 1.8670001 104
23.983 -8.1219997 -1.4100007 50
23.910999 -8.1110001 -1.4170008 57
24.761999 -8.0190001 -1.4120007 42
9.4209995 2.2789998 1.8650002 73
23.92 -7.5619998 -1.4100007 41
23.698 -7.4450002 -1.4130006 12
23.568001 -7.3800001 -1.4100006 12
55.188999 -4.4450006 5.1509995 62
50.611 -4.3300004 5.1599994 63
12.319 -0.28199989 -1.415 106
12.331 -0.12399987 -1.42 113
12.733 0.6400001 -1.411 114
11.232 1.1080002 -1.4119998 65
46.721001 -1.3990005 5.158 66
47.286999 -13.961001 8.4469986 98
11.086 1.4970001 -1.4169999 106
11.16 1.7650001 -1.4179999 90
11.521 3.0840003 -1.4129997 20
47.986 -12.074001 8.4419994 93
48.903999 -6.4379997 -4.6900005 40
48.776001 -9.9650011 8.4469986 94
49.226002 -7.2379999 1.8779994 44
50.792 -4.4250002 1.8739996 10
13.052 0.94099981 1.8710002 88
45.327999 -1.5170007 8.4469995 24
11.747 1.3439999 1.8710002 32
24.263 -8.191 -1.4030007 55
24.127001 -8.1590004 -1.4070007 61
13.629 2.2389998 1.8760003 107
9.415 2.2799997 1.8710003 69
9.4130001 2.2829998 1.8780003 69
23.638 -7.4510002 -1.4030006 6
30.407 -4.1929998 -1.4010004 85
16.613001 -1.9609998 -1.4000001 36
26.771 -1.1739999 -1.4080001 29
13.138 -0.55199987 -1.401 48
12.508 0.0060001225 -1.401 132
12.591 0.28900012 -1.404 99
12.698 0.44700012 -1.409 119
12.749 0.76600009 -1.4029999 57
11.626 1.0790001 -1.4009999 58
11.279 1.0960001 -1.4029999 69
11.41 1.0920001 -1.4049999 64
11.565 1.0900002 -1.4089999 62
47.292999 -13.943001 8.4559994 96
11.098 1.4200001 -1.4069998 88
11.078 1.4790001 -1.4049999 100
11.155 1.7500001 -1.4029999 92
11.443 2.8140001 -1.4049997 14
11.173 3.0320003 -1.4049997 2
47.979 -12.121001 8.454999 98
44.229 0.80499953 5.1669998 24
29.673 -5.7279997 -4.6810007 2
39.473999 -5.0689993 -4.6840005 128
49.02 -6.395 1.8889995 26
49.497002 -8.3310013 8.4559994 89
30.957001 -2.0199995 -4.684 28
50.07 -5.9290009 8.4519987 100
46.530998 -13.224 -1.3970011 81
46.991001 -2.6280007 8.4510002 37
13.258 1.2349999 1.8800001 102
13.373 1.2959999 1.8870001 106
11.736 1.3569999 1.8840001 49
46.268002 -0.81700069 8.4560003 58
24.337 -8.2030001 -1.3960007 61
9.4069996 2.2839997 1.8840002 73
48.521999 1.2209992 8.4510002 50
53.014999 -18.59 1.8989984 87
46.916 -5.9710007 5.1709995 49
47.59 -4.2550006 5.1789994 18
43.460999 -4.1270003 5.1729994 5
51.481998 -11.423 -4.6780009 26
13.245 -0.73399991 -1.3970001 49
12.483 -0.56599987 -1.395 49
12.57 -0.40399989 -1.398 52
12.332 -0.27599987 -1.392 112
12.34 -0.12099988 -1.396 116
12.613 0.13200012 -1.4 109
11.101 1.4070001 -1.3919998 93
47.299999 -13.923001 8.4679995 94
11.084 1.4620001 -1.3939999 103
11.432 2.7490003 -1.3929998 16
11.429 2.7640002 -1.3959998 10
11.422 2.7780004 -1.3969997 8
11.377 2.7830002 -1.3949997 13
11.183 2.8980002 -1.3939998 30
11.414 3.0450003 -1.3909998 19
47.957001 -12.166001 8.4649992 88
53.703999 -4.5929995 -4.6790004 44
44.025002 -2.5120008 8.4639997 3
13.078 0.95699984 1.8950001 69
11.703 1.3679999 1.8930001 61
24.348 -8.1920004 -1.3850007 68
13.634 2.2539997 1.8950002 109
9.4069996 2.2899997 1.8990003 69
9.4230003 2.2909997 1.8950002 73
23.868 -7.6399999 -1.3850007 57
23.594999 -7.506 -1.3810008 50
23.639999 -7.4980001 -1.3880006 45
30.431999 -4.1399999 -1.3800004 71
47.554001 -11.382 -4.6650009 5
51.502998 -11.342 -4.6650009 26
12.605 0.28400013 -1.381 97
12.696 0.43500012 -1.386 114
12.713 0.62500012 -1.388 114
12.778 0.7560001 -1.3839998 77
11.664 1.0650002 -1.3899999 64
11.071 1.4430001 -1.3819999 111
47.292 -13.900001 8.473999 78
46.721001 -0.96200049 5.1820002 45
11.152 1.7350001 -1.3889999 92
11.46 2.6740003 -1.3809998 126
11.436 2.6850002 -1.3819997 109
11.449 2.7040002 -1.3859998 102
11.454 2.7220001 -1.3899997 74
11.434 2.7330003 -1.3899997 31
52.240002 -10.021 1.9009992 46
10.979 3.0780003 -1.3859998 4
47.936001 -12.210001 8.4749994 95
10.98 3.2410002 -1.3829998 2
46.564999 -13.172 -1.3780012 83
13.277 1.2459999 1.9050001 98
13.386 1.3139999 1.9070001 109
11.665 1.3779999 1.9000001 63
24.393999 -8.1929998 -1.3760008 79
9.4040003 2.2919998 1.9050002 71
23.660999 -7.5510001 -1.3780007 72
52.984001 -18.57 1.9179983 106
49.471001 -7.4300003 5.1999993 66
16.544001 -1.9269999 -1.3730001 63
51.553001 -11.268 -4.6550012 23
13.221 -0.71799988 -1.3720001 49
13.123 -0.5399999 -1.375 46
12.577 -0.39899987 -1.373 52
12.515 0.0030001204 -1.376 132
12.611 0.13000011 -1.374 102
11.698 1.0510001 -1.3779999 62
11.091 1.3920001 -1.3749999 93
11.079 1.4260001 -1.3719999 116
47.278 -13.872001 8.480999 82
47.280998 -13.851001 8.4889994 73
11.156 1.7210001 -1.3749999 90
44.613998 -0.29900044 5.198 24
10.924 2.9890003 -1.3749998 9
10.963 2.9870002 -1.3799998 7
10.91 2.9980001 -1.3739997 11
10.889 3.0040002 -1.3719997 10
11.349 3.0170002 -1.3739997 18
47.93 -12.257001 8.4869995 98
49.181 -7.3179998 1.9179994 59
27.23 -2.6129994 -4.6550002 4
50.603001 -4.5040002 1.9119996 15
11.658 1.3919998 1.9130001 65
24.413 -8.1850004 -1.3650007 85
13.636 2.2679996 1.9130002 111
9.3970003 2.2949998 1.9180002 69
9.4069996 2.2949998 1.9130002 75
23.782 -7.6799998 -1.3620007 40
23.612 -7.5809999 -1.3640007 55
48.111 0.98399931 8.4879999 37
30.465 -4.0879998 -1.3600004 47
26.844999 -1.1419998 -1.3690001 79
51.587002 -11.189 -4.6430011 21
12.471 -0.55799991 -1.37 48
12.339 -0.26999989 -1.368 111
12.336 -0.11799988 -1.37 108
45.042 -2.1780005 5.2020001 25
12.704 0.42400011 -1.364 111
12.706 0.61000013 -1.365 114
11.744 1.0390002 -1.3679999 63
47.293999 -13.832001 8.4989986 77
11.354 3.0070002 -1.3649998 13
44.549 0.42799956 5.2030001 23
10.849 3.0170002 -1.3679998 10
10.866 3.0100002 -1.3699998 10
10.825 3.0220003 -1.3659998 15
47.912998 -12.301001 8.4959993 101
49.338001 -6.5310001 1.9269994 41
50.862 -3.8490002 1.9269997 18
46.598 -13.12 -1.3570012 71
44.053001 -1.9890007 8.4949999 40
13.132 0.97499985 1.9230001 58
45.145 -1.5090007 8.4919996 19
13.282 1.2569999 1.9280001 100
13.378 1.3299999 1.9240001 105
11.629 1.4029999 1.9230001 58
9.3839998 2.2969997 1.9290003 69
9.3950005 2.2969997 1.9240003 67
23.916 -7.7670002 -1.3570007 28
23.573 -7.5910001 -1.3560007 49
52.963001 -18.552 1.9359983 103
16.547001 -1.9019998 -1.3530002 62
12.6 0.27900013 -1.354 104
12.775 0.74400014 -1.3599999 82
31.572001 -9.401 -4.6360011 47
31.417999 -9.3739996 -4.6360011 34
11.79 1.0260001 -1.3579999 67
11.094 1.3780001 -1.3589998 95
11.055 1.4050001 -1.3569999 105
47.293999 -13.809001 8.5049992 79
11.145 1.7050002 -1.3599999 92
52.202 -10.101 1.9359992 44
11.361 2.9979999 -1.3579998 8
11.377 2.9909999 -1.3509997 10
47.891998 -12.344001 8.5049992 102
48.789001 -10.005001 8.5079994 96
28.653 -4.6589994 -4.6380005 2
11.606 1.4139999 1.9330001 61
24.325001 -8.1409998 -1.3470007 143
24.334999 -8.0279999 -1.3420007 34
24.231001 -7.974 -1.3430008 29
13.645 2.2829998 1.9320003 115
9.3900003 2.3009999 1.9370003 75
23.719999 -7.724 -1.3400007 12
46.292999 -14.806 1.9459987 37
47.248001 -4.2690005 5.2209997 33
51.599998 -11.105 -4.6280007 30
13.182 -0.7019999 -1.3440001 45
12.464 -0.54999989 -1.344 48
13.094 -0.52799988 -1.348 46
12.549 -0.39399987 -1.344 52
12.345 -0.26399988 -1.344 109
12.337 -0.11499988 -1.344 110
12.502 1.1793333e-07 -1.349 128
12.609 0.12800013 -1.348 102
12.707 0.59600013 -1.344 120
11.829 1.0120001 -1.3459998 60
11.08 1.3620001 -1.3419999 95
11.059 1.3890002 -1.3469999 110
47.330002 -13.794001 8.5179987 78
11.154 1.6920002 -1.3459998 92
47.887001 -12.390001 8.5159988 96
11.385 2.9820001 -1.3419998 12
10.644 3.1129999 -1.3419998 2
10.7 3.1389999 -1.3489997 5
48.907001 -6.3669996 -4.6280003 39
29.153 -5.6699996 -4.6200004 2
39.500999 -5.0219994 -4.6290007 92
49.451 -8.3620014 8.5159988 85
26.434 -2.8039994 -4.6220007 3
50.374001 -4.5780001 1.9469997 23
30.945 -1.9889996 -4.6300001 102
46.640999 -13.071 -1.3370012 60
13.145 0.98999983 1.9450002 51
13.397 1.3489999 1.9450002 107
11.571 1.4249998 1.9400002 63
24.25 -8.1000004 -1.3310007 149
9.3769999 2.3019998 1.9480002 69
9.3830004 2.3009999 1.9420003 74
23.990999 -7.8740001 -1.3370007 21
23.879999 -7.8179998 -1.3370007 16
23.761 -7.7589998 -1.3360007 12
52.93 -18.530001 1.9549984 97
30.495001 -4.0359998 -1.3390003 30
16.548 -1.8759999 -1.3320001 63
43.370998 -4.1570005 5.2359996 15
51.618 -11.022 -4.6130009 25
12.694 0.41200012 -1.339 108
12.774 0.73100013 -1.3369999 79
31.603001 -9.3909998 -4.618001 52
11.878 0.99900013 -1.3359998 64
11.059 1.3710002 -1.3349999 105
47.341999 -13.773001 8.5269995 79
47.870998 -12.433001 8.5239992 96
11.384 2.971 -1.3329997 13
10.637 3.131 -1.3399998 15
10.645 3.152 -1.3399998 1
49.143002 -7.3990002 1.9569994 41
53.757 -4.5119996 -4.6140003 49
49.342999 -6.6269999 1.9519994 50
50.007 -5.9550009 8.5219994 97
13.282 1.2669998 1.9500002 98
11.56 1.4369999 1.9520001 66
11.512 1.4449999 1.9570001 83
46.198002 -0.83500075 8.5249996 61
24.266001 -8.0900002 -1.3210007 125
24.166 -7.9920001 -1.3260007 14
13.661 2.2999997 1.9520003 112
9.375 2.3029997 1.9540002 69
46.941002 -6.0290003 5.2439995 42
46.282001 -14.84 1.9689987 34
55.203999 -4.5020003 5.2469997 71
50.584 -4.3770003 5.2439995 96
46.742001 -4.2670007 5.2449994 26
26.841999 -1.1059998 -1.3250002 14
51.682999 -10.949 -4.6030011 24
12.575 -0.38999987 -1.322 54
12.508 -0.0029998843 -1.324 130
12.619 0.12600012 -1.323 99
12.602 0.27400011 -1.3279999 104
44.078999 -2.2050004 5.2490001 18
43.740002 -2.0400004 5.2470002 52
12.712 0.58200014 -1.323 111
31.643 -9.3830004 -4.6010008 49
11.897 0.9830001 -1.3219999 65
46.651001 -1.4070004 5.244 75
11.081 1.3480002 -1.3249999 95
11.049 1.3520001 -1.3229998 89
47.352001 -13.750001 8.5349989 84
11.132 1.6740001 -1.3289999 87
47.855999 -12.475001 8.532999 93
11.403 2.964 -1.3259997 29
10.573 3.177 -1.3259997 1
46.655998 -13.012 -1.3160012 58
13.169 1.0059999 1.9690001 44
13.417 1.3679999 1.9650002 108
24.336 -8.0970001 -1.3120008 118
24.288 -8.0889997 -1.3110007 39
24.157 -8.0270004 -1.3120008 21
9.3835001 2.3074999 1.9655004 71
48.506001 1.2489992 8.533 42
52.914001 -18.513 1.9739983 96
30.509001 -3.98 -1.3180003 9
16.548 -1.8499999 -1.3110001 79
47.244999 -11.245 -4.5930009 23
13.16 -0.68599987 -1.3190001 48
12.452 -0.54199988 -1.318 49
13.051 -0.51399988 -1.319 46
12.347 -0.25799987 -1.3200001 102
12.344 -0.11199989 -1.319 115
12.694 0.40100011 -1.316 108
12.792 0.72000015 -1.3159999 101
11.079 1.3380002 -1.3149999 63
46.588001 -0.9800005 5.2589998 45
47.362 -13.727001 8.5419989 83
11.127 1.6580001 -1.3139999 85
47.374001 -13.703001 8.5489988 88
52.187 -10.186 1.9729992 49
47.813999 -12.556001 8.5459986 93
47.848 -12.519001 8.5419989 77
11.409 2.951 -1.3189998 47
10.521 3.1700001 -1.3179997 1
10.518 3.1860001 -1.3149998 1
44.205002 0.8119995 5.2519999 26
28.145 -4.6049995 -4.5950003 4
49.307999 -6.7179999 1.9749994 50
45.013 -1.5030007 8.5489998 16
13.294 1.2779999 1.9740001 98
11.524 1.4609998 1.9720001 106
24.261 -8.0979996 -1.3030007 15
9.368 2.3059998 1.9720002 69
23.83 -7.9000001 -1.3010007 22
13.657 2.3129997 1.9700003 112
49.452 -7.4890003 5.2639995 83
26.573 -1.5289999 -1.3020002 4
51.702999 -10.865 -4.5880008 25
37.595001 -10.222 -4.5820007 5
12.602 0.26900011 -1.303 101
31.665001 -9.3690004 -4.5810008 54
11.94 0.97000015 -1.3099998 62
11.11 1.3240001 -1.3059999 63
11.085 1.3350002 -1.3099998 92
11.131 1.6440002 -1.3009999 89
47.384998 -13.679001 8.5569992 88
47.792999 -12.640001 8.5599995 89
47.806 -12.599001 8.5539989 96
11.409 2.9400001 -1.3089998 76
44.306999 0.44499955 5.2610002 24
10.448 3.1559999 -1.3079997 1
10.464 3.177 -1.3069998 1
10.449 3.181 -1.3039998 1
10.461 3.201 -1.3029997 2
39.570999 -4.9809995 -4.5800004 11
50.339001 -4.6700001 1.9899997 38
50.716999 -3.9210002 1.9859996 28
13.164 1.0199999 1.9880002 40
13.423 1.3849999 1.9840001 106
24.502001 -8.2320004 -1.2940007 13
24.26 -8.0559998 -1.2960007 53
9.3769999 2.3099997 1.9800003 75
9.3780003 2.3109999 1.9860002 69
13.67 2.3279998 1.9890002 110
52.888 -18.492001 1.9919983 85
30.528999 -3.925 -1.2970004 2
46.278 -14.876 1.9929987 36
16.569 -1.8269999 -1.2920002 89
13.109 -0.66899991 -1.291 41
51.706001 -10.78 -4.5710011 23
12.451 -0.53499991 -1.293 49
13.051 -0.5029999 -1.295 46
12.556 -0.38399988 -1.295 51
12.355 -0.25199988 -1.296 101
12.336 -0.10899989 -1.293 111
12.526 -0.0059998864 -1.3 130
12.612 0.12300012 -1.296 107
12.688 0.38900012 -1.2920001 108
12.703 0.56800014 -1.3 111
12.793 0.70700014 -1.2929999 99
11.98 0.9550001 -1.2979999 63
11.177 1.2970002 -1.2909999 66
11.142 1.3110001 -1.2979999 63
11.078 1.3200002 -1.2929999 94
47.387001 -13.653001 8.5609989 89
47.394001 -13.627001 8.565999 85
47.778 -12.679001 8.5669994 94
11.408 2.928 -1.2999997 96
48.160999 -9.7959995 1.9909992 34
28.702999 -5.6239996 -4.5700006 2
28.546 -5.5569997 -4.5790005 2
49.123001 -7.4819999 1.9979994 34
48.761002 -10.036001 8.5609989 102
49.297001 -6.8109999 1.9989994 31
25.993 -2.0809996 -4.5739999 2
30.931 -1.9579996 -4.5739999 149
46.310001 -12.853 -1.285001 87
47.132 -3.9800007 8.5679998 15
47.145 -2.6450007 8.5629997 36
44.030998 -2.0160007 8.5629997 41
13.295 1.2879999 1.9960002 96
11.55 1.4789999 1.9900001 108
24.172001 -8.1040001 -1.2840008 12
24.136999 -8.0749998 -1.2890007 12
13.641 2.2839997 1.9980003 110
9.3780003 2.3139997 1.9980003 75
9.3920002 2.3159997 1.9950002 71
26.507 -1.8669999 -1.2860001 6
51.493 -11.548 -4.5600009 30
26.858999 -1.0699999 -1.2820001 14
12.038 0.94300014 -1.2879999 67
11.213 1.2830001 -1.2829999 69
11.127 1.6290001 -1.2859999 96
47.431 -13.608001 8.5759993 89
47.431 -13.578001 8.5789995 84
52.150002 -10.264 2.006999 47
47.738998 -12.756001 8.5759993 94
47.773998 -12.722001 8.5739994 90
11.409 2.9030001 -1.2809998 104
11.405 2.915 -1.2899997 97
10.328 3.175 -1.2829998 21
10.367 3.1800001 -1.2889998 2
48.931999 -6.2969995 -4.5670004 63
49.386002 -8.3890009 8.5719986 88
47.583 -12.486 5.2929993 23
13.139 1.0319998 2.003 49
13.423 1.4019998 2.0010002 106
11.532 1.4899999 2.0000002 104
24.15 -8.0019999 -1.2790008 17
13.643 2.3029997 2.0090003 110
9.3770008 2.3149998 2.0065002 74
13.679 2.3429997 2.0080001 107
48.116001 0.98299921 8.5749998 41
52.865002 -18.469999 2.0109982 78
46.812 -6.0650005 5.2979994 46
46.273998 -14.911 2.0169988 37
16.586 -1.8019999 -1.2720001 88
51.763 -10.703 -4.559001 31
12.359 -0.2459999 -1.271 89
12.518 -0.0089998879 -1.274 127
12.61 0.26400012 -1.279 99
45.103001 -2.2190006 5.2909999 25
12.693 0.55300009 -1.277 105
31.663 -9.3479996 -4.558001 39
12.088 0.92900014 -1.2769998 70
11.621 1.2560002 -1.2779999 61
11.499 1.2610002 -1.2779999 61
11.258 1.2710001 -1.2759999 64
11.074 1.3050001 -1.2769998 102
11.118 1.6130002 -1.2709999 89
47.437 -13.550001 8.5829992 80
9.2709999 2.184 -1.2749997 29
47.713001 -12.833001 8.5849991 92
47.740002 -12.798001 8.5829992 92
10.248 3.158 -1.2709998 45
26.365 -2.5479996 -4.553 2
46.445999 -12.828 -1.267001 85
11.555 1.5069999 2.0170002 110
24.304001 -8.1990004 -1.2680007 13
24.236 -7.9970002 -1.2600007 37
24.099001 -7.9689999 -1.2640008 22
9.3780003 2.3169997 2.0160003 73
26.584 -1.4859998 -1.2670001 22
26.862 -0.86699986 -1.2690002 69
13.082 -0.65399987 -1.265 44
12.434 -0.5259999 -1.267 48
13.014 -0.49099988 -1.266 43
12.552 -0.37899989 -1.2690001 53
12.356 -0.10699989 -1.27 116
37.575001 -10.178 -4.5490007 37
12.61 0.12100011 -1.27 97
12.68 0.37800011 -1.267 110
12.775 0.69400012 -1.2679999 99
12.117 0.91400009 -1.2629999 64
11.665 1.2420001 -1.2699999 64
11.292 1.2560002 -1.2669998 69
47.466999 -13.528001 8.5909986 78
47.477001 -13.501001 8.5939989 82
47.477001 -13.469001 8.5959988 79
47.5 -13.444001 8.5999994 80
9.2849998 2.177 -1.2679998 84
44.799999 -0.31100047 5.309 31
47.691002 -12.950001 8.598999 90
47.700001 -12.911001 8.5959988 90
47.720001 -12.876001 8.5939989 88
48.154999 -9.8730001 2.0259991 66
10.205 3.1589999 -1.2619997 80
10.22 3.1559999 -1.2659998 71
28.431 -5.6119995 -4.5470004 3
53.778999 -4.4279995 -4.5460005 45
49.272999 -6.9029999 2.0219994 40
50.266998 -4.756 2.0299995 63
49.949001 -5.980001 8.5909986 90
46.723999 -12.842 -1.2550011 73
13.117 1.0449998 2.02 75
13.303 1.2989999 2.02 102
13.44 1.4199998 2.0210001 109
24.424999 -8.0410004 -1.2570007 32
23.830999 -8.0229998 -1.2510008 24
9.3809996 2.3179998 2.0220003 75
9.3900003 2.3209999 2.0290003 69
13.655 2.3239996 2.0220003 107
13.685 2.3569999 2.0270002 107
52.839001 -18.447001 2.0309982 93
20.940001 -3.756 -1.2510004 3
26.534 -1.8229998 -1.2560002 26
16.65 -1.7829999 -1.2560002 15
43.408001 -4.1990004 5.3129997 14
47.085999 -11.144 -4.5360007 104
12.593 0.25800011 -1.251 106
12.694 0.53900009 -1.255 108
31.679001 -9.3319998 -4.5360007 33
46.476002 -1.4110005 5.3169999 60
11.738 1.2120001 -1.2519999 61
11.693 1.2260001 -1.2599999 60
11.066 1.2900001 -1.2599999 92
11.111 1.5970001 -1.2559999 84
47.516998 -13.415001 8.6029987 82
47.526001 -13.385001 8.6049986 83
47.519001 -13.349001 8.6039991 81
47.526001 -13.317001 8.6049986 85
47.540001 -13.286001 8.6069994 88
9.2720003 2.1630001 -1.2579998 113
11.562 2.161 -1.2569997 78
47.574001 -13.187001 8.6079988 82
47.616001 -13.087001 8.6049986 88
47.639 -13.055001 8.6039991 88
47.660999 -13.021001 8.6049986 91
47.662998 -12.982001 8.6009989 89
10.19 3.168 -1.2569997 82
10.2 3.164 -1.2599998 84
10.187 3.1764998 -1.2539997 80
49.063 -7.5580001 2.0369992 29
45.535999 -15.976 -1.2470014 75
51.523998 -13.037 5.3249989 42
47.483002 -12.506 5.3239989 73
13.114 1.0589999 2.039 98
11.557 1.5219998 2.0300002 108
46.195999 -0.85300076 8.6049995 54
24.667 -8.401 -1.2490007 54
9.3730001 2.3169997 2.0310001 73
9.3800001 2.3189998 2.0380003 75
13.67 2.3459997 2.0350003 108
52.820999 -18.426001 2.0499983 91
49.445 -7.5500007 5.3299994 71
20.858 -3.7019999 -1.2400004 102
46.245998 -14.938 2.0409987 50
13.838 -0.80699986 -1.2490001 7
12.422 -0.51799989 -1.2410001 51
12.554 -0.37399989 -1.244 52
12.362 -0.24099989 -1.2460001 79
12.356 -0.10399989 -1.244 114
12.502 -0.011999891 -1.247 125
12.619 0.11900011 -1.245 95
12.684 0.36700013 -1.244 103
12.776 0.68100011 -1.245 97
12.15 0.89900011 -1.2489998 69
11.779 1.1980001 -1.2429999 63
11.062 1.2750001 -1.2439998 94
11.119 1.5820001 -1.2429999 93
47.573002 -13.259001 8.6109991 89
11.547 2.119 -1.2429998 70
11.607 2.1110001 -1.2429998 63
47.582001 -13.226001 8.6109991 87
11.554 2.1400001 -1.2499998 76
9.2690001 2.152 -1.2489997 114
47.604 -13.158001 8.6109991 87
47.639999 -13.131001 8.612999 94
52.132 -10.348 2.0449991 46
10.165 3.1789999 -1.2479998 80
10.145 3.1849999 -1.2409998 82
10.16 3.184 -1.2449998 80
27.931 -5.6339993 -4.5250006 2
28.194 -5.6059995 -4.5280004 4
27.997 -5.4789996 -4.5250006 3
48.754002 -10.071001 8.6169987 96
49.237 -6.9920001 2.0439992 38
50.608002 -3.9960003 2.0459998 42
46.741001 -12.782 -1.234001 68
44.959999 -1.4980007 8.6169996 15
13.315 1.3089999 2.043 96
13.456 1.4389999 2.0410001 109
11.573 1.5379999 2.0450003 105
23.858999 -8.0810003 -1.2310007 12
23.775999 -8.0369997 -1.2340007 12
24.273001 -7.973 -1.2380008 34
9.3859997 2.3209999 2.0450003 75
13.687 2.3679998 2.0490003 109
13.694 2.3709998 2.0460002 107
48.512001 1.2769992 8.618 36
20.857 -3.664 -1.2340003 102
26.364 -2.049 -1.2330003 2
50.595001 -4.4270005 5.3319993 64
26.587 -1.4429998 -1.2310001 53
51.509998 -11.478 -4.5170012 26
26.889999 -1.0349998 -1.2390001 14
13.038 -0.63799989 -1.237 42
12.998 -0.47899988 -1.24 44
37.584 -10.143 -4.519001 55
43.798 -2.0600004 5.3379998 50
12.684 0.5250001 -1.232 105
12.191 0.88400012 -1.2359998 62
31.673 -9.3079996 -4.512001 30
11.832 1.1840001 -1.2349999 63
46.460999 -0.9980005 5.336 49
11.574 2.086 -1.2339997 67
9.2539997 2.1389999 -1.2379998 110
48.132999 -9.9460001 2.059999 65
44.203999 0.46399951 5.335 33
10.135 3.188 -1.2379998 77
10.118 3.194 -1.2309997 80
10.126 3.191 -1.2339997 79
27.966999 -5.6009994 -4.5110006 3
45.548 -15.967 -1.2290014 82
47.354 -12.518 5.348999 79
13.457 1.4559997 2.0590003 103
11.579 1.5529997 2.0590003 104
23.982 -8.1529999 -1.2220007 36
23.974001 -8.1350002 -1.2290007 27
9.3809996 2.3199997 2.0540001 75
9.3850002 2.3209999 2.0500002 75
13.686 2.3869998 2.0590003 109
52.791 -18.400999 2.0669982 82
