# This PCD file was generated using the MATLAB® pcwrite function
# from Computer Vision System Toolbox®.
# .PCD v.7 - Point Cloud Data file format
VERSION .7
FIELDS x y z
SIZE 4 4 4
TYPE F F F
COUNT 1 1 1
WIDTH 475
HEIGHT 1
VIEWPOINT 0 0 0 1 0 0 0
POINTS 475
DATA ascii
-410.286163 -106.750107 46.636272
-410.265106 -106.504967 46.583893
-410.239716 -106.224106 46.582016
-409.859802 -105.981071 46.569939
-410.186890 -105.648376 46.612507
-410.170654 -105.446739 46.515236
-409.794830 -105.188950 46.537109
-410.146729 -105.181580 46.509800
-409.773560 -104.930626 46.526779
-410.112488 -104.832634 46.630726
-409.749054 -104.639664 46.569023
-410.093414 -104.609734 46.574276
-409.726227 -104.367104 46.589836
-410.066864 -104.326324 46.611660
-409.699188 -104.052368 46.680786
-410.036377 -104.012001 46.702633
-409.679138 -103.810165 46.666279
-410.015320 -103.775421 46.679760
-409.657532 -103.552826 46.679840
-409.990967 -103.513008 46.701775
-409.633392 -103.270576 46.738892
-409.963409 -103.225899 46.769360
-409.615936 -103.057358 46.690121
-409.946289 -103.023239 46.703583
-409.598969 -102.849327 46.634933
-409.923340 -102.774780 46.717182
-410.561340 -102.556519 46.798248
-409.575958 -102.581215 46.685547
-409.901703 -102.537483 46.716293
-410.536407 -102.320564 46.798878
-409.557465 -102.359291 46.661114
-409.878845 -102.291267 46.735374
-410.518768 -102.124359 46.732525
-409.537018 -102.118423 46.673927
-409.860352 -102.080185 46.696121
-410.488434 -101.861023 46.790405
-409.518982 -101.902565 46.645538
-409.838165 -101.840714 46.711628
-410.147247 -101.683861 46.742180
-410.464478 -101.632477 46.789890
-409.499512 -101.672981 46.645813
-409.819031 -101.625832 46.685722
-410.124054 -101.451035 46.752827
-410.439606 -101.400169 46.800652
-409.479156 -101.435005 46.666256
-409.798065 -101.397514 46.688576
-410.109772 -101.273979 46.659576
-410.420959 -101.200714 46.751900
-409.460632 -101.216415 46.653725
-409.778931 -101.183693 46.667202
-410.083618 -101.024384 46.710411
-410.396149 -100.969955 46.767414
-409.443054 -101.007370 46.625599
-409.759766 -100.970322 46.648014
-410.059723 -100.789703 46.737221
-410.374817 -100.757835 46.749653
-409.421417 -100.759102 46.680328
-409.733582 -100.704849 46.738655
-410.036591 -100.560608 46.757599
-410.347443 -100.516006 46.796925
-409.405121 -100.564354 46.629711
-409.717346 -100.514885 46.679234
-410.019257 -100.366653 46.708252
-410.332123 -100.335083 46.720627
-409.385345 -100.335594 46.653336
-409.698212 -100.303528 46.666821
-409.996185 -100.139221 46.733242
-410.303986 -100.091225 46.781792
-409.367706 -100.128792 46.633984
-409.679047 -100.092712 46.656555
-409.978760 -99.945702 46.687881
-410.286072 -99.898117 46.736572
-409.349243 -99.914230 46.634933
-409.657104 -99.862122 46.694023
-409.952942 -99.703964 46.753960
-410.255554 -99.644958 46.830101
-409.326202 -99.656418 46.738800
-409.631866 -99.608986 46.788895
-409.927917 -99.468033 46.813545
-410.237579 -99.452934 46.789078
-409.309448 -99.459900 46.707752
-409.617188 -99.432426 46.712048
-409.910492 -99.276207 46.774490
-410.216309 -99.245522 46.786663
-409.291870 -99.255852 46.697044
-409.598083 -99.224602 46.710533
-409.890320 -99.069290 46.774193
-410.195007 -99.038750 46.786335
-409.274261 -99.052284 46.688354
-409.578979 -99.017418 46.711105
-409.875488 -98.892563 46.701820
-410.176971 -98.847343 46.751038
-409.257812 -98.860245 46.653805
-409.559875 -98.810898 46.713760
-409.857941 -98.700775 46.668205
-410.155670 -98.641571 46.754723
-409.239807 -98.653854 46.658356
-409.544952 -98.633736 46.643906
-409.835083 -98.480782 46.711060
-410.137573 -98.450569 46.723156
-409.223297 -98.462234 46.627548
-409.525848 -98.427948 46.650421
-409.814880 -98.275948 46.718758
-410.113922 -98.235573 46.758896
-409.205292 -98.256943 46.636078
-409.504700 -98.209198 46.696518
-409.797272 -98.085312 46.690914
-410.098114 -98.055336 46.702972
-409.188751 -98.065796 46.608990
-409.489624 -98.031921 46.631935
-409.782166 -97.907928 46.627167
-410.077576 -97.855080 46.705162
-409.172150 -97.874756 46.583691
-409.472473 -97.841064 46.606674
-409.761932 -97.704361 46.640591
-410.055542 -97.649048 46.728203
-409.155518 -97.683838 46.560177
-409.455292 -97.650330 46.583199
-409.739258 -97.489105 46.693947
-410.041107 -97.475044 46.658554
-409.133423 -97.443367 46.690437
-409.430420 -97.410233 46.713463
-409.719086 -97.287460 46.711483
-410.013794 -97.248940 46.751938
-409.118164 -97.266151 46.632812
-409.413300 -97.221107 46.693977
-409.698975 -97.086655 46.731003
-409.992584 -97.048515 46.771500
-409.097931 -97.044350 46.720028
-409.394745 -97.023376 46.704906
-409.681244 -96.898178 46.714245
-409.977295 -96.871819 46.716591
-409.082611 -96.867416 46.665894
-409.377594 -96.834862 46.689018
-409.661163 -96.698746 46.737579
-409.956818 -96.675224 46.730289
-409.064423 -96.665062 46.699738
-409.360382 -96.646561 46.674877
-409.650452 -96.543495 46.609108
-409.940674 -96.495499 46.688259
-409.051697 -96.512184 46.562286
-409.346710 -96.479897 46.585487
-409.627991 -96.334023 46.674469
-409.922333 -96.307678 46.676708
-409.033478 -96.310455 46.599670
-409.329407 -96.291382 46.574646
-409.612457 -96.156593 46.626076
-409.903992 -96.120102 46.666901
-409.016724 -96.122429 46.590660
-409.309937 -96.090576 46.613907
-409.592346 -95.959122 46.656654
-409.885590 -95.932793 46.658821
-409.001068 -95.944427 46.544601
-409.294708 -95.915131 46.558197
-409.576721 -95.781563 46.611542
-409.867188 -95.745758 46.652470
-408.983154 -95.747208 46.577831
-409.275696 -95.718063 46.591419
-408.965302 -95.550957 46.612946
-409.256317 -95.519714 46.636265
-408.949524 -95.373184 46.571899
-408.775208 -93.423935 46.015472
-408.759796 -93.250359 45.913620
-409.058685 -93.234230 45.818146
-409.345978 -93.110512 45.845230
-409.648224 -93.092674 45.758080
-408.744843 -93.079498 45.773449
-409.042908 -93.053856 45.757412
-409.335938 -92.942101 45.666046
-409.637482 -92.918274 45.628567
-408.730225 -92.910332 45.594872
-409.030518 -92.884270 45.578842
-409.322174 -92.763435 45.567787
-409.624817 -92.739105 45.530319
-408.714722 -92.734642 45.457485
-409.016663 -92.708221 45.441456
-409.311584 -92.589859 45.391380
-409.616394 -92.564926 45.353966
-408.698975 -92.556740 45.321548
-409.003662 -92.533142 45.265667
-409.300659 -92.413376 45.216385
-409.605499 -92.384918 45.218864
-408.683380 -92.378799 45.157181
-408.989288 -92.352318 45.131187
-409.287842 -92.231377 45.082718
-409.594330 -92.202713 45.085258
-408.667236 -92.196869 45.014240
-408.975677 -92.171791 44.958321
-409.276733 -92.050034 44.900692
-409.582916 -92.018311 44.953178
-408.650696 -92.012024 44.882812
-408.960785 -91.986237 44.826881
-409.262970 -91.862747 44.780067
-409.575439 -91.835480 44.742859
-408.634338 -91.826866 44.713005
-408.945618 -91.798508 44.697021
-409.249756 -91.674263 44.641068
-409.561401 -91.644516 44.653809
-408.616516 -91.634323 44.664673
-408.928345 -91.605698 44.648689
-409.235535 -91.482834 44.523651
-409.549194 -91.453278 44.526474
-408.599640 -91.444519 44.498070
-408.914551 -91.416588 44.442131
-409.224304 -91.291435 44.317966
-409.540741 -91.261566 44.320900
-408.582428 -91.251892 44.333103
-408.898651 -91.222420 44.317162
-409.209900 -91.095444 44.193871
-409.529968 -91.065849 44.156921
-408.564911 -91.056450 44.169807
-408.882507 -91.026138 44.193878
-409.195221 -90.897339 44.071472
-409.515015 -90.867058 44.074547
-408.547333 -90.858337 43.968216
-408.868530 -90.827965 43.952332
-409.180328 -90.697151 43.950813
-409.501770 -90.666664 43.953957
-408.529175 -90.656967 43.808365
-408.851807 -90.626457 43.832508
-409.167786 -90.493866 43.751968
-409.492004 -90.463066 43.755219
-408.510468 -90.453552 43.700294
-408.835358 -90.422401 43.684467
-409.154877 -90.287132 43.554924
-409.481873 -90.256020 43.558289
-408.491913 -90.245956 43.494057
-408.819702 -90.214317 43.478271
-409.137878 -90.080559 43.479622
-409.469574 -90.046791 43.403156
-408.472687 -90.037605 43.379646
-408.802124 -90.005592 43.363884
-409.124329 -89.868004 43.286301
-409.455200 -89.836433 43.289825
-408.453308 -89.826027 43.237129
-408.784332 -89.794846 43.251373
-409.109222 -89.653946 43.134850
-409.442291 -89.622116 43.138466
-408.433624 -89.610939 43.076553
-408.766876 -89.580086 43.100811
-409.094086 -89.436630 42.975361
-409.430786 -89.402817 42.949158
-408.413666 -89.391266 42.887993
-408.750824 -89.355553 42.832428
-409.081390 -89.209999 42.718109
-409.423889 -89.172234 42.642231
-408.393219 -89.157608 42.541828
-408.735352 -89.120857 42.486359
-409.066345 -88.983948 42.532795
-409.409912 -88.948158 42.496933
-408.372437 -88.933601 42.407349
-408.716095 -88.899147 42.391827
-409.052979 -88.748001 42.269886
-409.398834 -88.714790 42.274040
-408.351318 -88.705467 42.255013
-408.697784 -88.667168 42.199688
-409.036102 -88.518234 42.128719
-409.385742 -88.481094 42.093170
-408.329773 -88.471786 42.074944
-408.678528 -88.436401 42.059521
-409.018921 -88.285873 41.989697
-409.369202 -88.252167 41.994041
-408.308075 -88.239868 41.946831
-408.659393 -88.198959 41.881729
-409.003326 -88.042305 41.773342
-409.356934 -88.008240 41.777828
-408.285828 -88.000084 41.771202
-408.639893 -87.958252 41.706200
-408.985474 -87.804123 41.638786
-409.339844 -87.774521 41.683064
-408.263458 -87.761787 41.637596
-408.619659 -87.719101 41.572701
-408.968201 -87.558395 41.466812
-409.326813 -87.523773 41.471508
-408.240021 -87.505745 41.387226
-408.600037 -87.462036 41.322456
-408.949707 -87.314819 41.336838
-409.309143 -87.285355 41.381241
-408.216949 -87.261391 41.258320
-408.578857 -87.222290 41.233292
-408.932526 -87.057358 41.130024
-409.295319 -87.027885 41.174522
-408.192902 -87.003029 41.052593
-408.557861 -86.970573 41.077118
-408.914917 -86.796051 40.925774
-409.281067 -86.766571 40.970360
-408.168732 -86.745415 40.879097
-408.536804 -86.706642 40.864113
-408.896149 -86.537308 40.763611
-409.266388 -86.501434 40.768806
-408.144348 -86.487732 40.727882
-408.515045 -86.448494 40.712975
-408.878418 -86.262001 40.525154
-409.251282 -86.232506 40.569916
-408.119110 -86.218636 40.529942
-408.493256 -86.170303 40.465851
-408.858826 -85.996384 40.368248
-409.234222 -85.968712 40.422913
-408.093414 -85.945786 40.334732
-408.470734 -85.905464 40.319984
-408.839539 -85.720291 40.174690
-409.219788 -85.683380 40.180317
-408.067291 -85.669212 40.142296
-408.447937 -85.628349 40.127636
-408.819794 -85.440491 39.983940
-409.201935 -85.412987 40.038731
-408.040771 -85.388931 39.952702
-408.424713 -85.347534 39.938126
-408.799103 -85.165100 39.835228
-409.186554 -85.119400 39.801971
-408.013794 -85.104988 39.765984
-408.401062 -85.063042 39.751495
-408.779083 -84.869873 39.611084
-409.170135 -84.825554 39.587837
-407.985809 -84.808899 39.543114
-408.376953 -84.766357 39.528725
-408.758087 -84.579102 39.429077
-409.151642 -84.540802 39.435280
-407.957336 -84.508530 39.323380
-408.352417 -84.474274 39.348087
-408.737122 -84.275627 39.211136
-409.134308 -84.239227 39.227234
-407.929718 -84.222237 39.184692
-408.327362 -84.169380 39.131565
-408.715668 -83.967911 38.996418
-409.116760 -83.931198 39.012657
-407.900330 -83.914055 38.971237
-408.301941 -83.869827 38.957138
-408.693726 -83.655983 38.784981
-409.097778 -83.628799 38.840126
-408.781189 -79.281822 37.393791
-408.754852 -78.998756 37.429501
-408.729736 -78.666336 37.347557
-407.821838 -78.562721 37.231850
-408.702942 -78.389496 37.407562
-407.342468 -78.299118 37.213539
-407.792755 -78.269531 37.256676
-407.310944 -77.993484 37.213783
-407.762909 -77.963997 37.256824
-407.278564 -77.678879 37.198822
-407.733765 -77.673653 37.296665
-407.245972 -77.363052 37.187122
-407.702545 -77.346039 37.257320
-407.212830 -77.041862 37.169617
-407.672455 -77.041908 37.275921
-407.182068 -76.749146 37.218781
-407.641266 -76.720009 37.261436
-407.150848 -76.451920 37.261803
-407.611542 -76.427261 37.313354
-407.118317 -76.141151 37.280876
-407.580719 -76.116669 37.332283
-408.488129 -75.898911 37.418198
-407.088043 -75.856567 37.356705
-407.551300 -75.832336 37.407951
-408.003845 -75.846870 37.850883
-408.459595 -75.838531 37.931087
-407.077118 -75.791389 37.861855
-407.535919 -75.790985 37.957272
-407.962311 -75.098328 37.033901
-408.433014 -75.079979 37.096672
-407.002106 -75.004822 36.976891
-407.474762 -74.966263 37.001404
-407.931732 -74.763031 37.030533
-408.404694 -74.721313 37.049088
-406.963562 -74.631325 36.904915
-407.441833 -74.630402 36.999855
-407.900208 -74.402580 36.986862
-408.376068 -74.365448 37.014275
-406.928558 -74.298569 36.916096
-407.407532 -74.274086 36.966862
-407.870239 -74.098503 37.052078
-408.347382 -74.061401 37.079475
-406.892914 -73.959915 36.922104
-407.374451 -73.940430 36.981445
-407.837891 -73.725220 36.998619
-408.318237 -73.687950 37.026066
-406.855286 -73.600334 36.897057
-407.338104 -73.556160 36.912823
-407.805054 -73.344742 36.940777
-408.289032 -73.347504 37.037449
-406.817383 -73.239067 36.876038
-407.303284 -73.199661 36.900467
-407.773499 -73.007782 36.964790
-408.259644 -73.011086 37.061115
-406.779205 -72.876137 36.859077
-407.268860 -72.851883 36.909256
-407.739502 -72.607986 36.889671
-408.229614 -72.627197 37.011383
-406.742188 -72.527115 36.871838
-407.231934 -72.466644 36.862045
-407.707886 -72.278854 36.938522
-408.199463 -72.256874 36.991631
-406.703979 -72.166481 36.871429
-407.197388 -72.121323 36.887299
-407.673859 -71.890816 36.897667
-408.168610 -71.852921 36.925293
-406.659210 -71.735321 36.765163
-407.159851 -71.732391 36.848698
-407.641449 -71.549118 36.937153
-408.138214 -71.505775 36.956360
-406.623932 -71.408760 36.832329
-407.123413 -71.363022 36.848259
-407.604889 -71.108498 36.829544
-408.107239 -71.130417 36.949364
-406.582458 -71.016365 36.802612
-407.085297 -70.970306 36.818573
-407.571991 -70.764076 36.877312
-408.075806 -70.742416 36.930008
-406.540161 -70.616455 36.769180
-407.046844 -70.575615 36.793495
-407.538696 -70.413414 36.920540
-408.044678 -70.386292 36.964821
-406.499634 -70.236923 36.773529
-407.010773 -70.218369 36.830864
-407.502991 -70.010956 36.893539
-408.012604 -69.989471 36.945992
-406.459930 -69.867317 36.798668
-406.972168 -69.826088 36.822945
-407.467255 -69.612244 36.879486
-407.980682 -69.613831 36.964546
-406.418915 -69.485100 36.811684
-406.934082 -69.443665 36.835938
-407.431213 -69.211739 36.870140
-407.947418 -69.184525 36.914253
-406.376007 -69.084076 36.804771
-406.894531 -69.042381 36.829018
-407.395966 -68.833023 36.897850
-407.914459 -68.782242 36.909576
-406.335022 -68.704895 36.834862
-406.856354 -68.663002 36.859077
-407.359070 -68.423401 36.889763
-407.881592 -68.396164 36.933731
-406.289368 -68.276917 36.805237
-406.814575 -68.234711 36.829449
-407.321320 -67.999954 36.870613
-407.847626 -67.972656 36.914532
-406.250153 -67.919144 36.876320
-406.777588 -67.876801 36.900501
-407.284149 -67.592781 36.880379
-407.813812 -67.565445 36.924225
-406.202148 -67.469414 36.832840
-406.733459 -67.420593 36.849121
-407.245453 -67.159424 36.863503
-407.779053 -67.132019 36.907299
-406.155518 -67.035721 36.818516
-406.692505 -67.011246 36.866234
-407.206451 -66.724037 36.851944
-407.744141 -66.702789 36.903488
-406.103790 -66.550156 36.747162
-406.646271 -66.531693 36.802521
-407.165833 -66.261505 36.814674
-407.708557 -66.259117 36.889404
-406.056427 -66.111992 36.743965
-406.601013 -66.068214 36.768150
-407.126129 -65.821976 36.814053
-407.672241 -65.800652 36.865395
-406.003296 -65.614639 36.677006
-406.554871 -65.595947 36.731934
-407.083435 -65.329163 36.757637
-407.634583 -65.307732 36.808907
-405.950897 -65.127144 36.631748
-406.507416 -65.108292 36.686459
-407.040649 -64.840012 36.715164
-407.597504 -64.844505 36.796700
-405.902466 -64.682495 36.645756
-406.462891 -64.663589 36.700233
-406.998138 -64.361336 36.694050
-407.559845 -64.372589 36.782791
-405.850586 -64.203339 36.627693
-406.414154 -64.164543 36.659412
-406.954529 -63.867107 36.664062
-405.791901 -63.655582 36.541176
-406.360962 -63.609665 36.565407
-405.742401 -63.204796 36.572956
-405.674957 -62.569992 36.412174