# This PCD file was generated using the MATLAB® pcwrite function
# from Computer Vision System Toolbox®.
# .PCD v.7 - Point Cloud Data file format
VERSION .7
FIELDS x y z
SIZE 4 4 4
TYPE F F F
COUNT 1 1 1
WIDTH 484
HEIGHT 1
VIEWPOINT 0 0 0 1 0 0 0
POINTS 484
DATA ascii
-105.853996 -43.643700 38.617599
-105.785004 -43.006302 38.663898
-106.662003 -42.825500 38.772400
-106.678001 -42.586899 38.625099
-106.207001 -42.305099 38.557598
-106.666000 -42.308701 38.567699
-105.735001 -42.149300 38.553398
-106.636002 -42.008099 38.565899
-105.708000 -41.850800 38.554600
-106.140999 -41.695599 38.585201
-106.605003 -41.708599 38.567001
-106.582001 -41.420898 38.544300
-105.669998 -41.281898 38.502998
-106.088997 -41.112301 38.571098
-106.542000 -41.112801 38.577999
-105.651001 -41.000000 38.476700
-106.057999 -40.816799 38.581799
-106.509003 -40.816601 38.587799
-105.177002 -40.707901 38.477699
-105.608002 -40.688099 38.534500
-106.037003 -40.535801 38.559200
-106.475998 -40.521500 38.600601
-105.151001 -40.418098 38.484699
-105.593002 -40.414501 38.495602
-106.037003 -40.281300 38.466702
-106.475998 -40.266399 38.507900
-105.128998 -40.135799 38.476200
-105.578003 -40.141102 38.459202
-106.000999 -39.984901 38.494598
-106.441002 -39.972698 38.526001
-105.098999 -39.844898 38.497799
-105.525002 -39.824100 38.553200
-105.991997 -39.720699 38.434101
-106.426003 -39.701698 38.483398
-105.095001 -39.588799 38.421101
-105.527000 -39.573700 38.457901
-105.946999 -39.417301 38.494900
-106.389999 -39.409901 38.507000
-105.064003 -39.299500 38.448101
-105.503998 -39.295700 38.447498
-105.926003 -39.141998 38.476200
-106.375999 -39.142601 38.460300
-105.041000 -39.022999 38.440800
-105.490997 -39.029900 38.402802
-105.888000 -38.850300 38.515099
-106.334000 -38.847099 38.507500
-105.011002 -38.738701 38.464001
-105.457001 -38.741699 38.434399
-105.894997 -38.606800 38.400002
-106.316002 -38.577900 38.474998
-104.998001 -38.474800 38.424599
-105.443001 -38.476601 38.394600
-105.858002 -38.319302 38.434898
-106.289001 -38.300900 38.472500
-104.986000 -38.213501 38.378300
-105.417999 -38.201000 38.394299
-105.843002 -38.053902 38.398399
-106.269997 -38.032299 38.444901
-104.957001 -37.934200 38.399799
-105.382004 -37.915901 38.433800
-105.823997 -37.786098 38.373402
-106.231003 -37.746601 38.484402
-104.915001 -37.643600 38.470699
-105.359001 -37.644600 38.429298
-105.777000 -37.494400 38.444099
-106.216003 -37.484001 38.443199
-104.916000 -37.398102 38.375301
-105.349998 -37.388199 38.371101
-105.747002 -37.218601 38.461498
-106.176003 -37.200401 38.487900
-104.889999 -37.126099 38.385399
-105.322998 -37.115299 38.380798
-105.731003 -36.957298 38.425301
-106.156998 -36.936199 38.460701
-104.875000 -36.866100 38.350899
-105.306999 -36.854301 38.345901
-105.723999 -36.702499 38.363201
-106.161003 -36.689301 38.361099
-104.841003 -36.588902 38.394299
-105.276001 -36.580601 38.369801
-105.702003 -36.436798 38.350300
-106.115997 -36.406200 38.422699
-104.832001 -36.335800 38.335999
-105.271004 -36.328300 38.301800
-105.674004 -36.167400 38.358501
-106.096001 -36.142601 38.402500
-104.804001 -36.066399 38.355801
-105.240997 -36.057800 38.321098
-105.653999 -35.904598 38.340900
-106.085999 -35.886799 38.347000
-104.793999 -35.813000 38.301998
-105.210999 -35.788200 38.342800
-106.054001 -35.616100 38.368999
-104.772003 -35.550201 38.297901
-105.200996 -35.533798 38.291000
-105.591003 -35.365700 38.388302
-106.031998 -35.353298 38.355701
-104.744003 -35.284401 38.315300
-105.158997 -35.258598 38.355499
-105.589996 -35.117500 38.301800
-106.009003 -35.090698 38.344700
-104.723000 -35.024399 38.306301
-105.148003 -35.004501 38.308201
-105.556999 -34.849499 38.331299
-105.986000 -34.828499 38.335999
-104.710999 -34.770802 38.261200
-105.136002 -34.750000 38.263000
-105.530998 -34.587002 38.334702
-105.962997 -34.566601 38.329498
-104.698997 -34.516899 38.218300
-105.112999 -34.489399 38.258202
-105.518997 -34.331902 38.292702
-105.949997 -34.310501 38.287399
-104.676003 -34.257198 38.216000
-105.089996 -34.229198 38.255600
-105.494003 -34.071301 38.291100
-105.917000 -34.045101 38.313999
-104.653000 -33.997799 38.216000
-105.075996 -33.974400 38.216999
-105.483002 -33.817200 38.243900
-105.889000 -33.783001 38.323898
-104.628998 -33.738899 38.218201
-105.052002 -33.714600 38.218899
-105.455002 -33.555801 38.256302
-105.862999 -33.522598 38.326599
-104.613998 -33.484798 38.183998
-105.037003 -33.459599 38.184700
-105.429001 -33.296101 38.261398
-105.850998 -33.267799 38.283699
-104.598999 -33.230499 38.152000
-105.021004 -33.204399 38.152599
-105.414001 -33.040699 38.230400
-105.820999 -33.006901 38.300400
-104.572998 -32.972198 38.160900
-104.995003 -32.945301 38.161098
-105.387001 -32.781601 38.239899
-105.806999 -32.751900 38.261902
-104.546997 -32.714401 38.171902
-104.969002 -32.686600 38.172001
-105.370003 -32.526100 38.213299
-105.788002 -32.494900 38.244701
-104.521004 -32.457100 38.185200
-104.952003 -32.431400 38.146400
-105.352997 -32.270401 38.188702
-105.759003 -32.235802 38.258499
-104.494003 -32.200401 38.200699
-104.924004 -32.173500 38.161701
-105.334999 -32.014599 38.166401
-105.740997 -31.979700 38.236099
-104.475998 -31.946501 38.179600
-104.905998 -31.918301 38.140499
-105.305000 -31.756500 38.184799
-105.723000 -31.723499 38.215900
-104.466003 -31.694599 38.121799
-104.897003 -31.665100 38.082699
-105.296997 -31.502600 38.128201
-105.703003 -31.467100 38.197899
-104.428001 -31.436800 38.182701
-104.848000 -31.404499 38.181999
-105.277000 -31.246401 38.112301
-105.683998 -31.210600 38.181999
-104.427002 -31.185600 38.090401
-104.857002 -31.153601 38.051102
-105.246002 -30.989000 38.137299
-105.654999 -30.953300 38.197201
-104.406998 -30.931000 38.077900
-104.817001 -30.895800 38.116100
-105.214996 -30.732401 38.164398
-105.632004 -30.696699 38.195301
-104.386002 -30.676399 38.067501
-104.795998 -30.640600 38.105701
-105.194000 -30.476700 38.155102
-105.610001 -30.440399 38.186001
-104.355003 -30.421400 38.098202
-104.775002 -30.385401 38.097500
-105.162003 -30.221001 38.186699
-105.580002 -30.184099 38.207699
-104.333000 -30.167000 38.092201
-104.742996 -30.130199 38.130299
-105.152000 -29.965200 38.133400
-105.568001 -29.927700 38.164200
-104.328003 -29.911900 38.010502
-104.738998 -29.874399 38.048801
-105.139000 -29.708799 38.091900
-105.542000 -29.671400 38.171101
-104.305000 -29.656900 38.008801
-104.716003 -29.618799 38.047100
-105.114998 -29.452700 38.091301
-105.542999 -29.412701 38.083801
-104.272003 -29.403000 38.048199
-104.692001 -29.363300 38.047501
-105.079002 -29.198400 38.141201
-105.518997 -29.155701 38.085300
-104.238998 -29.149900 38.089802
-104.657997 -29.109301 38.089001
-105.066002 -28.940701 38.096600
-105.480003 -28.900999 38.137199
-104.232002 -28.892200 38.016701
-104.662003 -28.848801 37.977402
-105.060997 -28.680799 38.025200
-105.478996 -28.639799 38.056499
-104.206001 -28.637501 38.023602
-104.626999 -28.594999 38.023201
-105.032997 -28.424900 38.042900
-105.449997 -28.383400 38.074200
-104.189003 -28.380501 37.993801
-104.620003 -28.334400 37.954800
-105.018997 -28.165300 38.004902
-105.440002 -28.122299 38.026798
-104.163002 -28.125700 38.005100
-104.593002 -28.078400 37.966099
-104.991997 -27.908800 38.017399
-105.399002 -27.868999 38.087299
-104.153000 -27.864700 37.940800
-104.574997 -27.819300 37.940899
-104.973999 -27.649000 37.993401
-105.392998 -27.605400 38.025101
-104.134003 -27.606100 37.917702
-104.546997 -27.563200 37.956600
-104.956001 -27.388800 37.971699
-105.376999 -27.343500 37.993999
-104.106003 -27.350800 37.935501
-104.528000 -27.303499 37.935799
-104.946999 -27.123899 37.913601
-105.376999 -27.074600 37.907501
-104.077003 -27.095699 37.955502
-104.499001 -27.047501 37.955898
-104.907997 -26.871300 37.973400
-105.336998 -26.821100 37.967201
-104.065002 -26.831800 37.900200
-104.500000 -26.776800 37.852600
-104.904999 -26.601500 37.890999
-105.328003 -26.553900 37.914101
-104.035004 -26.576500 37.924599
-104.458000 -26.526400 37.925400
-104.875999 -26.343100 37.907200
-105.296997 -26.296101 37.939899
-104.022003 -26.311100 37.873798
-104.435997 -26.265200 37.913502
-104.855003 -26.080700 37.896702
-105.274002 -26.034300 37.939098
-103.990997 -26.055700 37.902699
-104.422997 -25.997999 37.865398
-104.822998 -25.823700 37.926800
-105.251999 -25.770901 37.931099
-103.959000 -25.800699 37.933701
-104.390999 -25.741699 37.896599
-104.797997 -25.562401 37.930401
-105.232002 -25.505501 37.915798
-103.934998 -25.539700 37.928299
-104.367996 -25.479401 37.891499
-104.777000 -25.297701 37.917099
-105.196999 -25.249599 37.959999
-103.911003 -25.278400 37.925201
-104.334999 -25.223499 37.926998
-104.753998 -25.034201 37.915600
-105.176003 -24.983700 37.949299
-103.893997 -25.009899 37.885799
-104.319000 -24.953899 37.888100
-104.720001 -24.777599 37.954601
-105.152000 -24.719299 37.950401
-103.876999 -24.740299 37.848900
-104.303001 -24.683399 37.851501
-104.710999 -24.500700 37.890999
-105.144997 -24.441200 37.887299
-103.850998 -24.477501 37.852699
-104.277000 -24.419600 37.855598
-104.696999 -24.226200 37.848900
-105.132004 -24.165600 37.845699
-103.832001 -24.206400 37.820499
-104.260002 -24.147499 37.823799
-104.670998 -23.961000 37.856800
-105.094002 -23.909800 37.901199
-103.804001 -23.942801 37.828899
-104.232002 -23.882900 37.832600
-104.653000 -23.687000 37.828999
-105.079002 -23.632999 37.864399
-103.783997 -23.670300 37.801498
-104.205002 -23.618099 37.843700
-104.623001 -23.423201 37.851002
-105.052002 -23.366301 37.877201
-103.755997 -23.405899 37.814602
-104.194000 -23.335100 37.781101
-104.603996 -23.147900 37.828098
-105.031998 -23.092600 37.864101
-103.734001 -23.132099 37.792099
-104.172997 -23.059900 37.758999
-104.593002 -22.862200 37.769901
-105.025002 -22.803600 37.797100
-103.727997 -22.837999 37.695999
-104.152000 -22.783899 37.739399
-104.564003 -22.594900 37.789700
-105.012001 -22.518101 37.751598
-103.689003 -22.582001 37.754299
-104.122002 -22.517200 37.760101
-104.532997 -22.327499 37.811798
-104.973000 -22.259701 37.811600
-103.681999 -22.285000 37.663601
-104.107002 -22.229601 37.707802
-104.528999 -22.028200 37.723801
-104.963997 -21.967199 37.752399
-103.656998 -22.007401 37.651100
-104.093002 -21.940599 37.658100
-104.507004 -21.748699 37.713402
-104.940002 -21.689699 37.751801
-103.624001 -21.740101 37.678799
-104.068001 -21.661200 37.648701
-104.483002 -21.468500 37.705601
-104.917000 -21.408800 37.744499
-103.598999 -21.461500 37.671299
-104.035004 -21.392700 37.679199
-104.468002 -21.176100 37.663200
-104.896004 -21.124300 37.730400
-103.585999 -21.161699 37.600800
-104.024002 -21.091801 37.609402
-104.435997 -20.903200 37.688499
-104.878998 -20.833000 37.700500
-103.553001 -20.890100 37.626598
-104.000000 -20.807199 37.598400
-104.413002 -20.617901 37.679100
-104.863998 -20.537500 37.664101
-103.529999 -20.599899 37.598999
-103.971001 -20.528099 37.608601
-104.392998 -20.325600 37.653999
-104.831001 -20.263000 37.694801
-103.501999 -20.318199 37.601898
-103.950996 -20.232599 37.575001
-104.357002 -20.054899 37.695999
-104.820999 -19.955799 37.636299
-103.470001 -20.039101 37.616699
-103.922997 -19.948999 37.581200
-104.782997 -19.687000 37.690601
-103.447998 -19.743000 37.587898
-103.899002 -19.654800 37.562401
-104.764000 -19.387699 37.665100
-103.417000 -19.459400 37.598701
-103.862999 -19.380199 37.601398
-103.393997 -19.157900 37.566299
-103.842003 -19.077499 37.569698
-103.365997 -18.865801 37.564201
-103.801003 -18.809500 37.632198
-103.334000 -18.576599 37.574100
-103.775002 -18.512501 37.624298
-104.192001 -18.321899 37.727798
-104.650002 -18.231899 37.718102
-103.300003 -18.290600 37.595798
-103.757004 -18.195801 37.573898
-104.180000 -17.996700 37.661400
-104.627998 -17.928400 37.706699
-103.274002 -17.985100 37.574799
-103.726997 -17.900499 37.580898
-104.168999 -17.665701 37.589401
-104.619003 -17.596500 37.635601
-103.232002 -17.713600 37.638100
-103.693001 -17.612301 37.608700
-104.128998 -17.388100 37.646099
-104.580002 -17.318300 37.692699
-103.210999 -17.390600 37.586800
-103.663002 -17.311800 37.612301
-104.061996 -17.163300 37.821301
-104.519997 -17.076799 37.832401
-104.538002 -15.954000 37.428200
-103.121002 -16.077499 37.405899
-103.592003 -15.968900 37.381901
-104.041000 -15.728600 37.414001
-104.509003 -15.641700 37.438801
-103.569000 -15.636200 37.348499
-103.543999 -15.301900 37.318501
-103.460999 -14.299500 37.266499
-103.442001 -13.930900 37.198700
-103.397003 -13.632800 37.263599
-103.860001 -13.372300 37.296700
-104.347000 -13.268700 37.311501
-102.879997 -13.410400 37.269299
-103.364998 -13.295300 37.263000
-103.821999 -13.053200 37.332699
-104.309998 -12.948600 37.348499
-102.850998 -13.053200 37.237000
-103.331001 -12.956700 37.265900
-103.797997 -12.693200 37.304401
-104.278999 -12.612700 37.363400
-102.814003 -12.714500 37.242500
-103.290001 -12.637400 37.306198
-103.777000 -12.316200 37.254799
-104.254997 -12.250300 37.340099
-102.777000 -12.374800 37.251499
-103.267998 -12.255700 37.248699
-103.742996 -11.973500 37.267899
-104.231003 -11.886200 37.320599
-102.737999 -12.034100 37.264099
-103.231003 -11.913700 37.262501
-103.709999 -11.624500 37.276199
-104.205002 -11.520600 37.305099
-102.705002 -11.671200 37.246899
-103.207001 -11.528300 37.213200
-103.680000 -11.258400 37.263500
-104.176003 -11.158800 37.301701
-102.676003 -11.285400 37.200298
-103.167999 -11.183800 37.234501
-103.650002 -10.890800 37.254601
-104.150002 -10.784800 37.285900
-102.644997 -10.897500 37.158001
-103.136002 -10.811100 37.218201
-103.625000 -10.499800 37.217098
-104.129997 -10.387200 37.241600
-102.603996 -10.546200 37.177700
-103.107002 -10.420400 37.181400
-103.598999 -10.106800 37.183998
-104.105003 -9.998600 37.217999
-102.574997 -10.138100 37.119301
-103.077003 -10.027600 37.149101
-103.564003 -9.734450 37.187599
-104.068001 -9.642130 37.247101
-102.537003 -9.761570 37.114498
-103.040001 -9.655630 37.153599
-103.528999 -9.360760 37.195400
-104.042000 -9.244740 37.223900
-102.496002 -9.389310 37.122002
-103.008003 -9.259410 37.130001
-103.504997 -8.939560 37.143299
-104.026001 -8.810760 37.157501
-102.459000 -8.992650 37.101299
-102.973999 -8.861380 37.110802
-103.473999 -8.539420 37.127899
-104.000999 -8.397620 37.127800
-102.426003 -8.570770 37.053200
-102.945000 -8.438090 37.064400
-103.446999 -8.113870 37.085400
-103.971001 -7.994330 37.118500
-102.387001 -8.170350 37.041901
-102.912003 -8.018470 37.030800
-103.943001 -7.577380 37.098301
-102.345001 -7.774260 37.042999
-102.834000 -7.215650 37.033001
-103.865997 -6.799230 37.149399
-102.250999 -6.366400 36.810001
-103.546997 -0.846514 36.598701
-102.875999 0.054584 36.515301
-103.470001 0.187122 36.587101
-103.439003 0.764067 36.535801
-102.791000 1.151840 36.470699
-103.401001 1.315330 36.519299
-102.740997 1.675300 36.486198
-103.365997 1.897970 36.482800
-101.491997 1.582020 36.420399
-102.098999 1.744680 36.472000
-102.689003 2.200640 36.508400
-103.313004 2.395910 36.534500
-101.432999 2.127180 36.421001
-102.050003 2.327750 36.441002
-102.651001 2.830570 36.443401
-103.275002 2.990770 36.505798
-101.375000 2.711180 36.394901
-101.998001 2.913540 36.417599
-102.591003 3.330670 36.506302
-103.227997 3.551330 36.517899
-101.308998 3.231210 36.436501
-101.941002 3.472300 36.428398
-102.540001 3.913970 36.502998
-103.183998 4.143870 36.511101
-101.258003 3.916860 36.339298
-101.891998 4.122800 36.367500
-102.500000 4.589830 36.429298
-103.138000 4.738870 36.512001
-101.191002 4.486160 36.356201
-101.833000 4.708880 36.374001
-102.431000 5.072440 36.532398
-103.077003 5.252820 36.591202
-101.112999 4.959020 36.464901
-101.769997 5.282010 36.401100
-102.402000 5.876040 36.373199
-103.047997 5.989350 36.492699
-101.063004 5.737520 36.322399
-101.713997 5.941120 36.365398
-103.013000 6.714670 36.417000
-100.998001 6.397900 36.292702
-101.662003 6.664860 36.287899
-102.974998 7.443830 36.351299
-100.935997 7.123110 36.221500
-101.599998 7.322610 36.276901
-102.244003 7.888790 36.304501
-100.864998 7.789670 36.210201
-100.772003 8.207810 36.405300
-101.206001 11.693100 36.129101