# .PCD v0.7 - Point Cloud Data file format
VERSION 0.7
FIELDS x y z normal_x normal_y normal_z curvature
SIZE 4 4 4 4 4 4 4
TYPE F F F F F F F
COUNT 1 1 1 1 1 1 1
WIDTH 543
HEIGHT 1
VIEWPOINT 0 0 0 1 0 0 0
POINTS 543
DATA ascii
-105.854 -43.6437 38.617599 nan nan nan nan
-105.843 -43.361198 38.560398 0.99060524 -0.10722443 -0.08487796 0.00096310873
-105.785 -43.006302 38.663898 0.96847117 -0.082113817 -0.23520419 0
-106.662 -42.8255 38.7724 nan nan nan nan
-105.811 -42.784698 38.480301 0.97192156 -0.076718576 -0.22244717 0
-106.678 -42.586899 38.625099 0 -0.37093106 -0.92866045 0.010118731
-105.775 -42.468102 38.510799 -0.058244273 0.11703121 -0.99141884 0
-106.207 -42.305099 38.557598 -0.043997958 0.14096598 -0.98903632 0.00060718146
-106.666 -42.308701 38.567699 -0.053867996 -0.095772296 -0.99394464 0.0024296574
-105.292 -42.159801 38.5117 nan nan nan nan
-105.735 -42.1493 38.553398 -0.065078937 0.083376974 -0.99439085 0
-106.636 -42.008099 38.565899 -0.20924146 0.019841863 -0.97766262 0
-105.708 -41.8508 38.5546 -0.19727391 -0.1457932 -0.9694469 0.0056713345
-106.141 -41.695599 38.585201 -0.081150547 -0.34715578 -0.93428981 0.0034589507
-106.605 -41.708599 38.567001 0.038112294 -0.035654768 -0.99863714 0.00021207333
-105.255 -41.5867 38.4645 0.0035172219 -0.069233686 -0.99759436 0
-105.709 -41.5933 38.4603 -0.12969203 -0.079958856 -0.98832512 0.0064031337
-106.582 -41.420898 38.5443 0.82593262 -0.091294803 0.55632764 0
-105.235 -41.301102 38.445 -0.13600256 -0.055866621 -0.98913199 0.00058812374
-105.67 -41.281898 38.502998 -0.13146074 0.060424238 -0.98947805 0.00052690506
-106.089 -41.112301 38.571098 -0.10863186 0.061722621 -0.99216402 0.0038968695
-106.542 -41.112801 38.577999 -0.011739062 0.073820353 -0.99720246 0.0014202779
-105.215 -41.015999 38.4282 -0.046428286 0.061623868 -0.99701893 0.0017295454
-105.651 -41 38.4767 -0.15921165 0.069949575 -0.98476332 0.0014859616
-106.058 -40.816799 38.581799 -0.097959228 0.035469137 -0.99455816 0.0034085847
-106.509 -40.816601 38.587799 -0.0048112161 0.039558891 -0.99920565 0
-105.177 -40.707901 38.477699 -0.14596376 0.11366826 -0.98273814 0
-105.608 -40.688099 38.5345 -0.11158404 0.031396791 -0.99325889 0.0040557953
-106.037 -40.535801 38.5592 -0.086924873 -0.19198643 -0.97754037 0.0042732367
-106.476 -40.5215 38.600601 -0.0039905347 -0.13497075 -0.99084151 0.0050980151
-105.151 -40.418098 38.484699 -0.032212082 0.0023077312 -0.99947834 0
-105.593 -40.414501 38.495602 -0.037187971 -0.17470826 -0.98391771 0.0010186664
-106.037 -40.2813 38.466702 -0.036213662 -0.11266249 -0.99297315 0.0045607989
-106.476 -40.266399 38.5079 -0.19512072 -0.11195277 -0.97436875 0.0043648449
-105.129 -40.135799 38.4762 0.048849378 0.012568452 -0.99872708 0.0032355199
-105.578 -40.141102 38.459202 6.7639034e-05 0.098199621 -0.99516672 0.0047095185
-106.001 -39.984901 38.494598 -0.085213631 -0.060008522 -0.99455398 0.0038847076
-106.441 -39.972698 38.526001 -0.017380685 -0.041407913 -0.99899113 0.00051106513
-105.099 -39.844898 38.497799 -0.20404565 -0.08029642 -0.97566277 0.0070751025
-105.525 -39.8241 38.5532 0.081024878 -0.0017035046 -0.9967106 0.010298053
-105.992 -39.720699 38.434101 0.035974879 -0.066471644 -0.99713957 0.010442001
-106.426 -39.701698 38.483398 -0.16734992 -0.020207569 -0.98569041 0.0033325001
-105.095 -39.588799 38.421101 0.0045950268 -0.086228631 -0.99626476 0.0060970513
-105.527 -39.5737 38.457901 -0.02911886 -0.094551213 -0.99509406 0.012887335
-105.947 -39.417301 38.4949 -0.054638386 0.055350512 -0.99697089 0.0019119589
-106.39 -39.409901 38.507 0.028707564 -0.040380381 -0.99877197 0.0035590176
-105.064 -39.2995 38.448101 -0.02348589 0.038548134 -0.99898076 0.0022334491
-105.504 -39.2957 38.447498 -0.059200302 -0.092006102 -0.9939971 0.0024106593
-105.926 -39.141998 38.4762 -0.061123237 0.013403912 -0.99804026 0.0068876906
-106.376 -39.142601 38.4603 -0.032846708 0.0059354939 -0.99944276 0.0041581979
-105.041 -39.022999 38.4408 0.11889484 0.01748395 -0.99275291 0
-105.491 -39.0299 38.402802 -0.078113966 0.022692742 -0.99668616 0.0054799328
-105.888 -38.8503 38.515099 -0.10167728 -0.067948431 -0.99249423 0.0082657374
-106.334 -38.847099 38.5075 0.059172466 0.02064915 -0.99803424 0.007022779
-105.011 -38.738701 38.464001 0.0092493286 -0.033238959 -0.99940461 0.0026811576
-105.457 -38.741699 38.434399 -0.0068326606 -0.088011749 -0.99609601 0.013732572
-105.895 -38.6068 38.400002 -0.070798725 -0.14148143 -0.98740602 0.0067813704
-106.316 -38.5779 38.474998 -0.20037915 -0.039548516 -0.97891992 0
-104.998 -38.4748 38.424599 0.059231069 -0.16684391 -0.98420262 0.0017649325
-105.443 -38.476601 38.3946 0.0057595437 -0.027642412 -0.99960124 0.0017780124
-105.858 -38.319302 38.434898 -0.0877055 0.012689571 -0.99606562 0.0023206547
-106.289 -38.3009 38.4725 -0.065378256 -0.046323646 -0.99678469 0.0016436743
-104.986 -38.213501 38.3783 -0.024463814 -0.0012911337 -0.99969983 0.005517114
-105.418 -38.201 38.394299 -0.039922055 0.035586171 -0.99856889 0.0024123983
-105.843 -38.053902 38.398399 -0.02245597 -0.053144898 -0.99833423 0.0040534954
-106.27 -38.032299 38.444901 -0.15816219 0.039298892 -0.9866308 0.0025548651
-104.957 -37.9342 38.399799 -0.0050180112 0.12104303 -0.99263459 0.0060819155
-105.382 -37.915901 38.4338 0.012102262 0.051551618 -0.99859697 0.0044162064
-105.824 -37.786098 38.373402 -0.026948156 0.054164637 -0.99816829 0.0085561369
-106.231 -37.746601 38.484402 -0.19632298 0.021323355 -0.9803074 0.005944238
-104.915 -37.6436 38.470699 -0.020295633 -0.027262531 -0.99942225 0.014677887
-105.359 -37.6446 38.429298 0.032809388 0.006984436 -0.99943715 0.0076171104
-105.777 -37.4944 38.444099 -0.051077884 0.10672093 -0.99297613 0.0039035219
-106.216 -37.484001 38.443199 -0.12021795 0.080819018 -0.98945236 0.0095372424
-104.916 -37.398102 38.375301 0.057685897 -0.11706096 -0.99144804 0.0075090569
-105.35 -37.388199 38.371101 -0.10124026 -0.048072681 -0.99369985 0.00040514377
-105.747 -37.218601 38.461498 -0.13144907 -0.042829763 -0.99039733 0.0027272461
-106.176 -37.200401 38.4879 -0.012681538 0.039257865 -0.99914861 0.00043782592
-104.89 -37.126099 38.385399 -0.0050153621 -0.062105116 -0.99805701 0
-105.323 -37.115299 38.380798 -0.085078858 -0.059644345 -0.99458742 0.0059122196
-105.731 -36.957298 38.425301 -0.12708192 -0.17154169 -0.97694612 0.0018717565
-106.157 -36.936199 38.460701 -0.05560191 -0.21689998 -0.97460908 0.0017349692
-104.875 -36.8661 38.350899 0.053002071 0.023362109 -0.99832106 0.0030325293
-105.307 -36.854301 38.345901 -0.041095976 -0.070470229 -0.99666697 0.002692061
-105.724 -36.702499 38.363201 -0.051437572 -0.033594828 -0.99811107 0.0052406602
-106.161 -36.689301 38.361099 -0.11993814 -0.054512408 -0.99128366 0.017823257
-104.841 -36.588902 38.394299 -0.013225906 -0.023717981 -0.99963117 0.0048533515
-105.276 -36.580601 38.369801 0.0090252282 -0.045698818 -0.99891454 0.0045663421
-105.702 -36.436798 38.3503 -0.096440323 -0.031296846 -0.99484658 0.0018040901
-106.116 -36.4062 38.422699 -0.080395006 0.055942792 -0.99519193 0.005599441
-104.832 -36.3358 38.335999 0.11624269 -0.038835283 -0.99246132 0
-105.271 -36.3283 38.3018 -0.032341424 -0.069902956 -0.99702936 0.0043976451
-105.674 -36.1674 38.358501 -0.076812424 -0.026824165 -0.99668473 0.00147809
-106.096 -36.142601 38.4025 -0.12928516 -0.097843215 -0.98676848 0.0040596407
-104.804 -36.066399 38.355801 -0.014541216 -0.03193938 -0.99938405 0.0053770663
-105.241 -36.0578 38.321098 0.003462435 0.036039956 -0.99934429 0.0014517704
-105.654 -35.904598 38.3409 -0.026031978 0.02494096 -0.99934995 0.00075890298
-106.086 -35.886799 38.347 -0.077032499 -0.05316465 -0.99561012 0.0044423775
-104.794 -35.813 38.301998 -0.036094524 -0.11938958 -0.99219114 0
-105.211 -35.7882 38.3428 -0.015501052 -0.095561333 -0.9953028 0.0025784189
-106.054 -35.6161 38.368999 -0.028080581 0.018704522 -0.99943072 0
-104.772 -35.550201 38.297901 -0.010273108 0.071904749 -0.99735856 0.0045110886
-105.201 -35.533798 38.291 -0.086853817 0.034504198 -0.99562329 0.0033696159
-105.591 -35.3657 38.388302 -0.033293046 0.011659003 -0.99937761 0.0081509901
-106.032 -35.353298 38.355701 0.076194383 -0.049444079 -0.9958663 0.00115744
-104.744 -35.284401 38.3153 -0.073638573 -0.019674497 -0.99709094 0.0051438678
-105.159 -35.258598 38.355499 -0.045137469 -0.0089837844 -0.99894047 0.0058568683
-105.59 -35.1175 38.3018 -0.029368164 -0.10352531 -0.99419314 0.0029463882
-106.009 -35.090698 38.3447 -0.11242425 -0.031019527 -0.99317598 0.00011512637
-104.723 -35.024399 38.306301 -0.037751667 -0.13747394 -0.98978573 0.0022436483
-105.148 -35.004501 38.308201 -0.032436032 -0.11169975 -0.99321252 0.0028450163
-105.557 -34.849499 38.331299 -0.049040206 0.015824987 -0.99867135 0.001588532
-105.986 -34.828499 38.335999 -0.047352113 0.0013561998 -0.99887735 0.0018428874
-104.711 -34.770802 38.2612 -0.047651354 -0.13071281 -0.99027449 0.0025976349
-105.136 -34.75 38.263 -0.085593924 -0.10771035 -0.99049085 0.0012662775
-105.531 -34.587002 38.334702 -0.087619454 -0.048475593 -0.99497384 0.00029745602
-105.963 -34.566601 38.329498 0.01982451 -0.068505675 -0.99745369 0.0001089198
-104.699 -34.516899 38.2183 -0.060398977 -0.042604264 -0.99726468 0.0013480035
-105.113 -34.489399 38.258202 -0.10246472 -0.05380002 -0.99328071 0.0028994814
-105.519 -34.331902 38.292702 -0.057923935 -0.043148074 -0.99738812 0.0014129734
-105.95 -34.310501 38.287399 -0.036339764 -0.020892998 -0.99912107 0.00092875992
-104.676 -34.257198 38.216 -0.071690507 -0.037404388 -0.99672532 0.00082928065
-105.09 -34.229198 38.2556 -0.094772868 -0.028433163 -0.99509281 0.0016908715
-105.494 -34.071301 38.2911 -0.11824843 -0.070578665 -0.99047261 0.00082293636
-105.917 -34.045101 38.313999 -0.083573557 -0.0044693267 -0.99649155 0.0043286863
-104.653 -33.997799 38.216 -0.033580001 -0.029496031 -0.99900067 0.00037814199
-105.076 -33.9744 38.216999 -0.074974194 -0.070364073 -0.9946999 3.5858153e-05
-105.483 -33.8172 38.2439 -0.1281209 -0.0092416191 -0.99171549 0.0015241298
-105.889 -33.783001 38.323898 -0.14202237 -0.0092855468 -0.98981994 0.0051753172
-104.629 -33.738899 38.218201 -0.025960064 -0.08177118 -0.99631298 0.0032200073
-105.052 -33.7146 38.218899 -0.050261382 -0.047044624 -0.99762744 0.0019261673
-105.455 -33.555801 38.256302 -0.13889393 -0.025470711 -0.98997968 0.0017419403
-105.863 -33.522598 38.326599 -0.1425911 -0.012776895 -0.98969918 0.004229459
-104.614 -33.484798 38.183998 -0.020699752 -0.12913434 -0.99141103 0.0011293552
-105.037 -33.459599 38.1847 -0.084938645 -0.106953 -0.99062937 0.0017528768
-105.429 -33.296101 38.261398 -0.1622058 -0.045407943 -0.98571163 0.0021576635
-105.851 -33.267799 38.283699 -0.14648856 -0.04000143 -0.98840326 0.0023193606
-104.599 -33.230499 38.152 -0.0098670945 -0.046969555 -0.9988476 0.0015883766
-105.021 -33.204399 38.152599 -0.1170875 -0.091884248 -0.98886192 0.0050874851
-105.414 -33.040699 38.2304 -0.14248338 -0.016150273 -0.98966539 0.0014869738
-105.821 -33.006901 38.3004 -0.084865704 -0.035562772 -0.99575758 0
-104.573 -32.972198 38.1609 0.0051286323 0.03876761 -0.99923503 0
-104.995 -32.945301 38.161098 -0.085945345 0.036439653 -0.99563318 0.00085511117
-105.387 -32.781601 38.239899 -0.12689215 -0.049940933 -0.99065852 0.0033348773
-105.807 -32.7519 38.261902 -0.095951766 -0.063115492 -0.99338293 0
-104.547 -32.714401 38.171902 0.026389966 0.0081273587 -0.99961871 0.0042254883
-104.969 -32.6866 38.172001 -0.081874557 -0.04164727 -0.99577212 0.0023476861
-105.37 -32.5261 38.213299 -0.11697222 -0.049518041 -0.99189997 0.00076276407
-105.788 -32.4949 38.244701 -0.10413691 -0.04613607 -0.99349231 0.0020154705
-104.521 -32.4571 38.1852 0.088491082 0.05065304 -0.99478829 0.0019773112
-104.952 -32.4314 38.1464 -0.037466917 -0.039239574 -0.99852717 0.0026559685
-105.353 -32.270401 38.188702 -0.11583346 -0.035402704 -0.99263752 0.0028391345
-105.759 -32.235802 38.258499 -0.13831335 -0.039144684 -0.98961461 0
-104.494 -32.200401 38.200699 0.05793817 -0.023723457 -0.99803823 0.0034937176
-104.924 -32.1735 38.161701 0.01428732 -0.027677288 -0.99951482 0.0022863462
-105.335 -32.014599 38.166401 -0.10736048 -0.032387946 -0.99369246 0.00095473637
-105.741 -31.9797 38.236099 -0.14372291 -0.032024406 -0.98909968 0.00048478477
-104.476 -31.946501 38.1796 0.052155364 -0.1532905 -0.98680383 0.0014279973
-104.906 -31.918301 38.140499 -0.014017474 -0.10490673 -0.99438328 0.0045685004
-105.305 -31.7565 38.184799 -0.13889955 -0.083156481 -0.98680896 0.0011601712
-105.723 -31.723499 38.2159 -0.14515534 -0.064983673 -0.98727256 0.0029835908
-104.466 -31.694599 38.121799 0.079467773 0.039904419 -0.99603838 0.0067323865
-104.897 -31.6651 38.082699 -0.040013008 0.026229395 -0.99885488 0.0093741631
-105.297 -31.5026 38.128201 -0.080312334 -0.038600847 -0.99602205 0.0062948819
-105.703 -31.4671 38.197899 -0.14756034 -0.091200396 -0.98483926 0
-104.428 -31.4368 38.182701 -0.12075452 -0.049896047 -0.99142766 0.018014448
-104.848 -31.404499 38.181999 0.017126875 -0.059056874 -0.99810767 0.011136984
-105.277 -31.246401 38.112301 -0.094590262 -0.037755836 -0.99480009 0.0079367505
-105.684 -31.2106 38.181999 -0.1524715 0.026739635 -0.98794609 0
-104.427 -31.1856 38.090401 -6.9009926e-05 -0.16636141 -0.98606485 0.01258856
-104.857 -31.153601 38.051102 -0.03961426 -0.076648489 -0.9962709 0.011755729
-105.246 -30.989 38.137299 -0.1140246 0.10361823 -0.98805958 0
-105.655 -30.9533 38.197201 -0.12552449 0.081575625 -0.98873103 0.0018037297
-104.407 -30.931 38.0779 -0.096031263 -0.038315747 -0.99464059 0.00065193133
-104.817 -30.8958 38.1161 -0.080037192 0.051478516 -0.99546176 0.0037660059
-105.215 -30.732401 38.164398 -0.095621035 0.01213482 -0.9953438 2.1293408e-05
-105.632 -30.696699 38.195301 -0.099996813 0.012176923 -0.99491322 0.0018357558
-104.386 -30.676399 38.067501 -0.062481724 0.0084007047 -0.99801075 0.00084029045
-104.796 -30.6406 38.105701 -0.092735313 0.0061884811 -0.99567163 0
-105.194 -30.4767 38.155102 -0.10566769 0.036567394 -0.99372894 0.00073042919
-105.61 -30.440399 38.186001 -0.055653099 0.041816693 -0.99757409 0
-104.355 -30.4214 38.098202 -0.052484583 0.051477686 -0.99729407 0.0029701116
-104.775 -30.385401 38.0975 -0.093566567 0.068154961 -0.99327755 0.0013490194
-105.162 -30.221001 38.186699 -0.10227663 0.020176662 -0.9945513 0.0033940617
-105.58 -30.184099 38.207699 -0.070943825 -0.036215406 -0.99682271 0.0036500101
-104.333 -30.167 38.092201 -0.091474853 -0.10577193 -0.99017406 0.0093746204
-104.743 -30.130199 38.130299 -0.11731363 -0.13222565 -0.98425299 0.0035743569
-105.152 -29.9652 38.1334 -0.12192644 -0.14049926 -0.98254454 0.0024983881
-105.568 -29.9277 38.1642 -0.14452723 -0.080364399 -0.98623198 0.00075668225
-104.328 -29.9119 38.010502 -0.11239654 -0.15352167 -0.98173219 0.0034330245
-104.739 -29.874399 38.048801 -0.1166229 -0.12816934 -0.98487133 0.0012663451
-105.139 -29.708799 38.0919 -0.13955116 -0.033426221 -0.98965049 0.00030178684
-105.542 -29.6714 38.171101 -0.088739529 -0.11546819 -0.98933935 0.0062185079
-104.305 -29.6569 38.008801 -0.057596885 0.042721391 -0.99742544 0.00168319
-104.716 -29.618799 38.0471 -0.079181299 0.038954526 -0.99609888 0
-105.115 -29.4527 38.091301 -0.090601549 0.03218805 -0.99536693 0.0068711671
-105.543 -29.412701 38.083801 -0.072546303 -0.16660817 -0.98335075 0.0089978175
-104.272 -29.403 38.048199 -0.008507072 0.12603121 -0.99198979 0.00037259381
-104.692 -29.3633 38.047501 -0.077720605 0.11531417 -0.99028385 0
-105.079 -29.1984 38.141201 -0.033730909 0.06355156 -0.99740839 0.0038207911
-105.519 -29.155701 38.0853 0.099351637 0.093717717 -0.9906292 0.0044027045
-104.239 -29.1499 38.089802 -0.095865756 -0.057763316 -0.99371684 0.0090210363
-104.658 -29.109301 38.089001 -0.080401227 -0.10584833 -0.99112654 0.00851944
-105.066 -28.940701 38.0966 -0.14402594 -0.24418296 -0.958974 0.0011179409
-105.48 -28.900999 38.137199 -0.021196134 -0.13738577 -0.99029082 0.0065320102
-104.232 -28.8922 38.016701 0.028507873 -0.12957785 -0.99115938 0.010295274
-104.662 -28.848801 37.977402 -0.067398913 -0.15399741 -0.98576987 0.0058345608
-105.061 -28.680799 38.0252 -0.11147179 -0.074083425 -0.99100244 0.005661332
-105.479 -28.639799 38.056499 -0.11624245 -0.078283511 -0.99013102 0.0057646255
-104.206 -28.637501 38.023602 -0.023951441 -0.041251253 -0.99886167 0
-104.627 -28.594999 38.023201 -0.0202296 -0.030071657 -0.99934304 0.0045031901
-105.033 -28.4249 38.0429 -0.08834824 -0.053783927 -0.99463654 0.0018669383
-105.45 -28.3834 38.0742 -0.074892767 -0.044330087 -0.99620575 0.0015826458
-104.189 -28.380501 37.993801 0.068147734 -0.08496654 -0.99405068 0.0018485311
-104.62 -28.3344 37.9548 -0.056440949 -0.11543297 -0.99171042 0.0036997059
-105.019 -28.1653 38.004902 -0.11710963 0.0061685713 -0.99309981 0.0026800961
-105.44 -28.122299 38.026798 -0.13637225 0.041971162 -0.98976815 0.0041368683
-104.163 -28.1257 38.0051 0.017521413 -0.10554915 -0.99425972 0.0068874727
-104.593 -28.0784 37.966099 -0.041282345 -0.03205936 -0.99863297 0.0057163201
-104.992 -27.9088 38.017399 -0.12365063 0.019457474 -0.99213499 0.00243411
-105.399 -27.868999 38.087299 -0.10383015 -0.0081971176 -0.9945612 0.0053873397
-104.153 -27.8647 37.9408 -0.0037334138 -0.092847474 -0.99567336 0.0052602487
-104.575 -27.8193 37.940899 -0.090043589 -0.024795057 -0.99562913 0.0016971771
-104.974 -27.649 37.993401 -0.1190709 -0.083155788 -0.98939741 0.002873464
-105.393 -27.6054 38.025101 -0.10074286 -0.15144737 -0.98331809 0.002693265
-104.134 -27.6061 37.917702 -0.023358798 -0.0031213204 -0.9997223 0.0011392127
-104.547 -27.5632 37.9566 -0.056381147 -0.011767958 -0.99834001 0.00024435093
-104.956 -27.3888 37.971699 -0.066673644 -0.13042533 -0.98921371 0
-105.377 -27.3435 37.993999 -0.025489727 -0.21885376 -0.97542471 0.00081766624
-104.106 -27.3508 37.935501 -0.017203594 0.038333051 -0.99911696 0
-104.528 -27.303499 37.935799 -0.0064466912 0.0049391571 -0.99996704 0.0024605473
-104.947 -27.123899 37.913601 -0.014927718 -0.01641441 -0.99975383 0.0071383235
-105.377 -27.0746 37.907501 -0.10233268 -0.049410425 -0.99352235 0.015533515
-104.077 -27.095699 37.955502 -0.033925746 -0.041780457 -0.99855071 0.0073947804
-104.499 -27.047501 37.955898 -0.018483315 -0.080485858 -0.99658442 0.0081186257
-104.908 -26.8713 37.9734 -0.078258939 -0.11678645 -0.99006891 0.010696863
-105.337 -26.8211 37.967201 -0.000517515 -0.018999685 -0.9998194 0.011628832
-104.065 -26.8318 37.9002 0.036503226 -0.063767321 -0.99729693 0.012017497
-104.5 -26.7768 37.8526 -0.053145893 -0.11265841 -0.99221146 0.0091551756
-104.905 -26.6015 37.890999 -0.061492302 -0.045285273 -0.99707967 0.0051078834
-105.328 -26.5539 37.914101 -0.079692647 -0.028299667 -0.99641776 0.0029734394
-104.035 -26.5765 37.924599 -0.069926634 -0.046758123 -0.99645567 0.0039203479
-104.458 -26.5264 37.9254 0.0024920441 0.032301281 -0.999475 0.0037822782
-104.876 -26.3431 37.9072 -0.011175504 -0.0036496583 -0.9999308 0.0025477391
-105.297 -26.296101 37.939899 -0.066050574 0.038001705 -0.99709231 0
-104.022 -26.3111 37.873798 -0.038222905 -0.043006148 -0.99834335 0.005450123
-104.436 -26.2652 37.913502 -0.016247729 -0.068299226 -0.99753261 0.0012899515
-104.855 -26.0807 37.896702 -0.057072084 -0.0027400514 -0.9983663 0.00011626833
-105.274 -26.0343 37.939098 -0.067524232 0.02044866 -0.99750811 0.00056792359
-103.991 -26.0557 37.902699 0.029047523 0.048913494 -0.99838054 0.0054755523
-104.423 -25.997999 37.865398 -0.022920819 -0.003881054 -0.99972981 0.003798468
-104.823 -25.8237 37.9268 -0.068462744 0.065330304 -0.99551231 0.0020989685
-105.252 -25.770901 37.931099 0.007275572 -0.03095988 -0.99949414 0
-103.959 -25.800699 37.933701 0.064310104 0.04220061 -0.99703729 0.0041674981
-104.391 -25.741699 37.896599 -0.0030653619 0.053500965 -0.99856311 0.0064783776
-104.798 -25.562401 37.930401 -0.035892561 -0.014820841 -0.9992457 0.0015703769
-105.232 -25.505501 37.915798 -0.012472223 0.055029679 -0.99840683 0.0053885537
-103.935 -25.5397 37.928299 0.068902999 -0.018378615 -0.99745405 0.0017531001
-104.368 -25.479401 37.891499 0.00065732916 0.037446018 -0.99929839 0.00068958674
-104.777 -25.297701 37.917099 -0.048067395 0.014304043 -0.99874169 0
-105.197 -25.249599 37.959999 -0.066991702 0.057102021 -0.99611825 0.0045219529
-103.911 -25.2784 37.925201 -0.038804621 -0.075089946 -0.99642146 0
-104.335 -25.223499 37.926998 -0.0079243593 -0.022267997 -0.99972063 0
-104.754 -25.034201 37.9156 -0.052703053 0.018763745 -0.99843395 0.0041631684
-105.176 -24.9837 37.949299 -0.095473751 -0.011156822 -0.99536949 0
-103.894 -25.009899 37.885799 -0.021101246 -0.13995773 -0.98993266 0.0002059086
-104.319 -24.953899 37.8881 -0.072142839 -0.078900501 -0.9942686 0.0022247578
-104.72 -24.777599 37.954601 -0.10193949 -0.052105289 -0.99342507 0.0027671831
-105.152 -24.719299 37.950401 0.014789139 -0.13955654 -0.99010366 0.0014408103
-103.877 -24.740299 37.8489 -0.0039023762 -0.074745029 -0.99719507 0.0018675741
-104.303 -24.683399 37.851501 -0.081501536 -0.060712058 -0.99482238 0.0043850495
-104.711 -24.5007 37.890999 -0.071276605 -0.1465195 -0.98663652 0.0012719631
-105.145 -24.4412 37.887299 -0.0091247968 -0.17936741 -0.98373985 0
-103.851 -24.477501 37.852699 -0.034817092 -0.032894846 -0.99885219 0.0029598456
-104.277 -24.4196 37.855598 -0.031784579 -0.071087122 -0.99696362 0
-104.697 -24.2262 37.8489 -0.030092681 -0.078224726 -0.99648148 0.0011713343
-105.132 -24.1656 37.845699 -0.062322263 0.029202597 -0.99762875 0.0061534988
-103.832 -24.2064 37.820499 -0.012292903 -0.058701705 -0.99819994 0.0025389369
-104.26 -24.147499 37.823799 -0.029531248 -0.016153138 -0.99943334 0.00012787367
-104.671 -23.961 37.8568 -0.085477225 -0.022125503 -0.99609447 0.0031422821
-105.094 -23.9098 37.901199 -0.071890369 0.0086947475 -0.99737459 0.0060476759
-103.804 -23.942801 37.828899 -0.026922824 -0.018391725 -0.99946833 0
-104.232 -23.8829 37.8326 -0.031835113 -0.01262293 -0.99941343 4.5527249e-05
-104.653 -23.687 37.828999 -0.05043342 -0.027510926 -0.99834836 0.0012219609
-105.079 -23.632999 37.864399 -0.12162144 -0.032361589 -0.99204886 0.00090976577
-103.784 -23.6703 37.801498 -0.050865844 -0.0092141442 -0.99866301 0
-104.205 -23.618099 37.8437 -0.038982406 -0.040169559 -0.99843216 0.0044008703
-104.623 -23.423201 37.851002 -0.076094128 -0.040501736 -0.99627769 0.0020474009
-105.052 -23.366301 37.877201 -0.048556518 0.0010470883 -0.99881989 0.00053595612
-103.756 -23.405899 37.814602 -0.0066981241 -0.060353708 -0.99815458 0.0010723671
-104.194 -23.3351 37.781101 -0.064806499 -0.13676149 -0.98848182 0.0020586373
-104.604 -23.1479 37.828098 -0.12319023 -0.12421171 -0.98457897 0
-105.032 -23.0926 37.864101 -0.062381223 -0.13967362 -0.98823065 0
-103.734 -23.132099 37.792099 0.0019756528 -0.20348214 -0.97907662 0.00067864126
-104.173 -23.0599 37.758999 -0.040213618 -0.10822303 -0.99331301 0.0052609826
-104.593 -22.8622 37.769901 -0.07297305 -0.068092726 -0.99500674 0.0025669981
-105.025 -22.8036 37.7971 -0.10551448 -0.18870521 -0.97634876 0.0014152821
-103.728 -22.837999 37.695999 0.016465764 -0.076243505 -0.99695325 0.013093313
-104.152 -22.783899 37.739399 -0.080839105 0.024845514 -0.9964174 0.0020676642
-104.564 -22.5949 37.7897 -0.0050446047 0.076036729 -0.99709225 0.0033928698
-105.012 -22.518101 37.751598 0.021181753 0.025432041 -0.99945211 0.0027315861
-103.689 -22.582001 37.754299 -0.12139888 -0.052567728 -0.99121088 0.012057754
-104.122 -22.5172 37.760101 -0.066869244 -0.028952111 -0.99734157 0.0061164922
-104.533 -22.327499 37.811798 -0.10304023 -0.12781496 -0.98643094 0.002521205
-104.973 -22.259701 37.8116 0.093753457 -0.0090097329 -0.99555469 0.0063707624
-103.682 -22.285 37.663601 -0.073557593 -0.17732687 -0.98139924 0.0042895302
-104.107 -22.229601 37.707802 -0.14295593 -0.19168778 -0.97098881 0.0019394298
-104.529 -22.0282 37.723801 -0.11406012 -0.16330048 -0.97996086 0.0011473476
-104.964 -21.967199 37.752399 -0.12524121 -0.096085526 -0.98746252 0.0022038391
-103.657 -22.007401 37.6511 0.030162362 0.027235631 -0.99917388 0.00091176748
-104.093 -21.940599 37.6581 -0.090882406 -0.083646342 -0.99234253 0.0010473902
-104.507 -21.748699 37.713402 -0.12506633 -0.02345207 -0.99187106 0.0012189754
-104.94 -21.689699 37.751801 -0.088018149 -0.0078578852 -0.99608785 0.0011064461
-103.624 -21.740101 37.678799 0.041796807 0.031507485 -0.99862921 0.0035649037
-104.068 -21.6612 37.648701 -0.046802539 0.029979371 -0.99845415 0.0017913071
-104.483 -21.4685 37.705601 -0.096405439 -0.045668602 -0.99429381 0.0023116404
-104.917 -21.4088 37.744499 -0.093111642 -0.030820714 -0.99517852 0.00015856969
-103.599 -21.4615 37.671299 -0.077224255 -0.13068783 -0.98841137 0.0024058979
-104.035 -21.3927 37.679199 -0.04310631 -0.088475958 -0.9951452 0.0047289263
-104.468 -21.1761 37.6632 -0.10828272 -0.068299375 -0.99177116 0.0032877754
-104.896 -21.1243 37.7304 -0.16285245 -0.066730551 -0.98439127 0.00047555278
-103.586 -21.161699 37.6008 0.052592631 -0.081155039 -0.99531293 0.0025481542
-104.024 -21.091801 37.609402 -0.094357349 -0.086028323 -0.99181443 0.0014867476
-104.436 -20.9032 37.688499 -0.12191462 0.023535637 -0.99226147 0.00033118229
-104.879 -20.833 37.7005 -0.034621194 -0.10980827 -0.99334961 0
-103.553 -20.8901 37.626598 0.033482227 -0.003799112 -0.99943203 0
-104 -20.807199 37.5984 -0.083238848 -0.0059089088 -0.99651212 0.0039208368
-104.413 -20.617901 37.6791 -0.088350244 -0.036018461 -0.99543804 0.0022961809
-104.864 -20.5375 37.664101 -0.027229352 -0.010612881 -0.99957281 0.0027061743
-103.53 -20.599899 37.598999 -0.0095739029 -0.045632083 -0.99891239 0
-103.971 -20.528099 37.608601 -0.10287622 -0.049489919 -0.9934622 0.0021247508
-104.393 -20.3256 37.653999 -0.13083729 0.0070464769 -0.99137878 0.0041113594
-104.831 -20.263 37.694801 -0.030080188 -0.048568942 -0.99836677 0.0044539203
-103.502 -20.318199 37.601898 0.072455317 0.022178089 -0.99712503 0.0019723354
-103.951 -20.232599 37.575001 -0.10590307 -0.0090188356 -0.99433559 0.0076641962
-104.357 -20.054899 37.695999 -0.093971036 -0.056519095 -0.99396932 0.0096427668
-104.821 -19.955799 37.636299 0.055087194 -0.013206161 -0.99839425 0.0028478184
-103.47 -20.039101 37.616699 0.041527636 -0.028434196 -0.99873269 0.00164514
-103.923 -19.948999 37.5812 -0.083569869 -0.072635323 -0.99385118 0.012055879
-104.783 -19.687 37.690601 -0.15177743 0.062082563 -0.98646307 0
-103.448 -19.743 37.587898 0.071021624 -0.039681762 -0.99668515 0.0023977929
-103.899 -19.6548 37.562401 0.028168699 0.034141261 -0.99901998 0.00060909888
-104.764 -19.387699 37.6651 nan nan nan nan
-103.417 -19.4594 37.598701 -0.04663359 -0.035383452 -0.99828523 0.0013675357
-103.863 -19.380199 37.601398 0.055528451 0.008634869 -0.99841976 0
-103.394 -19.1579 37.566299 0.014482251 -0.056682836 -0.9982872 0
-103.842 -19.077499 37.569698 -0.060544614 0.059869178 -0.99636847 0.0057391915
-103.366 -18.865801 37.564201 -0.13030869 0.028569048 -0.99106175 0.00066261116
-103.801 -18.8095 37.632198 -0.085494049 0.10456354 -0.99083662 0.003153376
-103.334 -18.576599 37.5741 -0.096914627 0.066145003 -0.99309242 0
-103.775 -18.512501 37.624298 -0.20107558 -0.068232782 -0.9771964 0.0048804311
-104.192 -18.321899 37.727798 -0.16345832 -0.098848403 -0.98158562 0.0045520952
-104.65 -18.231899 37.718102 0.014300207 -0.035790458 -0.99925697 0
-103.3 -18.2906 37.595798 0.032843392 -0.00039279938 -0.99946046 0
-103.757 -18.195801 37.573898 -0.14779803 -0.10141315 -0.98380446 0.0066609289
-104.18 -17.9967 37.6614 -0.1682187 -0.15973735 -0.97272116 0.0012783448
-104.628 -17.9284 37.706699 -0.081335127 -0.12574528 -0.9887228 0
-103.274 -17.9851 37.574799 0.07489229 0.066686578 -0.99495929 0.0027974686
-103.727 -17.900499 37.580898 -0.1025631 0.048116412 -0.9935621 0.0025361779
-104.169 -17.665701 37.589401 -0.025106521 -0.032524884 -0.99915558 0.0031292266
-104.619 -17.5965 37.635601 -0.19753022 -0.013422859 -0.98020494 0.0082655316
-103.232 -17.7136 37.6381 -0.011290915 0.016957939 -0.9997924 0.005447546
-103.693 -17.612301 37.6087 0.027475044 0.076641768 -0.99668002 0.0018249425
-104.129 -17.3881 37.646099 -0.03542009 0.34320357 -0.93859297 0.011551632
-104.58 -17.3183 37.692699 -0.10322295 0.36902305 -0.92367035 0.0023052257
-103.211 -17.3906 37.5868 0.47548869 0.58112586 -0.6604569 0.075597353
-103.663 -17.3118 37.612301 -0.11070117 0.34209207 -0.93312281 0.012822743
-104.062 -17.1633 37.821301 -0.05461238 0.56051999 -0.82633817 0.0067645414
-104.52 -17.076799 37.832401 0.065582752 0.49054906 -0.86894214 0
-103.094 -17.293301 38.041401 0.12873115 0.96576476 -0.2252257 0.00045355086
-103.534 -17.2265 38.0928 0.11154795 0.9579373 -0.26441106 3.5006677e-05
-103.892 -17.1553 38.460602 0.094577223 0.3765932 -0.92153817 0
-104.346 -17.060301 38.452099 nan nan nan nan
-102.975 -17.2073 38.504501 0.16771224 0.9601686 -0.2234924 0.0009057477
-103.417 -17.123899 38.5191 0.063249007 0.98045439 -0.18630293 0.0033430501
-104.538 -15.954 37.4282 nan nan nan nan
-103.121 -16.077499 37.405899 nan nan nan nan
-103.592 -15.9689 37.381901 0.020497838 -0.10833596 -0.99390298 0.00061373931
-104.041 -15.7286 37.414001 -0.09283258 -0.24217089 -0.96578223 0.00069531047
-104.509 -15.6417 37.438801 -0.039652683 0.034449894 -0.9986195 0
-103.569 -15.6362 37.348499 -0.11258972 -0.087062307 -0.98982006 0.00018574034
-103.544 -15.3019 37.318501 nan nan nan nan
-103.461 -14.2995 37.266499 nan nan nan nan
-103.442 -13.9309 37.1987 0.3610329 -0.045730598 -0.93143117 0.013646158
-103.397 -13.6328 37.263599 0.86389393 -0.15088582 0.48054227 0
-103.86 -13.3723 37.2967 -0.0032550325 0.11152452 -0.99375635 0.00036683708
-104.347 -13.2687 37.311501 -0.012617141 0.10949751 -0.99390697 0.00017986658
-102.88 -13.4104 37.269299 -0.012299728 -0.084259495 -0.99636793 0
-103.365 -13.2953 37.263 0.0055904635 0.001469846 -0.99998331 0
-103.822 -13.0532 37.332699 -0.084386945 0.015222575 -0.99631679 0.002746522
-104.31 -12.9486 37.348499 0.0083070258 0.080446996 -0.99672419 0
-102.851 -13.0532 37.237 -0.041788634 -0.035558838 -0.99849355 0.00092500233
-103.331 -12.9567 37.2659 -0.072978996 0.073118553 -0.99464953 0.0016986727
-103.798 -12.6932 37.304401 -0.15131553 -0.095167659 -0.98389369 4.9062219e-05
-104.279 -12.6127 37.3634 -0.096529044 -0.0050903987 -0.99531716 0
-102.814 -12.7145 37.2425 -0.12620486 0.034540337 -0.99140263 0
-103.29 -12.6374 37.306198 -0.074577644 -0.022910401 -0.996952 0.0043276106
-103.777 -12.3162 37.254799 -0.12882932 -0.040138058 -0.9908542 0.0013424238
-104.255 -12.2503 37.340099 -0.18054578 -0.045914695 -0.98249424 0.00018015646
-102.777 -12.3748 37.251499 -0.33864608 0.067729212 -0.93847299 0
-103.268 -12.2557 37.248699 0.45196009 -0.091789968 -0.88730305 0
-103.743 -11.9735 37.267899 -0.10122353 0.040507376 -0.9940387 0.0014100086
-104.231 -11.8862 37.320599 -0.11657573 -0.039258204 -0.99240565 0
-102.738 -12.0341 37.264099 0.058146756 -0.012878742 -0.99822491 0.0013545806
-103.231 -11.9137 37.262501 0.71997017 -0.026208229 0.69351 0
-103.71 -11.6245 37.276199 -0.072390221 0 -0.99737638 0
-104.205 -11.5206 37.305099 -0.22839408 -0.0078947991 -0.97353679 0.0018789535
-102.705 -11.6712 37.246899 0.12326492 -0.094029747 -0.98790902 0
-103.207 -11.5283 37.2132 0.65115649 -0.024870031 0.75853592 0
-103.68 -11.2584 37.2635 -0.088383295 -0.021925628 -0.9958452 0.00047012683
-104.176 -11.1588 37.301701 -0.16015603 -0.014014587 -0.98699218 0.00053466886
-102.676 -11.2854 37.200298 -0.065840319 -0.10931007 -0.99182481 9.678935e-05
-103.168 -11.1838 37.234501 0.4395844 -0.049227793 0.89685124 0
-103.65 -10.8908 37.254601 0.34077063 0.032967307 0.93956828 0
-104.15 -10.7848 37.2859 0.52629769 0.033984844 0.849621 0
-102.645 -10.8975 37.158001 0.96937841 -0.10330123 -0.22278753 0.00075756188
-103.136 -10.8111 37.218201 0.6315763 0.0027309952 0.77530885 0.0011305421
-103.625 -10.4998 37.217098 0.49050128 0.04632993 0.87020808 0
-104.13 -10.3872 37.2416 0.55489773 -0.1031868 -0.82549441 0
-102.604 -10.5462 37.1777 0.99445474 -0.089177564 0.055740986 0.0015356207
-103.107 -10.4204 37.1814 -0.11891612 -0.078635 -0.98978555 0.0004460559
-103.599 -10.1068 37.183998 -0.088607527 -0.03160524 -0.99556506 0
-104.105 -9.9986 37.217999 -0.26345509 0.028216042 -0.96425891 0
-102.575 -10.1381 37.119301 0.73831701 -0.0072001782 0.67441547 0
-103.077 -10.0276 37.149101 -0.094888173 -0.028430909 -0.99508184 0
-103.564 -9.7344503 37.187599 -0.11638217 0.026226969 -0.99285811 0
-104.068 -9.6421299 37.247101 -0.043565977 0.01008784 -0.99899966 0.0011955525
-102.537 -9.76157 37.114498 0.97446889 -0.10181333 -0.20011082 0
-103.04 -9.6556301 37.153599 0.74105877 -0.08233986 -0.6663723 0
-103.529 -9.3607597 37.1954 -0.1410467 -0.046098709 -0.98892909 0.0031885272
-104.042 -9.2447395 37.2239 -0.039995961 -0.10576233 -0.99358678 0.0019102554
-102.496 -9.3893099 37.122002 -0.17310424 0 -0.98490351 0
-103.008 -9.2594099 37.130001 -0.073768295 -0.047638971 -0.9961369 0.00055330666
-103.505 -8.9395599 37.143299 0.34061342 0.054588914 0.93861735 0.0014963169
-104.026 -8.8107595 37.157501 0.5116601 0.072858989 0.85609311 0
-102.459 -8.99265 37.101299 0.3947368 -0.11064792 -0.91210741 0
-102.974 -8.8613796 37.110802 -0.29671332 -0.053715754 -0.95345467 0
-103.474 -8.5394201 37.127899 -0.12861821 -0.060912106 -0.98982173 0
-104.001 -8.3976202 37.1278 0.082822934 -0.053474579 -0.99512851 0
-102.426 -8.5707703 37.0532 0.27475017 -0.093930461 -0.95691663 0
-102.945 -8.4380903 37.0644 0.4071508 0.056443561 0.91161525 0
-103.447 -8.1138697 37.0854 nan nan nan nan
-103.971 -7.9943299 37.1185 0.6898219 -0.022438182 0.72363132 0
-102.387 -8.1703501 37.041901 -0.1916464 0.0070090331 -0.98143905 0.00033351791
-102.912 -8.0184698 37.0308 nan nan nan nan
-103.943 -7.5773802 37.098301 nan nan nan nan
-102.345 -7.77426 37.042999 nan nan nan nan
-102.834 -7.2156501 37.033001 nan nan nan nan
-103.866 -6.7992301 37.149399 nan nan nan nan
-102.251 -6.3663998 36.810001 nan nan nan nan
-102.803 -6.1581702 36.7449 nan nan nan nan
-102.947 -4.85323 35.672199 nan nan nan nan
-103.498 -4.4581599 35.666401 nan nan nan nan
-104.063 -4.3361402 35.723 nan nan nan nan
-102.344 -4.52389 35.610699 nan nan nan nan
-102.909 -4.3792 35.638901 0.97637361 -0.10225701 -0.19036271 0.0096127903
-102.273 -4.2027202 35.7635 0.1864085 0.4502314 -0.87323743 0.00056028937
-102.843 -4.0376701 35.7701 0.83106661 0.13358921 -0.539891 0.0049723634
-102.196 -3.91483 35.957199 nan nan nan nan
-102.755 -3.8004601 36.025002 0.024279054 0.73959661 -0.67261237 0
-102.666 -3.5724599 36.289001 nan nan nan nan
-103.141 -2.87853 36.491798 nan nan nan nan
-103.695 -2.81914 36.625702 nan nan nan nan
-101.966 -3.0276101 36.5173 nan nan nan nan
-102.528 -2.9044499 36.5798 nan nan nan nan
-103.095 -2.4260099 36.514702 -0.16177166 0.072463229 -0.98416412 0.0002780465
-103.673 -2.27191 36.548302 nan nan nan nan
-101.924 -2.50366 36.458199 nan nan nan nan
-102.497 -2.34554 36.486198 nan nan nan nan
-103.047 -1.97202 36.543098 nan nan nan nan
-103.629 -1.81664 36.578499 0.36147654 -0.069115244 0.92981607 0
-101.873 -2.02441 36.456699 0.78331316 -0.082942173 -0.61606908 0
-102.448 -1.87164 36.493801 nan nan nan nan
-103.008 -1.46179 36.5196 nan nan nan nan
-103.589 -1.3325 36.585701 -0.039177526 0.024135377 -0.99894077 0
-101.82 -1.54325 36.460999 nan nan nan nan
-102.404 -1.3616101 36.471298 nan nan nan nan
-102.963 -0.97686398 36.5308 nan nan nan nan
-103.547 -0.84651399 36.598701 nan nan nan nan
-101.769 -1.03258 36.4426 nan nan nan nan
-102.358 -0.84926599 36.4552 nan nan nan nan
-102.921 -0.45526499 36.512798 nan nan nan nan
-103.522 -0.267883 36.526501 nan nan nan nan
-101.713 -0.54757702 36.459099 nan nan nan nan
-102.306 -0.362656 36.473801 nan nan nan nan
-102.876 0.054584499 36.515301 nan nan nan nan
-103.47 0.187122 36.587101 nan nan nan nan
-101.663 -0.0045318599 36.425201 nan nan nan nan
-102.256 0.153873 36.470402 nan nan nan nan
-102.839 0.63034999 36.4618 nan nan nan nan
-103.439 0.76406699 36.535801 nan nan nan nan
-101.61 0.54110903 36.3983 nan nan nan nan
-102.213 0.72945398 36.4179 nan nan nan nan
-102.791 1.15184 36.470699 nan nan nan nan
-103.401 1.31533 36.519299 nan nan nan nan
-101.548 1.03193 36.433701 nan nan nan nan
-102.159 1.25058 36.428001 nan nan nan nan
-102.741 1.6753 36.486198 nan nan nan nan
-103.366 1.89797 36.4828 nan nan nan nan
-101.492 1.58202 36.420399 nan nan nan nan
-102.099 1.74468 36.472 nan nan nan nan
-102.689 2.20064 36.5084 nan nan nan nan
-103.313 2.39591 36.5345 nan nan nan nan
-101.433 2.1271801 36.421001 nan nan nan nan
-102.05 2.32775 36.441002 nan nan nan nan
-102.651 2.83057 36.443401 nan nan nan nan
-103.275 2.9907701 36.505798 nan nan nan nan
-101.375 2.71118 36.394901 nan nan nan nan
-101.998 2.9135399 36.417599 nan nan nan nan
-102.591 3.3306701 36.506302 nan nan nan nan
-103.228 3.5513301 36.517899 nan nan nan nan
-101.309 3.23121 36.436501 nan nan nan nan
-101.941 3.4723001 36.428398 nan nan nan nan
-102.54 3.91397 36.502998 nan nan nan nan
-103.184 4.1438699 36.511101 nan nan nan nan
-101.258 3.9168601 36.339298 nan nan nan nan
-101.892 4.1227999 36.3675 nan nan nan nan
-102.5 4.5898299 36.429298 nan nan nan nan
-103.138 4.7388701 36.512001 nan nan nan nan
-101.191 4.4861598 36.356201 nan nan nan nan
-101.833 4.7088799 36.374001 nan nan nan nan
-102.431 5.0724401 36.532398 nan nan nan nan
-103.077 5.25282 36.591202 nan nan nan nan
-101.113 4.9590201 36.464901 nan nan nan nan
-101.77 5.2820101 36.4011 nan nan nan nan
-102.402 5.87604 36.373199 nan nan nan nan
-103.048 5.9893498 36.492699 nan nan nan nan
-101.063 5.7375202 36.322399 nan nan nan nan
-101.714 5.9411201 36.365398 nan nan nan nan
-103.013 6.7146702 36.417 nan nan nan nan
-100.998 6.3979001 36.292702 nan nan nan nan
-101.662 6.6648598 36.287899 nan nan nan nan
-102.975 7.44383 36.351299 nan nan nan nan
-100.936 7.1231098 36.2215 nan nan nan nan
-101.6 7.3226099 36.276901 nan nan nan nan
-102.244 7.8887901 36.304501 nan nan nan nan
-100.865 7.78967 36.210201 nan nan nan nan
-101.313 5.81247 37.997299 nan nan nan nan
-100.772 8.2078104 36.4053 nan nan nan nan
-101.239 6.3348298 38.084 nan nan nan nan
-101.28 8.0769596 37.243401 nan nan nan nan
-101.079 8.7090998 37.7915 nan nan nan nan
-101.206 11.6931 36.129101 nan nan nan nan
