# .PCD v0.7 - Point Cloud Data file format
VERSION 0.7
FIELDS x y z intensity
SIZE 4 4 4 4
TYPE F F F F
COUNT 1 1 1 1
WIDTH 1658
HEIGHT 1
VIEWPOINT 0 0 0 1 0 0 0
POINTS 1658
DATA ascii
0 0 0 31
31.917999 7.684 1.3940001 44
31.9 7.7220001 1.414 51
31.884001 7.7579999 1.433 61
31.868999 7.796 1.4529999 78
31.83 7.8270001 1.472 84
31.825001 7.8670001 1.493 83
31.799 7.9000001 1.511 95
31.768999 7.9320002 1.531 89
31.764999 7.9699998 1.551 89
31.747 8.0050001 1.571 93
31.726 8.0380001 1.591 91
31.704 8.0719995 1.61 93
31.708 8.1099997 1.631 93
31.677 8.1400003 1.65 93
31.67 8.1750002 1.669 93
31.65 8.2060003 1.689 92
31.624001 8.2360001 1.7079999 84
31.611 8.2679996 1.727 88
31.605 8.302 1.748 88
31.607 8.3380003 1.7690001 85
31.569 8.3620005 1.7869999 86
31.563999 8.3950005 1.807 95
31.549 8.4250002 1.827 93
31.546 8.4580002 1.847 91
31.552999 8.493 1.868 88
31.504999 8.5129995 1.885 85
31.497 8.5430002 1.905 91
31.486 8.5719995 1.925 88
31.471001 8.599 1.9450001 96
31.473 8.632 1.965 98
31.452999 8.6569996 1.984 92
31.448999 8.6859999 2.0039999 100
31.444 8.7150002 2.023 98
31.436001 8.7419996 2.043 77
31.415001 8.7650003 2.062 78
31.385 8.7860003 2.0799999 92
31.417999 8.8240004 2.102 67
31.523001 8.8809996 2.1289999 12
31.575001 8.9230003 2.152 6
31.6 8.9569998 2.175 7
31.540001 8.967 2.1900001 11
31.545 8.9949999 2.2090001 11
31.51 9.0120001 2.227 10
31.514999 9.0389996 2.247 10
31.496 9.059 2.267 11
31.495001 9.0830002 2.2850001 12
31.492001 9.1070004 2.3050001 10
31.473 9.125 2.323 9
31.445 9.1409998 2.3410001 10
31.389999 9.1479998 2.3559999 12
31.349001 9.1590004 2.372 13
31.337999 9.1780005 2.3889999 16
31.301001 9.1899996 2.405 18
31.273001 9.2030001 2.4230001 24
31.250999 9.217 2.4400001 29
31.237 9.2340002 2.4579999 33
31.23 9.2519999 2.4760001 38
31.216 9.2679996 2.494 40
31.216999 9.2880001 2.5120001 41
31.201 9.302 2.529 41
31.201 9.3210001 2.5480001 43
31.191 9.3360004 2.5650001 42
31.190001 9.3529997 2.5840001 44
31.164 9.3629999 2.5999999 40
31.157 9.3769999 2.6170001 42
31.146 9.3900003 2.635 42
31.177 9.4160004 2.655 33
31.257999 9.4560003 2.6789999 18
31.434999 9.5249996 2.7130001 18
31.427999 9.5380001 2.7290001 33
31.443001 9.5570002 2.7479999 42
31.434999 9.5679998 2.766 36
31.478001 9.5950003 2.786 28
31.583 9.6409998 2.813 18
31.679001 9.6829996 2.8399999 16
31.833 9.7419996 2.8699999 17
31.985001 9.8009996 2.901 15
32.022999 9.8240004 2.9219999 15
32.084999 9.8549995 2.9449999 17
32.247002 9.915 2.977 22
32.384998 9.9680004 3.007 22
32.457001 10 3.0309999 36
32.493999 10.021 3.0510001 39
32.509998 10.035 3.069 38
32.507999 10.043 3.086 29
32.556999 10.067 3.1070001 19
32.605999 10.09 3.128 17
32.669998 10.117 3.1500001 17
32.743 10.147 3.174 17
32.806999 10.174 3.1949999 17
32.859001 10.196 3.217 17
32.896 10.213 3.2360001 15
32.998001 10.25 3.263 15
33.062 10.275 3.2839999 13
33.153999 10.307 3.309 11
33.258999 10.344 3.335 10
33.331001 10.37 3.358 9
33.393002 10.393 3.3789999 6
33.458 10.415 3.401 6
0 0 0 0
0 0 0 3
33.511002 10.437 3.451 3
33.535999 10.446 3.4679999 2
33.473 10.426 3.477 2
33.464001 10.423 3.49 2
0 0 0 21
36.275002 11.298 3.812 23
36.23 11.282 3.823 22
36.122002 11.246 3.8269999 25
36.042 11.219 3.8329999 25
35.922001 11.178 3.835 29
35.820999 11.143 3.8380001 29
35.679001 11.095 3.8369999 27
35.567001 11.056 3.839 27
35.492001 11.027 3.845 29
35.474998 11.016 3.8559999 37
35.456001 11.005 3.8670001 37
35.436001 10.992 3.878 45
35.441002 10.987 3.891 45
35.444 10.981 3.9030001 45
35.452999 10.976 3.9170001 46
35.444 10.965 3.928 47
35.455002 10.96 3.941 48
35.450001 10.949 3.9530001 49
35.452 10.94 3.964 48
35.452 10.929 3.9760001 48
35.471001 10.925 3.9890001 48
35.462002 10.911 3.9990001 46
35.472 10.902 4.0120001 47
35.467999 10.889 4.0219998 47
35.264999 10.814 4.0100002 37
34.967999 10.71 3.9849999 28
34.511002 10.557 3.9430001 26
34.264999 10.468 3.925 43
34.223 10.441 3.9289999 53
34.23 10.429 3.9389999 56
34.235001 10.416 3.9489999 56
34.236 10.401 3.9579999 58
34.233002 10.384 3.9649999 57
34.249001 10.373 3.9760001 57
34.258999 10.359 3.9860001 56
34.266998 10.345 3.994 56
34.073002 10.269 3.98 42
33.647999 10.123 3.938 25
33.058998 9.9280005 3.8759999 25
32.983002 9.8870001 3.8740001 50
32.98 9.8669996 3.8800001 54
33.002998 9.8559999 3.8889999 57
33.000999 9.8360004 3.895 55
33.011002 9.8190002 3.9030001 57
33.007999 9.7980003 3.9089999 56
32.827999 9.724 3.8929999 27
32.026001 9.4659996 3.803 12
31.753 9.3649998 3.776 8
31.584999 9.2950001 3.76 9
31.372 9.2110004 3.7390001 15
31.323 9.1750002 3.7390001 42
31.318001 9.151 3.7420001 48
31.316 9.1280003 3.7460001 50
31.327999 9.1090002 3.7509999 54
31.337999 9.0889997 3.756 53
31.35 9.0690002 3.7609999 54
31.341 9.0430002 3.763 53
31.372 9.0279999 3.77 46
31.381001 9.0050001 3.7739999 56
31.386 8.9809999 3.777 54
31.403999 8.9610004 3.7820001 53
31.413 8.9379997 3.7850001 55
31.417 8.9130001 3.7880001 51
31.440001 8.8929996 3.793 52
31.429001 8.8629999 3.793 50
31.450001 8.842 3.7969999 51
31.458 8.816 3.799 53
31.475 8.7930002 3.802 53
31.487 8.7679996 3.8039999 53
31.503 8.7440004 3.806 53
31.503 8.7150002 3.8069999 52
31.516001 8.6890001 3.809 53
31.534 8.6630001 3.8110001 54
31.549999 8.6379995 3.812 54
31.545 8.6059999 3.8110001 53
31.586 8.5860004 3.816 52
31.584 8.5539999 3.8150001 53
31.599001 8.5270004 3.8150001 53
31.604 8.4960003 3.8139999 54
31.622 8.4680004 3.8150001 50
31.632999 8.4379997 3.8150001 52
31.660999 8.4119997 3.816 46
31.669001 8.3809996 3.8150001 53
31.667 8.3459997 3.812 50
31.691 8.3190002 3.812 51
31.702999 8.2880001 3.8110001 51
31.726 8.2589998 3.8099999 49
31.733 8.2250004 3.8069999 51
31.743999 8.1920004 3.8050001 47
31.813999 8.1739998 3.8099999 9
31.937 8.1689997 3.8210001 3
0 0 0 0
0 0 0 0
0 0 0 0
0 0 0 0
0 0 0 7
50.655998 12.598 6.013 7
50.618 12.527 5.9990001 5
0 0 0 0
0 0 0 0
0 0 0 0
0 0 0 4
49.165001 11.863 5.7779999 4
49.226002 11.816 5.7729998 4
49.492001 11.817 5.7930002 4
49.633999 11.787 5.7979999 4
49.782001 11.757 5.803 7
49.820999 11.701 5.7950001 7
49.945999 11.665 5.7969999 8
50.095001 11.635 5.8000002 6
50.229 11.599 5.802 7
0 0 0 4
24.551001 5.6030002 2.822 16
24.486 5.5549998 2.8069999 24
24.454 5.5139999 2.796 23
24.414 5.4710002 2.7839999 30
24.393999 5.434 2.773 34
24.367001 5.3940001 2.7620001 37
24.349001 5.3559999 2.7520001 40
24.344999 5.3210001 2.743 43
24.334999 5.2849998 2.733 46
24.332001 5.2490001 2.724 37
24.311001 5.21 2.7130001 39
24.305 5.1739998 2.7030001 57
24.308001 5.1389999 2.694 59
24.313999 5.1059999 2.6849999 60
24.327999 5.073 2.677 62
24.337 5.039 2.668 59
24.372 5.0110002 2.6619999 47
24.379 4.9770002 2.652 50
24.403999 4.9460001 2.645 47
24.434999 4.915 2.6370001 34
24.466999 4.8839998 2.6289999 32
24.493999 4.8530002 2.6210001 40
24.523001 4.823 2.6129999 32
24.575001 4.7950001 2.6070001 29
24.646 4.7709999 2.6029999 23
24.726 4.7490001 2.5999999 17
24.837 4.7329998 2.599 2
0 0 0 49
32.734001 6.1360002 3.391 48
32.737 6.085 3.375 47
32.764 6.04 3.3610001 47
32.765999 5.9889998 3.3440001 49
32.785999 5.9419999 3.3280001 46
32.806 5.8930001 3.312 47
32.808998 5.842 3.2939999 48
32.834 5.7940001 3.2780001 49
32.863998 5.7470002 3.2620001 49
32.875 5.6960001 3.2449999 49
32.904999 5.6479998 3.2279999 49
32.914001 5.598 3.2090001 51
32.941002 5.5489998 3.1919999 51
32.973999 5.5009999 3.175 53
32.986 5.4489999 3.1559999 52
33.014 5.4000001 3.138 51
33.032001 5.348 3.118 52
33.058998 5.2989998 3.099 52
33.084999 5.2490001 3.0799999 55
33.103001 5.197 3.0599999 51
33.123001 5.145 3.04 50
33.146999 5.0939999 3.0190001 52
33.167 5.0430002 2.9990001 53
33.189999 4.9910002 2.9779999 51
33.212002 4.9380002 2.9560001 49
33.233002 4.8860002 2.934 51
33.261002 4.8340001 2.9119999 53
33.279999 4.7810001 2.8900001 53
33.310001 4.73 2.868 52
33.332001 4.677 2.845 52
33.360001 4.6240001 2.823 50
0 0 0 6
17.150999 2.319 1.425 21
17.099001 2.283 1.4069999 23
17.032 2.2449999 1.3890001 28
17.014 2.214 1.374 33
16.990999 2.1819999 1.358 39
16.959 2.148 1.342 39
16.940001 2.1170001 1.327 41
16.931 2.0869999 1.312 45
16.919001 2.056 1.2970001 47
16.900999 2.0250001 1.2819999 49
16.9 1.9960001 1.267 50
16.9 1.967 1.253 57
16.871 1.934 1.2359999 54
16.885 1.906 1.223 60
16.889999 1.878 1.2079999 36
16.879999 1.848 1.192 62
16.889 1.819 1.178 60
16.9 1.7920001 1.164 36
16.924999 1.765 1.15 38
16.922001 1.7359999 1.1339999 54
16.948999 1.709 1.1210001 31
16.934 1.678 1.104 48
16.965 1.651 1.09 45
17 1.625 1.076 33
16.996 1.595 1.0599999 45
17.040001 1.5700001 1.046 30
17.052999 1.541 1.03 37
17.1 1.515 1.016 36
17.118 1.4859999 1 29
17.202999 1.464 0.98799998 22
17.267 1.439 0.97399998 15
0 0 0 0
0 0 0 2
34.539001 2.698 1.844 2
0 0 0 2
38.407001 2.8670001 1.971 4
38.327 2.7939999 1.927 5
38.41 2.7320001 1.891 5
38.465 2.6689999 1.852 5
38.551998 2.6070001 1.8150001 4
0 0 0 8
34.702 2.227 1.559 27
34.726002 2.1670001 1.522 19
34.810001 2.112 1.488 2
34.973999 2.0610001 1.456 1
0 0 0 0
0 0 0 0
0 0 0 0
0 0 0 3
34.994999 1.7589999 1.26 19
34.933998 1.6950001 1.2180001 43
34.796001 1.628 1.173 20
34.682999 1.562 1.1289999 17
34.681 1.502 1.0880001 80
34.705002 1.443 1.048 80
34.726002 1.3839999 1.007 81
34.754002 1.326 0.96700001 83
34.787998 1.267 0.926 65
34.816002 1.2079999 0.88499999 62
0 0 0 2
30.421 0.95200002 0.69999999 1
0 0 0 26
34.918999 0.972 0.71799999 28
34.945 0.91299999 0.67500001 28
34.971001 0.85399997 0.63200003 20
0 0 0 2
27.889999 0.58700001 0.43399999 2
0 0 0 8
35.085999 0.61900002 0.45699999 10
35.153 0.56 0.41299999 9
35.178001 0.50199997 0.36899999 9
35.181999 0.44299999 0.32300001 9
35.199001 0.38299999 0.278 9
0 0 0 1
12.312 0.093000002 0.064999998 4
12.457 0.072999999 0.050000001 17
12.51 0.052999999 0.033 33
12.39 0.030999999 0.016000001 28
12.343 0.011 0 41
12.311 -0.0080000004 -0.015 40
12.35 -0.028999999 -0.032000002 41
12.393 -0.050000001 -0.048999999 34
12.325 -0.068999998 -0.064999998 41
12.309 -0.089000002 -0.082000002 43
12.385 -0.11 -0.098999999 38
12.37 -0.131 -0.116 34
12.327 -0.15000001 -0.133 30
12.379 -0.171 -0.15000001 6
12.411 -0.192 -0.168 5
0 0 0 48
28.219 -0.528 -0.461 40
28.243999 -0.574 -0.50099999 50
28.252001 -0.61900002 -0.54100001 45
28.285 -0.66500002 -0.58200002 40
28.298 -0.71100003 -0.62199998 49
28.304001 -0.75599998 -0.662 40
28.344999 -0.80199999 -0.704 13
28.370001 -0.84799999 -0.745 1
0 0 0 5
35.598 -1.175 -1.0369999 6
0 0 0 30
6.4229999 -0.23199999 -0.205 110
6.3909998 -0.23999999 -0.214 155
6.4310002 -0.252 -0.22400001 155
6.3709998 -0.259 -0.23100001 155
6.3899999 -0.27000001 -0.241 155
6.381 -0.27900001 -0.25099999 156
6.3959999 -0.28999999 -0.26100001 158
6.3870001 -0.29899999 -0.27000001 158
6.3769999 -0.308 -0.27900001 160
6.3649998 -0.317 -0.28799999 156
6.3520002 -0.32600001 -0.29699999 155
6.309 -0.33399999 -0.30399999 12
6.3800001 -0.347 -0.317 38
6.3610001 -0.35499999 -0.32499999 155
6.3579998 -0.36399999 -0.33500001 156
6.3920002 -0.37599999 -0.34599999 158
6.3969998 -0.38600001 -0.35600001 162
6.3839998 -0.39399999 -0.36500001 158
6.3990002 -0.40400001 -0.37599999 156
6.3790002 -0.412 -0.384 155
6.369 -0.421 -0.39399999 154
6.3709998 -0.43000001 -0.40400001 29
6.3600001 -0.43900001 -0.412 1
0 0 0 3
12.615 -0.90700001 -0.85699999 8
12.036 -0.88200003 -0.83600003 3
11.38 -0.85000002 -0.80800003 2
10.979 -0.83499998 -0.79699999 2
10.589 -0.81999999 -0.78500003 2
10.275 -0.81 -0.778 3
9.9770002 -0.801 -0.77100003 6
9.7440004 -0.79500002 -0.76800001 12
9.5609999 -0.79299998 -0.76800001 10
9.3830004 -0.79100001 -0.76800001 6
9.0570002 -0.77600002 -0.75599998 5
8.6899996 -0.75599998 -0.73900002 3
8.4309998 -0.745 -0.73000002 3
8.2159996 -0.73699999 -0.72399998 5
8.0369997 -0.73199999 -0.72100002 5
7.8649998 -0.72600001 -0.71799999 4
7.684 -0.72000003 -0.713 5
7.5219998 -0.71399999 -0.70999998 5
7.3670001 -0.70899999 -0.70700002 4
7.197 -0.70200002 -0.70200002 4
7.0489998 -0.69700003 -0.699 4
6.9260001 -0.69300002 -0.69700003 4
6.7800002 -0.68699998 -0.69400001 4
6.6399999 -0.68199998 -0.69 4
6.5240002 -0.67799997 -0.68800002 3
6.381 -0.671 -0.68300003 3
6.2350001 -0.66299999 -0.67699999 4
6.1279998 -0.65899998 -0.67500001 3
6.053 -0.65899998 -0.67699999 4
5.9510002 -0.65499997 -0.67500001 5
5.8629999 -0.65200001 -0.67400002 6
5.7249999 -0.64399999 -0.667 4
5.6090002 -0.63700002 -0.662 4
5.5019999 -0.63200003 -0.65899998 4
5.3979998 -0.62599999 -0.65499997 5
5.2690001 -0.61699998 -0.64700001 6
5.184 -0.61299998 -0.64499998 8
5.1170001 -0.611 -0.64499998 9
5.0370002 -0.60799998 -0.64300001 10
4.96 -0.60399997 -0.64099997 8
4.9060001 -0.60299999 -0.64200002 7
4.8390002 -0.60000002 -0.64099997 5
4.7490001 -0.59399998 -0.63599998 3
4.6680002 -0.58899999 -0.63200003 3
4.612 -0.58700001 -0.63200003 2
4.5219998 -0.58099997 -0.62699997 4
4.467 -0.57800001 -0.62599999 2
4.4029999 -0.57499999 -0.62400001 2
4.3740001 -0.57599998 -0.62699997 2
4.2610002 -0.565 -0.61699998 2
4.184 -0.55900002 -0.61299998 2
4.1300001 -0.55699998 -0.611 2
4.0739999 -0.55299997 -0.60900003 2
4.0110002 -0.54900002 -0.60600001 2
4.0019999 -0.551 -0.611 2
3.9319999 -0.546 -0.60699999 2
3.9089999 -0.54699999 -0.60900003 2
3.8440001 -0.54100001 -0.60500002 2
3.8210001 -0.542 -0.60699999 2
3.7920001 -0.54100001 -0.60799998 2
3.7360001 -0.537 -0.60500002 2
3.707 -0.53600001 -0.60600001 2
3.6459999 -0.53100002 -0.602 2
3.592 -0.52700001 -0.59899998 2
3.527 -0.51999998 -0.59299999 1
3.5020001 -0.51999998 -0.59399998 1
3.4449999 -0.514 -0.58999997 1
3.454 -0.51899999 -0.597 1
3.382 -0.51099998 -0.58899999 1
3.352 -0.50999999 -0.58899999 1
3.359 -0.514 -0.59600002 2
3.296 -0.50700003 -0.58899999 2
3.2639999 -0.505 -0.588 2
3.2590001 -0.50700003 -0.59299999 2
3.184 -0.498 -0.58399999 2
3.1500001 -0.495 -0.58200002 2
3.122 -0.493 -0.58099997 2
3.092 -0.491 -0.58099997 2
3.062 -0.48899999 -0.579 2
3.033 -0.48699999 -0.57800001 2
3.0050001 -0.48500001 -0.57800001 2
2.9760001 -0.48199999 -0.57599998 2
2.9549999 -0.48100001 -0.57700002 2
2.9260001 -0.479 -0.57499999 2
2.904 -0.477 -0.57499999 2
2.8789999 -0.47499999 -0.574 2
2.862 -0.47499999 -0.57499999 2
2.8269999 -0.47099999 -0.57200003 2
2.7909999 -0.46700001 -0.56900001 2
2.77 -0.465 -0.56800002 1
2.763 -0.46599999 -0.57099998 1
2.7409999 -0.46399999 -0.56999999 1
2.734 -0.465 -0.57300001 1
2.688 -0.45899999 -0.56699997 1
2.6760001 -0.45899999 -0.56800002 1
2.6530001 -0.45699999 -0.56699997 1
2.7030001 -0.46700001 -0.58099997 1
2.618 -0.454 -0.56599998 1
2.6300001 -0.458 -0.57300001 1
2.5710001 -0.449 -0.56300002 1
2.6259999 -0.46000001 -0.579 1
2.5420001 -0.447 -0.56400001 1
2.5339999 -0.447 -0.56599998 1
2.477 -0.43900001 -0.55599999 1
2.5090001 -0.44600001 -0.56699997 1
2.4660001 -0.43900001 -0.56 1
2.4449999 -0.43700001 -0.55900002 1
2.4660001 -0.442 -0.56699997 1
2.385 -0.42899999 -0.551 1
2.4560001 -0.44299999 -0.57099998 1
2.427 -0.43900001 -0.56699997 1
2.4100001 -0.43700001 -0.56599998 1
2.3559999 -0.42899999 -0.55699998 1
2.3629999 -0.43099999 -0.56099999 1
2.3559999 -0.43099999 -0.56300002 1
2.2969999 -0.421 -0.551 1
2.289 -0.421 -0.55299997 1
2.2780001 -0.41999999 -0.55299997 1
2.267 -0.419 -0.55299997 1
2.256 -0.41800001 -0.55299997 1
2.2420001 -0.41600001 -0.55199999 1
2.2219999 -0.414 -0.55000001 1
2.3010001 -0.42899999 -0.57200003 1
2.198 -0.41100001 -0.54900002 1
2.188 -0.41 -0.54900002 1
2.1760001 -0.40900001 -0.54900002 1
2.1670001 -0.40799999 -0.54900002 1
2.1600001 -0.40700001 -0.55000001 1
2.151 -0.40599999 -0.55000001 1
2.1329999 -0.40400001 -0.54799998 1
2.1240001 -0.403 -0.54799998 1
2.118 -0.40200001 -0.54900002 1
2.108 -0.40099999 -0.54900002 1
2.098 -0.40000001 -0.54799998 1
2.086 -0.398 -0.54799998 1
2.0799999 -0.398 -0.54799998 1
2.0699999 -0.39700001 -0.54799998 1
2.0599999 -0.39500001 -0.54699999 1
2.0469999 -0.39300001 -0.546 1
2.0350001 -0.39199999 -0.54500002 1
2.0190001 -0.389 -0.54299998 1
2.0079999 -0.38699999 -0.542 1
1.995 -0.38499999 -0.54000002 1
1.989 -0.38499999 -0.54100001 1
1.974 -0.382 -0.53899997 1
1.97 -0.382 -0.54000002 1
1.9630001 -0.38100001 -0.54000002 1
1.962 -0.38100001 -0.54100001 1
1.947 -0.37900001 -0.53899997 1
1.934 -0.37599999 -0.537 1
1.9349999 -0.377 -0.53899997 1
1.928 -0.37599999 -0.53899997 1
1.918 -0.37400001 -0.53799999 1
1.908 -0.373 -0.537 1
1.906 -0.37200001 -0.53799999 1
1.898 -0.37099999 -0.53799999 1
1.898 -0.37200001 -0.53899997 1
1.89 -0.37 -0.53899997 1
1.883 -0.36899999 -0.53799999 1
1.8789999 -0.368 -0.53899997 1
1.876 -0.368 -0.53899997 1
1.8660001 -0.366 -0.53799999 1
1.865 -0.366 -0.53899997 1
1.857 -0.36399999 -0.53799999 1
1.8559999 -0.36399999 -0.54000002 1
1.847 -0.36300001 -0.53799999 1
1.84 -0.361 -0.53799999 1
1.834 -0.36000001 -0.537 1
1.835 -0.361 -0.53899997 1
1.823 -0.35800001 -0.537 1
1.814 -0.35600001 -0.53500003 1
1.816 -0.35699999 -0.53799999 1
1.809 -0.35499999 -0.537 1
1.809 -0.35499999 -0.53799999 1
1.802 -0.354 -0.537 1
1.799 -0.35299999 -0.537 1
1.791 -0.352 -0.53600001 1
1.7920001 -0.352 -0.537 1
1.783 -0.34999999 -0.53600001 1
1.783 -0.34999999 -0.537 1
1.78 -0.34900001 -0.537 1
1.778 -0.34799999 -0.53799999 1
1.774 -0.347 -0.53799999 1
1.77 -0.34599999 -0.537 1
1.767 -0.34599999 -0.537 1
1.771 -0.34599999 -0.53899997 1
1.763 -0.34400001 -0.53799999 1
1.751 -0.34200001 -0.53500003 1
1.752 -0.34200001 -0.537 1
1.745 -0.34 -0.53500003 1
1.745 -0.34 -0.53600001 1
1.742 -0.33899999 -0.53600001 1
1.735 -0.33700001 -0.53399998 1
1.732 -0.336 -0.53399998 1
1.726 -0.33500001 -0.53299999 1
1.73 -0.33500001 -0.53500003 1
1.722 -0.333 -0.53299999 1
1.725 -0.333 -0.53500003 1
1.719 -0.33199999 -0.53399998 1
1.723 -0.33199999 -0.53600001 1
1.72 -0.331 -0.53500003 1
1.719 -0.331 -0.53600001 1
1.717 -0.33000001 -0.53600001 1
1.715 -0.329 -0.53600001 1
1.7180001 -0.329 -0.537 1
1.707 -0.32600001 -0.53399998 1
1.704 -0.32499999 -0.53399998 1
1.709 -0.32600001 -0.53600001 1
1.701 -0.324 -0.53399998 1
1.705 -0.324 -0.53500003 1
1.702 -0.32300001 -0.53500003 1
1.699 -0.322 -0.53399998 1
1.7 -0.32100001 -0.53500003 1
1.682 -0.317 -0.52899998 1
1.698 -0.31999999 -0.53500003 1
1.699 -0.31900001 -0.53500003 1
1.694 -0.31799999 -0.53399998 1
1.6950001 -0.317 -0.53500003 1
1.697 -0.317 -0.53500003 1
1.694 -0.31600001 -0.53500003 1
1.694 -0.315 -0.53500003 1
1.699 -0.315 -0.537 1
1.691 -0.31299999 -0.53399998 1
1.693 -0.31299999 -0.53500003 1
1.6950001 -0.31299999 -0.53600001 1
1.6849999 -0.31 -0.53299999 1
1.681 -0.308 -0.53100002 1
1.678 -0.30700001 -0.52999997 1
1.676 -0.30599999 -0.52999997 1
1.6950001 -0.30899999 -0.53600001 1
1.6799999 -0.30500001 -0.53100002 1
1.6799999 -0.30399999 -0.53100002 1
1.6799999 -0.30399999 -0.53100002 1
1.692 -0.30500001 -0.53399998 1
1.679 -0.30199999 -0.52999997 1
1.683 -0.301 -0.53100002 1
1.684 -0.301 -0.53100002 1
1.683 -0.30000001 -0.53100002 1
1.682 -0.29899999 -0.52999997 1
1.684 -0.29800001 -0.53100002 1
1.697 -0.30000001 -0.53500003 1
1.699 -0.29899999 -0.53500003 1
1.702 -0.29899999 -0.53600001 1
1.686 -0.29499999 -0.52999997 1
1.699 -0.296 -0.53399998 1
1.711 -0.29699999 -0.537 1
1.705 -0.29499999 -0.53500003 1
1.707 -0.29499999 -0.53500003 1
1.709 -0.294 -0.53500003 1
1.7130001 -0.29300001 -0.53600001 1
1.707 -0.292 -0.53399998 1
1.716 -0.292 -0.53600001 1
1.711 -0.28999999 -0.53399998 1
1.714 -0.28999999 -0.53399998 1
1.717 -0.289 -0.53500003 1
1.7180001 -0.28799999 -0.53399998 1
1.72 -0.287 -0.53399998 1
1.726 -0.287 -0.53600001 1
1.726 -0.28600001 -0.53500003 1
1.727 -0.285 -0.53399998 1
1.733 -0.285 -0.53500003 1
1.738 -0.285 -0.53600001 1
1.739 -0.28400001 -0.53600001 1
1.7410001 -0.28299999 -0.53500003 1
1.744 -0.28200001 -0.53600001 1
1.747 -0.28099999 -0.53600001 1
1.755 -0.28099999 -0.537 1
1.757 -0.28099999 -0.537 1
1.757 -0.27900001 -0.53600001 1
1.753 -0.27700001 -0.53399998 1
1.76 -0.27700001 -0.53500003 1
1.767 -0.27700001 -0.53600001 1
1.773 -0.27700001 -0.537 1
1.78 -0.27700001 -0.53799999 1
1.773 -0.27399999 -0.53500003 1
1.78 -0.27399999 -0.53600001 1
1.786 -0.27399999 -0.53600001 1
1.784 -0.27200001 -0.53500003 1
1.7920001 -0.27200001 -0.53600001 1
1.794 -0.271 -0.53500003 1
1.798 -0.27000001 -0.53500003 1
1.807 -0.27000001 -0.537 1
1.8049999 -0.26800001 -0.53500003 1
1.813 -0.26800001 -0.53600001 1
1.826 -0.26899999 -0.53799999 1
1.83 -0.26800001 -0.53799999 1
1.825 -0.266 -0.53500003 1
1.8430001 -0.26699999 -0.53899997 1
1.837 -0.26499999 -0.53600001 1
1.848 -0.26499999 -0.53799999 1
1.851 -0.264 -0.537 1
1.862 -0.264 -0.53899997 1
1.8660001 -0.26300001 -0.53799999 1
1.8710001 -0.26199999 -0.53799999 1
1.883 -0.26199999 -0.54000002 1
1.891 -0.26199999 -0.54100001 1
1.892 -0.25999999 -0.53899997 1
1.899 -0.25999999 -0.54000002 1
1.904 -0.259 -0.53899997 1
1.9119999 -0.25799999 -0.54000002 1
1.92 -0.25799999 -0.54000002 1
1.9299999 -0.25799999 -0.54100001 1
1.937 -0.257 -0.54100001 1
1.942 -0.25600001 -0.54100001 1
1.9400001 -0.25400001 -0.53899997 1
1.961 -0.255 -0.542 1
1.962 -0.25400001 -0.54100001 1
1.976 -0.25400001 -0.54299998 1
1.978 -0.252 -0.54100001 1
1.9910001 -0.252 -0.54299998 1
1.995 -0.25099999 -0.542 1
2.01 -0.25099999 -0.54400003 1
2.0220001 -0.25099999 -0.54500002 1
2.029 -0.25 -0.54400003 1
2.0409999 -0.25 -0.54500002 1
2.0450001 -0.248 -0.54400003 1
2.0550001 -0.248 -0.54500002 1
2.076 -0.249 -0.54799998 1
2.082 -0.24699999 -0.54699999 1
2.0929999 -0.24699999 -0.54699999 1
2.102 -0.24600001 -0.54699999 1
2.1129999 -0.24600001 -0.54799998 1
2.1110001 -0.243 -0.54500002 1
2.1329999 -0.244 -0.54799998 1
2.1400001 -0.243 -0.54699999 1
2.161 -0.244 -0.55000001 1
2.177 -0.243 -0.551 1
2.181 -0.242 -0.55000001 1
2.1949999 -0.242 -0.55000001 1
2.2060001 -0.241 -0.55000001 1
2.217 -0.23999999 -0.55000001 1
2.2320001 -0.23999999 -0.551 1
2.2390001 -0.23899999 -0.55000001 1
2.257 -0.23800001 -0.551 1
2.2720001 -0.23800001 -0.55199999 1
2.2850001 -0.237 -0.55199999 1
2.3039999 -0.237 -0.55400002 1
2.3150001 -0.236 -0.55299997 1
2.3299999 -0.236 -0.55400002 1
2.3510001 -0.236 -0.55500001 1
2.3610001 -0.235 -0.55500001 1
2.3789999 -0.234 -0.55599999 1
2.391 -0.233 -0.55500001 1
2.4119999 -0.233 -0.55699998 1
2.4289999 -0.233 -0.55699998 1
2.4419999 -0.23199999 -0.55699998 1
2.533 -0.23800001 -0.574 1
2.4890001 -0.23199999 -0.56 1
2.566 -0.237 -0.574 1
2.5220001 -0.23100001 -0.56 1
2.5880001 -0.234 -0.57099998 1
2.563 -0.23 -0.56199998 1
2.6300001 -0.233 -0.57300001 1
2.6359999 -0.23199999 -0.56999999 1
2.6370001 -0.229 -0.56599998 1
2.675 -0.23 -0.56999999 1
2.711 -0.23100001 -0.574 1
2.7550001 -0.23199999 -0.579 1
2.714 -0.227 -0.56599998 1
2.7320001 -0.226 -0.56599998 2
2.7550001 -0.22499999 -0.56599998 2
2.7880001 -0.22499999 -0.56900001 2
2.816 -0.22499999 -0.56999999 2
2.8410001 -0.22499999 -0.56999999 2
2.8710001 -0.22499999 -0.57200003 2
2.885 -0.223 -0.56999999 2
2.918 -0.223 -0.57200003 2
2.947 -0.223 -0.57300001 2
2.977 -0.223 -0.574 2
3.0079999 -0.222 -0.57499999 2
3.052 -0.223 -0.57800001 2
3.082 -0.223 -0.579 1
3.148 -0.22499999 -0.58600003 1
3.154 -0.223 -0.58200002 1
3.247 -0.226 -0.59299999 2
3.2969999 -0.227 -0.597 2
3.256 -0.222 -0.58399999 2
3.289 -0.221 -0.58399999 2
3.398 -0.22499999 -0.59799999 2
3.4059999 -0.223 -0.59299999 2
3.448 -0.223 -0.59500003 2
3.4649999 -0.221 -0.59200001 2
3.5550001 -0.22400001 -0.60100001 2
3.5380001 -0.22 -0.59200001 2
3.5910001 -0.22 -0.59399998 2
3.6949999 -0.22400001 -0.60500002 3
3.7 -0.221 -0.59899998 2
3.7279999 -0.22 -0.597 2
3.8740001 -0.22499999 -0.61299998 3
3.918 -0.22499999 -0.61400002 2
3.904 -0.221 -0.60399997 2
3.9189999 -0.219 -0.59899998 2
4.0440001 -0.222 -0.611 2
4.1760001 -0.226 -0.62400001 2
4.243 -0.227 -0.62599999 2
4.3720002 -0.23 -0.63700002 2
4.3920002 -0.228 -0.63200003 2
0 0 0 1
0 0 0 1
4.6129999 -0.229 -0.63800001 1
4.717 -0.23 -0.64399999 1
4.7690001 -0.229 -0.64200002 1
4.8520002 -0.23 -0.64399999 1
4.9429998 -0.23 -0.64700001 1
5.033 -0.23100001 -0.64899999 1
5.1240001 -0.23100001 -0.65100002 1
5.2160001 -0.23199999 -0.653 2
5.3109999 -0.23199999 -0.65399998 2
5.4130001 -0.23199999 -0.65600002 5
5.5209999 -0.233 -0.65899998 5
5.6389999 -0.234 -0.662 7
5.7259998 -0.234 -0.66100001 9
5.8039999 -0.233 -0.65899998 10
5.9439998 -0.234 -0.66299999 8
6.0669999 -0.235 -0.66500002 8
6.1570001 -0.234 -0.66299999 5
6.1789999 -0.23100001 -0.653 8
6.1900001 -0.227 -0.64300001 6
6.224 -0.22400001 -0.634 3
6.2579999 -0.221 -0.625 2
6.27 -0.21799999 -0.61400002 1
6.3140001 -0.215 -0.60600001 1
6.3150001 -0.211 -0.59299999 1
6.3309999 -0.207 -0.58200002 1
6.3449998 -0.204 -0.56999999 1
6.3610001 -0.2 -0.55900002 1
6.3470001 -0.19599999 -0.54500002 4
6.3569999 -0.192 -0.53399998 12
6.3790002 -0.189 -0.523 28
6.3969998 -0.186 -0.51099998 28
6.4120002 -0.182 -0.49900001 25
6.4190001 -0.178 -0.48699999 28
6.447 -0.175 -0.47600001 24
6.441 -0.17200001 -0.46200001 12
6.4910002 -0.169 -0.45300001 1
0 0 0 4
12.908 -0.322 -0.84799999 3
12.925 -0.315 -0.824 3
13.686 -0.32600001 -0.84399998 3
0 0 0 2
0 0 0 3
0 0 0 0
0 0 0 1
0 0 0 2
0 0 0 1
0 0 0 1
28.809 -0.56599998 -1.302 2
0 0 0 27
31.528999 -0.588 -1.294 42
31.521 -0.57300001 -1.228 47
31.533001 -0.55800003 -1.164 49
31.518 -0.54299998 -1.097 51
0 0 0 2
0 0 0 0
0 0 0 6
12.253 -0.189 -0.32499999 20
12.236 -0.183 -0.29800001 31
12.249 -0.178 -0.273 29
12.278 -0.17299999 -0.248 18
12.356 -0.169 -0.223 16
12.392 -0.164 -0.198 14
12.378 -0.15899999 -0.171 6
12.348 -0.154 -0.146 17
12.33 -0.149 -0.119 17
12.445 -0.145 -0.093999997 21
12.451 -0.141 -0.068000004 35
12.426 -0.13600001 -0.041999999 35
12.435 -0.131 -0.016000001 35
12.351 -0.126 0.0089999996 15
12.389 -0.122 0.035 1
0 0 0 19
30.882999 -0.28400001 0.219 14
30.938 -0.27500001 0.285 10
31.233 -0.26699999 0.35299999 6
31.451 -0.259 0.42199999 6
31.427999 -0.249 0.48899999 6
31.459999 -0.23999999 0.55599999 7
31.466999 -0.23100001 0.62199998 7
31.434999 -0.221 0.68699998 7
31.440001 -0.213 0.75400001 7
31.427 -0.204 0.81999999 7
0 0 0 2
28.247 -0.168 0.85699999 2
0 0 0 9
31.474001 -0.17200001 1.0880001 9
31.49 -0.164 1.155 9
31.455 -0.15700001 1.22 8
31.459 -0.15000001 1.286 12
31.469 -0.14300001 1.353 18
31.545 -0.13699999 1.423 24
31.583 -0.131 1.49 25
31.607 -0.124 1.558 26
31.613001 -0.118 1.624 26
31.625999 -0.113 1.692 25
31.641001 -0.107 1.7589999 27
31.672001 -0.102 1.826 25
31.68 -0.097000003 1.893 24
31.697001 -0.092 1.96 25
31.694 -0.086999997 2.026 26
31.725 -0.082999997 2.095 26
31.740999 -0.079000004 2.161 26
31.743 -0.075000003 2.2279999 25
31.738001 -0.071000002 2.293 27
31.705 -0.067000002 2.3570001 29
31.474001 -0.064000003 2.405 35
31.294001 -0.059999999 2.4549999 39
31.219999 -0.057 2.5139999 34
31.245001 -0.055 2.579 32
31.246 -0.052000001 2.6429999 30
31.26 -0.050000001 2.7090001 27
31.259001 -0.048 2.773 24
31.278 -0.046 2.8380001 24
31.278 -0.044 2.902 24
31.298 -0.043000001 2.9679999 24
31.306999 -0.041999999 3.033 24
31.323 -0.041000001 3.099 25
31.323999 -0.039999999 3.1630001 17
31.316 -0.039000001 3.2249999 9
0 0 0 0
0 0 0 0
0 0 0 0
0 0 0 0
0 0 0 0
0 0 0 0
0 0 0 0
0 0 0 0
0 0 0 0
0 0 0 0
0 0 0 0
0 0 0 0
0 0 0 0
0 0 0 0
0 0 0 0
0 0 0 0
0 0 0 0
0 0 0 0
0 0 0 2
0 0 0 0
0 0 0 3
0 0 0 0
0 0 0 3
39.743999 -0.108 5.9759998 2
0 0 0 2
35.609001 -0.107 5.4910002 4
35.648998 -0.112 5.5640001 3
0 0 0 2
37.617001 -0.13 6.0149999 2
0 0 0 0
0 0 0 3
36.212002 -0.14300001 5.9910002 3
35.868999 -0.148 6.0009999 5
35.584999 -0.154 6.02 14
35.363998 -0.16 6.0500002 20
35.148998 -0.16500001 6.0770001 26
34.859001 -0.17200001 6.092 26
34.535999 -0.177 6.0970001 25
34.229 -0.183 6.105 25
33.952 -0.189 6.1160002 24
33.666 -0.19499999 6.125 24
33.382999 -0.2 6.1350002 23
33.133999 -0.206 6.1469998 23
32.858002 -0.212 6.1550002 23
32.595001 -0.21799999 6.1630001 22
32.328999 -0.22499999 6.1700001 22
32.055 -0.23100001 6.1729999 24
31.794001 -0.237 6.178 22
31.570999 -0.244 6.1900001 23
31.326 -0.25 6.1960001 23
31.113001 -0.257 6.2069998 27
30.896999 -0.264 6.217 25
30.663 -0.271 6.223 25
30.427 -0.27700001 6.2280002 28
30.23 -0.28400001 6.2379999 26
30.014 -0.29100001 6.2449999 25
29.788 -0.29699999 6.2470002 26
29.599001 -0.30500001 6.257 28
29.417 -0.31200001 6.2670002 24
29.212 -0.31900001 6.2719998 26
29.011 -0.32499999 6.277 26
28.837999 -0.333 6.2870002 27
28.666 -0.34 6.296 29
28.459999 -0.34599999 6.296 26
28.26 -0.354 6.2969999 23
28.1 -0.361 6.3070002 24
27.938999 -0.36899999 6.3150001 24
27.759001 -0.37599999 6.3179998 25
27.582001 -0.38299999 6.3210001 23
27.427999 -0.391 6.3280001 23
27.275 -0.398 6.335 23
27.127001 -0.405 6.342 24
26.952 -0.412 6.342 24
26.826 -0.41999999 6.3520002 24
26.669001 -0.42699999 6.355 24
26.514999 -0.435 6.3579998 25
26.351 -0.442 6.3579998 28
26.209999 -0.449 6.3629999 23
26.065001 -0.45699999 6.3660002 24
25.934999 -0.46399999 6.3709998 23
25.794001 -0.472 6.375 25
25.659 -0.479 6.3779998 25
25.525999 -0.486 6.381 25
25.392 -0.49399999 6.3839998 26
25.271999 -0.50199997 6.3889999 26
25.146999 -0.509 6.3930001 29
25.031 -0.51700002 6.3979998 24
24.893 -0.52399999 6.3959999 28
24.778 -0.53200001 6.4000001 29
24.657 -0.54000002 6.4029999 28
24.548 -0.54699999 6.4070001 28
24.433001 -0.55500001 6.4089999 23
24.305 -0.56199998 6.4070001 23
24.202 -0.56999999 6.4120002 24
24.091 -0.57700002 6.4130001 30
23.997 -0.58600003 6.4190001 31
23.905001 -0.59399998 6.4250002 30
23.812 -0.602 6.4299998 29
23.716 -0.60900003 6.4330001 26
23.625 -0.61699998 6.4380002 25
23.528 -0.625 6.4400001 25
23.424999 -0.63200003 6.4400001 30
23.341 -0.63999999 6.4450002 28
23.231001 -0.64700001 6.4419999 29
23.156 -0.65600002 6.4489999 26
23.066 -0.66299999 6.4510002 30
22.981001 -0.671 6.4530001 26
22.891001 -0.67799997 6.454 29
22.796 -0.68599999 6.4530001 23
22.736 -0.69400001 6.461 24
22.639999 -0.70099998 6.4590001 25
22.572001 -0.70999998 6.4640002 27
22.485001 -0.71700001 6.4629998 29
22.417 -0.72500002 6.467 35
22.341 -0.73299998 6.4689999 33
22.283001 -0.741 6.4749999 31
22.201 -0.74800003 6.4749999 25
22.118 -0.75599998 6.4720001 30
22.035 -0.76300001 6.4699998 27
21.983999 -0.77100003 6.4770002 29
21.908001 -0.77899998 6.4759998 25
21.839001 -0.78600001 6.4770002 31
21.775999 -0.79400003 6.4790001 28
21.709999 -0.80199999 6.48 35
21.659 -0.81099999 6.4850001 27
21.601 -0.81900001 6.4879999 26
21.539 -0.82700002 6.4879999 31
21.488001 -0.83399999 6.4920001 31
21.424999 -0.84200001 6.4920001 29
21.379999 -0.85000002 6.4970002 24
21.327 -0.85799998 6.4990001 30
21.275 -0.866 6.5009999 25
21.211 -0.87300003 6.4990001 29
21.173 -0.88200003 6.5040002 26
21.113001 -0.889 6.5029998 28
21.066999 -0.89700001 6.5050001 27
21.030001 -0.90600002 6.5100002 27
20.976999 -0.91399997 6.5089998 27
20.938 -0.921 6.5120001 36
20.934 -0.93099999 6.526 28
20.9 -0.93900001 6.5310001 30
20.886 -0.94800001 6.5409999 22
20.913 -0.95999998 6.5640001 23
20.936001 -0.97100002 6.585 21
20.941999 -0.98100001 6.6009998 24
20.989 -0.99299997 6.6290002 22
20.975 -1.002 6.638 25
20.995001 -1.013 6.6570001 28
20.995001 -1.023 6.6700001 23
21.003 -1.033 6.6849999 28
20.990999 -1.0420001 6.6929998 40
20.993999 -1.052 6.7059999 31
21.007 -1.062 6.7210002 27
20.995001 -1.072 6.7290001 32
20.975 -1.081 6.7329998 39
20.985001 -1.09 6.7470002 38
20.979 -1.1 6.756 32
20.966 -1.109 6.7620001 30
20.957001 -1.118 6.7690001 29
20.961 -1.128 6.7800002 29
20.934999 -1.136 6.7800002 27
20.931 -1.146 6.7880001 35
20.938 -1.156 6.7979999 26
20.922001 -1.165 6.8010001 27
20.906 -1.173 6.8039999 32
20.892 -1.182 6.8070002 24
20.867001 -1.1900001 6.8070002 26
20.847 -1.198 6.8070002 26
20.826 -1.206 6.8070002 35
20.805 -1.214 6.8070002 33
20.789 -1.223 6.8080001 27
20.775 -1.2309999 6.809 33
20.754999 -1.239 6.8080001 33
20.736 -1.247 6.8070002 27
20.716999 -1.255 6.8049998 26
20.694 -1.263 6.803 27
20.676001 -1.27 6.8010001 26
20.646 -1.278 6.7950001 32
20.610001 -1.284 6.7870002 27
20.583 -1.2920001 6.7810001 32
20.540001 -1.298 6.77 34
20.525 -1.306 6.7680001 29
20.514999 -1.314 6.7670002 32
20.476999 -1.3200001 6.757 35
20.440001 -1.327 6.7470002 34
20.415001 -1.3329999 6.7399998 38
20.375999 -1.339 6.7290001 36
20.354 -1.346 6.7220001 33
20.315001 -1.352 6.71 37
20.282 -1.359 6.6999998 39
20.264999 -1.3660001 6.6939998 40
20.23 -1.3710001 6.6830001 31
20.198999 -1.378 6.6719999 30
20.124001 -1.381 6.6469998 27
20.072001 -1.385 6.6279998 24
20.049 -1.392 6.6199999 25
19.969 -1.3940001 6.592 26
19.908001 -1.397 6.5700002 26
19.871 -1.403 6.5549998 28
19.843 -1.409 6.5440001 26
19.825001 -1.415 6.5349998 26
19.819 -1.4220001 6.5300002 25
19.827999 -1.431 6.5300002 25
19.819 -1.437 6.5229998 30
19.834 -1.446 6.5240002 31
19.841 -1.4529999 6.5229998 32
19.851999 -1.462 6.5219998 34
19.868999 -1.47 6.5219998 26
19.875999 -1.478 6.52 33
19.903 -1.487 6.5240002 31
19.914 -1.495 6.5219998 25
19.927 -1.503 6.52 34
19.961 -1.513 6.5250001 25
19.961 -1.52 6.5190001 25
19.988001 -1.528 6.5209999 36
20 -1.536 6.5180001 33
20 -1.543 6.5100002 34
20.038 -1.553 6.5149999 33
20.049999 -1.561 6.5110002 33
20.079 -1.5700001 6.513 26
20.096001 -1.5779999 6.5100002 33
20.125999 -1.586 6.5110002 34
20.153999 -1.595 6.5110002 33
20.190001 -1.604 6.513 26
20.207001 -1.612 6.5089998 25
20.225 -1.619 6.5050001 30
20.259001 -1.628 6.506 25
20.290001 -1.637 6.5050001 24
20.326 -1.646 6.506 24
20.356001 -1.654 6.5040002 24
20.388 -1.663 6.5029998 30
20.422001 -1.671 6.5019999 26
20.451 -1.679 6.5 30
20.503 -1.6900001 6.5040002 26
20.525 -1.697 6.4990001 31
20.566 -1.706 6.4990001 30
20.6 -1.714 6.4959998 31
20.646999 -1.723 6.4980001 32
20.674999 -1.7309999 6.493 31
20.719 -1.74 6.493 31
20.763 -1.749 6.4920001 32
20.784 -1.756 6.4840002 32
20.841999 -1.766 6.487 33
20.878 -1.774 6.4829998 31
20.924 -1.783 6.4819999 32
20.976999 -1.7920001 6.4819999 26
21.024 -1.801 6.48 25
21.063 -1.809 6.4759998 30
21.122 -1.819 6.4770002 28
21.167 -1.827 6.474 24
21.214001 -1.836 6.4710002 31
21.268999 -1.845 6.4699998 29
21.330999 -1.854 6.4699998 25
21.374001 -1.863 6.4650002 29
21.434999 -1.872 6.4650002 25
21.489 -1.881 6.4619999 30
21.532 -1.888 6.4559999 30
21.603001 -1.898 6.4580002 26
21.643 -1.906 6.4489999 30
21.716999 -1.916 6.4510002 30
21.77 -1.925 6.4460001 29
21.829 -1.933 6.4429998 29
21.898001 -1.943 6.4419999 28
21.976 -1.9529999 6.4429998 22
22.059 -1.964 6.4460001 24
22.127001 -1.973 6.4429998 28
22.202 -1.982 6.4419999 29
22.273001 -1.992 6.4400001 28
22.334999 -2 6.4349999 31
22.413 -2.01 6.4330001 25
22.485001 -2.0190001 6.4299998 28
22.549 -2.027 6.4239998 27
22.625 -2.036 6.421 23
22.725 -2.0480001 6.4239998 22
22.809999 -2.0580001 6.4229999 23
22.889999 -2.0669999 6.4200001 27
22.979 -2.0769999 6.4190001 23
23.045 -2.085 6.4109998 27
23.143 -2.096 6.4109998 24
23.218 -2.1040001 6.4050002 27
23.306 -2.1140001 6.401 27
23.408001 -2.125 6.401 22
23.514 -2.135 6.402 23
23.6 -2.1440001 6.3969998 22
23.707001 -2.155 6.3969998 22
23.806999 -2.165 6.3940001 27
23.907 -2.175 6.3909998 27
24.011999 -2.1849999 6.3899999 28
24.107 -2.194 6.3839998 26
24.222 -2.2049999 6.3839998 25
24.327 -2.2149999 6.3800001 27
24.424999 -2.224 6.3740001 29
24.540001 -2.2349999 6.3720002 28
24.660999 -2.2460001 6.3709998 28
24.761999 -2.2539999 6.3639998 28
24.862 -2.263 6.3569999 27
24.999001 -2.2739999 6.3579998 23
25.108 -2.2839999 6.3509998 27
25.226999 -2.2939999 6.3470001 28
25.351999 -2.3039999 6.3429999 24
25.482 -2.3150001 6.3400002 24
25.584 -2.323 6.3299999 24
25.723 -2.3340001 6.3280001 22
25.860001 -2.3440001 6.3239999 23
25.996 -2.355 6.3200002 27
26.143999 -2.3659999 6.3189998 24
26.257999 -2.375 6.3080001 24
26.410999 -2.3870001 6.3060002 22
26.535 -2.395 6.2969999 23
26.708 -2.408 6.2989998 23
26.861 -2.4189999 6.2950001 25
27.011 -2.4300001 6.29 24
27.163 -2.4400001 6.2849998 24
27.325001 -2.451 6.2810001 24
27.493999 -2.4630001 6.2779999 23
27.648001 -2.473 6.2709999 25
27.775999 -2.4809999 6.2579999 27
27.823999 -2.48 6.2259998 35
27.839001 -2.477 6.1859999 37
27.837999 -2.473 6.1420002 33
27.837 -2.4679999 6.099 39
27.826 -2.4619999 6.053 39
27.823 -2.457 6.0079999 38
27.823 -2.4519999 5.9640002 37
27.819 -2.4460001 5.9190001 36
27.804001 -2.4389999 5.8709998 36
27.798 -2.4330001 5.8249998 38
27.812 -2.428 5.783 40
27.802999 -2.421 5.7360001 41
27.806999 -2.415 5.691 39
27.801001 -2.408 5.6440001 39
27.792 -2.401 5.5970001 33
27.785 -2.3929999 5.5500002 42
27.798 -2.3870001 5.507 40
27.780001 -2.3789999 5.4559999 42
27.771 -2.3699999 5.408 41
27.771999 -2.3629999 5.362 40
27.761999 -2.3540001 5.3130002 42
27.763 -2.3469999 5.2659998 43
27.771 -2.3380001 5.2189999 42
27.768 -2.3299999 5.171 42
27.775 -2.322 5.125 38
27.749001 -2.3110001 5.072 43
27.76 -2.303 5.027 45
27.753 -2.293 4.9780002 46
27.753 -2.2839999 4.9289999 45
27.742001 -2.2739999 4.8790002 44
27.745001 -2.2639999 4.8319998 44
27.747 -2.2550001 4.783 43
27.756001 -2.2449999 4.7360001 45
27.735001 -2.233 4.6830001 44
27.742001 -2.223 4.6360002 45
27.728001 -2.2119999 4.5840001 46
27.729 -2.201 4.5349998 46
27.724001 -2.1900001 4.4850001 46
27.732 -2.1789999 4.4369998 38
27.725 -2.1670001 4.3860002 46
27.731001 -2.1559999 4.3369999 45
27.728001 -2.1440001 4.2870002 45
27.726999 -2.132 4.237 46
27.722 -2.119 4.1849999 46
27.719999 -2.1070001 4.1350002 46
27.724001 -2.0940001 4.085 47
27.718 -2.082 4.0339999 47
27.733999 -2.069 3.9849999 46
27.739 -2.056 3.9349999 37
27.735001 -2.043 3.8829999 44
27.746 -2.03 3.8340001 37
27.749001 -2.016 3.783 45
27.749001 -2.0020001 3.7309999 44
27.759001 -1.989 3.6819999 33
27.757999 -1.975 3.6289999 39
27.768999 -1.961 3.5799999 38
27.768999 -1.9450001 3.527 37
27.777 -1.931 3.477 36
27.785 -1.9170001 3.4260001 37
27.787001 -1.901 3.3740001 35
27.809999 -1.887 3.3239999 36
27.812 -1.8710001 3.273 29
27.825001 -1.8559999 3.221 34
27.834 -1.84 3.171 33
27.849001 -1.825 3.119 30
27.851999 -1.808 3.0669999 31
27.881001 -1.793 3.017 30
27.889 -1.777 2.9660001 29
27.92 -1.761 2.9159999 25
27.927 -1.744 2.8629999 24
27.954 -1.728 2.813 22
28.011999 -1.714 2.767 19
28.052999 -1.698 2.717 12
28.101999 -1.683 2.668 6
0 0 0 42
32.056 -1.876 2.921 46
32.043999 -1.854 2.8599999 45
32.039001 -1.832 2.7980001 45
32.021 -1.808 2.7349999 45
32.007999 -1.785 2.6730001 44
32.014 -1.763 2.6129999 45
31.997 -1.739 2.55 45
31.981001 -1.715 2.487 45
31.990999 -1.693 2.427 43
32.099998 -1.675 2.3729999 26
32.508999 -1.673 2.3429999 18
33.181 -1.682 2.3280001 13
33.868999 -1.692 2.3110001 14
34.528 -1.698 2.2909999 14
35.071999 -1.697 2.2590001 12
35.799999 -1.705 2.2360001 11
36.200001 -1.6950001 2.1919999 9
36.272999 -1.67 2.1270001 6
36.25 -1.64 2.056 8
36.186001 -1.608 1.983 12
36.188 -1.5779999 1.914 15
36.181 -1.549 1.844 12
0 0 0 2
0 0 0 0
0 0 0 0
0 0 0 2
36.109001 -1.3940001 1.4960001 4
36.103001 -1.364 1.429 5
36.094002 -1.332 1.359 6
36.077 -1.299 1.289 6
36.172001 -1.271 1.225 3
0 0 0 0
0 0 0 0
0 0 0 0
0 0 0 4
28.643999 -0.87699997 0.69700003 3
0 0 0 2
31.198 -0.89700001 0.639 6
31.18 -0.86799997 0.58099997 10
31.143 -0.838 0.52200001 13
31.113001 -0.80800003 0.463 14
31.111 -0.778 0.40400001 15
31.101999 -0.74900001 0.34599999 14
31.069 -0.71700001 0.28600001 15
31.017 -0.68599999 0.228 11
30.955999 -0.65499997 0.169 7
0 0 0 4
28.353001 -0.54299998 0.048 11
28.267 -0.51300001 -0.0040000002 24
28.238001 -0.484 -0.057 38
28.201 -0.45500001 -0.109 46
28.190001 -0.42699999 -0.161 46
28.167 -0.39700001 -0.214 48
0 0 0 1
12.361 -0.149 -0.14 12
12.37 -0.13600001 -0.163 7
12.337 -0.123 -0.185 12
12.275 -0.109 -0.206 33
12.261 -0.096000001 -0.229 27
12.228 -0.082999997 -0.25099999 24
12.204 -0.068999998 -0.273 33
12.193 -0.056000002 -0.294 22
12.182 -0.043000001 -0.31600001 22
12.172 -0.029999999 -0.338 24
12.167 -0.017000001 -0.36000001 24
12.161 -0.0040000002 -0.382 22
12.154 0.0089999996 -0.403 23
12.151 0.022 -0.426 21
12.135 0.035999998 -0.447 33
12.143 0.048999999 -0.46900001 22
12.127 0.063000001 -0.49000001 25
12.127 0.077 -0.51200002 39
12.114 0.090000004 -0.53299999 36
12.114 0.104 -0.55400002 21
12.098 0.118 -0.57499999 21
12.099 0.132 -0.597 24
12.089 0.146 -0.61699998 22
12.08 0.15899999 -0.63800001 24
12.07 0.17299999 -0.65899998 24
12.052 0.18700001 -0.67900002 33
12.056 0.20100001 -0.69999999 22
12.089 0.21600001 -0.72299999 14
12.139 0.23100001 -0.74699998 9
12.16 0.24600001 -0.76899999 14
12.129 0.25999999 -0.78799999 13
12.051 0.27200001 -0.80400002 10
11.7 0.278 -0.80000001 4
11.217 0.28 -0.78600001 3
10.751 0.28200001 -0.77200001 3
10.349 0.28400001 -0.76099998 3
10.016 0.287 -0.75300002 4
9.7049999 0.289 -0.74599999 4
9.4209995 0.292 -0.74000001 3
9.1370001 0.29499999 -0.73299998 5
8.8859997 0.29800001 -0.727 4
8.6400003 0.30000001 -0.722 4
8.3889999 0.301 -0.71399999 4
8.1610003 0.303 -0.70899999 3
7.9380002 0.30500001 -0.70200002 3
7.7249999 0.30599999 -0.69599998 4
7.5430002 0.308 -0.69199997 5
7.316 0.308 -0.68300003 11
7.1430001 0.31 -0.67799997 11
7.0209999 0.31299999 -0.67799997 12
6.9549999 0.31900001 -0.68199998 11
6.835 0.322 -0.68099999 6
6.599 0.31999999 -0.66799998 3
6.4720001 0.322 -0.66600001 4
6.3569999 0.324 -0.66399997 4
6.2210002 0.32499999 -0.66000003 4
6.1030002 0.32699999 -0.65700001 3
5.9850001 0.32800001 -0.653 3
5.8699999 0.329 -0.64999998 3
5.7379999 0.329 -0.64399999 3
5.6529999 0.33199999 -0.64300001 3
5.5489998 0.33199999 -0.63999999 3
5.448 0.33399999 -0.63700002 3
5.3520002 0.33500001 -0.63300002 3
5.2729998 0.336 -0.63200003 3
5.1820002 0.33700001 -0.62900001 3
5.1110001 0.33899999 -0.62800002 3
5.0149999 0.34 -0.62400001 3
4.9390001 0.34099999 -0.62099999 4
4.8520002 0.34099999 -0.61799997 4
4.7789998 0.34200001 -0.61500001 3
4.7249999 0.345 -0.61500001 3
4.6440001 0.345 -0.611 3
4.5830002 0.34599999 -0.61000001 3
4.5229998 0.34799999 -0.60799998 3
4.4629998 0.34900001 -0.60699999 2
4.4369998 0.35299999 -0.60900003 2
4.3600001 0.352 -0.60500002 2
4.3509998 0.35699999 -0.61000001 3
4.2020001 0.35100001 -0.59500003 2
4.1999998 0.35600001 -0.60000002 2
4.125 0.35499999 -0.59500003 2
4.1199999 0.36000001 -0.60000002 2
4.0570002 0.36000001 -0.59600002 2
4.0279999 0.36300001 -0.59799999 2
3.9979999 0.36500001 -0.59899998 2
3.9749999 0.368 -0.60100001 2
3.948 0.37099999 -0.60100001 2
3.925 0.37400001 -0.60299999 3
3.8180001 0.36899999 -0.59200001 3
3.826 0.37400001 -0.59799999 3
3.8340001 0.38 -0.60399997 3
3.707 0.373 -0.58899999 2
3.6719999 0.37400001 -0.588 3
3.5929999 0.37099999 -0.57999998 2
3.562 0.37200001 -0.579 2
3.5409999 0.37400001 -0.57999998 2
3.5650001 0.382 -0.58899999 3
3.4960001 0.37900001 -0.58200002 1
3.4549999 0.37900001 -0.579 2
3.4400001 0.382 -0.58099997 1
3.418 0.384 -0.58099997 1
3.3940001 0.38600001 -0.58099997 2
3.335 0.38299999 -0.57499999 2
3.2939999 0.38299999 -0.57200003 1
3.3039999 0.38800001 -0.57800001 2
3.266 0.38800001 -0.57499999 1
3.3329999 0.40000001 -0.58999997 2
3.2539999 0.39500001 -0.57999998 1
3.2019999 0.39300001 -0.574 1
3.188 0.39500001 -0.57499999 1
3.1040001 0.389 -0.56400001 1
0 0 0 2
3.1860001 0.40700001 -0.58600003 1
3.1949999 0.41299999 -0.59100002 1
3.076 0.40099999 -0.57200003 1
3.053 0.40200001 -0.57099998 1
3.016 0.40099999 -0.56699997 1
3.04 0.40799999 -0.57499999 1
3.0480001 0.41299999 -0.57999998 1
3.0090001 0.412 -0.57499999 1
3.0179999 0.417 -0.57999998 2
2.9289999 0.40799999 -0.56599998 1
2.8970001 0.40700001 -0.56300002 2
2.8469999 0.40400001 -0.55599999 1
2.839 0.40599999 -0.55699998 2
2.823 0.40700001 -0.55699998 2
2.8039999 0.40799999 -0.55599999 2
2.793 0.41 -0.55599999 2
2.7709999 0.41 -0.55400002 2
2.757 0.412 -0.55400002 2
2.74 0.412 -0.55299997 2
2.7320001 0.41499999 -0.55400002 1
2.7079999 0.414 -0.55199999 1
2.6930001 0.41499999 -0.551 1
2.7260001 0.42399999 -0.56 1
2.7320001 0.428 -0.56400001 1
2.645 0.417 -0.54799998 1
2.655 0.42199999 -0.55299997 1
2.6949999 0.43200001 -0.56300002 1
2.694 0.435 -0.56599998 1
2.6530001 0.43099999 -0.55900002 1
2.598 0.426 -0.55000001 1
2.6129999 0.43099999 -0.55500001 1
2.585 0.42899999 -0.551 1
2.562 0.42899999 -0.54799998 1
2.615 0.44100001 -0.56099999 1
2.6289999 0.44600001 -0.56699997 1
2.602 0.44499999 -0.56300002 1
2.52 0.433 -0.54699999 1
2.507 0.43399999 -0.546 1
2.5009999 0.43599999 -0.546 1
2.493 0.43700001 -0.546 1
2.483 0.43799999 -0.546 1
2.4760001 0.44 -0.546 1
2.4630001 0.44 -0.54500002 1
2.4579999 0.442 -0.546 1
2.4489999 0.44299999 -0.54500002 1
2.4419999 0.44499999 -0.54500002 1
2.431 0.44499999 -0.54400003 1
2.415 0.44499999 -0.542 1
2.4130001 0.447 -0.54299998 1
2.3970001 0.447 -0.54100001 1
2.395 0.449 -0.542 1
2.3900001 0.45100001 -0.54299998 1
2.3789999 0.45100001 -0.54100001 1
2.3770001 0.45300001 -0.542 1
2.3710001 0.454 -0.542 1
2.3559999 0.454 -0.54000002 1
2.3529999 0.456 -0.54100001 1
2.3440001 0.456 -0.54000002 1
2.3340001 0.45699999 -0.53899997 1
2.335 0.45899999 -0.54000002 1
2.3299999 0.461 -0.54100001 1
2.3210001 0.461 -0.54000002 1
2.303 0.46000001 -0.53600001 1
2.313 0.46399999 -0.54000002 1
2.2969999 0.463 -0.537 1
2.302 0.46700001 -0.53899997 1
2.29 0.46599999 -0.53799999 1
2.2909999 0.46900001 -0.53899997 1
2.279 0.46900001 -0.537 1
2.2690001 0.46900001 -0.53600001 1
2.2720001 0.47099999 -0.537 1
2.3299999 0.48500001 -0.55199999 1
2.3929999 0.50099999 -0.56800002 1
2.256 0.47400001 -0.53600001 1
2.2539999 0.47600001 -0.53600001 1
2.2539999 0.47799999 -0.537 1
2.2520001 0.479 -0.537 1
2.25 0.48100001 -0.537 1
2.283 0.49000001 -0.546 1
2.2449999 0.48300001 -0.53799999 1
2.234 0.48300001 -0.53600001 1
2.3199999 0.50400001 -0.55699998 1
2.319 0.505 -0.55800003 1
2.309 0.505 -0.55599999 1
2.2650001 0.49700001 -0.546 1
2.2620001 0.498 -0.54500002 1
2.319 0.51300001 -0.56 1
2.3069999 0.51200002 -0.55800003 1
2.286 0.509 -0.55299997 1
2.2090001 0.49399999 -0.53500003 1
2.299 0.51599997 -0.55699998 1
2.2060001 0.49599999 -0.53500003 1
2.207 0.498 -0.53500003 1
2.1900001 0.49599999 -0.53200001 1
2.1989999 0.49900001 -0.53399998 1
2.1919999 0.49900001 -0.53299999 1
2.194 0.50099999 -0.53399998 1
2.1900001 0.50199997 -0.53299999 1
2.1900001 0.50300002 -0.53299999 1
2.1900001 0.505 -0.53299999 1
2.1919999 0.50700003 -0.53399998 1
2.1889999 0.50800002 -0.53299999 1
2.188 0.509 -0.53299999 1
2.1849999 0.50999999 -0.53299999 1
2.1849999 0.51099998 -0.53299999 1
2.188 0.51300001 -0.53299999 1
2.1830001 0.51300001 -0.53200001 1
2.178 0.51300001 -0.53100002 1
2.1819999 0.51499999 -0.53200001 1
2.181 0.51599997 -0.53200001 1
2.1860001 0.51899999 -0.53299999 1
2.184 0.51999998 -0.53299999 1
2.1860001 0.52100003 -0.53299999 1
2.1860001 0.523 -0.53299999 1
2.1860001 0.52399999 -0.53299999 1
2.184 0.52399999 -0.53200001 1
2.191 0.52700001 -0.53399998 1
2.1860001 0.52700001 -0.53200001 1
2.1949999 0.52999997 -0.53399998 1
2.198 0.53200001 -0.53500003 1
2.194 0.53200001 -0.53299999 1
2.1919999 0.53200001 -0.53299999 1
2.2019999 0.53600001 -0.53500003 1
2.204 0.537 -0.53500003 1
2.2049999 0.53899997 -0.53500003 1
2.2049999 0.53899997 -0.53500003 1
2.2049999 0.54000002 -0.53399998 1
2.211 0.542 -0.53500003 1
2.204 0.542 -0.53299999 1
2.2049999 0.54299998 -0.53299999 1
2.207 0.54400003 -0.53299999 1
2.207 0.54500002 -0.53200001 1
2.2149999 0.54799998 -0.53399998 1
2.211 0.54699999 -0.53200001 1
2.223 0.551 -0.53399998 1
2.2279999 0.55299997 -0.53500003 1
2.224 0.55299997 -0.53399998 1
2.23 0.55500001 -0.53399998 1
2.2309999 0.55500001 -0.53399998 1
2.234 0.55699998 -0.53399998 1
2.237 0.55800003 -0.53399998 1
2.2460001 0.56099999 -0.53500003 1
2.2460001 0.56099999 -0.53500003 1
2.2490001 0.56300002 -0.53500003 1
2.2449999 0.56199998 -0.53299999 1
2.2550001 0.565 -0.53399998 1
2.257 0.56599998 -0.53399998 1
2.2639999 0.56800002 -0.53500003 1
2.263 0.56800002 -0.53399998 1
2.2639999 0.56900001 -0.53299999 1
2.273 0.57099998 -0.53399998 1
2.2709999 0.57099998 -0.53299999 1
2.276 0.57300001 -0.53299999 1
2.28 0.574 -0.53299999 1
2.313 0.58200002 -0.54000002 1
2.302 0.57999998 -0.53600001 1
2.3080001 0.58099997 -0.53600001 1
2.3150001 0.583 -0.537 1
2.3150001 0.583 -0.53600001 1
2.3269999 0.58700001 -0.537 1
2.3280001 0.58700001 -0.53600001 1
2.3299999 0.588 -0.53600001 1
2.3510001 0.59299999 -0.53899997 1
2.352 0.59299999 -0.53799999 1
2.352 0.59299999 -0.537 1
2.369 0.597 -0.54000002 1
2.3699999 0.597 -0.53799999 1
2.372 0.59799999 -0.53799999 1
2.3789999 0.59899998 -0.53799999 1
2.381 0.60000002 -0.537 1
2.395 0.60299999 -0.53799999 1
2.402 0.60500002 -0.53899997 1
2.4119999 0.60699999 -0.54000002 1
2.4159999 0.60699999 -0.53899997 1
2.424 0.60900003 -0.53899997 1
2.428 0.61000001 -0.53799999 1
2.4449999 0.61400002 -0.54100001 1
