# .PCD v0.7 - Point Cloud Data file format
VERSION 0.7
FIELDS x y z intensity
SIZE 4 4 4 4
TYPE F F F F
COUNT 1 1 1 1
WIDTH 1745
HEIGHT 1
VIEWPOINT 0 0 0 1 0 0 0
POINTS 1745
DATA ascii
2.1059999 0.068000004 -0.546 1
2.0969999 0.068999998 -0.54699999 1
2.0899999 0.07 -0.54799998 1
2.0710001 0.071000002 -0.546 1
2.0550001 0.071000002 -0.54400003 1
2.0469999 0.071999997 -0.54500002 1
2.0339999 0.072999999 -0.54500002 1
2.0239999 0.074000001 -0.54500002 1
2.016 0.075000003 -0.54500002 1
2.0079999 0.075999998 -0.546 1
1.998 0.075999998 -0.546 1
1.977 0.077 -0.542 1
1.976 0.078000002 -0.54500002 1
1.957 0.079000004 -0.542 1
1.946 0.079000004 -0.542 1
1.926 0.079999998 -0.53799999 1
1.947 0.082000002 -0.54699999 1
1.979 0.083999999 -0.55800003 1
1.9119999 0.082999997 -0.542 1
1.89 0.082999997 -0.53799999 1
1.892 0.083999999 -0.54100001 1
1.8839999 0.085000001 -0.54100001 1
1.8660001 0.085000001 -0.53799999 1
1.867 0.086000003 -0.54000002 1
1.859 0.086999997 -0.54000002 1
1.85 0.088 -0.54000002 1
1.844 0.089000002 -0.54000002 1
1.836 0.090000004 -0.54000002 1
1.822 0.090000004 -0.537 1
1.806 0.090000004 -0.53500003 1
1.808 0.092 -0.537 1
1.796 0.092 -0.53600001 1
1.789 0.093000002 -0.53500003 1
1.79 0.093999997 -0.53799999 1
1.7819999 0.094999999 -0.537 1
1.773 0.094999999 -0.53600001 1
1.762 0.096000001 -0.53500003 1
1.758 0.097000003 -0.53500003 1
1.755 0.097000003 -0.53600001 1
1.7539999 0.097999997 -0.53799999 1
1.745 0.098999999 -0.537 1
1.737 0.1 -0.53600001 1
1.728 0.1 -0.53500003 1
1.721 0.101 -0.53399998 1
1.71 0.101 -0.53200001 1
1.712 0.102 -0.53399998 1
1.704 0.103 -0.53299999 1
1.7 0.104 -0.53399998 1
1.699 0.105 -0.53500003 1
1.6900001 0.105 -0.53399998 1
1.688 0.106 -0.53399998 1
1.687 0.107 -0.53600001 1
1.668 0.107 -0.53100002 1
1.664 0.108 -0.53100002 1
1.658 0.108 -0.52999997 1
1.653 0.109 -0.52999997 1
1.647 0.109 -0.52899998 1
1.648 0.11 -0.53100002 1
1.635 0.111 -0.528 1
1.633 0.111 -0.52899998 1
1.626 0.112 -0.52700001 1
1.6210001 0.112 -0.52700001 1
1.619 0.113 -0.52700001 1
1.6160001 0.114 -0.52700001 1
1.609 0.114 -0.52600002 1
1.6059999 0.115 -0.52600002 1
1.602 0.116 -0.52600002 1
1.597 0.116 -0.52499998 1
1.6 0.117 -0.52700001 1
1.594 0.118 -0.52600002 1
1.596 0.119 -0.528 1
1.585 0.119 -0.52499998 1
1.586 0.12 -0.52600002 1
1.584 0.121 -0.52600002 1
1.582 0.121 -0.52600002 1
1.5829999 0.122 -0.528 1
1.579 0.123 -0.52700001 1
1.575 0.123 -0.52700001 1
1.581 0.125 -0.52999997 1
1.572 0.125 -0.52700001 1
1.574 0.126 -0.52899998 1
1.576 0.127 -0.52999997 1
1.574 0.12800001 -0.52999997 1
1.562 0.127 -0.52600002 1
1.5599999 0.12800001 -0.52600002 1
1.561 0.12899999 -0.52700001 1
1.558 0.12899999 -0.52700001 1
1.552 0.13 -0.52499998 1
1.557 0.131 -0.528 1
1.559 0.132 -0.52899998 1
1.55 0.132 -0.52600002 1
1.549 0.133 -0.52600002 1
1.543 0.133 -0.52499998 1
1.543 0.134 -0.52499998 1
1.549 0.13500001 -0.528 1
1.548 0.13600001 -0.528 1
1.535 0.13500001 -0.523 1
1.54 0.13600001 -0.52499998 1
1.5420001 0.13699999 -0.52600002 1
1.535 0.13699999 -0.52399999 1
1.538 0.138 -0.52499998 1
1.538 0.139 -0.52600002 1
1.534 0.139 -0.52499998 1
1.534 0.14 -0.52499998 1
1.5319999 0.141 -0.52399999 1
1.535 0.142 -0.52499998 1
1.534 0.142 -0.52499998 1
1.534 0.14300001 -0.52499998 1
1.533 0.14300001 -0.52499998 1
1.529 0.14399999 -0.52399999 1
1.534 0.145 -0.52600002 1
1.5319999 0.145 -0.52499998 1
1.528 0.146 -0.523 1
1.53 0.146 -0.52399999 1
1.52 0.146 -0.52100003 1
1.533 0.148 -0.52499998 1
1.533 0.149 -0.52499998 1
1.535 0.149 -0.52499998 1
1.5369999 0.15000001 -0.52600002 1
1.536 0.15099999 -0.52499998 1
1.533 0.15099999 -0.52399999 1
1.536 0.152 -0.52499998 1
1.5369999 0.152 -0.52499998 1
1.534 0.153 -0.52399999 1
1.5369999 0.154 -0.52499998 1
1.534 0.154 -0.523 1
1.538 0.155 -0.52399999 1
1.538 0.155 -0.52399999 1
1.538 0.156 -0.52399999 1
1.541 0.15700001 -0.52399999 1
1.541 0.15700001 -0.52399999 1
1.5470001 0.15800001 -0.52499998 1
1.5420001 0.15800001 -0.523 1
1.5420001 0.15899999 -0.523 1
1.551 0.16 -0.52499998 1
1.551 0.161 -0.52499998 1
1.548 0.161 -0.523 1
1.552 0.162 -0.52399999 1
1.552 0.162 -0.52399999 1
1.549 0.162 -0.52200001 1
1.558 0.164 -0.52399999 1
1.563 0.16500001 -0.52499998 1
1.561 0.16500001 -0.52399999 1
1.573 0.167 -0.52700001 1
1.572 0.167 -0.52600002 1
1.572 0.167 -0.52600002 1
1.577 0.168 -0.52700001 1
1.5779999 0.169 -0.52600002 1
1.573 0.168 -0.52399999 1
1.579 0.169 -0.52499998 1
1.5829999 0.17 -0.52499998 1
1.582 0.17 -0.52399999 1
1.5880001 0.171 -0.52499998 1
1.591 0.17200001 -0.52499998 1
1.594 0.17299999 -0.52499998 1
1.592 0.17299999 -0.52399999 1
1.602 0.17399999 -0.52600002 1
1.602 0.175 -0.52499998 1
1.61 0.176 -0.52700001 1
1.613 0.176 -0.52700001 1
1.612 0.176 -0.52499998 1
1.619 0.178 -0.52600002 1
1.628 0.17900001 -0.528 1
1.622 0.178 -0.52499998 1
1.6289999 0.17900001 -0.52600002 1
1.633 0.18000001 -0.52600002 1
1.6339999 0.18000001 -0.52499998 1
1.641 0.18099999 -0.52600002 1
1.647 0.182 -0.52700001 1
1.654 0.183 -0.528 1
1.6569999 0.184 -0.52700001 1
1.6670001 0.185 -0.52899998 1
1.666 0.185 -0.528 1
1.676 0.186 -0.52899998 1
1.677 0.18700001 -0.528 1
1.681 0.18700001 -0.528 1
1.687 0.18799999 -0.528 1
1.689 0.18799999 -0.528 1
1.692 0.189 -0.52700001 1
1.71 0.191 -0.53100002 1
1.717 0.192 -0.53200001 1
1.725 0.193 -0.53299999 1
1.7309999 0.193 -0.53299999 1
1.733 0.19400001 -0.53200001 1
1.739 0.19400001 -0.53200001 1
1.744 0.19499999 -0.53200001 1
1.748 0.19499999 -0.53100002 1
1.756 0.19599999 -0.53200001 1
1.766 0.197 -0.53299999 1
1.77 0.198 -0.53299999 1
1.778 0.199 -0.53299999 1
1.784 0.199 -0.53299999 1
1.788 0.2 -0.53299999 1
1.796 0.20100001 -0.53299999 1
1.801 0.20100001 -0.53200001 1
1.8099999 0.20200001 -0.53299999 1
1.8200001 0.20299999 -0.53399998 1
1.8279999 0.204 -0.53399998 1
1.834 0.204 -0.53399998 1
1.839 0.205 -0.53299999 1
1.849 0.206 -0.53399998 1
1.864 0.207 -0.53600001 1
1.867 0.207 -0.53500003 1
1.878 0.208 -0.53600001 1
1.8789999 0.208 -0.53399998 1
1.888 0.20900001 -0.53500003 1
1.9069999 0.211 -0.53799999 1
1.9069999 0.211 -0.53500003 1
1.92 0.212 -0.53600001 1
1.928 0.212 -0.53600001 1
1.9400001 0.213 -0.537 1
1.95 0.214 -0.53799999 1
2.0280001 0.222 -0.55699998 1
1.9809999 0.21699999 -0.54100001 1
2.0439999 0.223 -0.55599999 1
2.0420001 0.223 -0.55299997 1
2.0250001 0.22 -0.54500002 1
2.0079999 0.21799999 -0.53799999 1
2.0209999 0.219 -0.53899997 1
0 0 0 1
2.046 0.221 -0.54000002 1
2.099 0.226 -0.551 1
2.1099999 0.227 -0.551 1
2.0829999 0.223 -0.54100001 1
2.098 0.22400001 -0.542 1
2.1140001 0.226 -0.54400003 1
2.1289999 0.227 -0.54500002 1
2.1340001 0.226 -0.54299998 1
2.155 0.228 -0.54500002 1
2.1689999 0.229 -0.54500002 1
2.184 0.23 -0.546 1
2.2030001 0.23100001 -0.54699999 1
2.2160001 0.23199999 -0.54799998 1
2.2320001 0.233 -0.54799998 1
2.2479999 0.234 -0.54900002 1
2.266 0.235 -0.55000001 1
2.2709999 0.235 -0.54799998 1
2.299 0.237 -0.551 1
2.319 0.23800001 -0.55199999 1
2.3210001 0.237 -0.55000001 1
2.3440001 0.23899999 -0.551 1
2.3640001 0.23999999 -0.55299997 1
2.388 0.241 -0.55500001 1
2.3959999 0.241 -0.55299997 1
2.4230001 0.243 -0.55500001 1
2.4460001 0.244 -0.55699998 1
2.4630001 0.245 -0.55699998 1
2.4879999 0.24600001 -0.55900002 1
2.5009999 0.24600001 -0.55800003 1
2.529 0.248 -0.56 1
2.546 0.249 -0.56 1
2.5710001 0.25 -0.56099999 1
2.589 0.25 -0.56099999 1
2.6099999 0.25099999 -0.56099999 1
2.7079999 0.259 -0.57800001 1
2.6900001 0.25600001 -0.56999999 1
2.6760001 0.25400001 -0.56300002 1
2.71 0.255 -0.565 2
2.737 0.25600001 -0.56599998 2
2.767 0.25799999 -0.56800002 2
2.7909999 0.259 -0.56900001 2
2.8169999 0.259 -0.56900001 2
2.8499999 0.26100001 -0.57099998 2
2.8800001 0.26199999 -0.57200003 2
2.9089999 0.26300001 -0.57300001 2
2.937 0.264 -0.574 2
2.957 0.264 -0.57300001 2
3 0.266 -0.57599998 2
3.0239999 0.266 -0.57599998 2
3.0639999 0.26800001 -0.57800001 2
3.092 0.26899999 -0.57800001 2
3.131 0.27000001 -0.57999998 2
3.165 0.271 -0.58099997 2
3.2969999 0.28 -0.60000002 2
3.3940001 0.287 -0.61199999 2
3.2920001 0.27599999 -0.588 2
3.3800001 0.28099999 -0.59799999 2
3.4319999 0.28299999 -0.60100001 2
3.444 0.28200001 -0.597 2
3.4549999 0.28 -0.59299999 2
3.48 0.28 -0.59100002 2
3.6170001 0.28799999 -0.60799998 2
3.5680001 0.28200001 -0.59399998 2
3.7090001 0.28999999 -0.611 2
3.7479999 0.29100001 -0.611 2
3.763 0.289 -0.60699999 2
3.822 0.29100001 -0.60900003 2
3.8989999 0.294 -0.61500001 3
3.9519999 0.29499999 -0.616 2
4.0110002 0.296 -0.61799997 2
4.0229998 0.294 -0.61299998 2
4.1139998 0.29800001 -0.62 2
4.1999998 0.30000001 -0.625 2
4.1880002 0.296 -0.616 2
4.2820001 0.30000001 -0.62199998 2
4.3130002 0.29800001 -0.61900002 2
4.3930001 0.30000001 -0.62300003 3
4.4559999 0.301 -0.62400001 3
4.533 0.30199999 -0.62699997 3
4.6240001 0.30399999 -0.63099998 3
4.7059999 0.30599999 -0.634 3
4.7979999 0.308 -0.63700002 4
4.8790002 0.30899999 -0.639 4
4.9720001 0.31 -0.64300001 4
5.0760002 0.31200001 -0.64700001 4
5.1830001 0.31400001 -0.65100002 4
5.2789998 0.315 -0.65399998 4
5.4000001 0.31799999 -0.65899998 4
5.4910002 0.31799999 -0.66000003 4
5.6110001 0.31999999 -0.66500002 4
5.744 0.322 -0.67000002 4
5.888 0.32499999 -0.676 8
5.9829998 0.324 -0.676 9
6.0700002 0.32300001 -0.676 10
6.1479998 0.322 -0.67299998 7
6.211 0.31900001 -0.66900003 4
6.2150002 0.31299999 -0.65799999 4
6.296 0.31099999 -0.65499997 3
6.6129999 0.31999999 -0.67699999 2
6.8000002 0.32300001 -0.68300003 4
7.0320001 0.32699999 -0.69400001 7
7.349 0.33399999 -0.71200001 6
7.3569999 0.32699999 -0.69999999 4
0 0 0 1
6.2950001 0.26699999 -0.57599998 1
6.336 0.26199999 -0.56900001 1
6.2779999 0.25299999 -0.55199999 9
6.2680001 0.24600001 -0.54000002 19
6.2490001 0.23899999 -0.52700001 30
6.2470002 0.23199999 -0.51599997 50
6.2449999 0.22499999 -0.505 151
6.2329998 0.21799999 -0.49200001 155
6.2259998 0.211 -0.48100001 155
6.289 0.206 -0.47400001 155
6.2319999 0.198 -0.45899999 155
6.2379999 0.191 -0.44800001 155
6.2659998 0.185 -0.43900001 155
6.2719998 0.178 -0.428 155
6.2800002 0.171 -0.41800001 156
6.2789998 0.164 -0.40599999 160
6.2740002 0.15700001 -0.39500001 160
6.2480001 0.149 -0.382 155
6.2449999 0.142 -0.37099999 155
6.2789998 0.13500001 -0.36199999 134
6.2010002 0.126 -0.347 16
6.1630001 0.118 -0.33399999 8
6.25 0.113 -0.32699999 106
6.2579999 0.105 -0.317 155
6.2680001 0.097999997 -0.30599999 155
6.2659998 0.090000004 -0.29499999 155
6.2740002 0.082999997 -0.28400001 156
6.309 0.075999998 -0.27500001 158
6.3200002 0.068000004 -0.264 162
6.3210001 0.059999999 -0.25299999 158
6.3249998 0.052999999 -0.243 158
6.3210001 0.045000002 -0.23100001 157
6.2729998 0.035999998 -0.219 155
6.257 0.028000001 -0.207 15
6.2600002 0.021 -0.19599999 1
0 0 0 39
27.613001 0.022 -0.77200001 40
27.587999 -0.012 -0.72399998 48
27.587999 -0.048 -0.67699999 52
27.572001 -0.082999997 -0.62900001 53
27.565001 -0.119 -0.58200002 55
27.563 -0.155 -0.53500003 46
27.538 -0.191 -0.48699999 70
27.542999 -0.227 -0.44100001 73
27.540001 -0.26300001 -0.39399999 72
27.546 -0.30000001 -0.34799999 48
27.573999 -0.33700001 -0.301 44
27.594 -0.37400001 -0.25600001 44
27.598 -0.41100001 -0.20900001 48
27.622 -0.449 -0.163 46
27.632999 -0.48699999 -0.117 45
27.666 -0.52499998 -0.071000002 33
27.688999 -0.56300002 -0.025 36
27.733 -0.602 0.02 29
27.768999 -0.64099997 0.064999998 28
27.827 -0.68099999 0.111 23
28.191999 -0.72799999 0.15800001 16
0 0 0 6
9.79 -0.28 0.086999997 9
9.7340002 -0.292 0.102 13
9.7139997 -0.30500001 0.118 15
9.6730003 -0.317 0.133 25
9.6549997 -0.33000001 0.148 24
9.6339998 -0.34299999 0.163 25
9.6210003 -0.35699999 0.178 25
9.6049995 -0.37 0.193 26
9.5970001 -0.38299999 0.208 27
9.5760002 -0.396 0.223 28
9.566 -0.40900001 0.23800001 28
9.5629997 -0.42300001 0.25299999 31
9.5480003 -0.43599999 0.26699999 33
9.5310001 -0.449 0.28099999 34
9.5209999 -0.46200001 0.296 33
9.5200005 -0.47600001 0.31 34
9.5100002 -0.49000001 0.32499999 33
9.493 -0.50199997 0.338 36
9.4849997 -0.51599997 0.35299999 36
9.4829998 -0.52999997 0.36700001 37
9.4849997 -0.54400003 0.38100001 38
9.4750004 -0.55699998 0.39500001 42
9.4610004 -0.57099998 0.40900001 39
9.4639997 -0.58499998 0.42300001 42
9.4540005 -0.59799999 0.43700001 41
9.4499998 -0.61199999 0.45100001 43
9.4569998 -0.62699997 0.465 43
9.4540005 -0.64099997 0.47799999 45
9.4540005 -0.65499997 0.49200001 41
9.4320002 -0.667 0.505 44
9.441 -0.68199998 0.51899999 51
9.4329996 -0.69599998 0.53200001 49
9.4530001 -0.71100003 0.546 53
9.441 -0.72500002 0.55900002 51
9.4300003 -0.73799998 0.57200003 53
9.4519997 -0.75400001 0.58600003 46
9.4469995 -0.76800001 0.59899998 47
9.4370003 -0.78200001 0.61199999 47
9.4440002 -0.79699999 0.62599999 48
9.4399996 -0.81099999 0.63800001 44
9.4399996 -0.82499999 0.65100002 40
9.4540005 -0.84100002 0.66500002 39
9.4540005 -0.85500002 0.67799997 39
9.448 -0.86900002 0.69 37
9.4519997 -0.884 0.70300001 37
9.4680004 -0.89999998 0.71700001 34
9.4619999 -0.91399997 0.72899997 35
9.4829998 -0.93099999 0.74400002 35
9.4790001 -0.94499999 0.75599998 32
9.4949999 -0.96100003 0.76899999 30
9.4809999 -0.97399998 0.78100002 29
9.5 -0.991 0.79500002 29
9.5170002 -1.008 0.80800003 32
9.5190001 -1.022 0.82099998 30
9.5310001 -1.039 0.83399999 27
9.54 -1.054 0.847 26
9.5500002 -1.0700001 0.86000001 25
9.566 -1.087 0.87300003 27
9.5799999 -1.103 0.88599998 25
9.5950003 -1.12 0.89899999 24
9.6079998 -1.136 0.912 22
9.6389999 -1.155 0.92699999 17
9.6639996 -1.1720001 0.94099998 15
9.7060003 -1.192 0.95700002 12
9.75 -1.2130001 0.972 17
9.8190002 -1.237 0.991 5
0 0 0 20
34.941002 -4.5079999 3.608 10
34.993 -4.5689998 3.655 8
35.019001 -4.6269999 3.698 5
0 0 0 0
0 0 0 0
0 0 0 0
0 0 0 0
0 0 0 0
0 0 0 0
0 0 0 0
0 0 0 4
49.258999 -7.191 5.6929998 4
49.054001 -7.2379999 5.7220001 4
0 0 0 0
0 0 0 0
0 0 0 0
0 0 0 0
0 0 0 0
0 0 0 4
40.058998 -6.336 4.961 9
39.991001 -6.3860002 4.993 12
39.972 -6.4439998 5.0310001 3
40.074001 -6.5209999 5.0830002 4
40.027 -6.5739999 5.1149998 4
42.183998 -6.9910002 5.4320002 3
0 0 0 0
0 0 0 0
0 0 0 0
0 0 0 0
0 0 0 0
0 0 0 0
0 0 0 0
0 0 0 6
20.927999 -3.7479999 2.8670001 19
20.848 -3.7639999 2.8740001 23
20.812 -3.7880001 2.8870001 29
20.757 -3.8080001 2.8970001 37
20.704 -3.8280001 2.9070001 40
20.679001 -3.855 2.921 42
20.66 -3.881 2.9360001 45
20.653 -3.9089999 2.9519999 48
20.634001 -3.9349999 2.9660001 35
20.620001 -3.9619999 2.98 37
20.606001 -3.9890001 2.994 54
20.575001 -4.013 3.007 58
20.573 -4.0419998 3.0220001 41
20.559999 -4.0679998 3.036 60
20.561001 -4.098 3.052 63
20.556 -4.1259999 3.066 68
20.546 -4.152 3.0799999 63
20.544001 -4.1799998 3.095 62
20.542 -4.2080002 3.109 56
20.566 -4.2420001 3.128 52
20.559 -4.2680001 3.141 54
20.558001 -4.296 3.155 53
20.556 -4.3249998 3.1689999 46
20.566 -4.355 3.184 42
20.580999 -4.3860002 3.2 42
20.591 -4.4159999 3.2149999 41
20.613001 -4.4489999 3.2320001 35
20.646 -4.4829998 3.25 27
20.658001 -4.513 3.2650001 30
20.701 -4.5500002 3.2850001 27
20.729 -4.5830002 3.302 22
20.784 -4.6230001 3.323 19
20.858 -4.6669998 3.3469999 12
0 0 0 32
31.729 -7.1810002 5.1290002 36
31.698 -7.2140002 5.1420002 38
31.673 -7.2490001 5.1550002 40
31.638 -7.2810001 5.1659999 45
31.627001 -7.3179998 5.1810002 45
31.606001 -7.3530002 5.1939998 49
31.599001 -7.3909998 5.21 50
31.575001 -7.4239998 5.2220001 51
31.566999 -7.4619999 5.237 51
31.562 -7.4990001 5.2519999 49
31.559999 -7.5370002 5.2659998 47
31.568001 -7.5770001 5.283 44
31.582001 -7.619 5.2989998 43
31.575001 -7.6550002 5.3130002 41
31.601999 -7.698 5.3309999 40
31.601999 -7.7360001 5.3449998 33
31.618999 -7.777 5.3610001 35
31.643 -7.8200002 5.3790002 32
31.667999 -7.862 5.3959999 29
31.722 -7.9120002 5.4180002 23
31.785999 -7.9640002 5.441 17
31.865999 -8.0190001 5.467 8
0 0 0 20
35.449001 -9.0010004 6.1079998 19
35.349998 -9.0150003 6.1030002 20
35.314999 -9.0450001 6.1090002 20
35.243999 -9.0649996 6.1090002 21
35.214001 -9.0950003 6.1149998 20
35.174999 -9.1230001 6.119 21
35.097 -9.1400003 6.1160002 20
35.071999 -9.1689997 6.1230001 20
35 -9.1870003 6.1199999 20
34.944 -9.2080002 6.1199999 20
34.900002 -9.2320004 6.1220002 20
34.841999 -9.2510004 6.1209998 20
34.807999 -9.2770004 6.1240001 20
34.743999 -9.2950001 6.1209998 20
34.744999 -9.3290005 6.1300001 20
34.681 -9.3459997 6.1259999 20
34.653 -9.3719997 6.1279998 20
34.612 -9.3929996 6.1290002 21
34.588001 -9.4189997 6.131 21
34.570999 -9.4469995 6.1350002 20
34.519001 -9.4639997 6.131 20
34.507999 -9.493 6.1350002 20
34.465 -9.5120001 6.1329999 20
34.421001 -9.5310001 6.1300001 20
34.377998 -9.5489998 6.1279998 20
34.368999 -9.5760002 6.131 20
34.327999 -9.5950003 6.1279998 20
34.317001 -9.6210003 6.131 20
34.287998 -9.6420002 6.1279998 21
34.279999 -9.6680002 6.131 20
34.257 -9.6890001 6.1300001 20
34.236 -9.7110004 6.1290002 20
34.231998 -9.7370005 6.131 20
34.210999 -9.7580004 6.1290002 21
34.217999 -9.7860003 6.1329999 20
34.198002 -9.8059998 6.131 20
34.188999 -9.8299999 6.1300001 21
34.167 -9.8479996 6.1279998 20
34.174 -9.875 6.1300001 21
34.161999 -9.8970003 6.1279998 20
34.150002 -9.9169998 6.125 20
34.141998 -9.9390001 6.1240001 20
34.154999 -9.9659996 6.125 20
34.143002 -9.9860001 6.1220002 21
34.146 -10.009 6.1230001 20
34.152 -10.034 6.1220002 21
34.179001 -10.063 6.1259999 20
34.195999 -10.09 6.1269999 21
34.186001 -10.108 6.1230001 21
34.188999 -10.13 6.1209998 21
34.206001 -10.154 6.1209998 21
34.195 -10.172 6.1149998 20
34.220001 -10.198 6.1170001 20
34.23 -10.221 6.1149998 20
34.230999 -10.24 6.1110001 21
34.280998 -10.274 6.1160002 21
34.289001 -10.294 6.112 21
34.312 -10.319 6.1110001 21
34.313999 -10.336 6.1069999 20
34.349998 -10.364 6.1079998 20
34.387001 -10.391 6.1079998 20
34.401001 -10.412 6.105 21
34.432999 -10.437 6.1040001 21
34.452999 -10.458 6.1009998 21
34.477001 -10.48 6.099 21
34.528 -10.51 6.0999999 21
34.562 -10.534 6.099 20
34.582001 -10.554 6.0949998 20
34.626999 -10.581 6.0949998 20
34.651001 -10.601 6.0900002 20
34.719002 -10.634 6.0939999 21
34.737 -10.651 6.0890002 21
34.789001 -10.679 6.0879998 21
34.817001 -10.698 6.0840001 20
34.865002 -10.723 6.0830002 20
34.936001 -10.756 6.0840001 19
34.945 -10.768 6.0760002 20
35.009998 -10.797 6.0770001 21
35.049999 -10.819 6.073 20
35.104 -10.844 6.0710001 20
35.140999 -10.864 6.0650001 21
35.230999 -10.899 6.0689998 21
35.284 -10.922 6.0669999 19
35.334 -10.946 6.0619998 19
35.368999 -10.962 6.0560002 20
35.446999 -10.993 6.0560002 20
35.533001 -11.025 6.0570002 17
35.544998 -11.033 6.0469999 20
35.618 -11.06 6.0450001 19
35.664001 -11.079 6.0380001 19
35.734001 -11.105 6.0359998 19
35.814999 -11.133 6.0349998 19
35.888 -11.158 6.0320001 17
35.949001 -11.18 6.027 19
36.032001 -11.208 6.0250001 20
36.122002 -11.237 6.0240002 20
36.181 -11.256 6.0190001 17
36.303001 -11.295 6.0219998 18
36.355 -11.311 6.0139999 18
36.452 -11.341 6.013 18
36.523998 -11.362 6.007 19
36.598 -11.384 6.0009999 18
36.682999 -11.408 5.9980001 18
36.782001 -11.437 5.9959998 18
36.858002 -11.458 5.9889998 18
36.931 -11.477 5.9829998 18
37.061001 -11.514 5.9850001 18
37.153 -11.538 5.98 18
37.256001 -11.566 5.9759998 18
37.345001 -11.588 5.9710002 19
37.438 -11.611 5.9660001 19
37.516998 -11.63 5.9569998 19
37.668999 -11.669 5.961 19
37.764 -11.692 5.954 19
37.869999 -11.717 5.9489999 19
38 -11.749 5.947 19
38.115002 -11.776 5.9429998 19
38.23 -11.801 5.9390001 19
38.362 -11.832 5.9359999 20
38.442001 -11.847 5.9250002 19
38.612999 -11.889 5.928 19
38.741001 -11.917 5.9229999 20
38.835999 -11.934 5.914 20
38.973999 -11.964 5.9109998 20
39.091 -11.987 5.9039998 20
39.227001 -12.015 5.8990002 19
39.362 -12.042 5.895 20
39.495998 -12.068 5.8889999 19
39.652 -12.101 5.8860002 20
39.805 -12.132 5.882 19
39.929001 -12.153 5.8730001 19
40.088001 -12.185 5.8709998 20
40.223999 -12.209 5.8629999 21
40.384998 -12.24 5.8590002 20
40.498001 -12.255 5.848 20
40.592999 -12.264 5.8319998 19
40.712002 -12.28 5.822 16
40.818001 -12.292 5.8070002 13
40.869999 -12.287 5.7859998 11
40.960999 -12.293 5.7690001 8
41.084999 -12.308 5.757 5
0 0 0 0
0 0 0 3
43.719002 -13.023 6.0300002 3
43.679001 -12.985 5.994 3
0 0 0 0
0 0 0 0
0 0 0 0
0 0 0 0
0 0 0 0
0 0 0 0
0 0 0 0
0 0 0 0
0 0 0 0
0 0 0 0
0 0 0 0
0 0 0 0
0 0 0 0
0 0 0 0
0 0 0 0
0 0 0 0
0 0 0 4
43.176998 -12.29 5.3169999 5
43.257 -12.277 5.29 5
0 0 0 0
0 0 0 0
0 0 0 0
0 0 0 0
0 0 0 0
0 0 0 0
0 0 0 1
32.25 -8.9280005 3.7290001 9
32.264 -8.9020004 3.7019999 5
0 0 0 0
0 0 0 0
0 0 0 0
0 0 0 0
0 0 0 0
0 0 0 0
0 0 0 0
0 0 0 0
0 0 0 0
0 0 0 0
0 0 0 0
0 0 0 0
0 0 0 0
0 0 0 3
42.596001 -11.103 4.3309999 3
42.557999 -11.046 4.29 5
42.575001 -11.003 4.2529998 5
42.537998 -10.944 4.2119999 5
42.467999 -10.878 4.1659999 5
42.495998 -10.836 4.131 4
42.460999 -10.777 4.0890002 4
42.34 -10.697 4.039 5
0 0 0 5
31.523001 -7.8889999 2.951 12
31.525 -7.8520002 2.9219999 22
31.49 -7.8049998 2.8900001 27
31.474001 -7.7620001 2.8599999 32
31.471001 -7.7220001 2.8310001 33
31.49 -7.6880002 2.8039999 46
31.527 -7.6570001 2.78 42
31.502001 -7.6110001 2.7490001 41
31.487 -7.5669999 2.7190001 45
31.481001 -7.5240002 2.6900001 47
31.489 -7.4850001 2.661 49
31.473 -7.4400001 2.631 52
31.476999 -7.3990002 2.6029999 58
31.485001 -7.3600001 2.575 58
31.486 -7.3189998 2.546 59
31.493 -7.277 2.5179999 57
31.507 -7.237 2.49 54
31.534 -7.1999998 2.4630001 50
31.558001 -7.1620002 2.4360001 51
31.587999 -7.125 2.411 43
31.618999 -7.0879998 2.3829999 40
31.665001 -7.0539999 2.358 34
0 0 0 12
20.716 -4.5560002 1.505 20
20.666 -4.5149999 1.482 22
20.612 -4.473 1.46 30
20.597 -4.4400001 1.4400001 28
20.552 -4.4000001 1.418 38
20.534 -4.3649998 1.398 39
20.52 -4.3319998 1.3789999 40
20.51 -4.2989998 1.359 41
20.493999 -4.2649999 1.339 45
20.483999 -4.2319999 1.3200001 47
20.485001 -4.2010002 1.302 48
20.483999 -4.1690001 1.283 51
20.492001 -4.1389999 1.265 58
20.476 -4.1040001 1.2460001 56
20.486 -4.0749998 1.228 61
20.5 -4.046 1.211 40
20.495001 -4.0120001 1.192 55
20.511 -3.983 1.174 54
20.542999 -3.957 1.158 35
20.533001 -3.9219999 1.1390001 43
20.554001 -3.8929999 1.122 41
20.570999 -3.8629999 1.105 40
20.582001 -3.8310001 1.087 38
20.598 -3.8010001 1.0700001 36
20.634001 -3.7739999 1.054 33
20.693001 -3.75 1.039 25
20.737 -3.724 1.023 29
20.790001 -3.698 1.007 24
20.877001 -3.6789999 0.99299997 17
0 0 0 0
0 0 0 9
31.752001 -5.4359999 1.429 9
31.729 -5.3779998 1.4 9
31.684999 -5.3169999 1.372 9
31.66 -5.2579999 1.344 10
31.610001 -5.1950002 1.3150001 10
31.587 -5.1360002 1.2869999 11
31.545 -5.0749998 1.258 11
31.502001 -5.0120001 1.23 13
31.48 -4.954 1.2029999 13
31.445999 -4.8940001 1.176 13
31.407 -4.8299999 1.147 13
31.371 -4.77 1.1210001 14
31.356001 -4.711 1.094 16
31.323999 -4.6500001 1.067 17
31.278 -4.5869999 1.04 21
31.266001 -4.5300002 1.015 21
31.207001 -4.4650002 0.98699999 23
31.188 -4.4050002 0.96200001 27
31.15 -4.3449998 0.93599999 29
31.118999 -4.283 0.91000003 28
31.087 -4.2220001 0.884 28
31.038 -4.158 0.85799998 21
31.033001 -4.0999999 0.83399999 15
30.99 -4.0359998 0.80800003 9
30.962 -3.974 0.78299999 5
30.896 -3.908 0.75800002 2
0 0 0 0
0 0 0 0
0 0 0 0
0 0 0 0
0 0 0 0
0 0 0 0
0 0 0 0
0 0 0 0
0 0 0 0
0 0 0 1
9.4200001 -0.99400002 0.153 20
9.427 -0.977 0.147 20
9.4289999 -0.95899999 0.14 20
9.4280005 -0.94099998 0.134 13
8.9969997 -0.88 0.121 1
9.0010004 -0.86299998 0.115 1
8.9890003 -0.84399998 0.109 1
9.0059996 -0.82800001 0.102 1
9.4119997 -0.847 0.101 23
9.4110003 -0.82800001 0.093999997 36
9.4130001 -0.81 0.088 35
9.401 -0.79000002 0.082000002 38
9.401 -0.77100003 0.075999998 40
9.4069996 -0.75400001 0.07 37
9.4139996 -0.736 0.063000001 37
9.4230003 -0.71700001 0.057 43
9.4029999 -0.69700003 0.050999999 44
9.4169998 -0.67900002 0.045000002 44
9.4219999 -0.66000003 0.039999999 43
9.415 -0.64099997 0.034000002 42
9.4230003 -0.62199998 0.028000001 40
9.4259996 -0.60399997 0.022 39
9.4320002 -0.58499998 0.017000001 37
9.4420004 -0.56699997 0.011 33
9.448 -0.54799998 0.0049999999 33
9.4560003 -0.52899998 0 33
9.4589996 -0.509 -0.0049999999 30
9.4720001 -0.491 -0.0099999998 31
9.4770002 -0.472 -0.015 30
9.5019999 -0.454 -0.021 29
9.5209999 -0.435 -0.026000001 29
9.5270004 -0.41600001 -0.030999999 30
9.5410004 -0.39700001 -0.037 26
9.5550003 -0.37799999 -0.041999999 24
9.5889997 -0.359 -0.046999998 22
9.6070004 -0.34 -0.052000001 14
9.651 -0.322 -0.057 15
9.6969995 -0.30399999 -0.061999999 12
9.7259998 -0.285 -0.067000002 15
9.8070002 -0.26699999 -0.072999999 9
0 0 0 9
27.771999 -0.64200002 -0.234 23
27.694 -0.58200002 -0.24699999 29
27.659 -0.52499998 -0.259 36
27.622 -0.46700001 -0.27200001 39
27.597 -0.40900001 -0.28400001 42
27.573999 -0.352 -0.296 40
27.562 -0.29499999 -0.308 58
27.544001 -0.237 -0.31999999 48
27.556999 -0.18000001 -0.33199999 57
27.566 -0.123 -0.34400001 41
27.606001 -0.064999998 -0.35600001 37
27.615999 -0.0089999996 -0.36700001 40
27.656 0.048 -0.37900001 35
27.719 0.106 -0.391 27
27.775 0.164 -0.40200001 23
0 0 0 1
6.2459998 0.063000001 -0.094999999 13
6.27 0.075999998 -0.097999997 35
6.3600001 0.090000004 -0.101 115
6.3270001 0.103 -0.103 150
6.2779999 0.116 -0.104 156
6.3049998 0.12899999 -0.107 155
6.3119998 0.14300001 -0.109 155
6.2909999 0.155 -0.111 155
6.25 0.167 -0.112 150
6.2740002 0.18099999 -0.115 29
6.3000002 0.19499999 -0.117 14
0 0 0 44
28.26 0.99299997 -0.54299998 38
28.228001 1.051 -0.551 48
28.194 1.108 -0.55800003 41
28.167999 1.166 -0.565 38
28.139999 1.223 -0.57200003 45
28.098 1.28 -0.579 47
28.07 1.336 -0.58499998 51
28.038 1.393 -0.59100002 39
0 0 0 9
12.159 0.65399998 -0.26199999 20
12.109 0.676 -0.26300001 20
12.09 0.69999999 -0.266 22
12.119 0.727 -0.26899999 27
12.071 0.74900001 -0.27000001 22
12.032 0.77200001 -0.27200001 24
12.041 0.79699999 -0.27399999 24
12.014 0.81999999 -0.27599999 27
11.993 0.84299999 -0.278 21
11.994 0.86799997 -0.28 24
11.968 0.89099997 -0.28099999 24
11.958 0.91399997 -0.28299999 22
11.949 0.93800002 -0.28400001 22
11.932 0.96100003 -0.28600001 23
11.922 0.98400003 -0.287 19
11.975 1.013 -0.28999999 8
12.021 1.0420001 -0.292 12
12.077 1.071 -0.29499999 12
12.156 1.103 -0.29899999 12
12.2 1.131 -0.301 11
12.264 1.1619999 -0.30399999 10
12.31 1.191 -0.30599999 9
12.377 1.223 -0.30899999 12
12.412 1.251 -0.31 13
12.481 1.283 -0.31299999 12
12.558 1.316 -0.31600001 9
12.624 1.348 -0.31799999 9
12.69 1.381 -0.32100001 8
12.754 1.413 -0.32300001 8
12.744 1.437 -0.32300001 1
0 0 0 39
29.752001 3.474 -0.75700003 41
29.716 3.529 -0.75700003 41
29.681 3.5829999 -0.75599998 40
29.658001 3.6389999 -0.75599998 38
29.631001 3.694 -0.755 34
29.618 3.7509999 -0.755 27
0 0 0 28
14.457 1.887 -0.368 25
14.435 1.9119999 -0.36700001 42
14.428 1.939 -0.366 24
14.402 1.9630001 -0.36500001 38
14.393 1.99 -0.36399999 38
14.381 2.016 -0.36300001 23
14.364 2.0409999 -0.36199999 36
14.362 2.069 -0.361 24
14.335 2.092 -0.36000001 36
14.338 2.1199999 -0.359 23
14.316 2.1440001 -0.35699999 31
14.294 2.168 -0.35499999 33
14.287 2.194 -0.354 36
14.285 2.22 -0.35299999 20
14.35 2.257 -0.35299999 6
14.428 2.296 -0.35299999 5
14.476 2.3299999 -0.35299999 8
14.547 2.368 -0.35299999 11
14.618 2.4070001 -0.35299999 8
14.711 2.4489999 -0.35299999 8
14.788 2.49 -0.35299999 8
14.876 2.5320001 -0.35299999 8
14.932 2.569 -0.352 6
14.997 2.6070001 -0.352 6
15.097 2.652 -0.352 7
0 0 0 34
16.556 2.9679999 -0.38 55
16.579 3.0020001 -0.37799999 37
16.542999 3.0250001 -0.37400001 59
16.549999 3.0550001 -0.37200001 35
16.541 3.0829999 -0.368 51
16.558001 3.115 -0.36500001 30
16.546 3.142 -0.36199999 45
16.558001 3.174 -0.359 44
16.573 3.2049999 -0.35600001 29
16.559999 3.2320001 -0.352 42
16.577 3.2639999 -0.34900001 43
16.584999 3.2939999 -0.345 38
16.614 3.3280001 -0.34200001 28
16.624001 3.358 -0.33899999 31
16.648001 3.391 -0.33500001 34
16.667999 3.4230001 -0.33199999 26
16.723 3.4619999 -0.329 20
16.768999 3.4990001 -0.32600001 16
16.851 3.5439999 -0.32300001 7
0 0 0 28
32.707001 6.9879999 -0.611 31
32.681999 7.0359998 -0.602 32
32.637001 7.079 -0.59200001 31
32.639 7.132 -0.583 31
32.506001 7.1560001 -0.57099998 35
32.358002 7.1750002 -0.56 24
32.348 7.223 -0.551 22
0 0 0 7
18.924999 4.2849998 -0.31099999 9
18.948 4.3200002 -0.30599999 18
18.903 4.3390002 -0.30000001 20
18.889 4.3639998 -0.29300001 45
18.902 4.3959999 -0.28799999 29
0 0 0 1
16.341999 3.8499999 -0.23899999 1
16.409 3.891 -0.234 1
16.337999 3.898 -0.228 1
16.33 3.9200001 -0.223 1
16.233 3.921 -0.21600001 1
0 0 0 0
0 0 0 1
0 0 0 0
0 0 0 0
0 0 0 0
0 0 0 0
0 0 0 0
0 0 0 0
0 0 0 1
15.923 4.0700002 -0.15700001 1
15.892 4.0840001 -0.15099999 1
15.867 4.099 -0.145 1
15.949 4.1409998 -0.14 1
15.921 4.1550002 -0.134 6
15.93 4.178 -0.12800001 8
15.916 4.1950002 -0.121 8
15.898 4.211 -0.115 8
15.909 4.2340002 -0.109 9
15.896 4.2509999 -0.103 10
15.885 4.2680001 -0.097000003 9
15.871 4.2839999 -0.090999998 7
15.863 4.302 -0.083999999 8
15.846 4.3169999 -0.078000002 6
15.844 4.335 -0.071999997 6
15.838 4.3520002 -0.064999998 6
15.833 4.3699999 -0.059 8
15.834 4.3889999 -0.052999999 4
15.698 4.369 -0.046 2
15.693 4.3850002 -0.039999999 1
15.663 4.395 -0.033 1
15.665 4.4130001 -0.027000001 2
15.658 4.4289999 -0.02 2
15.665 4.448 -0.014 2
15.655 4.4619999 -0.0080000004 2
15.718 4.4970002 -0.001 1
15.773 4.5300002 0.0049999999 3
15.765 4.5440001 0.011 3
15.745 4.5549998 0.017999999 3
15.696 4.5570002 0.025 4
15.681 4.5689998 0.032000002 6
15.667 4.5799999 0.037999999 6
15.659 4.5939999 0.045000002 8
15.639 4.6030002 0.050999999 8
15.634 4.6170001 0.057999998 9
15.632 4.631 0.064999998 8
15.64 4.6479998 0.071999997 11
15.619 4.6560001 0.079000004 11
15.59 4.6620002 0.085000001 29
15.585 4.6739998 0.092 46
15.603 4.6939998 0.098999999 8
15.599 4.7059999 0.106 2
15.622 4.7259998 0.113 1
15.625 4.7399998 0.12 1
15.626 4.7540002 0.126 1
15.655 4.776 0.134 1
15.614 4.776 0.14 1
0 0 0 0
0 0 0 0
0 0 0 25
0 0 0 0
0 0 0 0
0 0 0 0
0 0 0 0
0 0 0 0
0 0 0 25
0 0 0 0
0 0 0 0
0 0 0 25
0 0 0 1
16.011 5.0570002 0.244 1
16.066999 5.085 0.252 1
16.076 5.0970001 0.25999999 1
16.183001 5.1399999 0.26899999 1
16.202 5.1550002 0.27599999 1
16.319 5.2020001 0.285 1
16.448999 5.2519999 0.29499999 1
16.511 5.2810001 0.303 1
16.532 5.296 0.31099999 1
16.613001 5.3299999 0.31999999 1
16.611 5.3369999 0.32800001 1
16.562 5.329 0.33399999 1
16.521999 5.3239999 0.34 1
0 0 0 0
0 0 0 0
0 0 0 0
0 0 0 25
0 0 0 0
0 0 0 25
0 0 0 0
0 0 0 0
0 0 0 25
0 0 0 25
0 0 0 25
0 0 0 25
0 0 0 25
0 0 0 25
0 0 0 25
0 0 0 25
0 0 0 25
0 0 0 25
0 0 0 25
0 0 0 25
0 0 0 25
0 0 0 25
0 0 0 25
0 0 0 25
0 0 0 25
0 0 0 25
0 0 0 25
0 0 0 25
0 0 0 25
0 0 0 25
0 0 0 25
0 0 0 25
0 0 0 25
0 0 0 25
0 0 0 25
0 0 0 25
0 0 0 25
0 0 0 25
0 0 0 25
0 0 0 1
17.165001 5.6409998 0.65100002 1
17.156 5.6360002 0.65700001 1
17.160999 5.6339998 0.66399997 1
17.296 5.6760001 0.676 1
17.188999 5.6370001 0.67799997 1
17.250999 5.6539998 0.68699998 1
17.318001 5.6719999 0.69599998 1
0 0 0 25
0 0 0 25
0 0 0 25
0 0 0 25
0 0 0 2
31.062 10.125 1.318 4
31.066999 10.117 1.33 8
31.054001 10.103 1.341 13
31.044001 10.089 1.351 16
31.055 10.081 1.3609999 28
31.066 10.073 1.373 33
31.058001 10.059 1.383 40
31.073999 10.051 1.395 47
31.068001 10.037 1.406 53
31.087999 10.03 1.4170001 63
31.101 10.02 1.427 63
31.094999 10.004 1.438 68
31.099001 9.9910002 1.448 76
31.087999 9.9720001 1.4579999 82
31.108999 9.9630003 1.469 90
31.099001 9.9440002 1.478 95
31.115999 9.9329996 1.489 97
31.129999 9.9209995 1.499 94
31.127001 9.9029999 1.5089999 94
31.146999 9.8909998 1.52 94
31.153 9.875 1.53 92
31.164 9.8599997 1.54 92
31.157 9.8389997 1.549 90
31.167 9.823 1.558 96
31.184 9.8079996 1.568 100
31.205 9.7950001 1.5779999 91
31.228001 9.7810001 1.5880001 66
31.294001 9.7810001 1.601 29
31.549 9.8389997 1.623 6
31.577 9.8249998 1.633 3
31.556 9.7959995 1.64 1
0 0 0 0
0 0 0 0
0 0 0 0
0 0 0 0
0 0 0 0
0 0 0 0
0 0 0 5
23.976 7.2940001 1.294 14
23.933001 7.2610002 1.2970001 20
23.889 7.2280002 1.3 24
23.868999 7.2010002 1.304 28
23.861 7.178 1.309 31
23.827999 7.1479998 1.313 36
23.816999 7.1230001 1.317 36
23.806999 7.098 1.322 40
23.790001 7.0710001 1.326 41
23.778 7.046 1.33 43
23.771 7.0209999 1.334 46
23.763 6.9959998 1.3380001 43
23.764 6.973 1.3430001 43
23.76 6.948 1.347 44
23.757999 6.9239998 1.352 48
23.757999 6.901 1.355 47
23.731001 6.868 1.357 49
23.761999 6.8520002 1.363 51
23.743999 6.822 1.3660001 53
23.75 6.7989998 1.37 54
23.749001 6.7740002 1.374 55
23.768999 6.7540002 1.3789999 55
23.768999 6.7280002 1.382 55
23.775999 6.704 1.386 54
23.783001 6.6789999 1.3890001 47
23.823 6.664 1.395 43
23.832001 6.6389999 1.398 45
23.855 6.618 1.403 47
23.855 6.5910001 1.405 46
23.885 6.5710001 1.41 44
23.905001 6.5479999 1.413 39
23.934 6.527 1.418 37
23.959999 6.5050001 1.421 34
24 6.487 1.426 31
24.044001 6.4699998 1.4299999 28
24.084 6.4510002 1.4349999 26
24.138 6.4349999 1.439 22
24.209 6.4239998 1.4450001 15
24.304001 6.4180002 1.4529999 2
0 0 0 13
32.320999 8.4519997 1.9349999 14
32.355 8.4189997 1.939 13
32.367001 8.3789997 1.941 14
32.379002 8.3400002 1.943 16
32.409 8.3039999 1.9450001 16
32.442001 8.2679996 1.948 16
32.437 8.2229996 1.949 18
32.450001 8.1820002 1.95 18
32.479 8.1450005 1.952 17
32.431 8.0880003 1.949 29
32.477001 8.0539999 1.9529999 28
32.509998 8.0159998 1.954 13
32.522999 7.974 1.954 10
32.555 7.9349999 1.955 11
32.598 7.8990002 1.957 10
32.601002 7.8530002 1.956 11
32.630001 7.8130002 1.957 11
32.66 7.7719998 1.957 10
32.661999 7.724 1.956 11
32.672001 7.678 1.955 11
32.716999 7.6399999 1.956 12
32.727001 7.5929999 1.954 16
32.703999 7.5380001 1.951 17
32.562 7.4559999 1.9400001 25
32.529999 7.4000001 1.9349999 48
32.553001 7.355 1.932 83
32.558998 7.3060002 1.9299999 107
32.582001 7.2600002 1.928 104
32.596001 7.2119999 1.925 102
32.627998 7.1680002 1.923 103
32.653 7.1220002 1.921 99
32.674999 7.0749998 1.918 103
32.702 7.0279999 1.914 105
32.724998 6.9809999 1.9119999 97
32.755001 6.9349999 1.909 102
32.773998 6.8870001 1.905 100
0 0 0 7
16.82 3.4790001 0.972 18
16.771999 3.4419999 0.96600002 22
16.709 3.401 0.95899999 26
16.684 3.369 0.95499998 29
16.673 3.339 0.95099998 33
16.652 3.3069999 0.94599998 35
16.632999 3.2750001 0.94199997 35
16.629 3.247 0.93800002 28
16.613001 3.2149999 0.93400002 47
16.606001 3.1860001 0.93000001 50
16.587 3.154 0.92500001 50
16.582001 3.1240001 0.921 57
16.582001 3.096 0.91600001 57
16.591999 3.069 0.912 39
16.591999 3.04 0.90799999 39
16.587999 3.0109999 0.90399998 64
16.591999 2.9820001 0.89899999 40
16.603001 2.9549999 0.89499998 40
16.611 2.928 0.89099997 64
16.618 2.9000001 0.88700002 59
16.636 2.8740001 0.88300002 35
16.646 2.8469999 0.87800002 48
16.673 2.8210001 0.87400001 32
16.695 2.7950001 0.87 48
16.714001 2.7679999 0.86500001 45
16.726 2.7409999 0.861 41
16.76 2.717 0.85699999 41
16.792999 2.691 0.852 36
16.826 2.6659999 0.84799999 30
16.861 2.641 0.84299999 26
16.934999 2.622 0.84100002 22
17.024 2.605 0.83899999 14
17.098 2.585 0.83600003 1
0 0 0 0
0 0 0 0
0 0 0 0
0 0 0 5
38.035 5.401 1.7819999 4
37.999001 5.3249998 1.7640001 4
38.073002 5.2659998 1.751 4
38.039001 5.1900001 1.733 3
0 0 0 0
0 0 0 23
34.396 4.5 1.5190001 20
34.661999 4.4689999 1.515 2
0 0 0 0
0 0 0 0
0 0 0 0
0 0 0 0
0 0 0 4
34.686001 4.0799999 1.4119999 16
34.597 4.0040002 1.39 34
34.426998 3.9189999 1.365 16
34.389999 3.849 1.345 78
34.410999 3.786 1.327 78
34.442001 3.723 1.309 63
34.473999 3.661 1.291 80
34.513 3.5999999 1.273 78
34.541 3.5350001 1.2539999 76
34.564999 3.4719999 1.235 77
34.618 3.411 1.217 76
34.639999 3.3469999 1.197 75
34.581001 3.2750001 1.174 48
34.537998 3.204 1.151 55
34.726002 3.154 1.136 53
34.777 3.092 1.1160001 72
34.818001 3.0280001 1.095 66
0 0 0 1
30.483 2.533 0.91900003 1
30.495001 2.4749999 0.89899999 1
0 0 0 20
34.993999 2.704 0.98500001 28
35.067001 2.641 0.963 5
0 0 0 0
0 0 0 0
0 0 0 2
0 0 0 0
0 0 0 0
0 0 0 3
31.267 1.931 0.704 3
31.268 1.869 0.68000001 5
31.308001 1.811 0.65799999 6
31.306999 1.75 0.63499999 6
31.339001 1.691 0.611 5
31.375999 1.633 0.588 6
31.423 1.574 0.565 5
31.459 1.5140001 0.54100001 5
31.423 1.451 0.51499999 6
31.177 1.38 0.48699999 6
30.997999 1.311 0.45899999 8
31.013 1.251 0.43399999 14
31.018999 1.191 0.40900001 15
0 0 0 2
0 0 0 0
0 0 0 8
31.08 0.95300001 0.30599999 5
0 0 0 5
28.438999 0.76099998 0.23100001 12
0 0 0 1
6.2989998 0.14399999 0.039999999 1
6.2690001 0.131 0.034000002 3
6.2859998 0.119 0.028999999 2
6.2979999 0.107 0.023 1
6.2909999 0.094999999 0.017000001 1
6.2930002 0.082999997 0.012 1
0 0 0 24
28.622 0.27000001 0.0020000001 44
27.83 0.20900001 -0.023 21
27.740999 0.155 -0.048 29
27.681999 0.101 -0.074000001 32
27.643999 0.048 -0.101 37
27.604 -0.003 -0.126 38
27.584999 -0.056000002 -0.153 46
27.573999 -0.108 -0.17900001 51
27.551001 -0.161 -0.206 58
27.531 -0.212 -0.233 62
27.568001 -0.26499999 -0.25999999 45
27.568001 -0.317 -0.28799999 46
27.586 -0.37 -0.315 43
27.618 -0.42199999 -0.34299999 38
27.632 -0.47400001 -0.37099999 35
27.697001 -0.52700001 -0.40000001 30
27.743999 -0.57999998 -0.42899999 25
27.826 -0.63300002 -0.458 16
0 0 0 1
9.7670002 -0.25799999 -0.18099999 12
9.7150002 -0.27500001 -0.19 19
9.6599998 -0.29100001 -0.199 21
9.6269999 -0.308 -0.20900001 15
9.6079998 -0.32600001 -0.21799999 17
9.5780001 -0.34200001 -0.228 23
9.5489998 -0.359 -0.237 26
9.5389996 -0.37599999 -0.24699999 27
9.5159998 -0.39199999 -0.257 27
9.5010004 -0.40900001 -0.26699999 29
9.493 -0.426 -0.27700001 29
9.4849997 -0.44299999 -0.28799999 28
9.4680004 -0.46000001 -0.29800001 31
9.4460001 -0.47600001 -0.30700001 29
9.4420004 -0.493 -0.31799999 30
9.4370003 -0.50999999 -0.32800001 35
9.4219999 -0.52600002 -0.338 36
9.4139996 -0.542 -0.34900001 37
9.4189997 -0.55900002 -0.36000001 34
9.3950005 -0.57499999 -0.37 38
9.3950005 -0.59200001 -0.38 37
9.3979998 -0.60799998 -0.391 41
9.3920002 -0.625 -0.40200001 45
9.3870001 -0.64099997 -0.41299999 47
9.3809996 -0.65700001 -0.42300001 50
9.3859997 -0.67400002 -0.43399999 48
9.3870001 -0.69 -0.44499999 46
9.3920002 -0.70700002 -0.45699999 44
9.3900003 -0.72299999 -0.46799999 43
9.1560001 -0.72100002 -0.46700001 26
8.8599997 -0.713 -0.46200001 30
8.835 -0.72600001 -0.472 58
8.8039999 -0.73900002 -0.48100001 36
8.7749996 -0.75099999 -0.49000001 49
8.7679996 -0.76599997 -0.5 57
8.7309999 -0.77700001 -0.50800002 33
8.7119999 -0.79000002 -0.51800001 59
8.6750002 -0.801 -0.52600002 30
8.6569996 -0.81400001 -0.53600001 49
8.632 -0.82599998 -0.54500002 38
8.6009998 -0.838 -0.55299997 38
8.5860004 -0.85100001 -0.56300002 39
8.5670004 -0.86299998 -0.57200003 17
8.5509996 -0.875 -0.58200002 20
8.5959997 -0.89399999 -0.59500003 6
8.6149998 -0.91000003 -0.60699999 3
8.6120005 -0.92400002 -0.61799997 2
8.599 -0.93599999 -0.62800002 1
0 0 0 0
0 0 0 0
0 0 0 0
0 0 0 0
0 0 0 0
0 0 0 0
0 0 0 0
0 0 0 0
0 0 0 0
0 0 0 0
0 0 0 0
0 0 0 0
0 0 0 0
0 0 0 1
8.1689997 -1.081 -0.75199997 2
8.0970001 -1.084 -0.75599998 3
8.0089998 -1.084 -0.75800002 3
7.9229999 -1.085 -0.76099998 4
7.7680001 -1.075 -0.75599998 4
7.6160002 -1.0650001 -0.75099999 4
7.4970002 -1.059 -0.74900001 4
7.362 -1.051 -0.745 4
7.2389998 -1.044 -0.74199998 4
7.125 -1.038 -0.73900002 4
7.0079999 -1.031 -0.736 4
6.8940001 -1.024 -0.73299998 4
6.8000002 -1.02 -0.73199999 4
6.7119999 -1.016 -0.73100001 3
6.5869999 -1.006 -0.72600001 2
6.427 -0.991 -0.71700001 1
6.2399998 -0.97100002 -0.70499998 1
6.1609998 -0.96700001 -0.704 1
6.0479999 -0.958 -0.699 1
5.9380002 -0.94800001 -0.69400001 1
5.8109999 -0.93599999 -0.68599999 1
5.737 -0.93199998 -0.685 1
5.652 -0.926 -0.68199998 1
5.5830002 -0.92199999 -0.68099999 1
5.5190001 -0.91799998 -0.68099999 1
5.447 -0.91399997 -0.67900002 1
5.3759999 -0.90899998 -0.67699999 1
5.302 -0.903 -0.67500001 1
5.2270002 -0.89700001 -0.67199999 1
5.1669998 -0.89300001 -0.671 1
5.0960002 -0.88800001 -0.66799998 1
5.0349998 -0.88300002 -0.667 1
4.9499998 -0.875 -0.662 2
4.881 -0.86799997 -0.65899998 2
4.8559999 -0.87 -0.662 2
4.8189998 -0.86900002 -0.66299999 4
4.7740002 -0.86699998 -0.66299999 3
4.7379999 -0.866 -0.66500002 2
4.6799998 -0.861 -0.662 5
4.6350002 -0.85799998 -0.662 3
4.5640001 -0.85100001 -0.65799999 2
4.5029998 -0.84399998 -0.65499997 3
4.4489999 -0.83899999 -0.653 3
4.3969998 -0.83499998 -0.64999998 3
4.3499999 -0.83099997 -0.64899999 3
4.3119998 -0.82800001 -0.64899999 3
4.2519999 -0.82200003 -0.64499998 3
4.2540002 -0.82700002 -0.65100002 4
4.1220002 -0.80599999 -0.63599998 5
4.085 -0.80299997 -0.63599998 5
4.0450001 -0.79900002 -0.634 6
4.0079999 -0.796 -0.634 7
3.9679999 -0.79299998 -0.63200003 8
3.941 -0.79100001 -0.63300002 8
3.904 -0.78799999 -0.63200003 9
3.878 -0.787 -0.63300002 8
3.842 -0.78299999 -0.63200003 6
3.819 -0.78299999 -0.63300002 5
3.7820001 -0.77899998 -0.63099998 4
3.8099999 -0.78899997 -0.64099997 2
3.698 -0.76899999 -0.62599999 2
3.688 -0.76999998 -0.62900001 2
3.6110001 -0.75800002 -0.62 1
3.5969999 -0.75800002 -0.62199998 1
3.5469999 -0.75099999 -0.61799997 1
3.536 -0.75199997 -0.62099999 2
3.5090001 -0.75 -0.62 2
3.4630001 -0.74299997 -0.616 2
3.425 -0.73799998 -0.61299998 2
3.3800001 -0.73100001 -0.60900003 1
3.405 -0.74000001 -0.61799997 1
3.372 -0.736 -0.616 1
3.329 -0.72899997 -0.61199999 2
3.3710001 -0.741 -0.62400001 2
3.494 -0.77100003 -0.65100002 2
0 0 0 2
3.2030001 -0.71200001 -0.60399997 2
3.1800001 -0.70999998 -0.60299999 2
3.1600001 -0.708 -0.60299999 2
3.1300001 -0.704 -0.60100001 2
3.1110001 -0.70200002 -0.60100001 2
3.0869999 -0.699 -0.60000002 2
3.0639999 -0.69599998 -0.59899998 2
3.0420001 -0.69300002 -0.59799999 2
3.0250001 -0.69199997 -0.59799999 2
3.0050001 -0.68900001 -0.59799999 2
2.9920001 -0.68900001 -0.59799999 2
2.9649999 -0.685 -0.59600002 2
2.9400001 -0.68099999 -0.59399998 2
2.9170001 -0.67799997 -0.59299999 1
2.9460001 -0.68599999 -0.602 2
2.9660001 -0.69300002 -0.60900003 2
3.007 -0.70499998 -0.62099999 2
2.948 -0.69300002 -0.61199999 2
2.9760001 -0.70099998 -0.62099999 2
2.9349999 -0.69300002 -0.616 1
2.8900001 -0.68400002 -0.60900003 2
2.773 -0.65799999 -0.58700001 1
2.7520001 -0.65499997 -0.58600003 2
2.7420001 -0.65399998 -0.58600003 2
2.7260001 -0.65200001 -0.58600003 2
2.707 -0.64899999 -0.58499998 2
2.698 -0.64899999 -0.58499998 2
2.6819999 -0.64600003 -0.58499998 2
2.6730001 -0.64499998 -0.58499998 2
2.6530001 -0.64200002 -0.58399999 2
2.641 -0.63999999 -0.583 2
2.631 -0.639 -0.58399999 2
2.6110001 -0.63599998 -0.58200002 2
2.596 -0.63300002 -0.58099997 2
2.585 -0.63200003 -0.58099997 2
2.5739999 -0.63 -0.58099997 2
2.5569999 -0.62699997 -0.57999998 2
2.556 -0.62800002 -0.58200002 2
2.533 -0.62400001 -0.579 2
2.516 -0.62099999 -0.57700002 2
2.5079999 -0.62 -0.57800001 2
2.5009999 -0.61900002 -0.57800001 2
2.4849999 -0.616 -0.57700002 1
2.477 -0.61500001 -0.57700002 1
2.471 -0.61400002 -0.57800001 1
2.4530001 -0.61000001 -0.57599998 1
2.4400001 -0.60799998 -0.57499999 1
2.428 -0.60600001 -0.574 1
2.4230001 -0.60600001 -0.57499999 1
2.415 -0.60399997 -0.57499999 1
2.4059999 -0.60299999 -0.57499999 1
2.395 -0.60100001 -0.574 1
2.3800001 -0.59799999 -0.57300001 1
2.368 -0.59500003 -0.57200003 1
2.3629999 -0.59500003 -0.57200003 1
2.3540001 -0.59299999 -0.57200003 1
2.345 -0.59100002 -0.57200003 1
2.3399999 -0.58999997 -0.57200003 1
2.316 -0.58499998 -0.56800002 1
2.3110001 -0.58399999 -0.56800002 1
2.408 -0.60900003 -0.59399998 1
2.368 -0.59899998 -0.58600003 1
2.319 -0.58700001 -0.57499999 1
2.319 -0.588 -0.57700002 1
2.322 -0.58899999 -0.579 1
2.335 -0.59299999 -0.58399999 1
2.2620001 -0.574 -0.56800002 1
2.247 -0.57099998 -0.565 1
2.244 -0.56999999 -0.56599998 1
2.2320001 -0.56699997 -0.565 1
2.227 -0.56599998 -0.565 1
2.217 -0.56400001 -0.56400001 1
2.2160001 -0.56400001 -0.565 1
2.2090001 -0.56199998 -0.56400001 1
2.207 -0.56199998 -0.565 1
2.201 -0.56 -0.565 1
2.194 -0.55800003 -0.56400001 1
2.188 -0.55699998 -0.56400001 1
2.1860001 -0.55599999 -0.565 1
2.1849999 -0.55599999 -0.56599998 1
2.175 -0.55400002 -0.56400001 1
2.171 -0.55199999 -0.56400001 1
2.1700001 -0.55199999 -0.565 1
2.171 -0.55199999 -0.56699997 1
2.161 -0.54900002 -0.565 2
2.1570001 -0.54799998 -0.565 2
2.1489999 -0.546 -0.56400001 2
2.148 -0.546 -0.565 2
2.142 -0.54400003 -0.56400001 1
2.141 -0.54299998 -0.565 2
2.1340001 -0.54100001 -0.56400001 2
2.132 -0.54000002 -0.56400001 2
2.131 -0.54000002 -0.565 2
2.128 -0.53899997 -0.565 1
2.1199999 -0.53600001 -0.56400001 2
2.1229999 -0.537 -0.565 1
2.115 -0.53399998 -0.56400001 2
2.1110001 -0.53299999 -0.56400001 2
2.108 -0.53200001 -0.56400001 2
2.0999999 -0.52899998 -0.56199998 2
2.1010001 -0.52899998 -0.56300002 2
2.0940001 -0.52700001 -0.56199998 1
2.096 -0.52700001 -0.56300002 2
2.096 -0.52600002 -0.56400001 2
2.092 -0.52499998 -0.56300002 1
2.0880001 -0.523 -0.56300002 1
2.0910001 -0.523 -0.56400001 1
2.0869999 -0.52100003 -0.56400001 1
2.085 -0.51999998 -0.56400001 1
2.082 -0.51899999 -0.56300002 1
2.0739999 -0.51599997 -0.56199998 1
2.073 -0.51499999 -0.56199998 1
2.0699999 -0.514 -0.56099999 2
2.0639999 -0.51200002 -0.56 2
2.066 -0.51099998 -0.56099999 2
2.062 -0.509 -0.56 2
2.066 -0.509 -0.56199998 1
2.0669999 -0.509 -0.56199998 1
2.063 -0.50700003 -0.56099999 1
2.0610001 -0.50599998 -0.56099999 1
2.066 -0.50599998 -0.56300002 1
2.0599999 -0.50400001 -0.56099999 2
2.0599999 -0.50300002 -0.56099999 1
2.0569999 -0.50099999 -0.56099999 1
2.056 -0.5 -0.56099999 1
2.052 -0.498 -0.56 2
2.0550001 -0.498 -0.56099999 1
2.0580001 -0.49700001 -0.56099999 1
2.0539999 -0.495 -0.56 2
2.056 -0.495 -0.56099999 1
2.052 -0.493 -0.56 1
2.0539999 -0.49200001 -0.56 1
2.052 -0.491 -0.56 1
2.0569999 -0.491 -0.56099999 1
2.0550001 -0.48899999 -0.56 1
2.0580001 -0.48800001 -0.56099999 1
2.059 -0.48699999 -0.56099999 1
2.0569999 -0.486 -0.56 1
2.0569999 -0.484 -0.56 2
2.0610001 -0.484 -0.56099999 1
2.0569999 -0.48199999 -0.56 1
2.062 -0.48199999 -0.56099999 1
2.066 -0.48100001 -0.56199998 2
2.063 -0.479 -0.56099999 1
2.066 -0.479 -0.56099999 1
2.0669999 -0.47799999 -0.56099999 1
2.0699999 -0.477 -0.56099999 1
2.072 -0.47600001 -0.56199998 1
2.0739999 -0.47499999 -0.56099999 1
2.073 -0.47299999 -0.56099999 1
2.072 -0.472 -0.56 1
2.0769999 -0.47099999 -0.56099999 1
2.079 -0.47 -0.56099999 1
2.0840001 -0.47 -0.56199998 1
2.085 -0.46799999 -0.56099999 1
2.095 -0.46900001 -0.56300002 1
2.095 -0.46799999 -0.56300002 1
2.099 -0.46700001 -0.56300002 1
2.099 -0.465 -0.56199998 1
2.1040001 -0.465 -0.56300002 1
2.105 -0.463 -0.56300002 2
2.105 -0.46200001 -0.56199998 2
2.1170001 -0.46200001 -0.56400001 1
2.118 -0.461 -0.56400001 1
2.1229999 -0.46000001 -0.56400001 1
2.1170001 -0.45699999 -0.56199998 1
2.1199999 -0.456 -0.56199998 1
2.125 -0.45500001 -0.56199998 1
2.125 -0.454 -0.56099999 1
2.132 -0.45300001 -0.56199998 1
2.1329999 -0.45199999 -0.56099999 1
2.1429999 -0.45199999 -0.56300002 1
2.1459999 -0.45100001 -0.56300002 1
2.141 -0.44800001 -0.56 1
2.1489999 -0.44800001 -0.56099999 1
2.1619999 -0.44800001 -0.56300002 1
2.161 -0.44600001 -0.56199998 1
2.165 -0.44499999 -0.56199998 1
2.1659999 -0.44299999 -0.56099999 1
2.177 -0.44400001 -0.56300002 1
2.1819999 -0.442 -0.56300002 1
2.188 -0.442 -0.56300002 1
2.197 -0.44100001 -0.56400001 1
2.198 -0.44 -0.56300002 1
2.201 -0.43799999 -0.56199998 1
2.2160001 -0.43900001 -0.565 1
2.2679999 -0.447 -0.57599998 1
2.2290001 -0.43700001 -0.565 1
2.227 -0.43399999 -0.56300002 1
2.2420001 -0.435 -0.565 1
2.244 -0.433 -0.56400001 1
2.2579999 -0.43399999 -0.56599998 1
2.2639999 -0.433 -0.56599998 1
2.27 -0.43200001 -0.56599998 1
2.2780001 -0.43099999 -0.56599998 1
2.2869999 -0.43000001 -0.56699997 1
2.404 -0.44999999 -0.59399998 1
2.3 -0.428 -0.56599998 1
2.405 -0.44499999 -0.58999997 1
2.3239999 -0.42699999 -0.56900001 1
2.335 -0.42699999 -0.56900001 1
2.339 -0.42500001 -0.56800002 1
2.346 -0.42399999 -0.56800002 1
2.358 -0.42399999 -0.56900001 1
2.3710001 -0.42399999 -0.56999999 1
2.3840001 -0.42300001 -0.57099998 1
2.3870001 -0.42199999 -0.56999999 1
2.424 -0.42500001 -0.57700002 1
2.408 -0.41999999 -0.57099998 1
2.4230001 -0.41999999 -0.57200003 1
2.4579999 -0.42300001 -0.57800001 1
2.438 -0.417 -0.57099998 1
2.493 -0.42399999 -0.58200002 1
2.494 -0.421 -0.57999998 1
2.473 -0.41499999 -0.57300001 1
2.4860001 -0.414 -0.57300001 1
2.5050001 -0.41499999 -0.57499999 1
2.5090001 -0.41299999 -0.57300001 1
2.599 -0.42500001 -0.59200001 1
2.5739999 -0.41800001 -0.583 1
2.589 -0.417 -0.58399999 1
2.6300001 -0.421 -0.59100002 1
2.6589999 -0.42199999 -0.59399998 1
2.678 -0.42199999 -0.59600002 1
2.7309999 -0.428 -0.60500002 1
2.622 -0.40700001 -0.57800001 1
2.638 -0.40700001 -0.57800001 1
