# .PCD v0.7 - Point Cloud Data file format
VERSION 0.7
FIELDS x y z intensity
SIZE 4 4 4 4
TYPE F F F F
COUNT 1 1 1 1
WIDTH 1777
HEIGHT 1
VIEWPOINT 0 0 0 1 0 0 0
POINTS 1777
DATA ascii
34.763 -1.0140001 8.7290001 19
34.321999 -1.017 8.665 26
34.257999 -1.031 8.6960001 26
34.238998 -1.045 8.7370005 28
34.243999 -1.062 8.7849998 31
34.245998 -1.077 8.8310003 30
34.247002 -1.0930001 8.8780003 31
34.237999 -1.108 8.9200001 29
34.247002 -1.125 8.967 30
34.249001 -1.14 9.0129995 31
34.256001 -1.1569999 9.059 30
34.264 -1.173 9.1049995 28
34.102001 -1.184 9.1049995 25
33.582001 -1.183 9.0089998 14
33.015999 -1.178 8.8979998 23
32.919998 -1.1900001 8.9119997 28
32.908001 -1.206 8.9490004 31
32.921001 -1.222 8.993 27
32.903 -1.238 9.0270004 30
32.912998 -1.2539999 9.0690002 29
32.911999 -1.2690001 9.1070004 31
32.921001 -1.286 9.1470003 30
32.929001 -1.302 9.1879997 30
32.917999 -1.318 9.2220001 29
32.91 -1.3329999 9.2559996 29
32.916 -1.35 9.2939997 25
32.424 -1.346 9.191 18
31.836 -1.336 9.059 22
31.591 -1.342 9.0229998 25
31.552 -1.3559999 9.0459995 27
31.568001 -1.372 9.0830002 27
31.563999 -1.388 9.1149998 27
31.565001 -1.403 9.1479998 27
31.569 -1.419 9.1809998 27
31.587999 -1.437 9.2180004 26
31.587 -1.452 9.2489996 27
31.589001 -1.4680001 9.2810001 26
31.576 -1.483 9.3070002 26
31.575001 -1.499 9.3360004 26
31.572001 -1.515 9.3649998 21
30.972 -1.502 9.2150002 12
30.415001 -1.49 9.0769997 20
30.268 -1.498 9.0600004 22
30.229 -1.511 9.0749998 25
30.229 -1.526 9.1009998 28
30.221001 -1.54 9.125 27
30.223 -1.556 9.151 29
30.219999 -1.5700001 9.1750002 26
30.236 -1.586 9.2040005 26
30.246 -1.602 9.2320004 23
30.24 -1.617 9.2539997 25
30.237 -1.632 9.276 26
30.242001 -1.648 9.3009996 24
30.235001 -1.663 9.3219995 24
30.236 -1.678 9.3450003 21
29.778999 -1.6670001 9.2250004 15
29.233 -1.651 9.0769997 16
28.936001 -1.649 9.0050001 20
28.881001 -1.66 9.007 23
28.870001 -1.674 9.0229998 25
28.882 -1.6900001 9.0459995 26
28.875999 -1.7029999 9.0629997 25
28.874001 -1.7180001 9.0799999 25
28.878 -1.7309999 9.099 24
28.886 -1.7460001 9.1190004 24
28.889 -1.761 9.1370001 23
28.886 -1.775 9.1529999 23
28.893999 -1.79 9.1709995 23
28.889 -1.804 9.1850004 24
28.893 -1.818 9.2019997 23
28.908001 -1.8329999 9.2220001 22
28.709 -1.834 9.1730003 18
28.149 -1.812 9.007 14
27.646 -1.793 8.8599997 16
27.551001 -1.801 8.842 20
27.524 -1.812 8.8450003 23
27.523001 -1.825 8.8570004 22
27.528 -1.8380001 8.8699999 22
27.535 -1.852 8.8830004 22
27.535999 -1.865 8.8950005 22
27.532 -1.878 8.9029999 23
27.530001 -1.891 8.9130001 23
27.535999 -1.905 8.9239998 22
27.546 -1.918 8.9370003 22
27.541 -1.9299999 8.9440002 21
27.534 -1.942 8.9510002 21
27.555 -1.956 8.9650002 22
27.552 -1.969 8.9720001 21
27.547001 -1.9809999 8.9779997 21
27.559 -1.995 8.9879999 22
27.407 -1.9960001 8.9449997 17
26.830999 -1.966 8.7629995 13
26.412001 -1.947 8.632 16
26.229 -1.9450001 8.5769997 18
26.177999 -1.9529999 8.5649996 19
26.160999 -1.9630001 8.5640001 21
26.169001 -1.975 8.5699997 21
26.174 -1.987 8.5749998 21
26.174 -1.999 8.5780001 21
26.177 -2.0109999 8.5819998 22
26.167999 -2.0209999 8.5810003 21
26.190001 -2.0339999 8.5909996 21
26.181 -2.0439999 8.5889997 22
26.174 -2.0550001 8.5880003 20
26.184999 -2.0669999 8.5930004 22
26.191999 -2.0780001 8.5959997 21
26.177 -2.0880001 8.5909996 21
26.195 -2.0999999 8.5970001 21
26.186001 -2.1099999 8.5930004 19
26.191999 -2.1210001 8.5939999 20
26.191 -2.132 8.592 19
26.198999 -2.1440001 8.5930004 21
26.190001 -2.1530001 8.5880003 20
25.834 -2.1340001 8.4689999 15
25.372 -2.105 8.3149996 14
24.996 -2.0829999 8.1879997 13
24.900999 -2.086 8.1529999 18
24.854 -2.0910001 8.1339998 19
24.816 -2.0969999 8.118 21
24.819 -2.1070001 8.1140003 22
24.837 -2.1170001 8.1160002 22
24.815001 -2.1240001 8.1029997 23
24.822001 -2.135 8.1000004 22
24.82 -2.1440001 8.0930004 23
24.836 -2.1530001 8.092 22
24.834999 -2.1619999 8.085 23
24.85 -2.1719999 8.0830002 22
24.830999 -2.1789999 8.0699997 23
24.829 -2.188 8.0609999 22
24.841 -2.198 8.0570002 22
24.830999 -2.2049999 8.0459995 22
24.847 -2.214 8.0419998 22
24.806 -2.2190001 8.0200005 23
24.799999 -2.227 8.0089998 22
24.722 -2.2279999 7.974 17
24.579 -2.2219999 7.9180002 13
24.388 -2.2130001 7.8460002 11
24.190001 -2.2019999 7.7719998 11
23.943001 -2.187 7.6820002 10
23.787001 -2.1800001 7.6209998 11
23.719 -2.181 7.5869999 9
23.674 -2.184 7.5619998 9
23.65 -2.188 7.5419998 8
23.614 -2.1919999 7.5180001 8
23.563 -2.194 7.4899998 9
23.540001 -2.198 7.4699998 9
23.493 -2.201 7.441 9
23.471001 -2.204 7.421 9
23.440001 -2.2079999 7.3979998 9
23.402 -2.21 7.3720002 9
23.356001 -2.2119999 7.3429999 9
23.351999 -2.2179999 7.3270001 9
23.308001 -2.2190001 7.2979999 10
23.298 -2.224 7.2810001 9
23.268 -2.227 7.256 10
23.228001 -2.2290001 7.2270002 9
23.195 -2.2309999 7.2010002 9
23.160999 -2.233 7.1739998 9
23.146 -2.237 7.1529999 9
23.120001 -2.2390001 7.1290002 9
23.097 -2.2420001 7.1040001 9
23.063 -2.243 7.0770001 9
23.024 -2.244 7.0469999 8
23.002001 -2.247 7.0219998 8
22.985001 -2.25 6.9990001 9
22.968 -2.2520001 6.9759998 9
22.958 -2.2550001 6.9530001 12
22.969999 -2.2609999 6.9380002 13
23.000999 -2.2679999 6.928 16
23.042999 -2.2750001 6.921 19
23.099001 -2.2850001 6.9169998 25
23.160999 -2.2950001 6.9159999 27
23.204 -2.303 6.908 29
23.268 -2.312 6.9060001 27
23.313 -2.3210001 6.8979998 30
23.399 -2.332 6.901 31
23.458 -2.3410001 6.8969998 32
23.525999 -2.3510001 6.895 31
23.594999 -2.3610001 6.8920002 27
23.666 -2.3699999 6.8899999 27
23.716 -2.378 6.881 33
23.797001 -2.3889999 6.8800001 30
23.875 -2.3989999 6.8779998 29
23.959 -2.4100001 6.8779998 29
24.035 -2.4200001 6.875 24
24.122999 -2.431 6.875 29
24.201 -2.441 6.8709998 25
24.285 -2.451 6.869 29
24.353001 -2.46 6.862 28
24.447001 -2.471 6.862 28
24.537001 -2.4820001 6.8600001 28
24.629999 -2.493 6.8579998 27
24.725 -2.503 6.8569999 23
24.823999 -2.5139999 6.8569999 23
24.927 -2.5250001 6.8559999 24
24.990999 -2.533 6.8449998 28
25.093 -2.5439999 6.842 29
25.188999 -2.5539999 6.8390002 28
25.301001 -2.566 6.8390002 25
25.408001 -2.5769999 6.8379998 27
25.507 -2.5869999 6.8330002 28
25.594 -2.596 6.8249998 30
25.695999 -2.6059999 6.8210001 34
25.784 -2.615 6.8119998 32
25.868 -2.6229999 6.8010001 30
25.885 -2.6240001 6.7729998 35
25.906 -2.6259999 6.7459998 37
25.893 -2.6240001 6.7090001 39
25.893999 -2.622 6.6760001 38
25.896999 -2.6210001 6.6430001 38
25.895 -2.6199999 6.6079998 40
25.907 -2.619 6.5770001 40
25.903 -2.6170001 6.5409999 33
25.889999 -2.6140001 6.5019999 39
25.889999 -2.612 6.467 39
25.9 -2.6099999 6.434 40
25.899 -2.608 6.3979998 40
25.892 -2.605 6.3610001 40
25.893999 -2.6029999 6.3249998 39
25.896999 -2.5999999 6.289 40
25.892 -2.596 6.2519999 41
25.893999 -2.5940001 6.2160001 37
25.884001 -2.589 6.1760001 39
25.896999 -2.5869999 6.1420002 37
25.879 -2.582 6.0999999 38
25.889 -2.579 6.0640001 39
25.900999 -2.576 6.0289998 37
25.900999 -2.572 5.9910002 37
25.893 -2.5669999 5.9499998 38
25.896 -2.563 5.9120002 38
25.892 -2.5569999 5.8730001 38
25.892 -2.553 5.8340001 38
25.9 -2.5480001 5.796 37
25.899 -2.543 5.756 38
25.893999 -2.5369999 5.7150002 37
25.914 -2.533 5.6789999 36
25.905001 -2.527 5.6370001 38
25.922001 -2.523 5.6009998 31
25.917 -2.516 5.5599999 37
25.912001 -2.5090001 5.5180001 37
25.923 -2.5039999 5.4790001 37
25.915001 -2.497 5.4359999 38
25.922001 -2.4909999 5.3959999 37
25.93 -2.4849999 5.3559999 36
25.924999 -2.4760001 5.3130002 36
25.940001 -2.471 5.2740002 34
25.947001 -2.464 5.2319999 33
25.955 -2.457 5.1919999 30
25.958 -2.45 5.1500001 32
25.952999 -2.441 5.1069999 32
25.972 -2.434 5.066 32
25.965 -2.425 5.0219998 32
25.975 -2.418 4.98 31
25.981001 -2.4100001 4.9390001 30
25.989 -2.402 4.8969998 30
25.997 -2.3929999 4.8540001 29
26.021 -2.3859999 4.816 28
26.02 -2.3770001 4.77 26
26.035999 -2.368 4.73 25
26.039 -2.359 4.6859999 24
26.052999 -2.3499999 4.6430001 22
26.075001 -2.342 4.6020002 20
26.101 -2.3329999 4.5619998 19
26.115 -2.3239999 4.5190001 17
26.124001 -2.3139999 4.4749999 15
26.174 -2.3069999 4.4380002 12
26.194 -2.2980001 4.395 9
26.219 -2.2880001 4.3530002 5
26.224001 -2.277 4.309 1
0 0 0 0
0 0 0 0
0 0 0 0
0 0 0 0
0 0 0 0
0 0 0 0
0 0 0 0
0 0 0 0
0 0 0 0
0 0 0 0
0 0 0 0
0 0 0 2
0 0 0 0
0 0 0 0
0 0 0 2
0 0 0 0
0 0 0 0
0 0 0 0
0 0 0 0
0 0 0 0
0 0 0 0
0 0 0 0
0 0 0 0
0 0 0 0
0 0 0 0
0 0 0 0
0 0 0 0
0 0 0 0
0 0 0 4
52.668999 -3.6949999 5.7849998 8
52.691002 -3.6619999 5.691 7
52.779999 -3.632 5.5999999 7
52.830002 -3.599 5.507 6
52.931999 -3.5699999 5.4180002 5
0 0 0 0
0 0 0 5
33.808998 -2.207 3.2709999 18
33.775002 -2.181 3.204 46
33.738998 -2.154 3.1370001 67
33.709999 -2.1270001 3.0710001 88
33.682999 -2.1010001 3.006 102
33.702 -2.0769999 2.9449999 96
33.695 -2.05 2.8800001 96
33.688999 -2.0239999 2.816 98
33.662998 -1.997 2.75 107
33.658001 -1.971 2.688 76
33.653999 -1.944 2.6229999 101
33.653 -1.9170001 2.5599999 100
33.667 -1.891 2.497 98
33.645 -1.862 2.4319999 91
33.608002 -1.8329999 2.3670001 76
33.617001 -1.806 2.3039999 64
33.651001 -1.779 2.2420001 72
33.639999 -1.751 2.177 71
33.646 -1.723 2.115 86
33.634998 -1.694 2.052 82
33.626999 -1.665 1.988 86
33.563 -1.633 1.92 91
33.355999 -1.594 1.847 62
33.382 -1.5650001 1.783 82
33.547001 -1.543 1.729 96
33.564999 -1.513 1.666 99
33.562 -1.483 1.604 105
33.577 -1.454 1.543 106
33.563999 -1.4220001 1.477 94
33.57 -1.391 1.414 104
33.57 -1.36 1.351 103
33.561001 -1.329 1.288 103
33.550999 -1.2970001 1.225 104
33.577999 -1.266 1.163 57
33.712002 -1.239 1.105 11
33.938999 -1.215 1.049 8
34.146999 -1.189 0.991 8
34.375 -1.163 0.93300003 9
34.625 -1.138 0.875 9
34.824001 -1.11 0.815 8
35.001999 -1.081 0.75400001 9
35.23 -1.053 0.69499999 8
35.487999 -1.025 0.634 8
35.686001 -0.995 0.57200003 5
37.441002 -1.005 0.52999997 23
37.437 -0.96700001 0.461 22
37.445 -0.92799997 0.39199999 22
37.426998 -0.889 0.322 24
37.435001 -0.85000002 0.25400001 22
37.395 -0.81 0.185 38
37.402 -0.77100003 0.116 46
37.664001 -0.736 0.048 5
37.984001 -0.70200002 -0.02 6
38.285999 -0.66600001 -0.090999998 5
38.726002 -0.63200003 -0.163 7
39.063 -0.59399998 -0.236 22
39.263 -0.55400002 -0.30899999 10
39.312 -0.51200002 -0.38 2
41.411999 -0.493 -0.47499999 116
41.412998 -0.447 -0.55000001 124
41.404999 -0.40000001 -0.62599999 94
41.398998 -0.354 -0.69999999 112
41.405998 -0.308 -0.773 92
38.929001 -0.24600001 -0.79699999 4
38.959 -0.20100001 -0.86799997 21
39.008999 -0.15800001 -0.93800002 50
38.960999 -0.112 -1.007 34
0 0 0 25
0 0 0 1
27.857 0.017000001 -0.86900002 2
0 0 0 5
0 0 0 5
29.784 0.123 -1.087 150
29.761999 0.15800001 -1.137 154
29.712 0.193 -1.187 152
29.726999 0.229 -1.24 74
29.677 0.264 -1.29 11
0 0 0 0
0 0 0 3
0 0 0 0
0 0 0 2
0 0 0 0
0 0 0 2
0 0 0 1
16.323999 0.30399999 -0.93300003 4
16.327 0.32499999 -0.96100003 2
15.435 0.32600001 -0.93400002 2
14.701 0.329 -0.91399997 2
14.1 0.333 -0.89999998 3
13.524 0.33700001 -0.88599998 3
12.968 0.33899999 -0.87099999 3
12.534 0.34299999 -0.86199999 3
12.078 0.34599999 -0.85100001 3
11.634 0.34799999 -0.83899999 2
11.245 0.35100001 -0.829 2
10.9 0.354 -0.82200003 3
10.531 0.35600001 -0.81099999 2
10.187 0.35699999 -0.801 3
9.8950005 0.36000001 -0.79400003 3
9.5880003 0.361 -0.78500003 3
9.3109999 0.36199999 -0.77700001 3
9.0620003 0.36500001 -0.77100003 4
8.8500004 0.368 -0.76700002 5
8.6160002 0.36899999 -0.75999999 4
8.4180002 0.37200001 -0.75599998 4
8.1949997 0.373 -0.74900001 3
7.98 0.373 -0.74199998 3
7.7789998 0.37400001 -0.73500001 3
7.5939999 0.375 -0.72899997 4
7.4169998 0.37599999 -0.72399998 3
7.211 0.375 -0.71499997 3
6.9850001 0.373 -0.70300001 6
6.8000002 0.37200001 -0.69499999 10
6.678 0.37400001 -0.69300002 11
6.5799999 0.37799999 -0.69199997 12
6.4910002 0.38100001 -0.69300002 9
6.3959999 0.384 -0.69199997 5
6.23 0.38299999 -0.68300003 3
6.1030002 0.38299999 -0.67799997 4
6.0009999 0.38499999 -0.676 3
5.8850002 0.38499999 -0.67199999 3
5.7649999 0.38499999 -0.66600001 2
5.671 0.38600001 -0.66399997 3
5.5619998 0.38699999 -0.65899998 2
5.4629998 0.38699999 -0.65499997 2
5.3759999 0.38800001 -0.65200001 2
5.2800002 0.389 -0.648 3
5.2059999 0.38999999 -0.64700001 4
5.119 0.391 -0.64300001 2
5.0339999 0.391 -0.639 2
4.9520001 0.391 -0.63599998 3
4.8930001 0.39300001 -0.63499999 3
4.8060002 0.39300001 -0.63 4
4.7490001 0.39399999 -0.62900001 3
4.6919999 0.396 -0.62800002 3
4.6279998 0.39700001 -0.62599999 3
4.5479999 0.396 -0.62099999 3
4.4879999 0.39700001 -0.61900002 3
4.4629998 0.40099999 -0.62099999 3
4.3959999 0.40099999 -0.61799997 3
4.4099998 0.40799999 -0.625 3
4.3179998 0.40599999 -0.61799997 2
4.2800002 0.40799999 -0.61799997 2
4.2160001 0.40799999 -0.61400002 2
4.1350002 0.40599999 -0.60799998 2
4.0999999 0.40799999 -0.60799998 2
4.0879998 0.412 -0.611 2
4.0279999 0.412 -0.60699999 2
4.007 0.41499999 -0.60900003 2
4.0100002 0.421 -0.61500001 3
3.934 0.41800001 -0.60799998 2
3.902 0.41999999 -0.60799998 3
3.875 0.42199999 -0.60799998 3
3.8510001 0.42500001 -0.60900003 3
3.7679999 0.421 -0.60000002 2
3.848 0.435 -0.61799997 2
3.825 0.43799999 -0.61799997 3
3.721 0.43099999 -0.60600001 2
3.6960001 0.433 -0.60600001 3
3.579 0.42399999 -0.59100002 2
3.598 0.43099999 -0.59799999 3
3.536 0.428 -0.59200001 1
3.517 0.43099999 -0.59299999 1
3.4760001 0.43000001 -0.58999997 1
3.4530001 0.43200001 -0.58999997 2
3.395 0.42899999 -0.583 2
3.3640001 0.43000001 -0.58200002 1
3.3929999 0.43799999 -0.58999997 1
3.3859999 0.442 -0.59299999 2
3.4360001 0.45300001 -0.60500002 2
3.415 0.45500001 -0.60500002 2
3.3310001 0.44800001 -0.59399998 2
3.3599999 0.45699999 -0.60299999 2
3.2950001 0.45199999 -0.59399998 2
3.237 0.44800001 -0.58700001 1
3.2049999 0.44800001 -0.58499998 2
3.2079999 0.45300001 -0.588 1
3.21 0.45699999 -0.59200001 2
3.2309999 0.465 -0.59899998 2
3.1240001 0.45300001 -0.58200002 1
3.0810001 0.45100001 -0.57700002 1
3.1760001 0.46900001 -0.59799999 2
3.03 0.45100001 -0.57300001 2
3.0179999 0.45300001 -0.574 2
3.0020001 0.45500001 -0.574 2
2.9749999 0.45500001 -0.57099998 2
2.96 0.456 -0.57099998 2
2.9489999 0.458 -0.57099998 2
2.9260001 0.45899999 -0.56999999 2
2.9170001 0.461 -0.56999999 2
2.8970001 0.461 -0.56900001 2
2.8870001 0.463 -0.56999999 2
2.8629999 0.463 -0.56699997 2
2.852 0.465 -0.56699997 2
2.839 0.46599999 -0.56699997 2
2.825 0.46799999 -0.56699997 2
2.8 0.46700001 -0.56400001 2
2.7939999 0.46900001 -0.565 2
2.783 0.47099999 -0.565 2
2.77 0.472 -0.565 2
2.757 0.47299999 -0.56400001 2
2.747 0.47499999 -0.56400001 2
2.7309999 0.47499999 -0.56300002 2
2.724 0.477 -0.56300002 2
2.717 0.479 -0.56400001 2
2.7060001 0.47999999 -0.56300002 2
2.6919999 0.48100001 -0.56300002 2
2.678 0.48199999 -0.56099999 2
2.6630001 0.48199999 -0.56 2
2.6570001 0.484 -0.56099999 2
2.6489999 0.486 -0.56099999 2
2.635 0.486 -0.56 2
2.6329999 0.48899999 -0.56099999 2
2.618 0.48899999 -0.55900002 2
2.608 0.49000001 -0.55900002 2
2.599 0.49200001 -0.55900002 2
2.592 0.493 -0.55900002 2
2.5810001 0.49399999 -0.55800003 2
2.5710001 0.495 -0.55699998 2
2.5639999 0.49599999 -0.55699998 2
2.5569999 0.498 -0.55699998 2
2.553 0.5 -0.55800003 2
2.5380001 0.5 -0.55599999 2
2.5339999 0.50199997 -0.55599999 2
2.5220001 0.50199997 -0.55500001 2
2.5239999 0.505 -0.55699998 2
2.5109999 0.505 -0.55500001 2
2.5009999 0.50599998 -0.55400002 2
2.4979999 0.50800002 -0.55500001 2
2.49 0.509 -0.55400002 2
2.483 0.50999999 -0.55400002 2
2.4820001 0.51200002 -0.55500001 2
2.477 0.514 -0.55500001 2
2.4649999 0.514 -0.55299997 2
2.4630001 0.51599997 -0.55400002 2
2.4630001 0.51800001 -0.55500001 2
2.4519999 0.51800001 -0.55299997 2
2.4449999 0.51899999 -0.55299997 2
2.4460001 0.52200001 -0.55400002 2
2.4430001 0.523 -0.55400002 2
2.431 0.523 -0.55299997 2
2.4300001 0.52499998 -0.55299997 2
2.4219999 0.52600002 -0.55199999 2
2.4100001 0.52499998 -0.55000001 2
2.4200001 0.52999997 -0.55299997 2
2.4119999 0.52999997 -0.55199999 2
2.4070001 0.53100002 -0.55199999 2
2.3970001 0.53100002 -0.55000001 2
2.402 0.53399998 -0.55199999 2
2.3940001 0.53500003 -0.551 2
2.3940001 0.537 -0.55199999 2
2.3889999 0.53799999 -0.551 2
2.3829999 0.53799999 -0.55000001 2
2.3800001 0.54000002 -0.55000001 2
2.3789999 0.54100001 -0.551 2
2.3789999 0.54299998 -0.551 2
2.3789999 0.54500002 -0.55199999 2
2.3699999 0.54500002 -0.55000001 2
2.3670001 0.546 -0.55000001 2
2.3659999 0.54799998 -0.55000001 2
2.3659999 0.55000001 -0.55000001 2
2.3640001 0.551 -0.55000001 2
2.358 0.551 -0.54900002 2
2.362 0.55400002 -0.551 2
2.3629999 0.55599999 -0.551 2
2.355 0.55599999 -0.54900002 2
2.3640001 0.56 -0.55199999 2
2.358 0.56 -0.551 2
2.352 0.56 -0.54900002 2
2.349 0.56099999 -0.54900002 2
2.355 0.56400001 -0.55000001 2
2.3529999 0.565 -0.55000001 2
2.352 0.56699997 -0.55000001 2
2.348 0.56699997 -0.54900002 2
2.3469999 0.56800002 -0.54900002 2
2.348 0.56999999 -0.54900002 2
2.3440001 0.57099998 -0.54799998 2
2.348 0.57300001 -0.54900002 2
2.3499999 0.57499999 -0.55000001 2
2.345 0.57499999 -0.54799998 2
2.3440001 0.57599998 -0.54799998 2
2.3499999 0.579 -0.55000001 2
2.346 0.579 -0.54799998 2
2.3469999 0.58099997 -0.54799998 2
2.3510001 0.583 -0.54900002 2
2.348 0.583 -0.54799998 2
2.359 0.58700001 -0.551 2
2.3559999 0.588 -0.55000001 2
2.3540001 0.58899999 -0.54900002 2
2.358 0.59100002 -0.55000001 2
2.3599999 0.59200001 -0.55000001 2
2.358 0.59299999 -0.54900002 2
2.359 0.59399998 -0.54900002 2
2.3629999 0.59600002 -0.54900002 2
2.3640001 0.597 -0.54900002 2
2.3640001 0.59799999 -0.54900002 2
2.3670001 0.60000002 -0.54900002 2
2.3710001 0.602 -0.55000001 2
2.3740001 0.60399997 -0.55000001 2
2.375 0.60500002 -0.54900002 2
2.3759999 0.60600001 -0.54900002 2
2.3770001 0.60699999 -0.54900002 2
2.382 0.60900003 -0.55000001 2
2.3800001 0.60900003 -0.54799998 2
2.3829999 0.611 -0.54799998 2
2.395 0.61500001 -0.551 2
2.3959999 0.616 -0.55000001 2
2.395 0.616 -0.54900002 2
2.4089999 0.62 -0.55199999 2
2.4089999 0.62099999 -0.551 2
2.4159999 0.62300003 -0.55199999 2
2.4189999 0.625 -0.55199999 2
2.4189999 0.625 -0.551 2
2.4219999 0.62599999 -0.551 2
2.427 0.62800002 -0.551 2
2.4289999 0.62900001 -0.551 2
2.434 0.63099998 -0.551 2
2.438 0.63200003 -0.551 2
2.438 0.63300002 -0.55000001 2
2.4449999 0.63499999 -0.55000001 2
2.454 0.63700002 -0.551 2
2.4579999 0.639 -0.551 2
2.4649999 0.64099997 -0.55199999 2
2.4679999 0.64200002 -0.551 2
2.4719999 0.64300001 -0.551 2
2.4779999 0.64499998 -0.551 2
2.4890001 0.648 -0.55299997 2
2.4860001 0.64700001 -0.551 2
2.4979999 0.64999998 -0.55199999 2
2.51 0.65399998 -0.55400002 2
2.52 0.65600002 -0.55500001 2
2.523 0.65700001 -0.55400002 2
2.5220001 0.65700001 -0.55299997 2
2.5280001 0.65799999 -0.55299997 2
2.543 0.662 -0.55400002 2
2.5510001 0.66399997 -0.55500001 2
2.5550001 0.66500002 -0.55400002 2
2.5650001 0.66799998 -0.55500001 2
2.5710001 0.66900003 -0.55500001 2
2.5829999 0.67199999 -0.55599999 2
2.592 0.67400002 -0.55599999 2
2.6029999 0.676 -0.55699998 2
2.6029999 0.676 -0.55599999 2
2.6159999 0.67900002 -0.55699998 2
2.6270001 0.68099999 -0.55800003 2
2.631 0.68199998 -0.55699998 2
2.638 0.68300003 -0.55699998 2
2.655 0.68699998 -0.55800003 2
2.6600001 0.68800002 -0.55800003 2
2.668 0.69 -0.55800003 2
2.6689999 0.68900001 -0.55599999 2
2.688 0.69300002 -0.55800003 2
2.6930001 0.69400001 -0.55800003 2
2.707 0.69700003 -0.55900002 2
2.7219999 0.69999999 -0.56 2
2.7320001 0.70200002 -0.56 2
2.7479999 0.70499998 -0.56099999 2
2.763 0.708 -0.56199998 2
2.77 0.70899999 -0.56199998 2
2.776 0.70999998 -0.56099999 2
2.789 0.71200001 -0.56199998 2
2.803 0.71499997 -0.56199998 2
2.813 0.71600002 -0.56199998 2
2.822 0.71799999 -0.56199998 2
2.8410001 0.72100002 -0.56300002 2
2.8469999 0.722 -0.56300002 2
2.859 0.72399998 -0.56300002 2
2.885 0.72899997 -0.56599998 2
2.8940001 0.73000002 -0.565 2
2.905 0.73100001 -0.565 2
2.9260001 0.73500001 -0.56699997 2
2.944 0.73799998 -0.56800002 2
2.95 0.73799998 -0.56599998 2
2.9630001 0.74000001 -0.56699997 2
2.9809999 0.74299997 -0.56699997 1
0 0 0 2
3.0999999 0.76999998 -0.58499998 2
3.1400001 0.778 -0.58999997 1
3.214 0.79400003 -0.60100001 1
3.211 0.792 -0.59799999 1
3.1689999 0.77999997 -0.58700001 1
3.174 0.77899998 -0.58499998 2
3.2260001 0.79000002 -0.59200001 2
3.336 0.815 -0.60900003 2
3.267 0.796 -0.59399998 2
3.23 0.78500003 -0.58399999 1
3.3210001 0.80500001 -0.59799999 2
3.299 0.79699999 -0.59100002 2
3.227 0.778 -0.57499999 1
3.3210001 0.79799998 -0.58899999 2
3.4430001 0.82499999 -0.60699999 2
3.322 0.79400003 -0.583 2
3.3629999 0.801 -0.58700001 1
3.401 0.80800003 -0.58999997 1
3.375 0.79900002 -0.58200002 1
3.4130001 0.80500001 -0.58600003 2
3.4089999 0.80199999 -0.58200002 1
3.4400001 0.80599999 -0.58399999 2
3.467 0.81 -0.58499998 2
3.46 0.80599999 -0.58099997 1
3.4979999 0.81199998 -0.58399999 3
3.543 0.81900001 -0.588 3
3.645 0.83999997 -0.60100001 3
3.6170001 0.82999998 -0.59299999 2
3.652 0.83499998 -0.59500003 2
3.6949999 0.84200001 -0.59799999 2
3.6919999 0.838 -0.59399998 2
3.777 0.85399997 -0.60399997 3
3.845 0.866 -0.611 3
3.8369999 0.86000001 -0.60600001 3
3.859 0.86199999 -0.60600001 2
3.8269999 0.85100001 -0.597 2
3.948 0.87400001 -0.61199999 2
3.934 0.86799997 -0.60600001 2
3.9679999 0.87099999 -0.60699999 2
4.0089998 0.87599999 -0.60900003 3
3.9790001 0.866 -0.60100001 2
4.0100002 0.86900002 -0.60100001 3
4.0409999 0.87099999 -0.60100001 2
4.085 0.87699997 -0.60399997 2
4.1550002 0.88700002 -0.61000001 3
4.1350002 0.87900001 -0.60299999 3
4.1849999 0.88499999 -0.60600001 2
4.2140002 0.88700002 -0.60500002 3
4.2680001 0.89300001 -0.60900003 3
4.322 0.89999998 -0.61199999 2
4.3569999 0.903 -0.61199999 3
4.415 0.91000003 -0.616 2
4.448 0.912 -0.61500001 2
4.4990001 0.917 -0.61799997 2
4.5300002 0.91799998 -0.61699998 4
4.5799999 0.92299998 -0.61900002 2
4.6279998 0.92699999 -0.62099999 2
4.6609998 0.92799997 -0.62 2
4.7160001 0.93400002 -0.62199998 2
4.763 0.93699998 -0.62300003 3
4.8239999 0.94400001 -0.62599999 3
4.8940001 0.95200002 -0.63 3
4.9510002 0.95700002 -0.63200003 3
4.9910002 0.958 -0.63200003 3
5.0570002 0.96499997 -0.63499999 3
5.1090002 0.96799999 -0.63499999 4
5.1799998 0.97500002 -0.639 4
5.2519999 0.98199999 -0.64200002 4
5.2989998 0.98400003 -0.64200002 3
5.3699999 0.99000001 -0.64499998 4
5.4359999 0.995 -0.64700001 4
5.5120001 1.002 -0.64999998 4
5.5830002 1.008 -0.65200001 3
5.6799998 1.018 -0.65700001 3
5.7540002 1.023 -0.66000003 3
5.8509998 1.033 -0.66399997 3
5.9190001 1.0369999 -0.66600001 4
6.0040002 1.043 -0.66900003 3
6.0970001 1.051 -0.67199999 3
6.1789999 1.057 -0.67500001 3
6.2800002 1.0650001 -0.67900002 3
6.3720002 1.072 -0.68199998 4
6.4710002 1.08 -0.685 4
6.5689998 1.087 -0.68900001 4
6.6680002 1.0930001 -0.69199997 4
6.7859998 1.103 -0.69700003 4
6.9029999 1.112 -0.70099998 5
7 1.118 -0.70300001 5
7.1220002 1.126 -0.708 5
7.257 1.137 -0.71399999 3
7.3909998 1.147 -0.71899998 5
7.4970002 1.152 -0.72100002 6
7.6409998 1.163 -0.72600001 6
7.7880001 1.174 -0.73199999 5
7.9180002 1.181 -0.736 5
8.0310001 1.186 -0.73699999 5
8.1680002 1.194 -0.741 5
8.3070002 1.201 -0.745 5
8.4759998 1.212 -0.75099999 5
8.651 1.224 -0.75700003 3
8.7629995 1.226 -0.75800002 4
8.9040003 1.232 -0.75999999 4
9.0640001 1.24 -0.764 4
9.257 1.251 -0.77100003 4
9.4200001 1.258 -0.77399999 4
9.6129999 1.2690001 -0.77999997 4
9.8190002 1.28 -0.78600001 3
9.9870005 1.286 -0.78899997 3
10.19 1.295 -0.79500002 3
10.396 1.304 -0.80000001 2
10.662 1.3200001 -0.80900002 2
10.885 1.33 -0.815 2
11.16 1.345 -0.824 3
11.34 1.348 -0.82499999 3
11.545 1.353 -0.82800001 3
11.78 1.3609999 -0.833 2
12.043 1.37 -0.83899999 3
12.358 1.385 -0.84799999 3
12.661 1.398 -0.85600001 2
12.974 1.41 -0.86400002 3
13.285 1.421 -0.87099999 3
13.643 1.4349999 -0.88099998 3
14.026 1.451 -0.89099997 3
14.391 1.464 -0.89999998 3
14.783 1.477 -0.90899998 2
15.236 1.4960001 -0.92199999 2
14.955 1.442 -0.88999999 2
15.815 1.497 -0.92500001 5
16.124001 1.498 -0.92799997 5
16.443001 1.498 -0.93000001 5
16.780001 1.498 -0.93199998 4
17.334 1.517 -0.94599998 2
0 0 0 1
19.610001 1.645 -1.0319999 1
0 0 0 0
0 0 0 25
0 0 0 1
23.864 1.827 -1.164 1
0 0 0 25
0 0 0 1
0 0 0 25
0 0 0 0
0 0 0 0
0 0 0 0
0 0 0 0
0 0 0 0
0 0 0 0
0 0 0 15
50.646999 2.839 -1.956 153
47.624001 2.5799999 -1.796 10
47.594002 2.4890001 -1.7539999 154
0 0 0 64
44.685001 2.165 -1.567 204
44.730999 2.0810001 -1.53 212
44.723999 1.9960001 -1.4910001 44
0 0 0 42
0 0 0 8
65.495003 2.543 -2.0139999 18
0 0 0 6
0 0 0 21
0 0 0 4
42.841999 1.329 -1.174 17
42.803001 1.244 -1.137 44
42.603001 1.153 -1.097 36
42.478001 1.066 -1.059 37
0 0 0 5
36.303001 0.76700002 -0.84600002 47
36.320999 0.69599998 -0.81800002 15
36.381001 0.625 -0.79000002 29
36.367001 0.55199999 -0.76099998 42
36.408001 0.47999999 -0.73400003 6
36.327999 0.40599999 -0.704 4
0 0 0 0
0 0 0 6
41.923 0.21699999 -0.71700001 36
41.52 0.132 -0.68000001 35
41.074001 0.048 -0.64200002 33
41.013 -0.032000002 -0.611 34
0 0 0 2
0 0 0 27
41.372002 -0.28400001 -0.52700001 90
41.411999 -0.368 -0.498 94
41.415001 -0.45199999 -0.46900001 94
39.219002 -0.509 -0.41600001 4
38.611 -0.57999998 -0.38299999 7
38.007999 -0.648 -0.35100001 6
37.396 -0.71200001 -0.32100001 23
36.994999 -0.77999997 -0.29300001 23
36.856998 -0.85299999 -0.26699999 49
36.824001 -0.92799997 -0.243 9
0 0 0 0
0 0 0 1
0 0 0 0
0 0 0 0
0 0 0 1
19.235001 -0.72100002 -0.054000001 1
0 0 0 0
0 0 0 1
18.77 -0.81900001 -0.018999999 1
18.552 -0.847 -0.0080000004 1
18.568001 -0.88599998 0.0020000001 1
18.355 -0.91399997 0.013 1
0 0 0 0
0 0 0 0
0 0 0 0
0 0 0 0
0 0 0 1
18.264999 -1.1339999 0.071999997 1
18.191999 -1.1670001 0.082000002 1
18.122999 -1.2 0.090999998 1
18.094999 -1.235 0.1 1
18.285 -1.286 0.11 1
18.58 -1.345 0.121 1
18.398001 -1.369 0.12899999 1
18.474001 -1.413 0.138 1
18.613001 -1.462 0.148 1
18.642 -1.503 0.15700001 1
0 0 0 0
0 0 0 0
0 0 0 0
0 0 0 0
0 0 0 0
0 0 0 0
0 0 0 0
0 0 0 25
0 0 0 25
0 0 0 25
0 0 0 25
0 0 0 25
0 0 0 25
0 0 0 25
0 0 0 25
0 0 0 25
0 0 0 25
0 0 0 25
0 0 0 1
0 0 0 0
0 0 0 6
34.231998 -4.3010001 0.57800001 9
34.234001 -4.3699999 0.58899999 12
34.236 -4.441 0.59899998 33
34.257 -4.5120001 0.60900003 17
34.23 -4.5770001 0.61799997 48
34.206001 -4.6430001 0.62699997 1
0 0 0 0
0 0 0 0
0 0 0 0
0 0 0 0
0 0 0 7
0 0 0 3
34.321999 -5.1360002 0.68900001 10
34.123001 -5.1739998 0.69199997 27
34.036999 -5.2280002 0.69800001 52
34.028999 -5.2950001 0.70499998 115
34.036999 -5.3639998 0.71200001 111
34.023998 -5.4289999 0.71799999 108
34.048 -5.4990001 0.72500002 106
34.058998 -5.5679998 0.73100001 123
34.080002 -5.638 0.73799998 117
34.083 -5.7049999 0.74400002 87
34.074001 -5.7690001 0.74900001 117
0 0 0 4
17.985001 -3.115 0.40099999 19
17.92 -3.138 0.40200001 25
17.848 -3.1600001 0.40200001 31
17.802 -3.1860001 0.40400001 35
17.77 -3.2149999 0.405 39
17.733 -3.2420001 0.40599999 37
17.726999 -3.2739999 0.40799999 27
17.698999 -3.302 0.40900001 49
17.660999 -3.3280001 0.41 50
17.65 -3.3599999 0.41100001 48
17.632999 -3.3900001 0.412 56
17.622 -3.421 0.414 36
17.606001 -3.45 0.41499999 66
17.605 -3.483 0.41600001 73
17.59 -3.5120001 0.41600001 62
17.613001 -3.549 0.41800001 36
17.597 -3.5780001 0.41800001 53
17.598 -3.6110001 0.419 49
17.608 -3.645 0.41999999 42
17.611 -3.678 0.41999999 58
17.624001 -3.7130001 0.421 32
17.625 -3.7449999 0.42199999 44
17.634001 -3.779 0.42199999 41
17.655001 -3.8139999 0.42300001 39
17.681999 -3.852 0.42300001 36
17.702 -3.8870001 0.42300001 31
17.719999 -3.9230001 0.42300001 28
17.802999 -3.973 0.42500001 21
17.878 -4.0209999 0.42699999 12
0 0 0 4
0 0 0 0
0 0 0 0
0 0 0 0
0 0 0 0
0 0 0 3
38.401001 -9.1029997 0.90499997 5
38.362 -9.1590004 0.90200001 4
38.402 -9.2340002 0.89999998 4
38.431 -9.3050003 0.898 4
0 0 0 0
0 0 0 15
34.686001 -8.5719995 0.801 30
34.674 -8.6260004 0.79699999 22
0 0 0 0
0 0 0 0
0 0 0 0
0 0 0 0
0 0 0 0
0 0 0 0
0 0 0 3
34.834 -9.1160002 0.76700002 21
34.783001 -9.1569996 0.76099998 43
34.648998 -9.1750002 0.75400001 28
34.514999 -9.1929998 0.74599999 15
34.456001 -9.2299995 0.73900002 65
34.452999 -9.2819996 0.73400003 75
34.459 -9.3360004 0.727 75
34.466 -9.3900003 0.722 79
34.473 -9.4429998 0.71600002 77
34.491001 -9.5 0.71100003 81
34.493999 -9.5509996 0.70499998 81
34.487 -9.6000004 0.69800001 78
34.492001 -9.651 0.69199997 77
34.487999 -9.6999998 0.685 75
34.491001 -9.75 0.67799997 72
34.506001 -9.8039999 0.67199999 62
0 0 0 1
30.344999 -8.7069998 0.57700002 1
30.334 -8.7469997 0.57099998 1
30.204 -8.7510004 0.56199998 1
30.313999 -8.823 0.55699998 1
0 0 0 20
34.564999 -10.155 0.61900002 26
34.580002 -10.205 0.611 22
34.568001 -10.247 0.60299999 27
34.576 -10.295 0.59500003 28
34.578999 -10.341 0.58700001 25
34.595001 -10.39 0.57800001 21
34.610001 -10.439 0.56999999 21
34.608002 -10.483 0.56099999 20
34.609001 -10.526 0.55199999 17
0 0 0 2
27.823999 -8.5319996 0.42899999 2
27.774 -8.5509996 0.421 2
27.796 -8.5909996 0.41299999 2
27.809999 -8.6289997 0.40599999 2
27.827 -8.6669998 0.398 7
27.774 -8.684 0.389 2
0 0 0 2
31.313 -9.8620005 0.42199999 3
31.221001 -9.8690004 0.41100001 3
31.035999 -9.8459997 0.40000001 3
31.004 -9.8699999 0.38999999 3
30.992001 -9.901 0.38100001 3
30.844999 -9.8859997 0.36899999 3
30.820999 -9.9119997 0.36000001 5
30.805 -9.9399996 0.34999999 6
30.82 -9.9770002 0.34099999 6
30.816999 -10.008 0.331 7
30.805 -10.036 0.32100001 7
30.832001 -10.076 0.31099999 5
30.836 -10.107 0.30199999 6
30.829 -10.136 0.292 6
30.855 -10.174 0.28200001 5
30.823999 -10.194 0.271 5
30.818001 -10.221 0.26199999 6
30.790001 -10.24 0.25099999 4
30.701 -10.239 0.23999999 5
30.608999 -10.237 0.229 6
30.525 -10.235 0.21799999 8
30.444 -10.235 0.206 8
30.344 -10.228 0.19499999 10
30.353001 -10.256 0.185 11
30.313 -10.268 0.17399999 13
30.32 -10.296 0.163 14
30.337 -10.326 0.153 14
30.326 -10.346 0.14300001 15
30.336 -10.374 0.132 14
30.346001 -10.401 0.121 13
30.332001 -10.419 0.109 14
30.327 -10.44 0.098999999 11
30.337 -10.465 0.088 11
30.333 -10.486 0.077 9
30.334999 -10.508 0.064999998 8
30.320999 -10.524 0.055 6
0 0 0 4
27.913 -9.7250004 0.029999999 7
27.909 -9.7419996 0.018999999 7
27.891001 -9.7539997 0.0080000004 7
27.857 -9.7589998 -0.001 8
27.819 -9.7620001 -0.011 12
27.808001 -9.7749996 -0.022 15
27.787001 -9.7840004 -0.032000002 21
27.767 -9.7919998 -0.043000001 30
27.768 -9.8079996 -0.052999999 35
27.759001 -9.8190002 -0.064000003 39
27.754999 -9.8319998 -0.075000003 43
27.74 -9.8409996 -0.086000003 47
27.75 -9.8579998 -0.096000001 48
27.754 -9.8719997 -0.107 47
27.746 -9.882 -0.117 50
27.753 -9.8979998 -0.12800001 53
27.752001 -9.9090004 -0.139 53
27.739 -9.9160004 -0.15000001 53
27.754999 -9.9329996 -0.161 50
27.747 -9.941 -0.171 51
27.76 -9.9549999 -0.183 54
27.763 -9.967 -0.19400001 53
27.761999 -9.9759998 -0.205 44
27.768999 -9.9879999 -0.21600001 42
27.768 -9.9960003 -0.226 49
27.764 -10.003 -0.23800001 42
27.77 -10.013 -0.249 43
27.764999 -10.019 -0.25999999 49
27.767 -10.027 -0.271 43
27.768999 -10.034 -0.28200001 49
27.766001 -10.039 -0.29300001 50
27.764999 -10.044 -0.30399999 42
27.763 -10.049 -0.315 51
27.771 -10.057 -0.32699999 50
27.775 -10.063 -0.338 43
27.763 -10.063 -0.34799999 42
27.768 -10.069 -0.359 51
27.77 -10.072 -0.37 52
27.757999 -10.071 -0.38100001 52
27.768 -10.077 -0.39199999 42
27.764 -10.078 -0.403 52
27.757999 -10.077 -0.414 51
27.766001 -10.082 -0.42500001 52
27.77 -10.084 -0.43599999 51
27.763 -10.082 -0.44800001 42
27.763 -10.082 -0.45899999 49
27.761 -10.081 -0.46900001 41
27.764999 -10.082 -0.47999999 48
27.777 -10.085 -0.49200001 40
27.759001 -10.077 -0.50300002 49
27.761 -10.075 -0.514 49
27.752001 -10.07 -0.52499998 50
27.766001 -10.072 -0.53500003 48
27.756001 -10.065 -0.546 48
27.766001 -10.065 -0.55800003 49
27.756001 -10.057 -0.56900001 46
27.756001 -10.053 -0.57999998 48
27.754999 -10.047 -0.59100002 48
27.761 -10.044 -0.602 48
27.746 -10.033 -0.61299998 49
27.745001 -10.027 -0.62300003 47
27.749001 -10.022 -0.63300002 46
27.747 -10.014 -0.64499998 46
27.747999 -10.007 -0.65499997 45
27.749001 -9.9989996 -0.66600001 44
27.739 -9.9879999 -0.676 43
27.752001 -9.9840002 -0.68699998 39
27.742001 -9.9709997 -0.69700003 37
27.745001 -9.9630003 -0.708 35
27.737 -9.9499998 -0.71899998 33
27.73 -9.9370003 -0.72799999 29
27.729 -9.9259996 -0.74000001 29
27.726 -9.9139996 -0.75 26
27.726 -9.9029999 -0.76099998 26
0 0 0 1
6.915 -2.4630001 -0.19400001 1
6.928 -2.4649999 -0.197 3
6.8979998 -2.451 -0.199 10
6.9219999 -2.4560001 -0.20200001 44
6.9569998 -2.4649999 -0.206 151
6.9840002 -2.471 -0.20900001 157
6.9590001 -2.4579999 -0.211 157
6.96 -2.4549999 -0.214 157
6.96 -2.451 -0.21600001 157
6.9510002 -2.444 -0.21799999 157
6.934 -2.434 -0.22 156
6.9349999 -2.4300001 -0.223 122
6.881 -2.4070001 -0.22400001 25
6.8779998 -2.402 -0.226 20
6.8660002 -2.3929999 -0.228 17
6.8800001 -2.3929999 -0.23100001 19
6.8730001 -2.3859999 -0.233 30
6.8610001 -2.378 -0.235 34
6.8720002 -2.3770001 -0.23800001 66
6.8769999 -2.3740001 -0.23999999 78
6.9109998 -2.3800001 -0.244 97
6.927 -2.3800001 -0.24600001 132
6.9099998 -2.369 -0.248 138
6.973 -2.3859999 -0.25299999 150
6.9390001 -2.369 -0.25400001 151
6.948 -2.3659999 -0.257 151
6.9629998 -2.3659999 -0.259 152
6.9660001 -2.3610001 -0.26199999 153
6.9439998 -2.348 -0.26300001 156
6.9580002 -2.346 -0.266 156
6.961 -2.342 -0.26800001 157
6.941 -2.329 -0.26899999 157
6.9770002 -2.335 -0.273 157
6.9590001 -2.322 -0.27399999 157
6.993 -2.3269999 -0.278 157
6.973 -2.3139999 -0.27900001 156
7.0040002 -2.3180001 -0.28299999 150
7.0050001 -2.3110001 -0.285 81
7.0029998 -2.3039999 -0.287 42
7.0120001 -2.3 -0.289 14
7.039 -2.302 -0.292 2
0 0 0 23
27.598 -8.9700003 -1.163 27
0 0 0 1
12.556 -4.0549998 -0.53600001 19
12.556 -4.0419998 -0.53899997 22
12.536 -4.0219998 -0.542 39
12.555 -4.0139999 -0.546 28
12.55 -3.9990001 -0.54900002 27
12.547 -3.984 -0.55199999 29
12.548 -3.97 -0.55500001 26
12.533 -3.951 -0.55800003 26
12.538 -3.938 -0.56199998 24
12.525 -3.9200001 -0.56400001 23
12.53 -3.9070001 -0.56699997 23
12.532 -3.8929999 -0.56999999 29
12.531 -3.8770001 -0.57300001 33
12.519 -3.859 -0.57499999 27
12.538 -3.849 -0.579 25
12.536 -3.8329999 -0.58200002 23
12.521 -3.813 -0.58399999 23
12.515 -3.796 -0.58600003 27
12.52 -3.7809999 -0.58899999 30
12.535 -3.77 -0.59299999 30
12.514 -3.747 -0.59399998 25
12.524 -3.734 -0.597 26
12.515 -3.7149999 -0.59899998 25
12.512 -3.698 -0.60100001 27
12.504 -3.6789999 -0.60399997 28
12.51 -3.664 -0.60600001 28
12.514 -3.648 -0.60900003 21
12.551 -3.642 -0.61299998 9
12.604 -3.6400001 -0.61699998 11
12.644 -3.6340001 -0.62199998 10
12.685 -3.628 -0.62599999 12
12.714 -3.619 -0.62900001 11
12.775 -3.618 -0.634 10
12.808 -3.609 -0.63800001 18
12.871 -3.608 -0.64300001 13
12.917 -3.6029999 -0.64700001 10
12.978 -3.6010001 -0.65200001 9
13.005 -3.589 -0.65499997 14
13.071 -3.5880001 -0.66000003 16
13.096 -3.576 -0.66299999 15
13.159 -3.573 -0.66799998 16
13.226 -3.572 -0.67199999 11
13.295 -3.5699999 -0.67699999 11
13.344 -3.563 -0.68199998 7
13.391 -3.5550001 -0.685 14
13.45 -3.55 -0.69 8
13.506 -3.5439999 -0.69400001 1
0 0 0 6
28.386 -7.3600001 -1.4630001 5
28.434999 -7.3270001 -1.4680001 5
28.493999 -7.2969999 -1.473 5
28.606001 -7.2800002 -1.4809999 5
28.674999 -7.2509999 -1.487 6
28.777 -7.23 -1.494 4
28.853001 -7.2020001 -1.499 4
0 0 0 23
15.203 -3.7449999 -0.79100001 28
15.179 -3.714 -0.79000002 48
15.189 -3.6919999 -0.79100001 45
15.188 -3.6659999 -0.792 38
15.185 -3.6400001 -0.792 27
15.181 -3.6129999 -0.792 41
15.176 -3.5869999 -0.792 27
15.19 -3.5639999 -0.79299998 26
15.172 -3.5339999 -0.79100001 22
15.147 -3.5020001 -0.79000002 36
15.153 -3.4779999 -0.79000002 42
15.166 -3.454 -0.79100001 24
15.148 -3.424 -0.79000002 34
15.154 -3.3989999 -0.78899997 26
15.155 -3.372 -0.78899997 24
15.193 -3.3540001 -0.79000002 9
15.276 -3.345 -0.79400003 11
15.362 -3.3369999 -0.79799998 10
15.439 -3.326 -0.801 12
15.522 -3.316 -0.80400002 11
15.62 -3.309 -0.80800003 9
15.7 -3.2980001 -0.81099999 8
15.768 -3.2839999 -0.81300002 8
15.873 -3.277 -0.81699997 7
15.956 -3.2639999 -0.81999999 8
16.094999 -3.2639999 -0.82599998 5
0 0 0 36
17.573 -3.4990001 -0.898 38
17.559999 -3.464 -0.89499998 57
17.569 -3.4330001 -0.89300001 36
17.577999 -3.402 -0.89099997 54
17.586 -3.3710001 -0.889 52
17.608 -3.342 -0.88800001 32
17.617001 -3.312 -0.88599998 48
17.634001 -3.2820001 -0.884 39
17.662001 -3.253 -0.88200003 29
17.690001 -3.2249999 -0.88099998 37
17.702 -3.1930001 -0.87800002 31
17.753 -3.1700001 -0.87800002 31
17.767 -3.138 -0.875 27
17.809999 -3.1110001 -0.87400001 28
17.9 -3.0929999 -0.875 20
17.989 -3.0739999 -0.875 12
0 0 0 7
33.939999 -5.6680002 -1.637 5
33.41 -5.5159998 -1.603 2
33.311001 -5.434 -1.591 3
33.785 -5.4460001 -1.6059999 4
33.957001 -5.4089999 -1.605 10
0 0 0 3
20.136 -3.1289999 -0.94199997 54
20.120001 -3.0869999 -0.93599999 73
20.131001 -3.05 -0.93099999 40
20.117001 -3.0079999 -0.92400002 48
20.114 -2.9679999 -0.91900003 48
0 0 0 1
17.816999 -2.5580001 -0.80299997 3
17.788 -2.5190001 -0.796 3
17.757999 -2.48 -0.78899997 3
17.75 -2.4430001 -0.78299999 3
17.724001 -2.404 -0.77700001 3
17.665001 -2.3610001 -0.76800001 3
17.542999 -2.3099999 -0.75700003 2
17.492001 -2.2679999 -0.74800003 2
17.492001 -2.233 -0.74199998 2
17.427 -2.1900001 -0.73299998 2
17.434 -2.1559999 -0.727 2
17.399 -2.1170001 -0.71899998 2
17.482 -2.0910001 -0.71600002 5
17.478001 -2.056 -0.70899999 6
17.454 -2.0179999 -0.70099998 4
17.431999 -1.9809999 -0.69300002 6
17.452999 -1.947 -0.68699998 6
17.406 -1.908 -0.67799997 4
17.304001 -1.862 -0.667 2
17.294001 -1.826 -0.65899998 3
17.299 -1.791 -0.65100002 3
17.275999 -1.7539999 -0.64300001 3
17.423 -1.734 -0.63999999 8
17.374001 -1.694 -0.63099998 9
17.351999 -1.6569999 -0.62199998 11
17.374001 -1.623 -0.61400002 9
17.398001 -1.591 -0.60699999 6
17.393 -1.554 -0.59799999 5
17.202 -1.502 -0.583 52
17.236 -1.471 -0.57599998 2
17.261 -1.437 -0.56800002 2
17.218 -1.399 -0.55800003 4
17.268 -1.368 -0.55000001 1
17.273001 -1.3329999 -0.54100001 1
17.357 -1.304 -0.53500003 1
17.271 -1.263 -0.523 1
17.337999 -1.232 -0.51499999 1
17.268 -1.192 -0.50400001 1
0 0 0 0
0 0 0 0
0 0 0 1
17.533001 -1.068 -0.47099999 16
17.568001 -1.035 -0.46200001 53
17.569 -0.99900001 -0.45100001 70
17.561001 -0.963 -0.44100001 1
0 0 0 0
0 0 0 1
17.868999 -0.87099999 -0.41600001 2
17.952 -0.83899999 -0.40599999 3
18.125999 -0.81 -0.39899999 4
18.466999 -0.78799999 -0.39399999 3
18.629999 -0.75700003 -0.38600001 1
0 0 0 0
0 0 0 0
0 0 0 1
19.895 -0.648 -0.359 1
0 0 0 0
0 0 0 0
0 0 0 3
21.042999 -0.51599997 -0.32100001 3
0 0 0 27
36.667999 -0.75099999 -0.50800002 26
37.616001 -0.69499999 -0.49399999 7
38.154999 -0.62800002 -0.47299999 6
38.833 -0.56400001 -0.45300001 4
0 0 0 87
41.428001 -0.43599999 -0.42199999 101
41.403999 -0.352 -0.38999999 96
41.386002 -0.271 -0.359 116
41.610001 -0.19 -0.329 54
41.66 -0.108 -0.29699999 34
41.581001 -0.025 -0.264 45
41.761002 0.055 -0.233 34
42.167999 0.141 -0.20200001 36
42.157001 0.223 -0.168 27
42.192001 0.30500001 -0.13500001 4
43.004002 0.39399999 -0.103 8
0 0 0 94
49.463001 0.64899999 -0.037 69
0 0 0 0
0 0 0 2
0 0 0 3
0 0 0 73
57.028 1.3 0.193 66
57.533001 1.423 0.244 124
57.536999 1.536 0.294 118
57.57 1.648 0.34400001 44
58.105 1.775 0.398 10
58.166 1.888 0.44999999 36
0 0 0 33
65.585999 2.3789999 0.62300003 8
65.586998 2.5039999 0.68099999 40
0 0 0 0
0 0 0 24
0 0 0 0
0 0 0 0
0 0 0 0
0 0 0 40
69.413002 3.569 1.1670001 34
71.322998 3.8010001 1.265 60
0 0 0 0
0 0 0 34
82.640999 4.862 1.699 34
82.810997 5.0250001 1.7819999 22
85.377998 5.3379998 1.919 14
0 0 0 0
0 0 0 0
0 0 0 27
84.742996 5.9159999 2.2320001 35
84.795998 6.073 2.3169999 30
0 0 0 0
0 0 0 0
0 0 0 23
83.382004 6.5710001 2.609 24
0 0 0 0
0 0 0 26
85.827003 7.2189999 2.944 26
85.734001 7.362 3.027 16
0 0 0 0
0 0 0 0
0 0 0 0
0 0 0 15
0 0 0 0
0 0 0 23
86.505997 8.4759998 3.674 31
86.129997 8.5860004 3.7479999 36
85.928001 8.7119999 3.829 37
85.747002 8.8430004 3.9130001 30
85.626999 8.974 3.9960001 22
90.242996 9.6110001 4.309 20
90.172997 9.7530003 4.3990002 17
0 0 0 0
0 0 0 0
0 0 0 0
0 0 0 18
0 0 0 0
0 0 0 49
115.253 13.789 6.4819999 44
115.261 13.974 6.6040001 27
115.243 14.153 6.7280002 23
0 0 0 14
86.963997 10.96 5.2659998 17
0 0 0 0
0 0 0 19
88.021004 11.507 5.6149998 17
88.065002 11.65 5.7150002 18
0 0 0 0
0 0 0 0
0 0 0 25
115.399 15.976 7.9949999 27
0 0 0 0
0 0 0 29
0 0 0 0
0 0 0 28
123.848 18.077999 9.2650003 35
123.783 18.250999 9.3970003 28
123.779 18.437 9.5369997 28
0 0 0 0
0 0 0 0
0 0 0 43
0 0 0 0
0 0 0 25
115.152 18.136999 9.6350002 41
115.043 18.281 9.7539997 45
114.959 18.427999 9.875 46
114.983 18.591 10.005 35
114.954 18.743 10.128 29
0 0 0 0
0 0 0 0
0 0 0 0
0 0 0 0
0 0 0 27
123.69 21.167999 11.724 27
0 0 0 6
47.923 8.3260002 4.6490002 15
47.824001 8.3710003 4.6919999 16
48.036999 8.4700003 4.7670002 28
48.026001 8.5290003 4.8189998 39
47.719002 8.5360003 4.8410001 36
47.456001 8.5480003 4.8649998 28
45.138 8.1870003 4.678 5
44.884998 8.1969995 4.7030001 13
44.853001 8.2460003 4.7490001 13
44.928001 8.3140001 4.8049998 9
44.873001 8.3579998 4.849 5
0 0 0 0
0 0 0 37
46.280998 8.7840004 5.1539998 38
46.088001 8.8009996 5.1820002 46
46.171001 8.8699999 5.2410002 36
46.209 8.9300003 5.296 32
46.222 8.9849997 5.3470001 26
46.236 9.04 5.3990002 16
46.266998 9.0970001 5.4530001 6
0 0 0 25
68.004997 13.521 8.1630001 29
68.025002 13.599 8.2370005 34
68.024002 13.672 8.3120003 27
67.917 13.722 8.3719997 21
67.907997 13.792 8.4420004 10
0 0 0 10
61.424999 12.602 7.7670002 11
61.313999 12.642 7.8169999 19
61.140999 12.668 7.8600001 13
61.134998 12.728 7.9239998 13
0 0 0 0
0 0 0 0
0 0 0 57
0 0 0 0
0 0 0 0
0 0 0 17
45.278999 9.7299995 6.198 21
45.262001 9.7679996 6.243 23
45.195 9.7939997 6.2800002 32
0 0 0 0
0 0 0 24
43.341 9.507 6.1550002 14
43.318001 9.5389996 6.1950002 10
44.623001 9.8640003 6.427 35
43.494999 9.6520004 6.3080001 20
43.929001 9.7840004 6.415 30
43.844002 9.8009996 6.4450002 32
43.761002 9.8179998 6.4770002 35
43.645 9.8260002 6.5040002 36
43.404999 9.8079996 6.5100002 42
43.214001 9.7980003 6.5229998 40
43.084 9.8009996 6.5469999 41
43.058998 9.8280001 6.585 37
43.035 9.8540001 6.6209998 32
43.028 9.8839998 6.6620002 24
43.077999 9.9259996 6.711 16
43.210999 9.9870005 6.7719998 9
43.208 10.017 6.8130002 5
0 0 0 24
61.191002 14.268 9.7639999 35
57.682999 13.489 9.2580004 7
0 0 0 0
0 0 0 15
57.522999 13.561 9.3889999 16
57.578999 13.612 9.4499998 23
57.585999 13.647 9.5019999 29
57.508999 13.662 9.5410004 35
57.393002 13.668 9.5710001 36
57.155998 13.645 9.5830002 39
56.966999 13.631 9.6009998 41
56.827 13.629 9.6269999 40
56.757999 13.643 9.665 37
56.695 13.657 9.7030001 35
56.653999 13.677 9.743 33
56.574001 13.686 9.7779999 34
56.508999 13.698 9.8140001 36
56.382 13.694 9.8389997 37
56.292 13.699 9.8690004 37
56.192001 13.7 9.8990002 38
56.041 13.688 9.9169998 40
55.994999 13.701 9.9560003 36
55.823002 13.682 9.9689999 37
55.678001 13.67 9.9870005 35
55.561001 13.664 10.009 37
55.471001 13.664 10.037 37
55.416 13.671 10.07 39
55.334 13.671 10.098 34
55.306 13.683 10.135 34
55.275002 13.695 10.17 28
55.276001 13.713 10.211 17
55.238998 13.722 10.246 17
55.195999 13.728 10.278 14
0 0 0 0
0 0 0 0
0 0 0 0
0 0 0 8
42.147999 10.54 7.9980001 7
42.042 10.523 8.007 6
41.903 10.498 8.0089998 4
41.694 10.455 7.9959998 5
41.542 10.425 7.9949999 8
41.525002 10.429 8.0190001 10
41.473999 10.423 8.0360003 15
41.487 10.433 8.0649996 21
41.472 10.436 8.0889997 23
41.460999 10.439 8.1129999 26
41.419998 10.435 8.1289997 28
41.391998 10.432 8.1490002 31
41.361 10.429 8.1680002 33
41.308998 10.42 8.1829996 36
41.290001 10.419 8.2030001 34
41.257 10.414 8.2189999 37
41.205002 10.403 8.2340002 39
41.175999 10.398 8.25 41
41.144001 10.392 8.2659998 39
41.127998 10.389 8.2860003 39
41.112 10.386 8.3039999 31
41.084 10.379 8.3199997 28
41.104 10.384 8.3450003 25
41.067001 10.374 8.3590002 21
41.070999 10.375 8.3800001 18
41.075001 10.373 8.4020004 14
41.077999 10.372 8.4209995 10
41.07 10.367 8.4390001 6
41.056 10.361 8.4560003 3
0 0 0 31
56.341999 14.209 11.654 36
56.330002 14.2 11.677 35
56.327999 14.193 11.701 35
56.299 14.178 11.718 33
56.303001 14.17 11.743 32
56.25 14.148 11.754 32
56.188999 14.124 11.764 33
56.167999 14.11 11.78 33
56.126999 14.089 11.793 29
56.058998 14.061 11.798 25
56.023998 14.041 11.811 24
55.998001 14.022 11.825 22
55.943001 13.995 11.833 22
55.924999 13.978 11.846 19
55.889999 13.955 11.857 16
55.846001 13.929 11.865 14
55.889999 13.925 11.891 15
55.844002 13.897 11.898 11
55.862 13.886 11.917 12
55.882999 13.872 11.938 10
0 0 0 0
0 0 0 0
0 0 0 0
0 0 0 0
0 0 0 31
113.697 27.992001 24.448999 29
113.78 27.968 24.490999 35
113.72 27.908001 24.500999 31
113.684 27.853001 24.514999 31
113.755 27.823 24.551001 40
113.69 27.761 24.552999 40
113.714 27.714001 24.58 41
113.775 27.68 24.608 32
113.787 27.631001 24.625999 37
113.723 27.562 24.627001 43
113.714 27.504999 24.639 40
113.782 27.465 24.666 47
113.796 27.412001 24.681 42
113.779 27.351 24.684999 49
113.806 27.301001 24.698 50
113.78 27.231001 24.702 56
113.849 27.188999 24.722 55
113.842 27.124001 24.726999 57
113.796 27.049 24.721001 50
113.804 26.986 24.726999 54
113.869 26.934999 24.743 51
113.848 26.862 24.74 56
113.872 26.802 24.743 55
113.857 26.729 24.739 59
113.867 26.66 24.739 70
113.887 26.591999 24.74 69
113.888 26.521999 24.733 55
113.945 26.461 24.74 46
113.928 26.382999 24.731001 47
113.953 26.313999 24.725 47
113.96 26.238001 24.718 49
113.946 26.156 24.704 48
113.951 26.077 24.694 42
113.961 26 24.684999 48
114.01 25.929001 24.681999 47
113.997 25.843 24.664 47
114.007 25.763 24.646999 54
114.055 25.688999 24.639999 59
114.068 25.606001 24.624001 54
114.03 25.513 24.594999 50
114.045 25.427999 24.577 53
114.063 25.343 24.559 46
114.078 25.256001 24.539 55
114.036 25.155001 24.506001 47
114.093 25.075001 24.492001 49
114.116 24.987 24.471001 51
114.179 24.906 24.455999 51
114.192 24.816999 24.427999 54
114.149 24.711 24.389 52
114.173 24.618999 24.363001 56
114.215 24.530001 24.339001 50
114.205 24.427999 24.302999 51
114.182 24.327 24.261999 51
114.222 24.233999 24.233999 60
114.244 24.138 24.202999 62
114.265 24.039 24.169001 52
114.247 23.931999 24.125 68
114.325 23.846001 24.1 52
114.489 23.774 24.091999 24
0 0 0 0
0 0 0 23
114.551 23.465 23.968 24
114.473 23.339001 23.905001 23
114.577 23.25 23.879 27
114.65 23.156 23.843 26
114.498 23.01 23.761999 24
114.62 22.924999 23.735001 26
114.614 22.809999 23.681 24
114.63 22.698 23.629999 28
114.633 22.584999 23.577999 26
114.71 22.483999 23.537001 29
114.722 22.368999 23.482 29
114.659 22.242001 23.41 26
114.716 22.134001 23.361 24
114.827 22.039 23.322001 22
114.645 21.882999 23.222 29
114.733 21.781 23.179001 26
114.778 21.667 23.124001 25
114.776 21.544001 23.058001 26
114.802 21.429001 22.995001 28
114.75 21.295 22.916 36
114.894 21.195999 22.875999 26
115.047 21.098 22.834999 32
115.074 20.976999 22.768999 32
115.053 20.844999 22.691 31
115.036 20.716999 22.613001 25
0 0 0 0
0 0 0 0
0 0 0 0
0 0 0 0
0 0 0 0
0 0 0 0
0 0 0 26
0 0 0 0
0 0 0 0
0 0 0 0
0 0 0 0
0 0 0 0
0 0 0 23
114.981 18.857 21.440001 25
114.983 18.719 21.349001 35
114.999 18.584 21.259001 41
115.024 18.450001 21.17 58
115.034 18.312 21.076 60
115.035 18.173 20.98 72
115.081 18.040001 20.891001 71
115.044 17.896999 20.785999 70
115.112 17.766001 20.698999 72
115.132 17.628 20.601 72
115.157 17.493 20.504 77
115.154 17.35 20.4 74
115.179 17.214001 20.304001 82
115.189 17.072001 20.200001 59
115.286 16.941999 20.107 63
115.33 16.804001 20.007 50
115.371 16.665001 19.905001 33
115.437 16.528999 19.806 27
115.488 16.389999 19.704 36
115.52 16.252001 19.597 34
115.512 16.104 19.485001 31
115.577 15.966 19.382 30
115.591 15.82 19.264999 30
115.552 15.67 19.145 28
115.523 15.518 19.021999 34
115.598 15.38 18.912001 30
115.596 15.231 18.791 28
115.639 15.087 18.68 34
115.641 14.941 18.559 29
115.707 14.8 18.445999 28
115.726 14.652 18.323999 29
115.7 14.502 18.195 35
115.768 14.359 18.077999 30
115.702 14.204 17.941 30
115.778 14.062 17.823999 23
115.885 13.923 17.712999 24
115.768 13.757 17.561001 27
115.744 13.603 17.424999 32
115.663 13.445 17.280001 40
115.705 13.297 17.152 52
115.697 13.144 17.014999 60
115.729 12.995 16.884001 58
115.745 12.844 16.747999 75
115.735 12.691 16.608 71
115.769 12.545 16.475 74
115.78 12.393 16.334999 76
115.828 12.244 16.200001 51
115.817 12.09 16.056 46
118.342 12.197 16.259001 76
118.349 12.041 16.112 63
118.388 11.891 15.969 57
118.531 11.748 15.838 44
