# .PCD v0.7 - Point Cloud Data file format
VERSION 0.7
FIELDS x y z intensity
SIZE 4 4 4 4
TYPE F F F F
COUNT 1 1 1 1
WIDTH 1848
HEIGHT 1
VIEWPOINT 0 0 0 1 0 0 0
POINTS 1848
DATA ascii
0 0 0 0
0 0 0 1
0 0 0 0
0 0 0 0
0 0 0 0
0 0 0 3
30.653 4.2820001 -1.1670001 1
30.684999 4.2290001 -1.15 2
0 0 0 6
36.001999 4.829 -1.3099999 14
36.063999 4.7690001 -1.2920001 27
36.118 4.7090001 -1.274 27
36.188999 4.6500001 -1.257 10
36.374001 4.6040001 -1.243 12
36.653 4.5700002 -1.233 28
36.747002 4.5110002 -1.216 9
0 0 0 52
48.542999 5.7740002 -1.556 119
48.553001 5.6820002 -1.531 150
48.582001 5.5910001 -1.507 153
48.562 5.4949999 -1.483 154
48.561001 5.401 -1.4579999 4
0 0 0 23
40.132 4.3060002 -1.165 11
39.882 4.2010002 -1.138 13
39.867001 4.1220002 -1.119 18
39.868999 4.0430002 -1.1 22
39.916 3.97 -1.082 12
39.879002 3.8859999 -1.063 10
39.772999 3.7980001 -1.0420001 21
39.592999 3.7019999 -1.0190001 37
39.535999 3.6159999 -1 33
39.453999 3.53 -0.98000002 37
39.386002 3.447 -0.96100003 38
39.332001 3.3610001 -0.94300002 38
39.277 3.277 -0.92500001 39
39.207001 3.1930001 -0.90700001 39
39.146999 3.108 -0.889 39
39.07 3.0220001 -0.87099999 38
39.007999 2.938 -0.85399997 39
38.952 2.8540001 -0.83700001 38
38.877998 2.7690001 -0.82099998 39
38.821999 2.684 -0.80500001 42
38.762001 2.5999999 -0.78899997 39
38.706001 2.517 -0.773 36
38.627998 2.4319999 -0.75700003 40
38.573002 2.349 -0.74199998 39
38.522999 2.267 -0.72799999 39
38.445999 2.1830001 -0.713 36
38.405998 2.1010001 -0.699 39
38.318001 2.0150001 -0.68400002 36
38.263 1.932 -0.671 38
38.214001 1.851 -0.65799999 41
38.16 1.7690001 -0.64499998 43
38.124001 1.688 -0.63300002 45
38.078999 1.6059999 -0.62099999 44
38.049999 1.525 -0.60900003 46
37.974998 1.442 -0.597 31
37.981998 1.363 -0.58600003 18
37.973999 1.2819999 -0.57499999 35
37.991001 1.204 -0.56599998 35
38.015999 1.124 -0.55599999 17
38.070999 1.045 -0.54699999 23
38.124001 0.96600002 -0.53799999 23
38.229 0.88800001 -0.53100002 39
38.294998 0.80800003 -0.52200001 150
38.398998 0.72799999 -0.51499999 136
38.509998 0.64899999 -0.50800002 56
38.588001 0.56800002 -0.50099999 25
38.738998 0.486 -0.495 17
38.814999 0.405 -0.48800001 2
0 0 0 0
0 0 0 0
0 0 0 0
0 0 0 0
0 0 0 0
0 0 0 0
0 0 0 0
0 0 0 112
0 0 0 0
0 0 0 0
0 0 0 0
0 0 0 37
71.772003 -1.2359999 -0.75999999 116
69.540001 -1.347 -0.72899997 124
66.398003 -1.428 -0.69 20
66.370003 -1.568 -0.68300003 71
66.365997 -1.71 -0.67799997 122
66.366997 -1.853 -0.67299998 128
66.415001 -1.997 -0.66900003 13
0 0 0 40
58.319 -2.0020001 -0.57999998 121
0 0 0 11
44.195999 -1.704 -0.43599999 59
44.130001 -1.794 -0.433 56
43.749001 -1.873 -0.428 28
43.330002 -1.947 -0.42300001 29
43.416 -2.0439999 -0.42399999 39
43.463001 -2.1400001 -0.42399999 39
43.394001 -2.2290001 -0.42300001 21
43.512001 -2.3269999 -0.42399999 29
43.048 -2.3940001 -0.421 38
42.076 -2.4300001 -0.412 35
41.900002 -2.5090001 -0.41100001 48
41.800999 -2.592 -0.412 36
42.124001 -2.7030001 -0.417 37
42.077999 -2.79 -0.41800001 55
42.110001 -2.882 -0.421 107
42.144001 -2.971 -0.42399999 90
42.153999 -3.062 -0.42699999 95
0 0 0 0
0 0 0 15
37.737999 -2.98 -0.391 25
37.830002 -3.0669999 -0.396 29
0 0 0 1
0 0 0 0
0 0 0 0
0 0 0 0
0 0 0 1
0 0 0 0
0 0 0 1
19.337 -1.891 -0.221 1
19.038 -1.902 -0.221 1
19.052 -1.943 -0.22400001 2
18.591 -1.9349999 -0.222 1
0 0 0 25
0 0 0 25
0 0 0 25
0 0 0 1
18.257 -2.089 -0.235 1
18.239 -2.1240001 -0.23800001 1
0 0 0 25
0 0 0 25
0 0 0 25
0 0 0 25
0 0 0 0
0 0 0 0
0 0 0 0
0 0 0 1
18.045 -2.4349999 -0.27399999 1
17.978001 -2.4619999 -0.278 1
17.972 -2.497 -0.28299999 1
18.056999 -2.546 -0.289 4
18.048 -2.5799999 -0.294 9
18.030001 -2.6140001 -0.29899999 9
18.049 -2.652 -0.30399999 11
18.056999 -2.6889999 -0.31 11
18.01 -2.7179999 -0.315 13
17.972 -2.7479999 -0.31999999 20
17.964001 -2.783 -0.32499999 18
17.916 -2.8099999 -0.33000001 33
17.886 -2.8399999 -0.33500001 89
17.905001 -2.878 -0.34200001 138
17.913 -2.915 -0.34799999 150
17.934 -2.9530001 -0.35499999 151
17.933001 -2.987 -0.361 151
17.959999 -3.027 -0.368 154
17.941999 -3.0580001 -0.37400001 157
17.917 -3.0880001 -0.38 155
18.087999 -3.152 -0.38999999 20
18.117001 -3.1919999 -0.39700001 5
18.024 -3.21 -0.40200001 1
18.021 -3.243 -0.40900001 1
17.968 -3.267 -0.41499999 5
18.011999 -3.309 -0.42300001 1
18.038 -3.348 -0.43099999 1
18.035 -3.381 -0.43799999 1
18.052 -3.418 -0.44600001 1
18.134001 -3.467 -0.45500001 1
18.114 -3.497 -0.46200001 1
18.208 -3.5480001 -0.47299999 1
18.367001 -3.6129999 -0.48500001 67
18.365999 -3.6470001 -0.49200001 27
18.374001 -3.681 -0.5 17
18.360001 -3.711 -0.50800002 1
0 0 0 33
20.743999 -4.2680001 -0.59299999 43
20.750999 -4.3060002 -0.602 43
20.736 -4.3400002 -0.611 65
20.753 -4.381 -0.62099999 25
0 0 0 45
34.417 -7.3860002 -1.063 51
33.993 -7.3530002 -1.0650001 57
34.048 -7.4239998 -1.0829999 29
34.325001 -7.5440001 -1.108 25
34.373001 -7.6129999 -1.126 27
0 0 0 2
18.577 -4.1789999 -0.62699997 18
18.49 -4.191 -0.63300002 24
18.431999 -4.2090001 -0.63999999 28
18.375999 -4.2270002 -0.64700001 32
18.341999 -4.2490001 -0.65499997 34
18.315001 -4.2729998 -0.66299999 38
18.288 -4.2969999 -0.67199999 35
18.264999 -4.3210001 -0.68000001 40
18.223 -4.3410001 -0.68800002 42
18.216999 -4.3699999 -0.69700003 42
18.207001 -4.3969998 -0.70599997 49
18.188 -4.421 -0.71499997 49
18.169001 -4.4460001 -0.72399998 52
18.165001 -4.474 -0.73400003 56
18.16 -4.5009999 -0.74299997 55
18.156 -4.5289998 -0.75199997 41
18.141001 -4.553 -0.76200002 61
18.072001 -4.5640001 -0.76899999 38
0 0 0 8
16.561001 -4.2340002 -0.72299999 8
16.495001 -4.2420001 -0.72799999 7
16.403 -4.243 -0.73400003 6
16.325001 -4.2470002 -0.73900002 10
16.250999 -4.2519999 -0.745 9
16.16 -4.2519999 -0.75 10
16.077 -4.2529998 -0.75400001 8
16.027 -4.2639999 -0.76099998 9
15.958 -4.2680001 -0.76700002 9
15.86 -4.2649999 -0.77100003 10
15.817 -4.276 -0.778 8
15.742 -4.2779999 -0.78299999 28
15.747 -4.3010001 -0.792 25
15.734 -4.3189998 -0.801 41
15.748 -4.3449998 -0.81099999 25
15.754 -4.369 -0.81999999 27
15.752 -4.3899999 -0.829 27
15.751 -4.4099998 -0.83700001 37
15.75 -4.4310002 -0.84600002 30
15.757 -4.454 -0.85600001 34
15.752 -4.473 -0.86400002 28
15.744 -4.4910002 -0.87300003 40
15.758 -4.5149999 -0.88300002 39
15.763 -4.5370002 -0.89200002 44
15.762 -4.5560002 -0.90200001 28
15.748 -4.572 -0.91000003 34
15.759 -4.5960002 -0.92000002 35
15.76 -4.6149998 -0.92900002 33
15.748 -4.631 -0.93699998 42
15.757 -4.652 -0.94700003 42
15.775 -4.677 -0.958 28
15.729 -4.6820002 -0.96399999 5
15.618 -4.6669998 -0.96600002 3
15.409 -4.6220002 -0.963 3
15.199 -4.5760002 -0.958 3
14.88 -4.4970002 -0.94700003 2
14.601 -4.4289999 -0.93699998 2
14.348 -4.368 -0.93000001 2
14.007 -4.2800002 -0.91600001 2
13.986 -4.289 -0.92299998 3
14.478 -4.4549999 -0.963 4
14.214 -4.3889999 -0.954 4
13.928 -4.3150001 -0.94300002 4
13.734 -4.27 -0.93800002 7
13.624 -4.2490001 -0.93800002 9
13.529 -4.2340002 -0.94 5
13.354 -4.1919999 -0.935 4
13.202 -4.1570001 -0.93199998 3
12.99 -4.1030002 -0.92500001 3
12.843 -4.0689998 -0.92199999 3
12.607 -4.006 -0.912 3
12.39 -3.9489999 -0.90399998 3
12.215 -3.904 -0.898 3
12.018 -3.852 -0.89099997 3
11.872 -3.816 -0.88700002 3
11.699 -3.7709999 -0.88099998 3
11.544 -3.7309999 -0.87599999 2
11.364 -3.6819999 -0.86799997 2
11.238 -3.651 -0.86500001 2
11.088 -3.612 -0.86000001 2
10.957 -3.5780001 -0.85600001 2
10.829 -3.5450001 -0.852 2
10.695 -3.5090001 -0.847 2
10.6 -3.4860001 -0.84600002 2
10.488 -3.457 -0.84299999 3
10.347 -3.4189999 -0.838 3
10.254 -3.395 -0.83600003 2
10.168 -3.3740001 -0.83499998 2
10.068 -3.348 -0.83200002 3
9.9399996 -3.312 -0.82700002 3
9.8360004 -3.2839999 -0.824 3
9.7270002 -3.2539999 -0.81999999 3
9.5979996 -3.217 -0.81400001 3
9.493 -3.1889999 -0.81 2
9.3859997 -3.158 -0.80699998 2
9.3149996 -3.1400001 -0.80599999 2
9.2069998 -3.109 -0.801 3
9.1169996 -3.0840001 -0.79799998 3
9.0200005 -3.0569999 -0.79500002 4
8.9309998 -3.0309999 -0.79100001 4
8.8249998 -3 -0.787 4
8.7440004 -2.977 -0.78399998 4
8.6169996 -2.938 -0.77700001 3
8.4720001 -2.8929999 -0.76899999 3
8.3439999 -2.8529999 -0.76200002 4
8.2580004 -2.8280001 -0.75800002 2
8.1820002 -2.8050001 -0.755 1
8.0609999 -2.767 -0.74800003 1
7.9130001 -2.72 -0.73900002 1
7.7639999 -2.6719999 -0.72899997 1
7.652 -2.6359999 -0.722 2
7.6090002 -2.625 -0.722 2
7.5669999 -2.6129999 -0.722 3
7.5370002 -2.605 -0.72299999 3
7.5359998 -2.608 -0.72600001 3
7.5139999 -2.6029999 -0.72799999 3
7.5029998 -2.6010001 -0.73000002 4
7.4689999 -2.5910001 -0.73100001 5
7.4489999 -2.5869999 -0.73199999 6
7.427 -2.5810001 -0.73400003 7
7.428 -2.5829999 -0.73699999 6
7.4099998 -2.579 -0.73900002 8
7.3769999 -2.569 -0.73900002 9
7.3470001 -2.5599999 -0.74000001 11
7.309 -2.5480001 -0.73900002 13
7.276 -2.5380001 -0.73900002 13
7.2379999 -2.526 -0.73900002 13
7.211 -2.5179999 -0.73900002 13
7.1739998 -2.506 -0.73900002 13
7.151 -2.4990001 -0.74000001 13
7.1100001 -2.4849999 -0.73900002 12
7.0939999 -2.48 -0.74000001 12
7.0489998 -2.4649999 -0.73900002 12
7.0229998 -2.4560001 -0.73900002 10
7.0009999 -2.4489999 -0.73900002 10
6.954 -2.4330001 -0.73699999 10
6.9130001 -2.4189999 -0.736 10
6.869 -2.404 -0.73400003 7
6.8280001 -2.3889999 -0.73199999 6
6.7800002 -2.372 -0.73000002 5
6.7340002 -2.3559999 -0.72799999 5
6.6869998 -2.339 -0.72600001 7
6.6360002 -2.3210001 -0.722 6
6.6020002 -2.309 -0.72100002 6
6.5669999 -2.296 -0.72000003 6
6.5349998 -2.2839999 -0.71899998 6
6.5009999 -2.2709999 -0.71799999 6
6.4749999 -2.2609999 -0.71799999 6
6.4330001 -2.2460001 -0.71499997 5
6.4120002 -2.237 -0.71499997 6
6.368 -2.221 -0.713 5
6.3559999 -2.2149999 -0.713 5
6.3010001 -2.1949999 -0.70899999 5
6.257 -2.178 -0.70700002 5
6.2470002 -2.1730001 -0.708 5
6.2179999 -2.161 -0.70700002 4
6.1859999 -2.1489999 -0.70499998 4
6.1589999 -2.138 -0.704 4
6.125 -2.1240001 -0.70200002 4
6.105 -2.115 -0.70200002 4
6.0879998 -2.1070001 -0.70200002 4
6.0489998 -2.092 -0.699 4
6.0349998 -2.085 -0.699 4
6.0139999 -2.076 -0.699 4
5.9829998 -2.062 -0.69700003 4
5.961 -2.053 -0.69599998 4
5.9419999 -2.0439999 -0.69599998 4
5.9190001 -2.033 -0.69499999 4
5.8979998 -2.0239999 -0.69400001 4
5.8769999 -2.0139999 -0.69300002 4
5.862 -2.006 -0.69300002 4
5.8470001 -1.998 -0.69199997 4
5.8119998 -1.983 -0.69 3
5.8049998 -1.978 -0.69 4
5.7820001 -1.967 -0.68900001 3
5.7600002 -1.957 -0.68800002 3
5.7410002 -1.947 -0.68699998 4
5.7360001 -1.942 -0.68699998 4
5.7119999 -1.931 -0.68599999 4
5.7020001 -1.924 -0.68599999 4
5.6760001 -1.9119999 -0.68400002 3
5.6680002 -1.906 -0.68400002 3
5.664 -1.901 -0.685 3
5.652 -1.893 -0.685 3
5.6339998 -1.883 -0.68300003 3
5.6199999 -1.875 -0.68300003 3
5.6079998 -1.867 -0.68300003 3
5.599 -1.86 -0.68199998 3
5.572 -1.848 -0.68000001 3
5.5539999 -1.8380001 -0.67900002 5
5.5570002 -1.835 -0.68000001 3
5.5320001 -1.822 -0.67799997 3
5.5510001 -1.824 -0.68099999 4
5.5229998 -1.811 -0.67799997 3
5.5180001 -1.8049999 -0.67799997 3
5.513 -1.799 -0.67900002 3
5.5050001 -1.7920001 -0.67799997 3
5.5009999 -1.786 -0.67799997 3
5.4829998 -1.776 -0.67699999 3
5.4749999 -1.768 -0.676 3
5.4580002 -1.758 -0.67500001 3
5.4660001 -1.756 -0.676 4
5.447 -1.745 -0.67500001 3
5.4569998 -1.744 -0.676 3
5.4450002 -1.735 -0.67500001 3
5.4299998 -1.725 -0.67400002 3
5.4260001 -1.719 -0.67400002 3
5.4180002 -1.711 -0.67299998 3
5.4320002 -1.71 -0.67500001 3
5.4200001 -1.701 -0.67400002 3
5.4130001 -1.694 -0.67299998 3
5.4169998 -1.6900001 -0.67400002 3
5.408 -1.681 -0.67299998 3
5.3979998 -1.673 -0.67199999 3
5.4039998 -1.669 -0.67299998 3
5.4109998 -1.666 -0.67299998 4
5.4039998 -1.658 -0.67299998 3
5.3899999 -1.648 -0.671 3
5.402 -1.646 -0.67199999 3
5.3920002 -1.637 -0.671 3
5.408 -1.636 -0.67299998 3
5.3899999 -1.625 -0.67000002 3
5.3959999 -1.6210001 -0.671 3
5.4060001 -1.617 -0.67199999 3
5.415 -1.614 -0.67299998 3
5.3930001 -1.601 -0.67000002 3
5.4060001 -1.599 -0.671 3
5.4120002 -1.594 -0.67199999 4
5.4120002 -1.5880001 -0.671 4
5.3940001 -1.576 -0.66900003 6
5.4320002 -1.58 -0.67299998 4
5.4489999 -1.579 -0.67500001 4
5.454 -1.573 -0.67500001 4
5.4530001 -1.566 -0.67400002 3
5.4460001 -1.558 -0.67199999 3
5.448 -1.551 -0.67199999 3
5.4580002 -1.5470001 -0.67199999 3
5.4580002 -1.54 -0.67199999 3
5.4530001 -1.5319999 -0.67000002 4
5.4780002 -1.5319999 -0.67299998 3
5.4920001 -1.529 -0.67400002 3
5.4850001 -1.52 -0.67199999 3
5.4910002 -1.5140001 -0.67199999 3
5.5209999 -1.515 -0.67400002 3
5.5240002 -1.508 -0.67400002 3
5.5469999 -1.507 -0.676 3
5.5349998 -1.4960001 -0.67299998 3
5.5599999 -1.495 -0.67500001 3
5.5560002 -1.487 -0.67299998 3
5.5830002 -1.4859999 -0.67500001 3
5.5960002 -1.482 -0.676 3
5.6040001 -1.476 -0.67500001 3
5.6139998 -1.47 -0.67500001 3
5.6209998 -1.464 -0.67500001 3
5.6490002 -1.4630001 -0.67699999 3
5.6539998 -1.457 -0.676 3
5.6620002 -1.45 -0.676 5
5.6680002 -1.444 -0.67500001 4
5.6989999 -1.443 -0.67699999 3
5.717 -1.439 -0.67699999 3
5.723 -1.432 -0.676 3
5.75 -1.431 -0.67799997 3
5.7680001 -1.426 -0.67799997 3
5.7839999 -1.421 -0.67799997 3
5.8070002 -1.418 -0.67900002 4
5.8249998 -1.414 -0.67900002 4
5.8470001 -1.41 -0.68000001 4
5.8709998 -1.4069999 -0.68099999 4
5.902 -1.405 -0.68199998 3
5.9219999 -1.401 -0.68300003 3
5.9359999 -1.395 -0.68199998 4
5.9689999 -1.393 -0.68400002 4
5.9860001 -1.388 -0.68300003 3
6.0170002 -1.386 -0.685 4
6.033 -1.38 -0.68400002 4
6.0599999 -1.376 -0.685 4
6.0960002 -1.374 -0.68599999 4
6.1230001 -1.3710001 -0.68699998 4
6.1440001 -1.3660001 -0.68699998 4
6.1859999 -1.365 -0.68900001 4
6.2119999 -1.36 -0.68900001 4
6.2449999 -1.357 -0.69 5
6.2870002 -1.3559999 -0.69199997 5
6.3130002 -1.351 -0.69199997 4
6.3460002 -1.348 -0.69199997 4
6.3829999 -1.345 -0.69300002 4
6.4260001 -1.3430001 -0.69499999 4
6.474 -1.3430001 -0.69700003 4
6.5040002 -1.3380001 -0.69700003 4
6.5349998 -1.3329999 -0.69700003 4
6.5900002 -1.3329999 -0.699 4
6.6409998 -1.332 -0.70099998 4
6.6859999 -1.33 -0.70300001 4
6.7420001 -1.33 -0.70499998 4
6.7859998 -1.327 -0.70599997 4
6.8429999 -1.326 -0.708 4
6.8899999 -1.323 -0.70899999 4
6.9429998 -1.322 -0.71100003 4
7.0180001 -1.324 -0.71399999 4
7.092 -1.326 -0.71799999 4
7.1040001 -1.316 -0.71499997 3
7.1539998 -1.312 -0.71600002 3
7.2329998 -1.314 -0.71899998 4
7.2969999 -1.313 -0.72100002 3
7.3639998 -1.312 -0.72299999 3
7.434 -1.312 -0.72600001 3
7.4790001 -1.307 -0.72500002 3
7.5679998 -1.309 -0.72899997 4
7.678 -1.314 -0.73500001 5
7.8109999 -1.323 -0.74199998 5
7.8990002 -1.324 -0.745 10
7.9829998 -1.324 -0.74800003 11
8.0450001 -1.319 -0.74800003 15
8.1059999 -1.3150001 -0.74900001 15
8.1750002 -1.311 -0.74900001 15
8.2539997 -1.3099999 -0.75099999 16
8.3219995 -1.3049999 -0.75099999 16
8.4139996 -1.304 -0.75300002 16
8.5019999 -1.302 -0.755 15
8.5939999 -1.301 -0.75700003 11
8.698 -1.301 -0.75999999 17
8.802 -1.301 -0.76200002 16
8.9130001 -1.301 -0.76499999 17
9.0209999 -1.3 -0.76800001 18
9.1619997 -1.304 -0.773 8
9.3219995 -1.3099999 -0.77899998 8
9.4540005 -1.311 -0.78299999 10
9.5950003 -1.313 -0.787 8
9.7480001 -1.317 -0.792 9
9.8710003 -1.3150001 -0.79400003 6
9.9940004 -1.313 -0.79500002 7
10.157 -1.316 -0.80000001 6
10.315 -1.318 -0.80400002 5
10.447 -1.316 -0.80599999 4
10.61 -1.317 -0.80900002 3
10.791 -1.3200001 -0.81400001 2
11.003 -1.325 -0.82099998 3
11.216 -1.33 -0.82700002 2
11.432 -1.335 -0.833 2
11.667 -1.342 -0.83999997 2
11.881 -1.344 -0.84500003 2
12.09 -1.346 -0.84899998 3
12.381 -1.3559999 -0.85900003 3
12.651 -1.362 -0.866 3
12.86 -1.3609999 -0.86799997 3
13.107 -1.364 -0.87300003 3
13.351 -1.364 -0.87699997 3
13.636 -1.368 -0.88300002 3
13.976 -1.377 -0.89200002 3
14.335 -1.387 -0.90200001 3
14.738 -1.398 -0.91299999 2
15.092 -1.404 -0.92000002 2
15.419 -1.406 -0.92500001 2
15.825 -1.415 -0.93400002 3
16.285 -1.426 -0.94599998 3
16.764999 -1.437 -0.95700002 2
17.348 -1.455 -0.97299999 2
17.961 -1.474 -0.98900002 2
18.556 -1.489 -1.003 2
18.228001 -1.429 -0.96700001 1
0 0 0 0
0 0 0 1
20.674 -1.508 -1.033 1
0 0 0 3
22.941 -1.589 -1.098 3
0 0 0 3
25.709 -1.687 -1.176 3
25.900999 -1.653 -1.1569999 2
0 0 0 0
0 0 0 0
0 0 0 1
30.573999 -1.729 -1.233 4
30.521 -1.671 -1.197 91
30.496 -1.614 -1.161 152
30.521 -1.5599999 -1.128 153
30.551001 -1.507 -1.094 152
30.582001 -1.454 -1.062 1
0 0 0 59
42.056999 -1.848 -1.364 63
42.101002 -1.775 -1.317 51
42.195999 -1.705 -1.272 57
42.299999 -1.6339999 -1.226 46
42.556999 -1.567 -1.183 37
42.896 -1.5039999 -1.143 36
43.573002 -1.451 -1.11 37
43.691002 -1.375 -1.059 31
43.661999 -1.298 -1.007 19
43.674 -1.221 -0.95499998 27
43.699001 -1.147 -0.90399998 16
0 0 0 20
66.356003 -1.5089999 -1.212 39
0 0 0 0
0 0 0 48
71.774002 -1.2539999 -1.045 114
72.820999 -1.149 -0.972 44
0 0 0 62
0 0 0 0
0 0 0 0
0 0 0 31
133.22301 -0.954 -0.94400001 108
0 0 0 0
0 0 0 49
133.23 -0.273 -0.43599999 63
133.172 -0.046999998 -0.264 112
133.131 0.178 -0.092 97
133.132 0.40099999 0.078000002 87
133.09 0.625 0.25099999 48
0 0 0 0
0 0 0 0
0 0 0 25
0 0 0 0
0 0 0 0
0 0 0 0
0 0 0 16
88.094002 1.5779999 1.0930001 18
0 0 0 0
0 0 0 0
0 0 0 0
0 0 0 0
0 0 0 0
0 0 0 0
0 0 0 0
0 0 0 31
87.643997 2.8469999 2.161 25
87.521004 2.9820001 2.279 31
87.438004 3.1170001 2.398 25
88.916 3.3099999 2.562 24
88.906998 3.448 2.684 23
89.377998 3.6059999 2.823 20
89.543999 3.7520001 2.9530001 20
89.768997 3.901 3.086 23
89.477997 4.026 3.2019999 18
87.329002 4.0640001 3.2479999 17
87.325996 4.1960001 3.3699999 28
87.357002 4.3309999 3.4949999 30
87.434998 4.467 3.622 12
0 0 0 21
0 0 0 0
0 0 0 25
91.863998 5.244 4.3270001 27
91.511002 5.3600001 4.441 20
0 0 0 0
0 0 0 16
0 0 0 0
0 0 0 0
0 0 0 73
116.633 7.8509998 6.6659999 61
116.628 8.0159998 6.8319998 56
0 0 0 13
0 0 0 58
0 0 0 0
0 0 0 29
0 0 0 14
90.415001 6.9780002 6.0840001 13
0 0 0 0
0 0 0 0
0 0 0 0
0 0 0 0
0 0 0 0
0 0 0 39
125.58 10.885 9.7309999 31
0 0 0 24
117.09 10.46 9.4169998 42
0 0 0 0
0 0 0 42
116.77 10.889 9.9069996 44
116.732 11.034 10.072 50
116.708 11.182 10.242 43
0 0 0 0
0 0 0 0
0 0 0 0
0 0 0 28
126.807 12.946 12.059 38
0 0 0 17
48.640999 5.085 4.7670002 32
48.813999 5.1620002 4.8559999 25
48.713001 5.21 4.9180002 42
48.445 5.2389998 4.961 49
48.438999 5.2969999 5.0310001 46
48.478001 5.3579998 5.1069999 39
48.580002 5.427 5.1890001 33
48.571999 5.4819999 5.2579999 14
0 0 0 82
116.323 13.394 12.93 75
0 0 0 15
47.216999 5.5440001 5.3870001 6
0 0 0 35
70.652 8.4560003 8.2679996 24
70.603996 8.5279999 8.3629999 14
0 0 0 36
116.675 14.345 14.16 32
116.73 14.481 14.337 24
0 0 0 0
0 0 0 0
0 0 0 0
0 0 0 0
0 0 0 0
0 0 0 0
0 0 0 0
0 0 0 29
116.539 15.544 15.827 23
0 0 0 0
0 0 0 5
45.584999 6.2140002 6.3850002 26
45.640999 6.2659998 6.4559999 37
45.573002 6.3000002 6.5120001 44
45.525002 6.3369999 6.5689998 35
45.605 6.3909998 6.645 26
45.571999 6.4289999 6.7049999 15
0 0 0 67
116.214 16.610001 17.427 56
116.204 16.714001 17.591999 65
116.157 16.811001 17.743 78
116.213 16.922001 17.914 55
116.195 17.021 18.073 60
116.186 17.120001 18.233 54
116.156 17.215 18.385 53
116.199 17.32 18.552 51
116.168 17.416 18.707001 53
116.213 17.518999 18.874001 54
116.151 17.605 19.021999 52
116.164 17.697001 19.183001 61
116.114 17.783001 19.329 52
116.138 17.878 19.49 51
116.103 17.964001 19.639999 39
116.132 18.058001 19.798 51
0 0 0 0
0 0 0 45
0 0 0 0
0 0 0 53
116.14 18.493 20.566999 55
116.101 18.57 20.712 60
116.068 18.646999 20.858 57
116.085 18.73 21.013 49
116.128 18.818001 21.167 50
116.107 18.893 21.313 53
116.088 18.968 21.459 53
116.067 19.041 21.604 57
116.081 19.120001 21.750999 49
116.059 19.188 21.889999 51
116.095 19.267 22.044001 46
116.091 19.341999 22.188 65
116.031 19.403999 22.322001 72
116.118 19.488001 22.483 29
0 0 0 11
58.553001 9.8959999 11.481 20
58.472 9.9160004 11.537 21
58.391998 9.9359999 11.59 22
58.278 9.9490004 11.638 15
58.168999 9.9619999 11.687 9
57.973 9.96 11.717 14
57.998001 9.9949999 11.79 18
58.005001 10.028 11.86 23
57.872002 10.034 11.901 13
57.748001 10.042 11.943 5
0 0 0 0
0 0 0 0
0 0 0 30
0 0 0 0
0 0 0 0
0 0 0 16
42.749001 7.573 9.1789999 22
42.779999 7.5970001 9.2320004 28
42.775002 7.612 9.2779999 41
42.653999 7.6079998 9.2980003 37
42.588001 7.6139998 9.3290005 40
42.574001 7.6279998 9.3719997 39
42.563999 7.6420002 9.415 36
42.555 7.6560001 9.4569998 34
42.526001 7.6659999 9.4949999 27
42.544998 7.6849999 9.5439997 22
42.569 7.704 9.5930004 16
42.567001 7.717 9.6359997 8
42.544998 7.7270002 9.6730003 3
0 0 0 0
0 0 0 27
116.076 21.188 26.735001 22
0 0 0 0
0 0 0 0
0 0 0 0
0 0 0 0
0 0 0 0
0 0 0 0
0 0 0 0
0 0 0 0
0 0 0 0
0 0 0 0
0 0 0 0
0 0 0 0
0 0 0 0
0 0 0 24
116.479 21.646999 28.423 29
116.323 21.638 28.481001 27
116.319 21.65 28.577999 30
116.221 21.65 28.649 33
116.095 21.639 28.712 32
116.032 21.642 28.785999 39
116 21.646999 28.870001 43
116.039 21.665001 28.971001 54
116.053 21.676001 29.063 62
116.039 21.681999 29.148001 63
116.044 21.690001 29.237 63
116.084 21.702999 29.333 58
116.049 21.701 29.409 56
116.048 21.705 29.492001 62
116.027 21.705999 29.566 56
116.101 21.721001 29.666 52
116.075 21.716999 29.739 43
116.063 21.714001 29.815001 41
116.185 21.739 29.922001 36
116.229 21.745001 30.01 35
116.244 21.743999 30.089001 27
116.457 21.778999 30.216999 27
116.421 21.768999 30.278 29
116.427 21.763 30.351 28
116.55 21.778 30.452999 24
116.366 21.735001 30.474001 28
116.52 21.754 30.582001 26
116.512 21.742001 30.646 29
116.466 21.721001 30.698999 28
116.515 21.716999 30.775 28
116.479 21.697001 30.827999 25
116.499 21.688 30.891001 27
116.444 21.660999 30.937 26
116.335 21.624001 30.966 28
116.518 21.642 31.069 29
116.511 21.622 31.122999 25
0 0 0 0
0 0 0 0
0 0 0 0
0 0 0 0
0 0 0 0
0 0 0 0
0 0 0 0
0 0 0 0
0 0 0 0
0 0 0 0
0 0 0 0
0 0 0 0
0 0 0 0
0 0 0 0
0 0 0 0
0 0 0 0
0 0 0 0
0 0 0 0
0 0 0 0
0 0 0 0
0 0 0 0
0 0 0 0
0 0 0 0
0 0 0 0
0 0 0 0
0 0 0 0
0 0 0 0
0 0 0 0
0 0 0 0
0 0 0 24
116.612 20.580999 32.186001 27
116.703 20.549999 32.221001 27
0 0 0 0
0 0 0 0
0 0 0 0
0 0 0 0
0 0 0 0
0 0 0 0
0 0 0 0
0 0 0 0
0 0 0 0
0 0 0 0
0 0 0 0
0 0 0 0
0 0 0 0
0 0 0 0
0 0 0 0
0 0 0 0
0 0 0 0
0 0 0 0
0 0 0 0
0 0 0 0
0 0 0 0
0 0 0 53
116.315 19.114 31.974001 64
116.339 19.049 31.958 42
116.362 18.985001 31.938999 43
116.328 18.908001 31.903 43
116.331 18.836 31.877001 41
116.354 18.767 31.854 49
116.372 18.695999 31.829 44
116.384 18.622999 31.801001 46
116.376 18.546 31.764999 46
116.396 18.474001 31.736 45
116.386 18.398001 31.695 47
116.372 18.318001 31.653999 46
116.399 18.243999 31.622 45
116.431 18.17 31.591 44
116.404 18.086 31.542 44
116.445 18.016001 31.509001 44
116.406 17.929001 31.454 44
116.447 17.856001 31.417999 56
116.399 17.764 31.360001 64
116.436 17.688999 31.319 47
116.459 17.608999 31.274 46
116.412 17.521 31.209 48
116.455 17.440001 31.17 45
116.447 17.355 31.111 49
116.414 17.264 31.046 44
116.484 17.187 31.007 47
116.438 17.096001 30.936001 49
116.461 17.011 30.881001 49
116.511 16.93 30.833 43
116.538 16.844 30.777 41
116.538 16.754 30.712 48
116.53 16.665001 30.643 46
116.494 16.569 30.566999 49
116.523 16.481001 30.504999 69
116.665 16.412001 30.472 46
0 0 0 0
0 0 0 0
0 0 0 0
0 0 0 0
0 0 0 0
0 0 0 0
0 0 0 0
0 0 0 0
0 0 0 25
116.449 15.435 29.636999 28
116.644 15.363 29.601 35
116.579 15.253 29.5 41
116.615 15.162 29.421 56
116.624 15.064 29.333 60
116.586 14.959 29.233 58
116.626 14.867 29.15 57
116.674 14.772 29.069 59
116.624 14.666 28.958 61
116.656 14.569 28.872 69
116.638 14.465 28.77 55
116.665 14.365 28.677 45
116.734 14.271 28.594 44
116.722 14.166 28.489 36
116.802 14.073 28.402 35
116.949 13.986 28.333 31
116.836 13.868 28.198999 31
116.92 13.774 28.115 25
116.917 13.668 28.004999 26
116.983 13.573 27.912001 29
117.105 13.481 27.829 26
117.045 13.367 27.702 28
0 0 0 0
0 0 0 0
0 0 0 0
0 0 0 0
0 0 0 0
0 0 0 0
0 0 0 0
0 0 0 26
116.822 12.375 26.573 23
117.089 12.293 26.507 29
116.92 12.166 26.341999 27
116.961 12.064 26.224001 22
0 0 0 0
0 0 0 0
0 0 0 0
0 0 0 31
116.795 11.5 25.531 40
116.868 11.396 25.410999 47
116.853 11.283 25.271 59
116.86 11.174 25.131001 66
116.855 11.062 24.990999 66
116.833 10.949 24.844999 62
116.844 10.841 24.707001 67
116.876 10.732 24.57 59
116.938 10.626 24.438999 52
116.973 10.52 24.302 46
117.096 10.419 24.18 32
117.084 10.306 24.028999 27
117.073 10.192 23.878 22
117.078 10.08 23.728001 25
117.039 9.9639997 23.568001 26
117.119 9.8620005 23.433001 28
117.209 9.7559996 23.296 26
117.024 9.6280003 23.104 26
117.063 9.5190001 22.955999 26
117.089 9.408 22.802999 24
117.043 9.2919998 22.635 32
117.091 9.1829996 22.485001 32
117.09 9.073 22.325001 35
117.092 8.9610004 22.163 33
117.152 8.8529997 22.011 35
117.118 8.7370005 21.84 37
117.011 8.6169996 21.655001 46
116.996 8.5039997 21.486 49
116.966 8.3920002 21.313999 54
116.987 8.2810001 21.149 64
116.985 8.1719999 20.981001 65
116.985 8.0600004 20.809999 69
116.997 7.9489999 20.639999 73
117.014 7.8379998 20.469999 49
117.059 7.73 20.304001 55
117.065 7.619 20.125999 42
117.175 7.5149999 19.969 32
117.175 7.4029999 19.791 29
117.244 7.2979999 19.629 31
117.189 7.184 19.441 34
117.285 7.0819998 19.278 33
117.299 6.9689999 19.093 29
117.261 6.8590002 18.906 32
117.268 6.7490001 18.723 32
117.22 6.6360002 18.531 30
117.255 6.5279999 18.351 30
117.288 6.4200001 18.169001 28
117.32 6.3150001 17.992001 24
117.287 6.204 17.794001 27
117.195 6.0900002 17.591 37
117.113 5.9780002 17.388 55
117.074 5.8699999 17.193001 58
117.074 5.7620001 17.000999 69
117.108 5.6529999 16.811001 72
117.096 5.5479999 16.617001 65
117.108 5.4380002 16.421 58
117.29 5.3400002 16.250999 56
117.326 5.2350001 16.055 39
0 0 0 0
0 0 0 0
0 0 0 0
0 0 0 0
0 0 0 21
0 0 0 0
0 0 0 24
0 0 0 0
0 0 0 0
0 0 0 0
0 0 0 26
0 0 0 0
0 0 0 0
0 0 0 32
119.684 3.7620001 13.266 47
119.65 3.661 13.05 71
119.681 3.5580001 12.835 72
119.721 3.457 12.619 68
119.622 3.3529999 12.392 80
119.654 3.256 12.18 89
119.66 3.1559999 11.961 74
119.681 3.0569999 11.744 53
0 0 0 0
0 0 0 43
0 0 0 0
0 0 0 31
127.716 2.7460001 11.361 30
0 0 0 0
0 0 0 0
0 0 0 24
119.726 2.1960001 9.7589998 39
119.799 2.1029999 9.5380001 49
119.866 2.01 9.316 40
120.008 1.919 9.0979996 23
119.838 1.824 8.8570004 26
119.933 1.735 8.6370001 29
119.892 1.643 8.4040003 32
119.889 1.552 8.1719999 34
119.905 1.462 7.9419999 30
119.876 1.374 7.711 31
119.826 1.285 7.4749999 34
119.819 1.198 7.244 50
119.75 1.11 7.007 64
119.707 1.022 6.77 58
0 0 0 0
0 0 0 38
86.902 0.55699998 4.4050002 14
83.355003 0.47499999 4.0609999 25
83.343002 0.41800001 3.9000001 11
0 0 0 17
85.183998 0.31 3.648 14
0 0 0 0
0 0 0 0
0 0 0 17
82.263 0.079000004 2.868 34
82.866997 0.025 2.723 35
83.323997 -0.027000001 2.573 22
86.115997 -0.083999999 2.4860001 30
86.316002 -0.139 2.3180001 25
0 0 0 0
0 0 0 34
83.624001 -0.292 1.74 39
84.498001 -0.347 1.587 22
85.476997 -0.403 1.431 17
85.817001 -0.45699999 1.262 17
85.944 -0.50800002 1.092 13
0 0 0 25
0 0 0 0
0 0 0 16
72.663002 -0.597 0.33199999 58
72.665001 -0.63800001 0.185 61
72.660004 -0.67799997 0.035999998 44
0 0 0 0
0 0 0 44
0 0 0 0
0 0 0 0
0 0 0 0
0 0 0 0
0 0 0 0
0 0 0 0
0 0 0 0
0 0 0 18
45.589001 -0.68599999 -1.012 153
45.645 -0.70899999 -1.108 165
45.638 -0.73100001 -1.202 163
45.567001 -0.75099999 -1.295 153
45.583 -0.77200001 -1.39 99
45.601002 -0.79299998 -1.4859999 11
0 0 0 0
0 0 0 0
0 0 0 2
0 0 0 0
0 0 0 0
0 0 0 0
0 0 0 3
20.561001 -0.42699999 -1.013 5
0 0 0 0
0 0 0 1
0 0 0 2
0 0 0 4
14.743 -0.33399999 -0.87900001 4
14.3 -0.329 -0.88200003 5
0 0 0 3
12.686 -0.301 -0.83499998 3
12.135 -0.292 -0.824 2
11.605 -0.28299999 -0.81199998 2
11.091 -0.27399999 -0.79900002 2
10.609 -0.26499999 -0.78600001 2
10.2 -0.25799999 -0.77700001 3
9.8199997 -0.25099999 -0.76800001 4
9.4659996 -0.245 -0.75999999 3
9.1529999 -0.23999999 -0.75400001 4
8.7679996 -0.23199999 -0.74000001 4
8.4770002 -0.227 -0.73299998 4
8.1789999 -0.221 -0.72399998 4
7.8559999 -0.214 -0.71200001 4
7.6020002 -0.20900001 -0.704 4
7.3920002 -0.205 -0.69999999 3
7.1420002 -0.2 -0.69099998 3
6.9369998 -0.19599999 -0.68599999 4
6.7350001 -0.192 -0.68000001 4
6.5240002 -0.18700001 -0.67199999 4
6.3540001 -0.184 -0.66799998 4
6.1700001 -0.18000001 -0.66100001 4
5.993 -0.176 -0.65399998 4
5.848 -0.17299999 -0.64999998 5
5.697 -0.169 -0.64499998 5
5.5380001 -0.16599999 -0.639 5
5.4450002 -0.164 -0.639 4
5.3280001 -0.161 -0.63599998 3
5.1999998 -0.15800001 -0.63099998 3
5.079 -0.155 -0.62699997 3
4.9320002 -0.15099999 -0.61900002 6
4.8579998 -0.15000001 -0.61900002 9
4.7610002 -0.147 -0.61699998 12
4.6719999 -0.145 -0.61400002 12
4.6040001 -0.14399999 -0.61500001 8
4.5359998 -0.142 -0.61500001 6
4.4499998 -0.14 -0.61199999 4
4.3649998 -0.138 -0.60900003 2
4.2470002 -0.134 -0.60100001 2
4.1950002 -0.133 -0.602 2
4.119 -0.131 -0.59899998 2
4.0599999 -0.12899999 -0.59899998 2
4.0180001 -0.12800001 -0.60000002 2
3.984 -0.12800001 -0.60299999 3
3.9660001 -0.127 -0.60799998 3
3.8329999 -0.123 -0.59600002 3
3.829 -0.123 -0.60299999 3
3.6989999 -0.119 -0.58899999 3
3.658 -0.118 -0.58999997 2
3.6889999 -0.119 -0.602 3
3.529 -0.114 -0.583 1
3.4790001 -0.112 -0.58200002 2
3.4289999 -0.111 -0.57999998 2
3.427 -0.111 -0.58600003 2
3.3699999 -0.109 -0.583 2
3.4330001 -0.111 -0.60000002 2
3.382 -0.109 -0.59799999 2
3.2579999 -0.105 -0.58200002 2
3.3050001 -0.107 -0.597 2
3.214 -0.104 -0.58700001 1
3.184 -0.103 -0.58700001 1
3.1930001 -0.103 -0.59500003 2
3.1370001 -0.101 -0.58999997 1
3.05 -0.097999997 -0.57999998 2
3.1040001 -0.098999999 -0.59600002 2
3.0680001 -0.097999997 -0.59500003 2
2.993 -0.094999999 -0.58600003 2
2.925 -0.093000002 -0.57800001 1
2.8 -0.089000002 -0.55800003 1
2.7720001 -0.088 -0.55800003 2
2.7539999 -0.086999997 -0.55900002 2
2.72 -0.085000001 -0.55699998 2
2.6949999 -0.083999999 -0.55699998 2
2.658 -0.082999997 -0.55400002 1
2.6340001 -0.082000002 -0.55400002 1
2.618 -0.081 -0.55500001 1
2.5840001 -0.079999998 -0.55299997 1
2.6459999 -0.081 -0.57099998 1
2.6129999 -0.079999998 -0.56800002 1
2.549 -0.078000002 -0.55900002 1
2.4879999 -0.075000003 -0.55000001 1
2.474 -0.074000001 -0.551 1
2.4530001 -0.074000001 -0.551 1
2.4349999 -0.072999999 -0.551 1
2.408 -0.071000002 -0.54900002 1
2.388 -0.07 -0.54799998 1
2.368 -0.068999998 -0.54799998 1
2.352 -0.068000004 -0.54799998 1
2.3239999 -0.067000002 -0.546 1
2.312 -0.066 -0.54699999 1
2.2920001 -0.064999998 -0.546 1
2.273 -0.064000003 -0.54500002 1
2.253 -0.063000001 -0.54400003 1
2.244 -0.063000001 -0.546 1
2.23 -0.061999999 -0.546 1
2.214 -0.061000001 -0.546 1
2.197 -0.059999999 -0.54500002 1
2.187 -0.059 -0.546 1
2.161 -0.057999998 -0.54299998 1
2.148 -0.057 -0.54299998 1
2.142 -0.056000002 -0.54500002 1
2.1229999 -0.055 -0.54400003 1
2.096 -0.054000001 -0.54000002 1
2.0910001 -0.054000001 -0.542 1
2.073 -0.052999999 -0.54100001 1
2.056 -0.052000001 -0.53899997 1
2.0480001 -0.050999999 -0.54000002 1
2.0320001 -0.050000001 -0.53899997 1
2.0139999 -0.048999999 -0.537 1
2.007 -0.048 -0.53799999 1
1.992 -0.046999998 -0.537 1
1.989 -0.046999998 -0.54000002 1
1.971 -0.046 -0.537 1
1.965 -0.045000002 -0.53899997 1
1.948 -0.044 -0.537 1
1.9400001 -0.043000001 -0.537 1
1.928 -0.041999999 -0.537 1
1.921 -0.041999999 -0.53799999 1
1.908 -0.041000001 -0.537 1
1.895 -0.039999999 -0.53600001 1
1.891 -0.039000001 -0.537 1
1.877 -0.037999999 -0.53600001 1
1.863 -0.037999999 -0.53500003 1
1.853 -0.037 -0.53399998 1
1.844 -0.035999998 -0.53399998 1
1.839 -0.035 -0.53500003 1
1.829 -0.035 -0.53399998 1
1.818 -0.034000002 -0.53399998 1
1.8099999 -0.033 -0.53399998 1
1.799 -0.032000002 -0.53299999 1
1.799 -0.032000002 -0.53500003 1
1.785 -0.030999999 -0.53299999 1
1.777 -0.029999999 -0.53299999 1
1.767 -0.028999999 -0.53200001 1
1.758 -0.028000001 -0.53200001 1
1.751 -0.028000001 -0.53200001 1
1.744 -0.027000001 -0.53200001 1
1.738 -0.026000001 -0.53200001 1
1.7309999 -0.026000001 -0.53200001 1
1.711 -0.025 -0.528 1
1.706 -0.024 -0.528 1
1.704 -0.023 -0.52899998 1
1.6950001 -0.023 -0.52899998 1
1.687 -0.022 -0.528 1
1.676 -0.021 -0.52600002 1
1.671 -0.02 -0.52700001 1
1.669 -0.02 -0.528 1
1.66 -0.018999999 -0.52700001 1
1.654 -0.017999999 -0.52700001 1
1.652 -0.017999999 -0.528 1
1.648 -0.017000001 -0.528 1
1.6440001 -0.016000001 -0.52899998 1
1.631 -0.015 -0.52600002 1
1.628 -0.015 -0.52700001 1
1.62 -0.014 -0.52600002 1
1.613 -0.013 -0.52499998 1
1.6109999 -0.013 -0.52600002 1
1.601 -0.012 -0.52399999 1
1.596 -0.011 -0.52399999 1
1.594 -0.011 -0.52499998 1
1.5880001 -0.0099999998 -0.52399999 1
1.5829999 -0.0089999996 -0.52399999 1
1.581 -0.0089999996 -0.52499998 1
1.571 -0.0080000004 -0.523 1
1.5700001 -0.0070000002 -0.52399999 1
1.567 -0.0070000002 -0.52399999 1
1.557 -0.0060000001 -0.52200001 1
1.556 -0.0049999999 -0.523 1
1.557 -0.0049999999 -0.52499998 1
1.557 -0.0040000002 -0.52600002 1
1.546 -0.003 -0.52399999 1
1.548 -0.003 -0.52499998 1
1.544 -0.0020000001 -0.52499998 1
1.5369999 -0.0020000001 -0.52399999 1
1.531 -0.001 -0.523 1
1.531 0 -0.52399999 1
1.53 0 -0.52499998 1
1.524 0 -0.52399999 1
1.52 0.001 -0.523 1
1.52 0.001 -0.52499998 1
1.5089999 0.0020000001 -0.52100003 1
1.513 0.003 -0.52399999 1
1.506 0.003 -0.52200001 1
1.506 0.0040000002 -0.523 1
1.505 0.0040000002 -0.52399999 1
1.492 0.0049999999 -0.51999998 1
1.4910001 0.0060000001 -0.52100003 1
1.4910001 0.0060000001 -0.52100003 1
1.488 0.0070000002 -0.52100003 1
1.478 0.0070000002 -0.51800001 1
1.478 0.0080000004 -0.51899999 1
1.477 0.0089999996 -0.51899999 1
1.47 0.0089999996 -0.51800001 1
1.471 0.0099999998 -0.51899999 1
1.467 0.0099999998 -0.51800001 1
1.465 0.011 -0.51800001 1
1.464 0.012 -0.51800001 1
1.464 0.012 -0.51899999 1
1.456 0.013 -0.51700002 1
1.451 0.013 -0.51499999 1
1.455 0.014 -0.51700002 1
1.4450001 0.015 -0.514 1
1.447 0.015 -0.51499999 1
1.444 0.016000001 -0.51499999 1
1.441 0.016000001 -0.514 1
1.447 0.017000001 -0.51599997 1
1.441 0.017000001 -0.51499999 1
1.448 0.017999999 -0.51700002 1
1.444 0.018999999 -0.51599997 1
1.437 0.018999999 -0.514 1
1.438 0.02 -0.51499999 1
1.439 0.02 -0.51499999 1
1.4400001 0.021 -0.51599997 1
1.4400001 0.022 -0.51599997 1
1.4450001 0.022 -0.51800001 1
1.4400001 0.023 -0.51700002 1
1.436 0.023 -0.51599997 1
1.441 0.024 -0.51700002 1
1.441 0.025 -0.51800001 1
1.434 0.025 -0.51499999 1
1.439 0.026000001 -0.51700002 1
1.438 0.026000001 -0.51700002 1
1.438 0.027000001 -0.51700002 1
1.434 0.027000001 -0.51499999 1
1.4450001 0.028000001 -0.51899999 1
1.444 0.028999999 -0.51899999 1
1.439 0.028999999 -0.51700002 1
1.438 0.029999999 -0.51700002 1
1.441 0.029999999 -0.51800001 1
1.437 0.030999999 -0.51599997 1
1.4349999 0.030999999 -0.51499999 1
1.437 0.032000002 -0.51599997 1
1.446 0.033 -0.51899999 1
1.4349999 0.033 -0.51499999 1
1.439 0.034000002 -0.51599997 1
1.438 0.034000002 -0.51499999 1
1.438 0.035 -0.51499999 1
1.4400001 0.035 -0.51599997 1
1.4400001 0.035999998 -0.51499999 1
1.439 0.035999998 -0.514 1
1.444 0.037 -0.51599997 1
1.438 0.037 -0.51300001 1
1.441 0.037999999 -0.514 1
1.447 0.039000001 -0.51599997 1
1.446 0.039000001 -0.51499999 1
1.447 0.039999999 -0.51499999 1
1.456 0.041000001 -0.51700002 1
1.449 0.041000001 -0.51499999 1
1.449 0.041000001 -0.514 1
1.459 0.041999999 -0.51700002 1
1.451 0.043000001 -0.51300001 1
1.459 0.043000001 -0.51599997 1
1.452 0.044 -0.51300001 1
1.461 0.044 -0.51499999 1
1.4579999 0.045000002 -0.514 1
1.46 0.045000002 -0.514 1
1.4630001 0.046 -0.514 1
1.461 0.046 -0.51300001 1
1.47 0.046999998 -0.51499999 1
1.462 0.046999998 -0.51099998 1
1.473 0.048 -0.51499999 1
1.489 0.048999999 -0.51899999 1
1.489 0.050000001 -0.51800001 1
1.498 0.050999999 -0.52100003 1
1.498 0.050999999 -0.51999998 1
1.505 0.052000001 -0.52100003 1
1.513 0.052000001 -0.523 1
1.518 0.052999999 -0.52399999 1
1.5190001 0.054000001 -0.523 1
1.528 0.054000001 -0.52499998 1
1.527 0.055 -0.52399999 1
1.535 0.056000002 -0.52600002 1
1.529 0.056000002 -0.523 1
1.535 0.056000002 -0.523 1
1.538 0.057 -0.523 1
1.54 0.057999998 -0.523 1
1.544 0.057999998 -0.523 1
1.541 0.057999998 -0.52100003 1
1.5549999 0.059 -0.52499998 1
1.558 0.059999999 -0.52399999 1
1.5549999 0.059999999 -0.52200001 1
1.556 0.061000001 -0.52100003 1
1.566 0.061999999 -0.523 1
1.566 0.061999999 -0.52200001 1
1.572 0.063000001 -0.52200001 1
1.581 0.063000001 -0.52399999 1
1.5880001 0.064000003 -0.52499998 1
1.581 0.064000003 -0.52100003 1
1.5880001 0.064999998 -0.52200001 1
1.597 0.066 -0.52399999 1
1.597 0.066 -0.52200001 1
1.6059999 0.067000002 -0.523 1
1.615 0.067000002 -0.52499998 1
1.613 0.068000004 -0.523 1
1.613 0.068000004 -0.52100003 1
1.631 0.068999998 -0.52499998 1
1.632 0.07 -0.52399999 1
1.642 0.07 -0.52499998 1
1.649 0.071000002 -0.52600002 1
1.653 0.071000002 -0.52499998 1
1.655 0.071999997 -0.52399999 1
1.661 0.071999997 -0.52399999 1
1.668 0.072999999 -0.52499998 1
1.674 0.074000001 -0.52499998 1
1.682 0.074000001 -0.52499998 1
1.686 0.075000003 -0.52499998 1
1.7079999 0.075999998 -0.52999997 1
1.715 0.077 -0.52999997 1
1.726 0.077 -0.53100002 1
1.725 0.078000002 -0.52899998 1
1.728 0.078000002 -0.528 1
1.738 0.079000004 -0.52899998 1
1.743 0.079000004 -0.528 1
1.755 0.079999998 -0.52999997 1
1.7690001 0.081 -0.53200001 1
1.77 0.081 -0.52999997 1
1.7819999 0.082000002 -0.53100002 1
1.794 0.082999997 -0.53200001 1
1.8 0.082999997 -0.53200001 1
1.809 0.083999999 -0.53200001 1
1.822 0.085000001 -0.53399998 1
1.824 0.085000001 -0.53200001 1
1.8380001 0.086000003 -0.53299999 1
1.849 0.086000003 -0.53399998 1
1.8559999 0.086999997 -0.53399998 1
1.864 0.088 -0.53299999 1
1.876 0.088 -0.53399998 1
1.883 0.089000002 -0.53399998 1
1.892 0.089000002 -0.53399998 1
1.898 0.090000004 -0.53299999 1
1.919 0.090999998 -0.53600001 1
1.9220001 0.090999998 -0.53399998 1
1.939 0.092 -0.53600001 1
1.954 0.093000002 -0.537 1
1.959 0.093000002 -0.53600001 1
1.975 0.093999997 -0.53799999 1
1.9809999 0.093999997 -0.53600001 1
2.0009999 0.094999999 -0.53899997 1
2 0.094999999 -0.53500003 1
2.0150001 0.096000001 -0.53600001 1
2.036 0.097000003 -0.53899997 1
2.0480001 0.097999997 -0.53899997 1
2.0599999 0.097999997 -0.53899997 1
2.0780001 0.098999999 -0.54100001 1
2.0880001 0.098999999 -0.54000002 1
2.1070001 0.1 -0.54100001 1
2.1240001 0.101 -0.54299998 1
2.1329999 0.101 -0.542 1
2.1489999 0.102 -0.542 1
2.1670001 0.103 -0.54299998 1
2.1760001 0.103 -0.542 1
2.197 0.104 -0.54400003 1
2.21 0.105 -0.54400003 1
2.223 0.105 -0.54299998 1
2.237 0.105 -0.54299998 1
2.2520001 0.106 -0.54299998 1
2.267 0.106 -0.54299998 1
2.2950001 0.108 -0.546 1
2.3080001 0.108 -0.54500002 1
2.3340001 0.109 -0.54699999 1
2.345 0.109 -0.546 1
2.369 0.11 -0.54699999 1
2.382 0.11 -0.546 1
2.4000001 0.111 -0.546 1
2.428 0.112 -0.54799998 1
2.451 0.113 -0.54900002 1
2.4690001 0.113 -0.54900002 1
2.4920001 0.114 -0.55000001 1
2.516 0.114 -0.551 1
2.5280001 0.115 -0.54900002 1
2.5639999 0.116 -0.55199999 1
2.576 0.116 -0.55000001 1
2.6159999 0.117 -0.55400002 1
2.6340001 0.117 -0.55400002 1
2.6570001 0.118 -0.55400002 1
2.6830001 0.119 -0.55400002 1
2.711 0.119 -0.55500001 1
2.734 0.12 -0.55500001 1
2.7690001 0.121 -0.55699998 2
2.796 0.121 -0.55800003 2
2.8310001 0.122 -0.55900002 2
2.862 0.123 -0.56 2
2.8870001 0.123 -0.56 2
2.9200001 0.124 -0.56099999 2
2.9560001 0.124 -0.56199998 2
2.99 0.125 -0.56400001 2
3.142 0.13 -0.58600003 2
3.0699999 0.127 -0.56699997 2
3.1070001 0.127 -0.56800002 2
3.1400001 0.12800001 -0.56800002 2
3.1789999 0.12800001 -0.56900001 2
3.2179999 0.12899999 -0.56999999 2
3.2590001 0.12899999 -0.57200003 2
3.296 0.13 -0.57200003 2
3.3510001 0.131 -0.57499999 2
3.52 0.13600001 -0.597 2
3.503 0.134 -0.588 2
3.5 0.133 -0.58099997 2
3.618 0.13600001 -0.59299999 2
3.6110001 0.13500001 -0.58499998 2
3.7290001 0.138 -0.597 2
3.8399999 0.14 -0.60699999 2
3.786 0.13699999 -0.59200001 2
3.8800001 0.139 -0.59899998 2
3.9809999 0.141 -0.60699999 3
3.9579999 0.138 -0.59600002 2
4.0180001 0.139 -0.597 2
4.0710001 0.139 -0.597 2
4.165 0.14 -0.602 2
4.2119999 0.14 -0.60100001 2
4.3060002 0.141 -0.60600001 2
4.3649998 0.141 -0.60600001 3
4.454 0.142 -0.61000001 2
4.5320001 0.142 -0.61199999 2
4.6240001 0.14300001 -0.61500001 2
4.7249999 0.14399999 -0.61900002 3
4.8039999 0.14399999 -0.62 3
4.8839998 0.14399999 -0.62099999 4
4.9840002 0.14399999 -0.62400001 4
5.0890002 0.145 -0.62699997 3
5.198 0.145 -0.63 5
5.2969999 0.145 -0.63200003 5
5.4299998 0.146 -0.63700002 5
5.552 0.146 -0.63999999 5
5.7049999 0.147 -0.64600003 5
5.8299999 0.147 -0.64899999 4
5.987 0.147 -0.65399998 4
6.138 0.148 -0.65899998 3
6.3150001 0.148 -0.66500002 4
6.493 0.149 -0.671 4
6.691 0.149 -0.67900002 4
6.8839998 0.149 -0.685 4
7.0840001 0.15000001 -0.69 4
7.2839999 0.149 -0.69499999 3
7.5219998 0.15000001 -0.70300001 4
7.79 0.15000001 -0.713 4
8.0839996 0.15099999 -0.72299999 4
8.3500004 0.15000001 -0.73100001 6
8.6389999 0.15000001 -0.73900002 5
8.9790001 0.15000001 -0.75 4
9.3290005 0.149 -0.75999999 3
9.7589998 0.15000001 -0.77600002 8
10.04 0.147 -0.778 14
10.295 0.14399999 -0.778 8
10.739 0.14300001 -0.79000002 3
11.319 0.142 -0.81 2
11.921 0.142 -0.829 8
12.237 0.13699999 -0.82700002 6
12.702 0.133 -0.833 3
13.349 0.13 -0.84899998 3
14.012 0.126 -0.86299998 3
14.82 0.122 -0.884 2
15.64 0.117 -0.90100002 2
16.552 0.112 -0.921 2
0 0 0 2
17.972 0.093999997 -0.92900002 1
0 0 0 0
0 0 0 2
0 0 0 0
0 0 0 0
0 0 0 1
30.511999 0.014 -1.215 2
0 0 0 0
0 0 0 0
0 0 0 0
0 0 0 26
0 0 0 19
51.617001 -0.235 -1.443 84
51.637001 -0.28 -1.342 161
51.639999 -0.32300001 -1.243 160
51.624001 -0.36899999 -1.14 84
0 0 0 0
0 0 0 41
116.752 -1.146 -1.8940001 34
0 0 0 0
0 0 0 0
0 0 0 0
0 0 0 0
0 0 0 53
0 0 0 28
72.790001 -1.179 -0.198 25
72.040001 -1.235 -0.057 84
71.778999 -1.298 0.079000004 112
0 0 0 0
0 0 0 33
67.155998 -1.408 0.46000001 29
67.083 -1.472 0.588 24
66.43 -1.523 0.70899999 73
66.390999 -1.587 0.83499998 43
66.268997 -1.649 0.958 7
0 0 0 0
0 0 0 0
0 0 0 0
0 0 0 0
0 0 0 0
0 0 0 0
0 0 0 0
0 0 0 0
0 0 0 0
0 0 0 0
0 0 0 10
50.938999 -1.895 1.8789999 21
50.612 -1.936 1.959 22
50.557999 -1.988 2.05 13
0 0 0 0
0 0 0 0
0 0 0 0
0 0 0 0
0 0 0 0
0 0 0 0
0 0 0 33
46.476002 -2.233 2.5580001 80
0 0 0 16
42.870998 -2.154 2.5109999 31
42.75 -2.1960001 2.5799999 38
42.560001 -2.233 2.6429999 45
42.555 -2.2809999 2.7179999 12
41.567001 -2.2750001 2.7279999 33
41.381001 -2.3110001 2.7869999 29
40.926998 -2.332 2.8280001 11
40.363998 -2.346 2.859 10
40.201 -2.382 2.9159999 5
0 0 0 0
0 0 0 2
39.063 -2.45 3.0350001 3
0 0 0 25
41.506001 -2.6989999 3.3659999 36
40.439999 -2.677 3.3469999 34
40.160999 -2.7060001 3.3929999 54
40.173 -2.7539999 3.461 60
39.964001 -2.7869999 3.5109999 50
38.828999 -2.7539999 3.4760001 43
38.819 -2.8 3.54 56
38.823002 -2.845 3.6029999 52
38.402 -2.8599999 3.6270001 31
37.502998 -2.8380001 3.6040001 53
37.484001 -2.881 3.6630001 64
37.484001 -2.9260001 3.724 65
37.080002 -2.9389999 3.7420001 56
36.129002 -2.9059999 3.704 53
36.120998 -2.9489999 3.7609999 56
36.119999 -2.9920001 3.8180001 58
35.456001 -2.98 3.8039999 14
34.657001 -2.9560001 3.773 11
34.320999 -2.9679999 3.79 36
34.313999 -3.0109999 3.8440001 57
34.306 -3.0510001 3.895 62
34.323002 -3.0940001 3.95 61
34.313999 -3.1359999 4.0019999 60
34.330002 -3.178 4.0560002 60
34.344002 -3.2219999 4.1100001 60
34.308998 -3.2609999 4.158 58
34.331001 -3.306 4.2129998 61
34.341 -3.349 4.2659998 58
34.338001 -3.391 4.3169999 57
34.339001 -3.434 4.368 60
34.358002 -3.477 4.421 54
34.352001 -3.5190001 4.4710002 55
34.360001 -3.563 4.5229998 55
34.365002 -3.6059999 4.573 55
34.375999 -3.6500001 4.6240001 56
34.375 -3.6930001 4.6739998 57
34.361 -3.734 4.7210002 58
34.387001 -3.78 4.7729998 57
34.379002 -3.822 4.8200002 57
34.389 -3.8659999 4.8709998 56
34.384998 -3.908 4.9180002 55
34.395 -3.9519999 4.967 57
34.389 -3.9949999 5.0139999 54
34.402 -4.039 5.0619998 54
34.405998 -4.0819998 5.1100001 52
34.470001 -4.1329999 5.165 9
34.580002 -4.1890001 5.2280002 3
34.626999 -4.2379999 5.2810001 2
34.715 -4.2919998 5.3400002 3
0 0 0 0
0 0 0 0
0 0 0 0
0 0 0 0
0 0 0 0
0 0 0 0
0 0 0 0
0 0 0 2
34.612999 -4.664 5.7210002 2
34.662998 -4.7140002 5.7729998 2
0 0 0 0
0 0 0 0
0 0 0 0
0 0 0 0
0 0 0 0
0 0 0 2
0 0 0 2
26.792 -3.905 4.7140002 13
26.702999 -3.925 4.7290001 23
26.643 -3.948 4.7490001 27
26.596001 -3.974 4.7709999 31
26.563999 -4.0009999 4.7940001 34
26.542999 -4.0300002 4.8200002 38
26.499001 -4.0560002 4.8410001 41
26.490999 -4.0869999 4.868 44
26.464001 -4.1139998 4.8909998 46
26.444 -4.1420002 4.9159999 48
26.422001 -4.171 4.9390001 48
26.426001 -4.2020001 4.9679999 53
26.399 -4.2290001 4.9899998 54
26.393 -4.2589998 5.0159998 53
26.393999 -4.2909999 5.0409999 57
26.392 -4.322 5.0679998 57
26.395 -4.3530002 5.0949998 55
26.392 -4.3829999 5.1199999 47
26.386 -4.4130001 5.1440001 45
26.384001 -4.4429998 5.1690001 46
26.396 -4.4759998 5.1960001 46
26.417999 -4.5100002 5.2259998 45
26.431 -4.5430002 5.2529998 43
26.434999 -4.5749998 5.2789998 38
26.448 -4.6069999 5.3049998 35
26.471001 -4.6420002 5.3340001 34
26.492001 -4.6760001 5.3610001 32
26.528 -4.711 5.3920002 28
26.559999 -4.7470002 5.421 23
26.608999 -4.7859998 5.454 19
26.681999 -4.829 5.4920001 10
0 0 0 23
32.006001 -5.8639998 6.6409998 26
31.903 -5.8800001 6.6459999 25
31.797001 -5.8959999 6.6490002 25
31.688999 -5.9109998 6.651 30
31.568001 -5.9229999 6.651 28
31.481001 -5.9400001 6.6570001 24
31.379 -5.9549999 6.6599998 25
31.281 -5.9699998 6.6630001 26
31.171 -5.9829998 6.6620002 26
31.086 -6.0009999 6.6669998 30
30.985001 -6.013 6.6669998 28
30.914 -6.0320001 6.6739998 26
30.811001 -6.0440001 6.6729999 26
30.714001 -6.0580001 6.6729999 25
30.639999 -6.0739999 6.678 24
30.555 -6.0890002 6.6799998 25
30.466999 -6.1030002 6.6810002 28
30.371 -6.1149998 6.6789999 28
30.305 -6.132 6.684 27
30.238001 -6.1490002 6.6890001 26
30.16 -6.164 6.6900001 25
30.051001 -6.171 6.6830001 27
29.985001 -6.1869998 6.6859999 25
29.923 -6.204 6.6890001 25
29.853001 -6.2179999 6.691 26
29.790001 -6.2340002 6.6929998 30
29.726999 -6.2490001 6.6950002 29
29.674999 -6.2659998 6.6999998 29
29.636 -6.2870002 6.7059999 29
29.570999 -6.3000002 6.7059999 25
29.51 -6.3150001 6.7080002 26
29.437 -6.3260002 6.7059999 26
29.382 -6.342 6.7080002 30
29.306999 -6.3520002 6.704 30
29.263 -6.3699999 6.7080002 28
29.229 -6.3889999 6.7129998 29
29.166 -6.4000001 6.711 30
29.113001 -6.414 6.711 29
29.061001 -6.4289999 6.711 28
29.025 -6.4460001 6.7150002 24
28.965 -6.4580002 6.7119999 29
28.914 -6.4710002 6.711 28
28.882 -6.4879999 6.7150002 29
28.825001 -6.5 6.7119999 29
28.791 -6.5159998 6.7140002 27
28.757 -6.5310001 6.7160001 28
28.712999 -6.5450001 6.7150002 25
0 0 0 1
18.754999 -4.3049998 4.3979998 6
18.722 -4.3119998 4.395 15
18.684999 -4.3179998 4.3920002 18
18.632 -4.3200002 4.3839998 23
18.615999 -4.3309999 4.3860002 20
18.59 -4.3390002 4.3839998 27
18.576 -4.3499999 4.3850002 30
18.545 -4.3559999 4.382 28
18.497 -4.3590002 4.3740001 30
18.483 -4.369 4.375 31
18.468 -4.3779998 4.375 32
18.462 -4.3899999 4.3769999 35
18.448 -4.3990002 4.3769999 37
18.42 -4.4050002 4.3730001 34
18.403999 -4.414 4.3720002 36
18.414 -4.428 4.3769999 38
18.408001 -4.4390001 4.3779998 39
18.391001 -4.447 4.3759999 38
18.386999 -4.4569998 4.3769999 42
18.382 -4.4679999 4.3779998 40
18.372999 -4.4770002 4.3769999 42
18.358 -4.4850001 4.375 45
18.362 -4.4970002 4.3769999 45
18.344999 -4.5040002 4.3730001 44
18.353001 -4.5159998 4.3759999 45
18.341 -4.5240002 4.3740001 45
18.344 -4.5349998 4.375 53
18.323 -4.54 4.3699999 50
18.323999 -4.5500002 4.3699999 51
18.319 -4.559 4.369 50
18.306999 -4.5650001 4.3649998 48
18.316999 -4.5770001 4.3670001 50
18.309 -4.585 4.3649998 50
18.301001 -4.592 4.362 51
18.288 -4.5970001 4.3579998 46
18.292 -4.6069999 4.3569999 49
18.277 -4.612 4.3509998 47
18.285999 -4.6220002 4.3520002 47
18.291 -4.632 4.3509998 54
18.287001 -4.6389999 4.348 55
18.273001 -4.6430001 4.342 51
18.291 -4.6550002 4.3429999 35
18.278999 -4.6599998 4.3379998 58
18.291 -4.671 4.3379998 58
18.282 -4.6750002 4.3319998 51
18.277 -4.6810002 4.3280001 51
18.264999 -4.6849999 4.3210001 53
18.268999 -4.6919999 4.3179998 55
18.274 -4.6999998 4.3150001 36
18.278 -4.7069998 4.3119998 51
18.268999 -4.71 4.3060002 51
18.254999 -4.7129998 4.2979999 51
18.267 -4.7210002 4.296 54
18.26 -4.7249999 4.29 54
18.264 -4.7309999 4.2849998 51
18.264999 -4.7360001 4.2800002 51
18.254999 -4.7389998 4.2729998 50
18.257999 -4.744 4.2670002 51
18.26 -4.7490001 4.2620001 50
18.264999 -4.7550001 4.257 34
18.256001 -4.757 4.2490001 46
18.266001 -4.763 4.2449999 49
18.253 -4.763 4.2350001 48
18.264999 -4.77 4.2309999 51
18.266001 -4.7729998 4.224 49
18.254 -4.7729998 4.2140002 46
18.257 -4.777 4.2080002 48
