# .PCD v0.7 - Point Cloud Data file format
VERSION 0.7
FIELDS x y z intensity
SIZE 4 4 4 4
TYPE F F F F
COUNT 1 1 1 1
WIDTH 1672
HEIGHT 1
VIEWPOINT 0 0 0 1 0 0 0
POINTS 1672
DATA ascii
1.5039999 -0.16599999 -0.523 1
1.511 -0.16599999 -0.52600002 1
1.5039999 -0.16500001 -0.523 1
1.5039999 -0.164 -0.52399999 1
1.501 -0.163 -0.52200001 1
1.501 -0.163 -0.52200001 1
1.5 -0.162 -0.52200001 1
1.505 -0.162 -0.52399999 1
1.502 -0.161 -0.523 1
1.5 -0.16 -0.52200001 1
1.501 -0.16 -0.52200001 1
1.505 -0.15899999 -0.52399999 1
1.505 -0.15899999 -0.523 1
1.512 -0.15899999 -0.52600002 1
1.512 -0.15800001 -0.52499998 1
1.501 -0.156 -0.52100003 1
1.516 -0.15700001 -0.52600002 1
1.513 -0.156 -0.52499998 1
1.513 -0.155 -0.52499998 1
1.508 -0.154 -0.523 1
1.516 -0.154 -0.52600002 1
1.505 -0.153 -0.52100003 1
1.512 -0.153 -0.523 1
1.5140001 -0.152 -0.52399999 1
1.513 -0.15099999 -0.523 1
1.5140001 -0.15099999 -0.523 1
1.522 -0.15099999 -0.52499998 1
1.525 -0.15000001 -0.52600002 1
1.524 -0.149 -0.52499998 1
1.524 -0.149 -0.52399999 1
1.523 -0.148 -0.52399999 1
1.533 -0.148 -0.52700001 1
1.527 -0.147 -0.52399999 1
1.533 -0.146 -0.52600002 1
1.533 -0.146 -0.52499998 1
1.534 -0.145 -0.52399999 1
1.535 -0.14399999 -0.52399999 1
1.541 -0.14399999 -0.52600002 1
1.539 -0.14300001 -0.52399999 1
1.539 -0.142 -0.52399999 1
1.543 -0.142 -0.52399999 1
1.5420001 -0.141 -0.523 1
1.55 -0.141 -0.52499998 1
1.549 -0.14 -0.52399999 1
1.554 -0.14 -0.52499998 1
1.552 -0.138 -0.523 1
1.559 -0.138 -0.52499998 1
1.558 -0.13699999 -0.523 1
1.558 -0.13699999 -0.523 1
1.566 -0.13600001 -0.52399999 1
1.574 -0.13600001 -0.52600002 1
1.575 -0.13500001 -0.52499998 1
1.581 -0.13500001 -0.52600002 1
1.582 -0.134 -0.52499998 1
1.582 -0.133 -0.52499998 1
1.585 -0.133 -0.52399999 1
1.585 -0.132 -0.523 1
1.592 -0.132 -0.52399999 1
1.595 -0.131 -0.52399999 1
1.603 -0.131 -0.52600002 1
1.6059999 -0.13 -0.52499998 1
1.601 -0.12899999 -0.523 1
1.613 -0.12899999 -0.52499998 1
1.625 -0.12899999 -0.528 1
1.625 -0.12800001 -0.52700001 1
1.632 -0.127 -0.52700001 1
1.628 -0.126 -0.52499998 1
1.641 -0.126 -0.52700001 1
1.643 -0.125 -0.52700001 1
1.65 -0.125 -0.52700001 1
1.652 -0.124 -0.52700001 1
1.653 -0.123 -0.52600002 1
1.678 -0.124 -0.53200001 1
1.6799999 -0.123 -0.53100002 1
1.682 -0.123 -0.52999997 1
1.688 -0.122 -0.52999997 1
1.697 -0.122 -0.53100002 1
1.701 -0.121 -0.53100002 1
1.71 -0.121 -0.53200001 1
1.714 -0.12 -0.53200001 1
1.719 -0.119 -0.53100002 1
1.724 -0.119 -0.53100002 1
1.727 -0.118 -0.52999997 1
1.7410001 -0.118 -0.53299999 1
1.743 -0.117 -0.53200001 1
1.751 -0.116 -0.53200001 1
1.758 -0.116 -0.53200001 1
1.756 -0.115 -0.52999997 1
1.772 -0.115 -0.53200001 1
1.783 -0.114 -0.53399998 1
1.7869999 -0.114 -0.53299999 1
1.796 -0.113 -0.53399998 1
1.796 -0.112 -0.53100002 1
1.813 -0.112 -0.53399998 1
1.817 -0.111 -0.53299999 1
1.827 -0.111 -0.53399998 1
1.8329999 -0.11 -0.53399998 1
1.845 -0.11 -0.53500003 1
1.85 -0.109 -0.53399998 1
1.858 -0.108 -0.53399998 1
1.874 -0.108 -0.53600001 1
1.88 -0.107 -0.53500003 1
1.892 -0.107 -0.53600001 1
1.899 -0.106 -0.53600001 1
1.906 -0.106 -0.53500003 1
1.915 -0.105 -0.53500003 1
1.923 -0.104 -0.53500003 1
1.941 -0.104 -0.537 1
1.946 -0.103 -0.53600001 1
1.957 -0.103 -0.537 1
1.967 -0.102 -0.537 1
1.987 -0.102 -0.53899997 1
1.9960001 -0.102 -0.53899997 1
2.0090001 -0.101 -0.54000002 1
2.02 -0.1 -0.54000002 1
2.0280001 -0.1 -0.53899997 1
2.0339999 -0.098999999 -0.53799999 1
2.062 -0.098999999 -0.542 1
2.0680001 -0.097999997 -0.54100001 1
2.0810001 -0.097999997 -0.54100001 1
2.0940001 -0.097000003 -0.542 1
2.109 -0.097000003 -0.542 1
2.1140001 -0.096000001 -0.54000002 1
2.1340001 -0.096000001 -0.542 1
2.148 -0.094999999 -0.542 1
2.1630001 -0.094999999 -0.54299998 1
2.175 -0.093999997 -0.542 1
2.1930001 -0.093999997 -0.54400003 1
2.2119999 -0.093000002 -0.54500002 1
2.23 -0.093000002 -0.546 1
2.2390001 -0.092 -0.54500002 1
2.2460001 -0.090999998 -0.54299998 1
2.2690001 -0.090999998 -0.54500002 1
2.2820001 -0.090000004 -0.54400003 1
2.3 -0.090000004 -0.54500002 1
2.3180001 -0.089000002 -0.54500002 1
2.345 -0.089000002 -0.54799998 1
2.3570001 -0.088 -0.54699999 1
2.3740001 -0.088 -0.546 1
2.3870001 -0.086999997 -0.546 1
2.4089999 -0.086999997 -0.546 1
2.4319999 -0.086000003 -0.54799998 1
2.4530001 -0.086000003 -0.54799998 1
2.477 -0.085000001 -0.54900002 1
2.5009999 -0.085000001 -0.55000001 1
2.523 -0.085000001 -0.551 1
2.5439999 -0.083999999 -0.551 1
2.5710001 -0.083999999 -0.55299997 1
2.595 -0.082999997 -0.55299997 1
2.619 -0.082999997 -0.55400002 2
2.638 -0.082000002 -0.55299997 2
2.6700001 -0.082000002 -0.55500001 2
2.694 -0.082000002 -0.55500001 1
2.714 -0.081 -0.55500001 1
2.747 -0.081 -0.55699998 2
2.7720001 -0.079999998 -0.55699998 2
2.803 -0.079999998 -0.55800003 2
2.8310001 -0.079000004 -0.55800003 2
2.858 -0.079000004 -0.55800003 2
2.888 -0.079000004 -0.55900002 2
2.928 -0.078000002 -0.56099999 2
2.9649999 -0.078000002 -0.56300002 2
3.0050001 -0.078000002 -0.565 2
3.043 -0.078000002 -0.56699997 2
3.075 -0.077 -0.56699997 2
3.118 -0.077 -0.56900001 2
3.2049999 -0.078000002 -0.579 2
3.2850001 -0.079000004 -0.58700001 2
3.279 -0.077 -0.57999998 2
3.3199999 -0.077 -0.58099997 2
3.3169999 -0.075999998 -0.574 2
3.365 -0.075999998 -0.57599998 2
3.516 -0.078000002 -0.59500003 2
3.4890001 -0.075999998 -0.58399999 2
3.5020001 -0.075000003 -0.579 1
3.5380001 -0.075000003 -0.57800001 1
3.599 -0.075000003 -0.58099997 2
3.734 -0.075999998 -0.59600002 3
3.803 -0.075999998 -0.59899998 3
3.7980001 -0.075000003 -0.59100002 2
3.878 -0.075000003 -0.59600002 3
3.9349999 -0.075000003 -0.597 2
3.9719999 -0.075000003 -0.59500003 2
4.0780001 -0.075000003 -0.60299999 2
4.0419998 -0.074000001 -0.58899999 2
4.1589999 -0.074000001 -0.59799999 2
4.2069998 -0.074000001 -0.597 2
4.3060002 -0.075000003 -0.602 2
4.3940001 -0.075000003 -0.60500002 2
4.4759998 -0.075000003 -0.60799998 3
4.5619998 -0.075000003 -0.61000001 3
4.664 -0.075999998 -0.61400002 3
4.7350001 -0.075999998 -0.61400002 4
4.8169999 -0.075999998 -0.61500001 4
4.9250002 -0.077 -0.61900002 3
5.04 -0.077 -0.62300003 3
5.1409998 -0.077 -0.625 4
5.2680001 -0.078000002 -0.63 4
5.368 -0.079000004 -0.63099998 4
5.4829998 -0.079000004 -0.63300002 5
5.632 -0.079999998 -0.639 5
5.7909999 -0.081 -0.64499998 5
5.9380002 -0.082000002 -0.64899999 5
6.1040001 -0.082999997 -0.65499997 5
6.3249998 -0.085000001 -0.66500002 9
6.5110002 -0.086999997 -0.671 9
6.6539998 -0.086999997 -0.67199999 12
6.8460002 -0.089000002 -0.67699999 13
7.0489998 -0.090000004 -0.68300003 13
7.2459998 -0.092 -0.68699998 12
7.494 -0.093999997 -0.69499999 11
7.7839999 -0.097000003 -0.70499998 5
8.0900002 -0.098999999 -0.71600002 4
8.3690004 -0.102 -0.72299999 4
8.6969995 -0.105 -0.73299998 4
9.0319996 -0.108 -0.74299997 4
9.3850002 -0.111 -0.75199997 5
9.717 -0.114 -0.75800002 5
10.125 -0.118 -0.76800001 4
10.549 -0.122 -0.778 5
10.977 -0.126 -0.78600001 3
11.504 -0.132 -0.80000001 3
12.028 -0.13699999 -0.81099999 2
12.621 -0.14300001 -0.824 3
13.203 -0.149 -0.83399999 3
13.918 -0.15700001 -0.84899998 3
14.72 -0.16500001 -0.86699998 3
15.583 -0.17399999 -0.88499999 2
0 0 0 2
0 0 0 2
18.083 -0.20200001 -0.91100001 1
0 0 0 1
0 0 0 1
25.011999 -0.28 -1.101 1
0 0 0 0
0 0 0 0
0 0 0 5
45.402 -0.514 -1.612 153
45.415001 -0.51599997 -1.515 173
45.444 -0.51899999 -1.419 200
45.438 -0.52200001 -1.322 213
45.477001 -0.52499998 -1.225 194
45.479 -0.52899998 -1.1289999 177
45.473999 -0.53299999 -1.031 156
45.507999 -0.537 -0.935 67
0 0 0 33
116.657 -1.402 -1.896 29
0 0 0 0
0 0 0 44
133.371 -1.65 -1.313 74
133.35899 -1.6670001 -1.027 62
133.395 -1.686 -0.74199998 56
133.30901 -1.705 -0.456 81
0 0 0 0
0 0 0 48
72.528 -0.96200001 0.21699999 80
72.545998 -0.97500002 0.37400001 72
72.601997 -0.98900002 0.52999997 43
72.510002 -1.002 0.68400002 15
72.545998 -1.016 0.83899999 8
0 0 0 0
0 0 0 0
0 0 0 0
0 0 0 0
0 0 0 20
63.905998 -0.97899997 1.553 34
63.66 -0.991 1.682 27
63.421001 -1.003 1.809 19
63.118999 -1.0140001 1.9299999 18
63.362999 -1.034 2.0710001 35
63.571999 -1.0549999 2.2130001 65
63.667999 -1.074 2.3499999 49
63.702 -1.0930001 2.4860001 18
66.578003 -1.161 2.7360001 54
66.087997 -1.1720001 2.855 67
65.752998 -1.186 2.9809999 90
65.652 -1.205 3.112 79
65.639999 -1.225 3.2479999 81
65.440002 -1.243 3.3770001 72
65.000999 -1.256 3.49 51
64.498001 -1.267 3.5940001 65
64.315002 -1.286 3.7190001 68
64.309998 -1.308 3.8529999 57
64.300003 -1.331 3.984 68
63.897999 -1.346 4.0910001 50
63.341 -1.357 4.184 61
63.009998 -1.373 4.2919998 75
62.987999 -1.397 4.421 64
62.957001 -1.42 4.5479999 67
62.463001 -1.433 4.6420002 47
61.925999 -1.4450001 4.7249999 62
61.665001 -1.464 4.8309999 65
61.638 -1.488 4.9530001 61
61.575001 -1.512 5.073 79
61.030998 -1.525 5.152 45
60.441002 -1.536 5.2249999 72
60.306999 -1.559 5.335 66
60.304001 -1.585 5.4559999 60
60.120998 -1.607 5.5609999 58
59.464001 -1.6160001 5.6170001 43
59.007 -1.631 5.6919999 56
58.978001 -1.6569999 5.8070002 47
58.959 -1.684 5.9229999 51
58.415001 -1.696 5.9840002 36
57.720001 -1.7029999 6.0250001 53
57.632 -1.729 6.132 41
57.578999 -1.756 6.2389998 29
56.692001 -1.756 6.2529998 13
56.238998 -1.77 6.3130002 13
55.897999 -1.788 6.3839998 9
55.521 -1.804 6.447 9
55.226002 -1.824 6.5219998 9
54.917 -1.841 6.5900002 9
54.674999 -1.862 6.6659999 9
54.389 -1.881 6.7379999 9
54.053001 -1.899 6.7979999 9
53.790001 -1.918 6.8660002 8
53.488998 -1.937 6.9330001 8
53.146999 -1.9529999 6.9879999 7
52.886002 -1.973 7.052 6
52.414001 -1.984 7.0869999 5
0 0 0 21
117.6 -4.5840001 16.337999 24
117.478 -4.6459999 16.540001 40
117.564 -4.7179999 16.771 26
0 0 0 7
50.643002 -2.0910001 7.408 15
50.554001 -2.1170001 7.4879999 35
50.550999 -2.1470001 7.5799999 42
50.499001 -2.175 7.6659999 51
50.026001 -2.1849999 7.6830001 43
49.617001 -2.198 7.71 45
49.599998 -2.2260001 7.796 50
49.605 -2.257 7.8850002 44
49.396999 -2.279 7.9400001 41
48.501999 -2.2679999 7.8829999 38
48.234001 -2.2850001 7.9260001 38
48.25 -2.316 8.0129995 40
48.230999 -2.345 8.092 39
47.883999 -2.359 8.118 35
47.000999 -2.346 8.0500002 47
46.903 -2.3710001 8.1149998 36
46.897999 -2.401 8.1929998 39
46.903999 -2.431 8.2740002 40
46.438 -2.438 8.2709999 29
45.59 -2.4230001 8.1969995 38
45.544998 -2.451 8.2659998 36
45.549999 -2.4809999 8.3450003 36
45.558998 -2.5120001 8.4219999 36
45.138 -2.5179999 8.4189997 32
44.292 -2.5020001 8.335 42
44.207001 -2.526 8.3909998 43
44.222 -2.5569999 8.4659996 35
44.214001 -2.5869999 8.5349998 40
43.941002 -2.5999999 8.552 32
43.036999 -2.576 8.4460001 40
42.856998 -2.595 8.4790001 37
42.863998 -2.6240001 8.5469999 39
42.880001 -2.655 8.618 37
42.868 -2.6830001 8.6820002 37
42.308998 -2.678 8.6350002 22
41.562 -2.6600001 8.5459995 34
41.521 -2.6860001 8.6009998 30
41.529999 -2.7149999 8.6680002 40
41.507999 -2.743 8.7259998 35
41.5 -2.7720001 8.7869997 37
40.629002 -2.7420001 8.6639996 27
40.173 -2.74 8.6269999 36
40.175999 -2.7690001 8.6870003 39
40.187 -2.7980001 8.7489996 38
40.174 -2.826 8.8050003 39
40.173 -2.855 8.8629999 37
39.456001 -2.8329999 8.7620001 20
38.828999 -2.8150001 8.6780005 27
38.818001 -2.8429999 8.7309999 26
38.818001 -2.8699999 8.7869997 25
38.813 -2.898 8.8400002 26
38.814999 -2.9260001 8.8940001 26
38.384998 -2.9219999 8.849 23
37.536999 -2.8840001 8.7049999 31
37.477001 -2.9059999 8.7410002 36
37.466 -2.9319999 8.7880001 35
37.479 -2.96 8.8409996 36
37.481998 -2.987 8.8909998 34
37.453999 -3.0120001 8.934 31
36.778999 -2.984 8.8199997 17
36.175999 -2.961 8.7220001 26
36.130001 -2.984 8.757 30
36.125999 -3.01 8.8030005 32
36.132 -3.0369999 8.8500004 29
36.132 -3.063 8.8950005 31
36.134998 -3.0899999 8.9399996 29
35.610001 -3.0710001 8.8540001 20
34.855999 -3.0309999 8.71 24
34.775002 -3.049 8.7309999 32
34.776001 -3.0739999 8.7729998 31
34.772999 -3.0999999 8.8129997 32
34.793999 -3.1270001 8.8590002 29
34.769001 -3.1500001 8.8929996 30
34.772999 -3.174 8.9329996 31
34.271999 -3.154 8.842 19
33.486 -3.1059999 8.677 23
33.417999 -3.1229999 8.6969995 32
33.429001 -3.148 8.7370005 31
33.421001 -3.171 8.7709999 32
33.431999 -3.1960001 8.8100004 32
33.428001 -3.22 8.8450003 33
33.426998 -3.244 8.8800001 32
33.372002 -3.263 8.8999996 25
32.598999 -3.21 8.7270002 19
32.098999 -3.184 8.625 28
32.076 -3.204 8.6520004 30
32.088001 -3.2279999 8.6870003 30
32.080002 -3.2509999 8.7159996 30
32.087002 -3.273 8.7489996 29
32.064999 -3.2939999 8.7729998 29
32.082001 -3.3180001 8.8079996 30
32.069 -3.339 8.8339996 26
31.457001 -3.2980001 8.6949997 13
30.780001 -3.2490001 8.5360003 21
30.712 -3.263 8.5439997 26
30.718 -3.2850001 8.573 28
30.709999 -3.306 8.5970001 28
30.716999 -3.3269999 8.625 30
30.716 -3.348 8.651 29
30.719999 -3.3699999 8.6780005 28
30.732 -3.391 8.7060003 29
30.733 -3.4119999 8.7309999 27
30.672001 -3.427 8.7379999 23
29.938999 -3.365 8.5530005 17
29.413 -3.326 8.4250002 24
29.365999 -3.3399999 8.4329996 27
29.368 -3.3599999 8.4560003 28
29.374001 -3.381 8.4790001 28
29.362 -3.3989999 8.4960003 28
29.378 -3.4200001 8.5209999 28
29.372 -3.438 8.54 26
29.377001 -3.4579999 8.5609999 27
29.371 -3.4760001 8.5790005 28
29.392 -3.4979999 8.6040001 26
29.188999 -3.4920001 8.5629997 19
28.497 -3.428 8.3780003 18
28.051001 -3.392 8.2639999 22
28.02 -3.4070001 8.2709999 26
28.009001 -3.4230001 8.2849998 28
28.009001 -3.441 8.3009996 27
28.011999 -3.4590001 8.3170004 27
28.007 -3.4749999 8.3310003 26
28.025 -3.4949999 8.3520002 27
28.035 -3.5139999 8.368 26
28.014999 -3.529 8.3760004 26
28.034 -3.5469999 8.3959999 25
28.02 -3.562 8.4049997 25
28.018 -3.579 8.4169998 25
27.875999 -3.5769999 8.3870001 18
27.176001 -3.503 8.1890001 16
26.716999 -3.46 8.0620003 20
26.667999 -3.4690001 8.0579996 22
26.656 -3.483 8.0649996 25
26.653999 -3.4979999 8.0740004 24
26.643 -3.5120001 8.0810003 24
26.66 -3.529 8.0950003 24
26.67 -3.5450001 8.1070004 24
26.66 -3.5580001 8.1129999 23
26.669001 -3.5739999 8.1239996 23
26.677 -3.5899999 8.1350002 23
26.672001 -3.6029999 8.1409998 23
26.67 -3.618 8.1479998 23
26.679001 -3.6340001 8.1569996 22
26.67 -3.6470001 8.1610003 23
26.656 -3.6589999 8.1630001 22
26.395 -3.6370001 8.0889997 16
25.855 -3.576 7.9289999 15
25.412001 -3.5280001 7.7979999 14
25.311001 -3.526 7.7719998 15
25.252001 -3.53 7.7579999 14
25.198999 -3.536 7.7449999 12
25.115 -3.5369999 7.723 11
25.003 -3.533 7.691 10
24.915001 -3.5320001 7.6669998 10
24.841999 -3.5339999 7.6469998 10
24.759001 -3.533 7.6240001 9
24.702999 -3.5369999 7.6079998 9
24.646999 -3.54 7.5929999 9
24.596001 -3.5439999 7.5780001 9
24.523001 -3.5450001 7.5560002 9
24.476999 -3.549 7.5419998 10
24.408001 -3.55 7.5209999 9
24.367001 -3.5539999 7.5079999 8
24.299999 -3.5550001 7.487 8
24.233999 -3.556 7.4660001 8
24.187 -3.559 7.4499998 8
24.135 -3.5610001 7.4320002 10
24.091 -3.5650001 7.4169998 9
24.046 -3.5680001 7.4000001 10
24.000999 -3.5710001 7.3839998 10
23.945999 -3.5710001 7.3649998 9
23.889999 -3.572 7.3439999 9
23.851999 -3.576 7.329 9
23.795 -3.576 7.3080001 9
23.759001 -3.579 7.2919998 10
23.711 -3.5810001 7.2729998 9
23.672001 -3.5829999 7.257 9
23.634001 -3.585 7.2399998 9
23.573 -3.5840001 7.2160001 9
23.554001 -3.5899999 7.204 10
23.497999 -3.589 7.1810002 9
23.476999 -3.5929999 7.1680002 9
23.426001 -3.592 7.1469998 9
23.414 -3.598 7.1360002 9
23.356001 -3.596 7.1110001 9
23.318001 -3.598 7.092 9
23.292 -3.6010001 7.0760002 9
23.27 -3.6029999 7.0619998 9
23.229 -3.6029999 7.0409999 9
23.205999 -3.6070001 7.0250001 9
23.183001 -3.609 7.0100002 12
23.184999 -3.615 7.0009999 14
23.190001 -3.622 6.993 15
23.214001 -3.632 6.9899998 18
23.224001 -3.638 6.9829998 19
23.264999 -3.6500001 6.9850001 23
23.267 -3.6559999 6.9749999 26
23.306 -3.6670001 6.9749999 28
23.341 -3.678 6.974 30
23.361 -3.6849999 6.9689999 31
23.400999 -3.6960001 6.9689999 26
23.445 -3.7079999 6.9699998 32
23.474001 -3.717 6.9660001 32
23.521 -3.7290001 6.9660001 33
23.584 -3.743 6.9720001 27
23.607 -3.7509999 6.9650002 28
23.67 -3.7650001 6.9689999 27
23.695999 -3.7720001 6.9629998 31
23.747999 -3.7839999 6.9640002 26
23.789 -3.7939999 6.961 26
23.839001 -3.806 6.96 30
23.895 -3.8169999 6.961 30
23.943001 -3.8269999 6.9580002 30
23.985001 -3.8369999 6.9549999 30
24.035 -3.8469999 6.9520001 31
24.089001 -3.859 6.9510002 27
24.136 -3.868 6.947 26
24.172001 -3.8759999 6.9400001 30
24.238001 -3.888 6.941 31
24.291 -3.898 6.9380002 31
24.368 -3.9119999 6.9419999 29
24.424 -3.9230001 6.9390001 30
24.482 -3.934 6.9369998 29
24.552 -3.9449999 6.9369998 30
24.604 -3.954 6.9320002 30
24.681 -3.967 6.9330001 30
24.747 -3.9790001 6.9310002 26
24.823999 -3.9909999 6.9320002 26
24.882999 -4.0009999 6.927 29
24.950001 -4.0110002 6.9239998 25
25.024 -4.0229998 6.9229999 28
25.094999 -4.0339999 6.9200001 28
25.164 -4.0440001 6.9169998 24
25.239 -4.0549998 6.914 30
25.318001 -4.0679998 6.9130001 28
25.423 -4.0830002 6.9180002 25
25.476999 -4.0910001 6.9089999 25
25.563999 -4.1030002 6.908 25
25.636 -4.112 6.9029999 29
25.735001 -4.1259999 6.9039998 31
25.829 -4.1389999 6.9039998 30
25.907 -4.1490002 6.9000001 27
25.992001 -4.1599998 6.8959999 34
26.075001 -4.171 6.8920002 28
26.16 -4.1810002 6.8870001 26
26.231001 -4.1890001 6.8790002 36
26.273001 -4.1929998 6.862 37
26.299999 -4.1929998 6.8410001 39
26.332001 -4.1950002 6.8210001 42
26.334999 -4.191 6.7940001 44
26.334 -4.1869998 6.7649999 44
26.334999 -4.1820002 6.7360001 45
26.322001 -4.1760001 6.7030001 41
26.346001 -4.1750002 6.6799998 35
26.327 -4.1669998 6.645 42
26.329 -4.1620002 6.6160002 41
26.334999 -4.1570001 6.5869999 41
26.341999 -4.1529999 6.559 40
26.334 -4.1459999 6.526 40
26.341999 -4.1399999 6.4970002 40
26.349001 -4.1360002 6.467 40
26.348 -4.1290002 6.4359999 41
26.349001 -4.1230001 6.4050002 39
26.364 -4.118 6.3759999 40
26.365 -4.1110001 6.3449998 39
26.358999 -4.1030002 6.3109999 39
26.365999 -4.0960002 6.2800002 38
26.372 -4.0900002 6.2480001 37
26.362 -4.0799999 6.2119999 38
26.368999 -4.072 6.1810002 38
26.384001 -4.066 6.1500001 36
26.378 -4.0570002 6.1149998 38
26.381001 -4.0489998 6.0809999 36
26.382999 -4.04 6.0479999 35
26.408001 -4.0349998 6.0190001 34
26.416 -4.027 5.9860001 38
26.405001 -4.0159998 5.9489999 35
26.429001 -4.0089998 5.9180002 34
26.427 -3.9979999 5.882 32
26.448999 -3.9909999 5.8520002 29
26.438999 -3.9790001 5.8130002 31
26.434999 -3.9679999 5.776 30
26.465 -3.9619999 5.7459998 29
26.485001 -3.9530001 5.7150002 29
26.483999 -3.9419999 5.677 28
26.493999 -3.9319999 5.6430001 27
26.516001 -3.9230001 5.6100001 26
26.535999 -3.914 5.5770001 25
26.540001 -3.902 5.54 23
26.562 -3.8929999 5.507 21
26.594999 -3.885 5.4749999 19
26.628 -3.8770001 5.4450002 17
26.65 -3.868 5.4109998 12
26.688999 -3.8599999 5.3800001 11
26.745001 -3.8540001 5.3520002 6
26.812 -3.849 5.3260002 1
0 0 0 23
33.980999 -4.8439999 6.652 25
34.126999 -4.8460002 6.6300001 20
34.265999 -4.8470001 6.6059999 12
34.407001 -4.8470001 6.5819998 8
34.723999 -4.8730001 6.5910001 4
34.858002 -4.8720002 6.5650001 3
34.700001 -4.8299999 6.4829998 3
34.729 -4.8130002 6.4349999 3
34.556 -4.7680001 6.3509998 2
34.543999 -4.7459998 6.2950001 2
0 0 0 0
0 0 0 0
0 0 0 0
0 0 0 1
34.598 -4.6440001 6.039 1
34.551998 -4.6149998 5.9770002 2
34.452999 -4.579 5.9060001 2
0 0 0 0
0 0 0 2
34.509998 -4.5149999 5.7519999 2
0 0 0 0
0 0 0 0
0 0 0 0
0 0 0 0
0 0 0 2
0 0 0 0
0 0 0 0
0 0 0 0
0 0 0 0
0 0 0 0
0 0 0 2
34.460999 -4.2030001 5.0799999 2
34.467999 -4.177 5.026 2
34.548 -4.1589999 4.9809999 2
34.370998 -4.1110001 4.9000001 2
34.390999 -4.085 4.8470001 2
34.308998 -4.0469999 4.7779999 11
34.257 -4.0120001 4.7150002 45
34.254002 -3.983 4.6589999 50
34.258999 -3.954 4.6030002 51
34.237 -3.9230001 4.5430002 49
34.25 -3.8940001 4.4879999 53
34.23 -3.862 4.428 55
34.244999 -3.8340001 4.3740001 53
34.231998 -3.802 4.3140001 53
34.223 -3.77 4.257 57
34.217999 -3.7390001 4.1989999 56
34.217999 -3.707 4.1430001 53
34.229 -3.677 4.0869999 57
34.222 -3.645 4.0289998 56
34.214001 -3.612 3.97 54
34.207001 -3.579 3.9130001 52
34.209 -3.5469999 3.8559999 52
34.202 -3.513 3.7969999 53
34.195999 -3.4790001 3.7390001 52
34.192001 -3.4460001 3.6819999 53
34.188999 -3.411 3.6229999 54
34.186001 -3.3770001 3.5650001 55
34.181999 -3.3429999 3.506 55
34.187 -3.309 3.45 55
34.181 -3.2739999 3.391 53
34.174 -3.2379999 3.3329999 52
34.166 -3.2030001 3.276 60
34.143002 -3.1659999 3.2160001 70
34.140999 -3.1300001 3.1589999 79
34.131001 -3.0929999 3.0999999 76
34.139999 -3.0580001 3.043 74
34.129002 -3.0209999 2.984 80
34.118999 -2.983 2.925 79
34.125 -2.9460001 2.868 81
34.118999 -2.9089999 2.8099999 49
34.125 -2.872 2.753 40
34.133999 -2.835 2.6960001 43
34.122002 -2.796 2.6370001 42
34.112999 -2.757 2.579 44
34.112999 -2.7190001 2.5220001 45
34.098999 -2.6789999 2.4630001 44
34.098999 -2.641 2.4070001 43
34.330002 -2.6199999 2.3659999 11
34.576 -2.598 2.323 10
34.879002 -2.5799999 2.2850001 11
35.182999 -2.562 2.2449999 12
35.525002 -2.5450001 2.207 12
35.897999 -2.529 2.1700001 10
36.418999 -2.5220001 2.1400001 7
36.915001 -2.513 2.108 7
37.637001 -2.517 2.086 6
38.375 -2.52 2.063 6
38.587002 -2.487 2.0090001 4
0 0 0 0
0 0 0 0
0 0 0 0
0 0 0 0
0 0 0 9
0 0 0 7
42.943001 -2.3929999 1.735 62
42.938 -2.3380001 1.663 150
42.939999 -2.2839999 1.592 150
42.945999 -2.2290001 1.522 128
42.976002 -2.175 1.452 73
42.964001 -2.1210001 1.383 47
42.973999 -2.0650001 1.312 42
42.974998 -2.0090001 1.242 32
42.953999 -1.95 1.17 22
42.983002 -1.896 1.101 12
0 0 0 15
50.775002 -2.1029999 1.133 36
50.827 -2.0369999 1.052 11
0 0 0 0
0 0 0 17
58.212002 -2.0969999 0.921 79
58.220001 -2.0179999 0.82800001 112
58.235001 -1.939 0.73400003 98
58.216999 -1.858 0.63999999 52
58.507999 -1.7869999 0.54900002 26
58.708 -1.711 0.45699999 16
0 0 0 112
66.225998 -1.747 0.30599999 88
66.251999 -1.654 0.2 120
66.262001 -1.561 0.094999999 72
66.244003 -1.467 -0.0089999996 68
66.365997 -1.376 -0.112 64
66.607002 -1.288 -0.21600001 26
69.415001 -1.2410001 -0.33500001 47
71.636002 -1.181 -0.45500001 91
72.557999 -1.092 -0.57499999 44
0 0 0 0
0 0 0 32
0 0 0 0
0 0 0 30
116.589 -0.90700001 -1.823 31
116.533 -0.73799998 -1.999 53
116.496 -0.56599998 -2.1760001 32
0 0 0 0
0 0 0 0
0 0 0 0
0 0 0 9
60.394001 0.154 -1.584 177
60.355 0.245 -1.673 189
60.338001 0.336 -1.763 85
0 0 0 158
65.022003 0.55900002 -2.0929999 152
0 0 0 9
70.460999 0.81999999 -2.4760001 14
0 0 0 0
0 0 0 0
0 0 0 2
0 0 0 0
0 0 0 2
0 0 0 1
0 0 0 0
0 0 0 0
0 0 0 0
0 0 0 0
0 0 0 6
16.862 0.50800002 -0.88200003 5
16.007999 0.50700003 -0.85900003 4
16.041 0.53399998 -0.88300002 3
15.277 0.53200001 -0.86199999 2
14.729 0.53600001 -0.85100001 3
14.211 0.54000002 -0.84100002 3
13.706 0.542 -0.82999998 3
13.229 0.54400003 -0.81900001 3
12.824 0.54799998 -0.81099999 3
12.43 0.55000001 -0.80199999 3
12.124 0.55599999 -0.79900002 2
11.836 0.56199998 -0.796 2
11.457 0.56199998 -0.78500003 2
11.122 0.56300002 -0.77700001 2
10.82 0.565 -0.76999998 2
10.557 0.56800002 -0.76499999 3
10.271 0.56900001 -0.75700003 3
10.033 0.57200003 -0.75300002 3
9.7919998 0.574 -0.74699998 3
9.5830002 0.57700002 -0.74299997 4
9.3870001 0.58099997 -0.74000001 4
9.1820002 0.583 -0.73500001 4
8.9720001 0.58399999 -0.73000002 4
8.7939997 0.58600003 -0.727 4
8.5880003 0.58700001 -0.72000003 4
8.408 0.588 -0.71499997 4
8.2150002 0.588 -0.70899999 4
8.0620003 0.58999997 -0.70599997 4
7.8930001 0.58999997 -0.69999999 4
7.7410002 0.59100002 -0.69599998 5
7.5970001 0.59299999 -0.69199997 5
7.4169998 0.59100002 -0.685 4
7.2800002 0.59200001 -0.68099999 3
7.1259999 0.59100002 -0.67500001 3
7.0120001 0.59299999 -0.67199999 4
6.8899999 0.59299999 -0.66799998 3
6.7789998 0.59500003 -0.66500002 3
6.665 0.59500003 -0.662 3
6.5570002 0.597 -0.65799999 3
6.421 0.59500003 -0.65200001 3
6.3189998 0.59500003 -0.64899999 3
6.223 0.59600002 -0.64600003 3
6.125 0.597 -0.64200002 3
6.0640001 0.60100001 -0.64300001 4
5.9679999 0.60100001 -0.639 4
5.8930001 0.60299999 -0.63700002 4
5.816 0.60399997 -0.63499999 4
5.7340002 0.60500002 -0.63200003 3
5.6849999 0.60900003 -0.63300002 4
5.605 0.61000001 -0.63 4
5.533 0.611 -0.62699997 3
5.4510002 0.61000001 -0.62400001 4
5.382 0.61199999 -0.62099999 3
5.316 0.61299998 -0.61900002 4
5.2680001 0.616 -0.61900002 3
5.2179999 0.61799997 -0.61799997 4
5.1599998 0.62 -0.61699998 2
5.0949998 0.62 -0.61400002 3
5.0489998 0.62199998 -0.61299998 3
5.0050001 0.625 -0.61299998 2
4.9439998 0.625 -0.61000001 3
4.8979998 0.62699997 -0.60900003 3
4.862 0.63 -0.60900003 2
4.8140001 0.63200003 -0.60799998 3
4.77 0.63300002 -0.60600001 2
4.717 0.634 -0.60399997 3
4.677 0.63599998 -0.60299999 3
4.6560001 0.63999999 -0.60500002 3
4.619 0.64300001 -0.60399997 4
4.5900002 0.64600003 -0.60399997 3
4.5440001 0.64600003 -0.602 2
4.4949999 0.64600003 -0.59899998 4
4.4640002 0.64899999 -0.59899998 3
4.4330001 0.65100002 -0.59899998 2
4.3829999 0.65100002 -0.59600002 4
4.3590002 0.65399998 -0.59600002 2
4.309 0.653 -0.59299999 2
4.2729998 0.65399998 -0.59100002 2
4.3000002 0.66500002 -0.59899998 3
4.1999998 0.65600002 -0.588 3
4.1999998 0.662 -0.59100002 3
4.1199999 0.65600002 -0.583 2
4.0900002 0.65799999 -0.58200002 2
4.099 0.66500002 -0.58700001 2
4.0739999 0.667 -0.58600003 3
4.0450001 0.66900003 -0.58499998 2
4.0440001 0.67400002 -0.588 3
4.0040002 0.67400002 -0.58499998 2
3.9820001 0.676 -0.58499998 2
3.971 0.68000001 -0.58600003 2
3.9460001 0.68199998 -0.58499998 2
3.948 0.68800002 -0.588 2
3.878 0.68199998 -0.57999998 2
3.8889999 0.68900001 -0.58499998 2
3.8729999 0.69199997 -0.58499998 3
3.823 0.68900001 -0.57999998 2
3.865 0.70200002 -0.58899999 2
3.8080001 0.69700003 -0.583 3
3.757 0.69300002 -0.57700002 2
3.757 0.699 -0.57999998 2
3.79 0.70999998 -0.58700001 3
3.7 0.699 -0.57499999 2
3.7409999 0.71200001 -0.58399999 2
3.6730001 0.704 -0.57499999 2
3.6830001 0.71100003 -0.579 2
3.674 0.71399999 -0.57999998 2
3.6259999 0.70999998 -0.574 2
3.6199999 0.71399999 -0.57599998 2
3.6340001 0.722 -0.57999998 2
3.612 0.722 -0.57800001 2
3.5969999 0.72399998 -0.57800001 2
3.5669999 0.72299999 -0.57499999 2
3.6099999 0.73699999 -0.58399999 2
3.598 0.73900002 -0.58399999 2
3.4909999 0.722 -0.56800002 2
3.5409999 0.73699999 -0.57800001 2
3.4590001 0.72500002 -0.56599998 2
3.4660001 0.73000002 -0.56900001 2
3.4389999 0.72899997 -0.56599998 2
3.4619999 0.73900002 -0.57099998 2
3.4360001 0.73799998 -0.56900001 2
3.4979999 0.75599998 -0.58099997 2
3.4330001 0.74599999 -0.57099998 2
3.4519999 0.755 -0.57599998 2
3.467 0.76200002 -0.57999998 2
3.427 0.75800002 -0.57499999 2
3.4260001 0.76200002 -0.57599998 2
3.3770001 0.755 -0.56900001 2
3.421 0.76899999 -0.57800001 2
3.3369999 0.75400001 -0.565 2
3.3239999 0.75599998 -0.56400001 2
3.316 0.75800002 -0.56400001 2
3.299 0.75800002 -0.56199998 2
3.2969999 0.76099998 -0.56300002 3
3.2909999 0.764 -0.56300002 3
3.2809999 0.76499999 -0.56199998 3
3.26 0.764 -0.56 2
3.2720001 0.77100003 -0.56300002 3
3.266 0.773 -0.56300002 3
3.257 0.77499998 -0.56199998 3
3.2420001 0.77499998 -0.56 2
3.2349999 0.77700001 -0.56 2
3.2309999 0.77999997 -0.56 2
3.227 0.78200001 -0.56 2
3.2219999 0.78500003 -0.56 2
3.2090001 0.78500003 -0.55900002 2
3.2049999 0.787 -0.55900002 2
3.2030001 0.79000002 -0.55900002 2
3.201 0.79299998 -0.56 3
3.1889999 0.79400003 -0.55800003 3
3.188 0.79699999 -0.55900002 2
3.1830001 0.79900002 -0.55800003 2
3.178 0.801 -0.55800003 2
3.1700001 0.80199999 -0.55699998 2
3.1700001 0.80500001 -0.55800003 2
3.1570001 0.80500001 -0.55599999 2
3.1630001 0.81 -0.55699998 2
3.151 0.81 -0.55599999 2
3.158 0.81400001 -0.55699998 2
3.151 0.81599998 -0.55699998 2
3.152 0.81900001 -0.55699998 2
3.151 0.82099998 -0.55699998 2
3.1489999 0.824 -0.55699998 2
3.142 0.82499999 -0.55599999 2
3.1459999 0.829 -0.55699998 2
3.141 0.82999998 -0.55699998 2
3.1340001 0.83099997 -0.55599999 2
3.1370001 0.83499998 -0.55599999 2
3.131 0.83600003 -0.55599999 2
3.1329999 0.83899999 -0.55599999 2
3.1329999 0.84200001 -0.55599999 2
3.1359999 0.84500003 -0.55699998 2
3.132 0.84600002 -0.55599999 2
3.1340001 0.85000002 -0.55699998 2
3.1289999 0.85100001 -0.55599999 2
3.131 0.85399997 -0.55599999 2
3.1240001 0.85399997 -0.55500001 2
3.131 0.85799998 -0.55599999 2
3.1329999 0.861 -0.55599999 2
3.1329999 0.86400002 -0.55599999 2
3.132 0.866 -0.55599999 2
3.1340001 0.86799997 -0.55599999 2
3.131 0.87 -0.55500001 2
3.135 0.87300003 -0.55599999 2
3.1389999 0.87599999 -0.55599999 2
3.138 0.87800002 -0.55599999 2
3.1329999 0.87900001 -0.55500001 2
3.138 0.88200003 -0.55500001 2
3.1400001 0.88499999 -0.55500001 2
3.142 0.88700002 -0.55500001 2
3.2850001 0.93000001 -0.57999998 2
3.22 0.91299999 -0.56800002 2
3.2119999 0.91299999 -0.56599998 2
3.312 0.94300002 -0.58399999 2
3.3110001 0.94499999 -0.583 2
3.247 0.92799997 -0.57099998 2
3.25 0.93099999 -0.57099998 2
3.21 0.921 -0.56300002 1
3.266 0.93900001 -0.57300001 1
3.1800001 0.91500002 -0.55699998 1
3.2279999 0.93099999 -0.565 1
3.3150001 0.95700002 -0.579 2
3.267 0.94499999 -0.56999999 1
3.3329999 0.96600002 -0.58099997 2
3.3410001 0.96899998 -0.58200002 2
3.2130001 0.93400002 -0.55900002 2
3.217 0.93599999 -0.55900002 2
3.349 0.97600001 -0.58099997 2
3.4489999 1.006 -0.597 3
3.2820001 0.95899999 -0.56800002 2
3.2939999 0.963 -0.56900001 2
3.2980001 0.96600002 -0.56900001 2
3.3269999 0.97500002 -0.57300001 2
3.392 0.99599999 -0.583 2
3.4330001 1.0089999 -0.58899999 2
3.3540001 0.98699999 -0.574 2
3.3710001 0.99199998 -0.57599998 2
3.2980001 0.972 -0.56300002 2
3.4219999 1.0089999 -0.583 2
3.319 0.98000002 -0.56400001 2
3.3499999 0.99000001 -0.56800002 1
3.3659999 0.995 -0.56999999 2
3.4860001 1.031 -0.58899999 3
3.3429999 0.98900002 -0.56300002 2
3.3429999 0.99000001 -0.56199998 1
3.332 0.98699999 -0.55900002 2
3.385 1.0039999 -0.56699997 2
3.3610001 0.99699998 -0.56099999 2
3.3699999 1 -0.56199998 2
3.382 1.0039999 -0.56199998 1
3.477 1.0319999 -0.57700002 3
3.3829999 1.005 -0.56 1
3.4319999 1.02 -0.56699997 1
3.418 1.016 -0.56300002 1
3.438 1.022 -0.56400001 1
3.437 1.022 -0.56300002 1
3.437 1.022 -0.56099999 1
3.4890001 1.0369999 -0.56800002 3
3.47 1.031 -0.56400001 1
3.4649999 1.03 -0.56099999 3
3.536 1.051 -0.57099998 3
3.5799999 1.064 -0.57599998 2
3.6440001 1.0829999 -0.58499998 3
3.5969999 1.068 -0.57599998 3
3.5999999 1.069 -0.57499999 3
3.586 1.0650001 -0.57099998 2
3.572 1.0599999 -0.56599998 3
3.6340001 1.0779999 -0.574 2
3.6789999 1.091 -0.57999998 3
3.635 1.077 -0.57099998 3
3.678 1.089 -0.57599998 3
3.608 1.068 -0.56300002 2
3.72 1.1 -0.57800001 2
3.7349999 1.104 -0.57800001 3
3.744 1.1059999 -0.57800001 3
3.7049999 1.0930001 -0.56999999 2
3.723 1.098 -0.57099998 2
3.859 1.137 -0.58899999 3
3.8069999 1.12 -0.579 2
3.8180001 1.123 -0.579 2
3.8180001 1.122 -0.57599998 2
3.865 1.1339999 -0.58099997 3
3.8239999 1.1210001 -0.57300001 3
3.902 1.143 -0.58200002 2
3.9030001 1.141 -0.57999998 3
3.8840001 1.135 -0.57499999 2
3.9170001 1.143 -0.57700002 2
3.934 1.146 -0.57700002 2
3.9319999 1.1440001 -0.57499999 2
3.951 1.148 -0.57499999 2
3.97 1.152 -0.57499999 2
4.0209999 1.165 -0.57999998 4
4.0310001 1.166 -0.579 3
3.997 1.154 -0.57200003 3
4.0650001 1.1720001 -0.579 3
4.085 1.175 -0.579 2
4.0809999 1.1720001 -0.57499999 3
4.1290002 1.184 -0.57999998 2
4.1329999 1.183 -0.57700002 2
4.178 1.193 -0.58099997 3
4.21 1.2 -0.583 3
4.2379999 1.206 -0.583 4
4.2690001 1.212 -0.58499998 2
4.2979999 1.2180001 -0.58600003 2
4.3299999 1.224 -0.58700001 3
4.3449998 1.226 -0.58600003 3
4.3769999 1.232 -0.588 4
4.4029999 1.2359999 -0.588 3
4.427 1.24 -0.588 2
4.4549999 1.245 -0.58899999 2
4.48 1.249 -0.58899999 5
4.513 1.255 -0.58999997 4
4.5419998 1.26 -0.58999997 4
4.5939999 1.271 -0.59399998 2
4.6129999 1.273 -0.59299999 4
4.6420002 1.277 -0.59299999 2
4.6810002 1.284 -0.59500003 2
4.7259998 1.293 -0.597 2
4.7550001 1.2970001 -0.597 2
4.7870002 1.302 -0.59799999 2
4.8260002 1.309 -0.59899998 2
4.8540001 1.313 -0.59899998 3
4.8930001 1.319 -0.60000002 2
4.927 1.324 -0.60000002 3
4.9679999 1.331 -0.602 4
4.994 1.3329999 -0.60100001 3
5.0419998 1.342 -0.60299999 2
5.0760002 1.346 -0.60299999 4
5.1360002 1.357 -0.60600001 2
5.1880002 1.3660001 -0.60900003 2
5.1960001 1.364 -0.60600001 4
5.2540002 1.374 -0.60799998 3
5.3169999 1.385 -0.611 3
5.3530002 1.3890001 -0.611 3
5.401 1.396 -0.61299998 3
5.4369998 1.4 -0.61199999 3
5.4970002 1.41 -0.61500001 3
5.5339999 1.414 -0.61500001 3
5.6030002 1.426 -0.61799997 3
5.6609998 1.4349999 -0.62 3
5.7199998 1.444 -0.62199998 3
5.7690001 1.45 -0.62300003 3
5.8130002 1.455 -0.62300003 3
5.8889999 1.467 -0.62599999 3
5.934 1.472 -0.62599999 3
5.9920001 1.48 -0.62800002 3
6.0640001 1.4910001 -0.63 3
6.1170001 1.497 -0.63099998 3
6.2220001 1.515 -0.63700002 4
6.2729998 1.521 -0.63700002 4
6.3520002 1.5319999 -0.63999999 3
6.447 1.548 -0.64399999 4
6.506 1.554 -0.64499998 5
6.5830002 1.564 -0.64700001 5
6.6630001 1.575 -0.64999998 6
6.7329998 1.5829999 -0.65100002 6
6.7810001 1.586 -0.64999998 5
6.8670001 1.598 -0.653 5
6.934 1.605 -0.65399998 5
7.0190001 1.6160001 -0.65600002 5
7.0999999 1.625 -0.65799999 4
7.1999998 1.6390001 -0.66100001 5
7.3200002 1.656 -0.667 5
7.4169998 1.669 -0.67000002 6
7.5019999 1.678 -0.671 8
7.6170001 1.694 -0.67500001 5
7.7309999 1.709 -0.67900002 5
7.8400002 1.722 -0.68199998 4
7.973 1.74 -0.68800002 4
8.0950003 1.756 -0.69199997 4
8.2060003 1.768 -0.69400001 4
8.3570004 1.789 -0.70099998 3
8.4659996 1.801 -0.70300001 4
8.5690002 1.8099999 -0.704 4
8.6920004 1.824 -0.70700002 4
8.8050003 1.835 -0.70999998 4
8.941 1.851 -0.71399999 5
9.0799999 1.8660001 -0.71700001 3
9.1879997 1.875 -0.71799999 5
9.3299999 1.89 -0.722 4
9.4420004 1.898 -0.72299999 4
9.5860004 1.913 -0.727 6
9.7320004 1.928 -0.73000002 5
9.8500004 1.936 -0.73100001 4
9.9919996 1.949 -0.73400003 3
10.149 1.964 -0.73699999 3
10.293 1.976 -0.74000001 5
10.473 1.994 -0.74400002 3
10.611 2.0039999 -0.74599999 3
10.778 2.0190001 -0.74900001 3
10.937 2.0309999 -0.75199997 3
11.137 2.0510001 -0.75700003 3
11.328 2.0680001 -0.76099998 3
11.488 2.0780001 -0.76300001 2
11.652 2.0899999 -0.76499999 3
11.818 2.0999999 -0.76700002 2
12.042 2.1199999 -0.77200001 3
12.205 2.1289999 -0.773 3
12.421 2.1459999 -0.77700001 3
12.623 2.161 -0.78100002 3
12.872 2.181 -0.78600001 3
13.081 2.1949999 -0.78899997 3
13.334 2.2149999 -0.79400003 3
13.702 2.253 -0.80599999 6
13.763 2.24 -0.80000001 3
13.921 2.2420001 -0.79799998 4
14.382 2.2909999 -0.81400001 2
14.722 2.3199999 -0.82300001 3
15.095 2.3529999 -0.833 2
15.316 2.3599999 -0.83399999 3
15.659 2.3859999 -0.84100002 4
15.916 2.3970001 -0.84299999 3
16.155001 2.405 -0.84500003 3
15.698 2.309 -0.80900002 3
15.763 2.2909999 -0.801 3
0 0 0 0
0 0 0 3
17.287001 2.418 -0.84200001 1
0 0 0 0
0 0 0 1
0 0 0 0
0 0 0 1
0 0 0 1
22.007999 2.8380001 -0.98199999 1
0 0 0 0
0 0 0 0
0 0 0 1
24.784 3.0109999 -1.04 1
26.076 3.119 -1.077 1
27.041 3.184 -1.1 1
0 0 0 0
0 0 0 0
0 0 0 0
0 0 0 0
0 0 0 0
0 0 0 0
0 0 0 0
0 0 0 4
39.606998 3.9809999 -1.387 3
39.619999 3.904 -1.364 4
39.658001 3.8299999 -1.342 4
39.518002 3.7390001 -1.314 10
39.542999 3.664 -1.291 19
39.446999 3.5769999 -1.265 21
39.341 3.4920001 -1.24 23
39.314999 3.411 -1.216 32
39.179001 3.3210001 -1.1900001 29
39.111 3.2379999 -1.166 32
39.026001 3.1530001 -1.142 34
38.958 3.0699999 -1.119 38
38.880001 2.9849999 -1.095 38
38.816002 2.904 -1.073 38
38.748001 2.8210001 -1.051 38
38.667999 2.737 -1.028 39
38.623001 2.655 -1.007 38
38.543999 2.572 -0.98500001 40
38.485001 2.49 -0.96399999 40
38.431 2.408 -0.94400001 38
38.341999 2.3239999 -0.92199999 36
38.292999 2.244 -0.903 33
38.278 2.165 -0.884 11
38.341999 2.0899999 -0.86699998 7
38.215 2.0039999 -0.84600002 6
38.164001 1.923 -0.82800001 9
37.994999 1.836 -0.80599999 16
37.925999 1.7539999 -0.78799999 37
37.861 1.673 -0.76999998 49
37.847 1.595 -0.75300002 43
37.800999 1.5140001 -0.736 50
37.773998 1.4349999 -0.71899998 53
37.769001 1.357 -0.704 71
37.764999 1.278 -0.68800002 52
37.813 1.2 -0.67299998 32
37.875 1.123 -0.65899998 23
37.970001 1.0470001 -0.64600003 39
38.028999 0.97000003 -0.63200003 30
38.092999 0.89099997 -0.61900002 152
38.166 0.81400001 -0.60600001 153
38.262001 0.736 -0.59399998 152
38.376999 0.65799999 -0.58200002 152
38.535999 0.57999998 -0.57099998 39
38.676998 0.50099999 -0.55900002 15
0 0 0 0
0 0 0 0
0 0 0 0
0 0 0 0
0 0 0 38
0 0 0 0
0 0 0 0
0 0 0 90
133.224 -0.81199998 -1.553 69
0 0 0 0
0 0 0 0
0 0 0 50
0 0 0 46
0 0 0 0
0 0 0 0
0 0 0 71
66.238998 -1.526 -0.63700002 73
66.204002 -1.666 -0.62199998 106
66.232002 -1.807 -0.60799998 133
0 0 0 0
0 0 0 102
58.182999 -1.96 -0.49900001 104
0 0 0 27
44.027 -1.671 -0.361 58
43.984001 -1.762 -0.35299999 40
43.455002 -1.834 -0.34200001 21
43.250999 -1.918 -0.333 31
43.265999 -2.0109999 -0.32699999 38
43.245998 -2.102 -0.31999999 27
43.161999 -2.1900001 -0.31299999 12
43.410999 -2.296 -0.30899999 23
42.688999 -2.3469999 -0.29899999 36
41.964001 -2.398 -0.289 37
41.826 -2.4809999 -0.28299999 41
41.949001 -2.575 -0.28 34
42.203999 -2.681 -0.27700001 50
41.963001 -2.7550001 -0.27200001 108
42.005001 -2.8469999 -0.26899999 116
42.009998 -2.937 -0.26499999 117
39.783001 -2.8659999 -0.248 8
37.558998 -2.786 -0.23199999 11
37.013 -2.822 -0.227 57
36.888 -2.891 -0.22400001 62
36.877998 -2.967 -0.222 67
0 0 0 0
0 0 0 0
0 0 0 0
0 0 0 0
0 0 0 1
0 0 0 0
0 0 0 0
0 0 0 0
0 0 0 25
0 0 0 25
0 0 0 25
0 0 0 25
0 0 0 25
0 0 0 25
0 0 0 25
0 0 0 25
0 0 0 14
18.208 -2.1500001 -0.117 1
18.101 -2.175 -0.117 1
18.125999 -2.2149999 -0.119 1
18.099001 -2.2490001 -0.121 1
18.075001 -2.283 -0.123 2
18.002001 -2.3110001 -0.124 1
17.968 -2.3429999 -0.126 1
17.992001 -2.3829999 -0.12800001 1
17.914 -2.4089999 -0.13 1
17.889 -2.4419999 -0.132 1
17.962999 -2.4890001 -0.13500001 2
17.98 -2.5280001 -0.138 9
17.969999 -2.562 -0.141 6
17.948 -2.596 -0.14300001 8
17.997 -2.638 -0.147 5
17.961 -2.6689999 -0.149 5
17.964001 -2.7060001 -0.153 5
17.99 -2.7449999 -0.156 4
17.945 -2.7739999 -0.15899999 5
17.896999 -2.802 -0.162 2
17.799 -2.822 -0.16500001 4
17.802 -2.858 -0.169 2
17.809999 -2.8940001 -0.17299999 2
17.927 -2.9489999 -0.178 8
17.961 -2.99 -0.182 7
17.982 -3.0280001 -0.186 7
17.969999 -3.0610001 -0.191 8
17.981001 -3.098 -0.19499999 10
17.961 -3.1289999 -0.199 9
17.909 -3.154 -0.20299999 7
17.945999 -3.1960001 -0.208 4
17.905001 -3.223 -0.212 1
17.839001 -3.2449999 -0.21600001 1
17.923 -3.2939999 -0.222 1
17.945999 -3.332 -0.227 1
0 0 0 0
0 0 0 0
0 0 0 0
0 0 0 0
0 0 0 0
0 0 0 1
18.197001 -3.6170001 -0.26800001 1
18.156 -3.642 -0.27399999 1
0 0 0 6
20.74 -4.2379999 -0.32600001 43
20.709999 -4.2690001 -0.33199999 42
20.68 -4.3000002 -0.33899999 39
20.694 -4.3410001 -0.34599999 51
20.674 -4.3740001 -0.35299999 19
20.622999 -4.3990002 -0.359 1
0 0 0 14
34.304001 -7.4400001 -0.62199998 31
34.294998 -7.4990001 -0.634 45
34.330002 -7.5669999 -0.648 49
34.320999 -7.625 -0.66000003 49
0 0 0 4
18.415001 -4.1550002 -0.368 18
18.351 -4.1719999 -0.373 25
18.271 -4.1849999 -0.37900001 28
18.24 -4.2090001 -0.38600001 35
18.211 -4.2329998 -0.39199999 34
18.167 -4.2529998 -0.398 37
18.146 -4.2789998 -0.405 44
18.122999 -4.3039999 -0.412 43
18.1 -4.3280001 -0.419 46
18.091 -4.3559999 -0.426 53
18.073999 -4.382 -0.433 48
18.044001 -4.4029999 -0.44 48
18.042 -4.4330001 -0.44800001 53
18.034 -4.46 -0.45500001 59
18.016001 -4.4840002 -0.46200001 60
18 -4.5089998 -0.47 60
18.003 -4.5380001 -0.47799999 59
0 0 0 0
0 0 0 10
16.395 -4.21 -0.456 7
16.332001 -4.2189999 -0.46200001 8
16.264999 -4.2270002 -0.46700001 7
16.181999 -4.23 -0.472 8
16.096001 -4.2309999 -0.477 9
16.018999 -4.2360001 -0.48199999 10
15.935 -4.237 -0.48699999 12
15.872 -4.244 -0.49200001 9
15.801 -4.2490001 -0.49700001 11
15.723 -4.2509999 -0.50300002 8
15.638 -4.25 -0.50700003 14
15.608 -4.2649999 -0.51300001 39
15.607 -4.2859998 -0.52100003 39
15.604 -4.3080001 -0.528 36
15.618 -4.3340001 -0.53600001 26
15.615 -4.355 -0.54299998 31
15.616 -4.3769999 -0.551 26
15.61 -4.3969998 -0.55900002 32
15.613 -4.4190001 -0.56599998 33
15.625 -4.4439998 -0.574 37
15.629 -4.4660001 -0.58200002 26
15.63 -4.487 -0.58999997 40
15.623 -4.506 -0.59799999 41
15.625 -4.527 -0.60500002 38
15.627 -4.5479999 -0.61299998 31
15.631 -4.5700002 -0.62099999 39
15.636 -4.5910001 -0.62900001 29
15.632 -4.6100001 -0.63700002 40
15.636 -4.631 -0.64499998 27
15.622 -4.6459999 -0.65200001 44
15.657 -4.6760001 -0.662 14
0 0 0 36
30.110001 -9.0649996 -1.303 34
30.107 -9.099 -1.319 30
30.087 -9.1289997 -1.334 30
30.058001 -9.1560001 -1.347 26
29.993999 -9.1719999 -1.36 12
29.809999 -9.1499996 -1.367 8
29.561001 -9.1070004 -1.37 7
29.346001 -9.0740004 -1.376 7
29.145 -9.0439997 -1.381 6
0 0 0 3
13.89 -4.3400002 -0.67199999 8
13.85 -4.3429999 -0.67799997 10
13.805 -4.3429999 -0.68199998 10
13.761 -4.3439999 -0.68699998 9
13.733 -4.349 -0.69400001 10
13.679 -4.3460002 -0.69800001 9
13.637 -4.3470001 -0.70300001 13
13.605 -4.3499999 -0.708 12
13.541 -4.3429999 -0.71200001 16
13.506 -4.3449998 -0.71700001 15
13.49 -4.3520002 -0.72299999 10
13.455 -4.3540001 -0.72799999 12
13.426 -4.3569999 -0.73400003 11
13.394 -4.3590002 -0.73900002 8
13.35 -4.3559999 -0.74400002 10
13.33 -4.362 -0.74900001 11
13.279 -4.3569999 -0.75300002 11
13.227 -4.3520002 -0.75700003 15
13.229 -4.3629999 -0.76499999 12
13.202 -4.3660002 -0.76899999 9
13.169 -4.3660002 -0.77399999 10
13.133 -4.3639998 -0.77899998 10
13.098 -4.3629999 -0.78399998 8
13.081 -4.368 -0.79000002 9
13.058 -4.3699999 -0.79500002 11
13.038 -4.3740001 -0.801 10
13.006 -4.3730001 -0.80500001 9
12.964 -4.368 -0.80900002 17
12.947 -4.3709998 -0.815 24
12.929 -4.3740001 -0.81999999 37
12.951 -4.3909998 -0.82800001 27
12.936 -4.3940001 -0.83399999 29
12.928 -4.4000001 -0.83999997 28
12.94 -4.4130001 -0.847 25
12.949 -4.4239998 -0.85399997 28
12.937 -4.428 -0.86000001 25
12.932 -4.434 -0.866 24
12.929 -4.441 -0.87300003 36
12.927 -4.447 -0.87900001 33
12.933 -4.4569998 -0.88599998 21
12.921 -4.46 -0.89099997 28
12.915 -4.4650002 -0.89700001 20
12.867 -4.4549999 -0.89999998 18
12.826 -4.447 -0.90399998 21
12.782 -4.4380002 -0.90700001 15
12.665 -4.4029999 -0.90499997 11
12.553 -4.3699999 -0.903 6
12.407 -4.3249998 -0.898 3
12.209 -4.2610002 -0.88999999 3
11.982 -4.1869998 -0.87900001 3
11.814 -4.1329999 -0.87300003 3
11.667 -4.086 -0.86699998 3
11.515 -4.0370002 -0.86199999 3
11.374 -3.9920001 -0.85699999 3
0 0 0 1
7.5910001 -2.6689999 -0.57800001 2
7.5890002 -2.671 -0.58200002 4
7.5679998 -2.6659999 -0.58399999 5
7.5669999 -2.668 -0.58700001 8
7.5560002 -2.6659999 -0.58999997 5
7.5510001 -2.6659999 -0.59299999 9
7.539 -2.6630001 -0.59500003 8
7.5289998 -2.6619999 -0.59799999 9
7.5320001 -2.665 -0.60100001 7
7.52 -2.6619999 -0.60399997 6
7.506 -2.658 -0.60600001 5
7.5279999 -2.6670001 -0.611 4
7.527 -2.668 -0.61400002 4
7.5229998 -2.668 -0.61699998 3
7.5250001 -2.6689999 -0.62099999 3
7.5190001 -2.668 -0.62400001 2
7.5139999 -2.6670001 -0.62599999 2
7.5190001 -2.6689999 -0.63 2
7.5190001 -2.6700001 -0.63300002 2
7.5159998 -2.6689999 -0.63599998 2
7.5139999 -2.6689999 -0.639 2
7.5120001 -2.668 -0.64200002 2
7.513 -2.6689999 -0.64499998 2
7.5139999 -2.6689999 -0.648 2
7.5110002 -2.668 -0.65100002 2
7.5029998 -2.665 -0.653 2
7.5149999 -2.6689999 -0.65700001 2
7.5089998 -2.6659999 -0.66000003 1
7.52 -2.6700001 -0.66399997 1
7.5170002 -2.668 -0.66600001 1
7.5009999 -2.6619999 -0.66799998 1
7.5019999 -2.661 -0.671 1
7.5009999 -2.6600001 -0.67400002 1
7.4970002 -2.6570001 -0.676 1
7.4910002 -2.654 -0.67799997 2
7.4959998 -2.654 -0.68199998 2
7.487 -2.6489999 -0.68300003 2
7.4959998 -2.651 -0.68699998 2
7.4790001 -2.6429999 -0.68800002 2
7.474 -2.6400001 -0.69 2
7.467 -2.635 -0.69199997 3
7.461 -2.632 -0.69400001 3
7.4530001 -2.6259999 -0.69599998 2
7.4419999 -2.6199999 -0.69700003 3
7.4400001 -2.618 -0.69999999 3
7.4250002 -2.6099999 -0.70099998 3
7.427 -2.608 -0.70300001 3
7.4190001 -2.602 -0.70499998 3
7.4089999 -2.596 -0.70599997 3
7.4120002 -2.595 -0.70899999 3
7.4060001 -2.589 -0.71100003 3
7.4099998 -2.5880001 -0.713 3
7.4130001 -2.586 -0.71600002 4
7.3850002 -2.573 -0.71600002 5
7.3870001 -2.5699999 -0.71799999 6
7.3899999 -2.5680001 -0.72000003 8
7.3940001 -2.566 -0.722 9
7.381 -2.5580001 -0.72399998 6
7.3800001 -2.553 -0.72500002 6
7.3769999 -2.5480001 -0.727 8
7.3610001 -2.539 -0.727 10
7.3559999 -2.533 -0.72899997 12
7.3379998 -2.523 -0.72899997 13
7.3140001 -2.51 -0.72899997 13
7.2950001 -2.4990001 -0.72799999 13
7.3010001 -2.497 -0.73100001 13
7.309 -2.4960001 -0.73299998 9
7.283 -2.4820001 -0.73299998 12
7.2719998 -2.474 -0.73299998 11
7.2589998 -2.464 -0.73400003 12
7.237 -2.4519999 -0.73299998 9
7.2259998 -2.4430001 -0.73299998 8
7.2010002 -2.4300001 -0.73199999 8
7.1739998 -2.4159999 -0.73100001 6
7.1329999 -2.3970001 -0.72799999 6
7.1090002 -2.3829999 -0.727 6
7.0809999 -2.368 -0.72600001 6
7.0700002 -2.359 -0.72600001 6
7.0229998 -2.3380001 -0.72299999 6
7.02 -2.332 -0.72299999 5
6.9710002 -2.3099999 -0.72000003 4
6.9619999 -2.3010001 -0.72000003 5
6.9400001 -2.2880001 -0.71899998 4
6.9260001 -2.2780001 -0.71799999 4
6.9229999 -2.2709999 -0.71899998 5
6.901 -2.257 -0.71799999 4
6.8639998 -2.2390001 -0.71499997 4
6.8740001 -2.2360001 -0.71700001 4
6.8449998 -2.221 -0.71499997 5
6.8390002 -2.2130001 -0.71499997 5
6.829 -2.2030001 -0.71499997 4
6.8099999 -2.1900001 -0.71399999 5
6.7950001 -2.1789999 -0.713 5
6.7930002 -2.1719999 -0.713 5
6.7800002 -2.161 -0.713 4
6.777 -2.1530001 -0.713 5
6.7470002 -2.1370001 -0.70999998 4
6.7449999 -2.1289999 -0.71100003 5
6.7360001 -2.119 -0.70999998 5
6.7290001 -2.1099999 -0.70999998 5
6.7220001 -2.1010001 -0.70999998 5
6.7160001 -2.092 -0.70999998 4
6.7010002 -2.0799999 -0.70899999 5
6.6950002 -2.0710001 -0.708 5
6.6820002 -2.059 -0.70700002 4
6.6890001 -2.0539999 -0.708 5
6.691 -2.0469999 -0.70899999 5
6.6739998 -2.0339999 -0.70700002 5
6.6799998 -2.029 -0.708 5
6.6659999 -2.016 -0.70599997 5
6.6700001 -2.01 -0.70700002 5
6.6750002 -2.003 -0.708 5
6.6589999 -1.9910001 -0.70599997 5
6.6630001 -1.984 -0.70599997 4
6.652 -1.973 -0.70499998 4
6.6620002 -1.967 -0.70599997 5
6.6539998 -1.957 -0.70499998 5
6.6570001 -1.949 -0.70499998 5
6.6589999 -1.942 -0.70499998 5
6.6599998 -1.933 -0.70499998 5
6.6599998 -1.925 -0.704 5
6.6539998 -1.915 -0.70300001 4
6.6620002 -1.908 -0.704 5
6.6810002 -1.905 -0.70499998 5
6.671 -1.893 -0.704 5
6.6750002 -1.885 -0.704 5
6.684 -1.8789999 -0.704 5
6.6919999 -1.872 -0.704 5
6.6939998 -1.864 -0.704 4
6.6890001 -1.853 -0.70300001 4
6.7150002 -1.851 -0.70499998 4
6.724 -1.844 -0.70499998 5
6.7049999 -1.83 -0.70200002 4
6.7470002 -1.832 -0.70599997 4
6.744 -1.821 -0.70499998 4
6.7540002 -1.814 -0.704 4
6.7540002 -1.8049999 -0.704 4
6.7740002 -1.8 -0.70499998 4
6.7880001 -1.794 -0.70499998 4
6.7950001 -1.786 -0.70499998 5
6.8109999 -1.78 -0.70499998 5
6.8189998 -1.772 -0.70499998 4
6.8299999 -1.765 -0.70499998 4
6.8629999 -1.763 -0.70700002 4
6.8740001 -1.755 -0.70599997 4
6.8720002 -1.744 -0.70499998 4
6.901 -1.7410001 -0.70599997 3
6.914 -1.734 -0.70599997 3
6.9569998 -1.734 -0.70899999 3
6.9489999 -1.721 -0.70599997 3
6.9809999 -1.7180001 -0.708 3
7.006 -1.714 -0.70899999 3
7.0370002 -1.71 -0.70999998 3
7.0630002 -1.705 -0.71100003 3
7.0900002 -1.701 -0.71200001 3
7.1160002 -1.696 -0.713 3
7.151 -1.693 -0.71399999 3
7.1789999 -1.688 -0.71499997 3
7.2059999 -1.682 -0.71499997 3
7.2420001 -1.679 -0.71700001 3
7.2659998 -1.673 -0.71700001 3
7.3080001 -1.67 -0.71899998 4
7.3369999 -1.665 -0.71899998 4
7.3730001 -1.661 -0.72000003 4
7.4260001 -1.66 -0.72299999 4
7.447 -1.653 -0.72299999 4
7.487 -1.649 -0.72399998 4
7.5240002 -1.6440001 -0.72500002 4
7.5640001 -1.641 -0.72600001 4
7.6110001 -1.638 -0.727 4
7.6529999 -1.6339999 -0.72899997 4
7.691 -1.6289999 -0.72899997 4
7.7329998 -1.624 -0.73000002 4
7.7750001 -1.62 -0.73100001 4
7.8309999 -1.618 -0.73299998 4
7.8790002 -1.614 -0.73400003 4
7.9299998 -1.6109999 -0.736 4
7.98 -1.607 -0.73699999 4
8.0229998 -1.602 -0.73799998 3
8.0719995 -1.598 -0.73799998 4
8.1269999 -1.594 -0.74000001 4
8.1879997 -1.592 -0.74199998 4
8.3000002 -1.599 -0.74800003 3
8.3310003 -1.59 -0.74699998 4
8.3889999 -1.587 -0.74800003 5
8.4650002 -1.586 -0.75099999 7
8.5139999 -1.58 -0.75099999 4
8.5880003 -1.5779999 -0.75300002 4
8.651 -1.574 -0.75400001 4
8.7299995 -1.573 -0.75599998 3
8.8000002 -1.5700001 -0.75800002 3
8.8850002 -1.569 -0.76099998 3
8.967 -1.567 -0.76300001 4
9.0290003 -1.561 -0.76300001 4
9.1379995 -1.563 -0.76700002 3
9.2159996 -1.5599999 -0.76899999 3
9.309 -1.558 -0.77100003 3
9.3959999 -1.556 -0.773 3
9.4779997 -1.552 -0.77399999 3
