# .PCD v0.7 - Point Cloud Data file format
VERSION 0.7
FIELDS x y z intensity
SIZE 4 4 4 4
TYPE F F F F
COUNT 1 1 1 1
WIDTH 1721
HEIGHT 1
VIEWPOINT 0 0 0 1 0 0 0
POINTS 1721
DATA ascii
7.415 -0.31200001 -0.70599997 12
7.6160002 -0.31400001 -0.71100003 13
7.8470001 -0.317 -0.71700001 12
8.1079998 -0.32100001 -0.72500002 5
8.3800001 -0.32499999 -0.73299998 4
8.6569996 -0.329 -0.741 4
8.9829998 -0.33399999 -0.75099999 3
9.2959995 -0.338 -0.759 4
9.6140003 -0.34200001 -0.76599997 4
9.9399996 -0.34599999 -0.773 3
10.329 -0.352 -0.78299999 3
10.725 -0.35699999 -0.792 4
11.143 -0.36199999 -0.801 3
11.645 -0.37 -0.81400001 3
12.146 -0.377 -0.82499999 3
12.838 -0.38800001 -0.84600002 4
13.402 -0.396 -0.85699999 4
13.904 -0.40000001 -0.861 3
14.718 -0.41299999 -0.88200003 3
15.587 -0.426 -0.90399998 2
15.826 -0.421 -0.88599998 2
0 0 0 2
18.002001 -0.45300001 -0.935 2
0 0 0 1
0 0 0 2
0 0 0 22
0 0 0 1
17.615999 -0.38299999 -0.73799998 1
17.304001 -0.36500001 -0.69 3
17.114 -0.34900001 -0.64700001 3
17.108 -0.338 -0.61299998 6
17.098 -0.32699999 -0.57800001 7
16.990999 -0.31400001 -0.53899997 4
16.965 -0.303 -0.50400001 3
16.961 -0.292 -0.46900001 3
16.966999 -0.28099999 -0.43399999 3
16.945 -0.27000001 -0.398 4
16.915001 -0.25999999 -0.36399999 16
16.933001 -0.25 -0.329 15
16.965 -0.23999999 -0.29499999 2
17.016001 -0.23 -0.25999999 1
17.02 -0.221 -0.22499999 1
17.025 -0.211 -0.19 1
16.995001 -0.20100001 -0.155 1
17.037001 -0.192 -0.12 1
17.028 -0.182 -0.085000001 1
17.104 -0.17299999 -0.050000001 1
17.138 -0.164 -0.014 3
17.142 -0.155 0.02 3
17.190001 -0.146 0.056000002 1
0 0 0 0
0 0 0 1
17.688 -0.123 0.167 1
18.047001 -0.117 0.208 1
18.357 -0.11 0.25 1
18.478001 -0.101 0.28999999 1
0 0 0 0
0 0 0 0
0 0 0 0
0 0 0 0
0 0 0 0
0 0 0 1
18.931 -0.043000001 0.57200003 1
0 0 0 0
0 0 0 30
33.422001 -0.033 1.219 78
33.396 -0.018999999 1.2869999 114
33.381001 -0.0060000001 1.358 117
33.403999 0.0060000001 1.426 136
33.402 0.02 1.497 119
33.398998 0.033 1.566 119
33.394001 0.045000002 1.635 116
33.386002 0.057 1.704 120
33.394001 0.068999998 1.774 120
33.389999 0.081 1.8430001 119
33.382 0.093000002 1.9119999 116
33.383999 0.104 1.9809999 104
33.381001 0.115 2.05 102
33.389 0.126 2.119 103
33.386002 0.13699999 2.187 70
33.384998 0.147 2.256 85
33.395 0.15800001 2.325 90
33.376999 0.167 2.3940001 91
33.374001 0.177 2.461 91
33.370998 0.186 2.53 95
33.375999 0.19599999 2.599 104
33.377998 0.205 2.668 109
33.386002 0.213 2.737 119
33.379002 0.222 2.8039999 119
33.370998 0.23 2.872 106
33.379002 0.23800001 2.9400001 103
33.400002 0.24600001 3.01 83
33.382999 0.25400001 3.0769999 102
33.370998 0.26100001 3.1440001 103
33.372002 0.26800001 3.211 103
33.412998 0.27500001 3.283 80
33.436001 0.28200001 3.3529999 47
33.455002 0.289 3.421 27
33.446999 0.29499999 3.4890001 25
33.431999 0.301 3.5539999 38
33.437 0.30700001 3.622 50
33.429001 0.31200001 3.687 55
33.424 0.31799999 3.7539999 60
33.433998 0.322 3.823 55
33.431999 0.32699999 3.8889999 53
33.435001 0.33199999 3.9560001 56
33.426998 0.336 4.02 58
33.433998 0.34 4.0869999 61
33.436001 0.34400001 4.1550002 61
33.450001 0.34799999 4.223 50
33.436001 0.35100001 4.2859998 59
33.436001 0.35499999 4.3520002 59
33.438999 0.35800001 4.4180002 59
33.438999 0.361 4.4819999 60
33.449001 0.36300001 4.5489998 57
33.450001 0.366 4.6139998 57
33.443001 0.368 4.677 57
33.445999 0.37 4.743 58
33.446999 0.37200001 4.8080001 62
33.445 0.373 4.8720002 62
33.433998 0.375 4.9349999 59
33.450001 0.37599999 5.0019999 60
33.458 0.377 5.0679998 61
33.450001 0.37799999 5.1300001 60
33.458 0.37799999 5.1950002 59
33.449001 0.37900001 5.257 56
33.464001 0.37900001 5.322 61
33.466999 0.37900001 5.3860002 60
33.471001 0.37799999 5.4499998 64
33.470001 0.37799999 5.5120001 63
33.459 0.377 5.573 67
33.466 0.37599999 5.6360002 67
33.465 0.375 5.698 64
33.459999 0.37400001 5.7589998 62
33.464001 0.37200001 5.8200002 67
33.457001 0.37099999 5.8800001 61
33.465 0.36899999 5.9429998 56
33.480999 0.36700001 6.007 56
33.478001 0.36399999 6.0669999 53
33.473999 0.36199999 6.1269999 52
33.486 0.359 6.1890001 54
33.477001 0.35600001 6.2480001 53
33.477001 0.35299999 6.3070002 56
33.480999 0.34999999 6.368 53
33.488998 0.347 6.4299998 54
33.485001 0.34299999 6.4879999 51
33.476002 0.33899999 6.546 53
33.493999 0.336 6.6069999 53
33.491001 0.331 6.665 51
33.443001 0.32600001 6.7129998 44
33.320999 0.32100001 6.7459998 39
33.081001 0.31400001 6.7540002 28
32.844002 0.30700001 6.7620001 24
32.619999 0.30000001 6.7709999 23
32.395 0.29300001 6.7789998 23
32.167 0.28600001 6.7849998 23
31.958 0.278 6.7950001 22
31.715 0.271 6.796 21
31.518 0.264 6.8049998 20
31.302 0.257 6.8099999 21
31.077 0.249 6.8119998 20
30.879 0.242 6.8189998 22
30.683001 0.234 6.8260002 26
30.489 0.227 6.8309999 23
30.284 0.219 6.8340001 24
30.106001 0.212 6.842 25
29.917 0.204 6.8460002 27
29.73 0.197 6.8499999 25
29.559 0.189 6.8569999 27
29.399 0.18099999 6.8639998 23
29.232 0.17399999 6.8699999 25
29.066 0.16599999 6.8759999 24
28.863001 0.15800001 6.8720002 23
28.705999 0.15000001 6.8779998 24
28.555 0.142 6.8850002 27
28.391001 0.134 6.888 25
28.243999 0.127 6.8940001 23
28.086 0.119 6.8969998 23
27.934 0.111 6.901 25
27.791 0.103 6.9060001 26
27.652 0.094999999 6.9120002 26
27.497 0.086999997 6.9120002 30
27.382 0.079000004 6.9219999 26
27.247999 0.071000002 6.927 24
27.128 0.064000003 6.934 19
27.017 0.055 6.9439998 15
26.915001 0.046999998 6.9549999 13
26.820999 0.039000001 6.967 11
26.745001 0.030999999 6.9840002 10
26.711 0.023 7.0120001 10
26.66 0.014 7.0339999 10
26.6 0.0070000002 7.053 9
26.579 -0.001 7.0830002 9
26.549 -0.0089999996 7.1090002 10
26.492001 -0.017999999 7.1290002 9
26.459 -0.026000001 7.1539998 10
26.415001 -0.034000002 7.1750002 10
26.372 -0.043000001 7.1960001 9
26.32 -0.050999999 7.2150002 10
26.292999 -0.059999999 7.2399998 10
26.247 -0.068999998 7.2600002 9
26.209 -0.077 7.2810001 10
26.155001 -0.086000003 7.2969999 9
26.106001 -0.094999999 7.3150001 9
26.075001 -0.104 7.3369999 10
26.01 -0.112 7.349 10
25.983 -0.122 7.3709998 10
25.927999 -0.131 7.3850002 10
25.884001 -0.14 7.401 11
25.827 -0.149 7.414 11
25.799 -0.15700001 7.4349999 10
25.738001 -0.16599999 7.4460001 10
25.688999 -0.176 7.46 9
25.649 -0.185 7.4759998 10
25.608 -0.19400001 7.4910002 10
25.546 -0.20299999 7.5 10
25.509001 -0.212 7.5149999 10
25.497999 -0.222 7.5370002 10
25.406 -0.23100001 7.5359998 9
25.379999 -0.23999999 7.5539999 11
25.336 -0.25 7.566 10
25.273001 -0.25799999 7.5710001 9
25.226999 -0.26800001 7.5819998 9
25.181 -0.27700001 7.5910001 10
25.132999 -0.28600001 7.5999999 9
25.077 -0.296 7.6059999 9
25.055 -0.30500001 7.6220002 9
25.004 -0.31400001 7.6290002 10
24.938999 -0.32300001 7.631 9
24.885 -0.33199999 7.6360002 9
24.849001 -0.34200001 7.6469998 9
24.798 -0.35100001 7.6529999 9
24.764999 -0.361 7.6620002 10
24.719 -0.37 7.6680002 9
24.653 -0.37900001 7.6669998 10
24.612 -0.38800001 7.6739998 13
24.566 -0.398 7.6789999 11
24.548 -0.40799999 7.6919999 12
24.478001 -0.41600001 7.6880002 9
24.429001 -0.426 7.691 9
24.384001 -0.435 7.6939998 9
24.330999 -0.44400001 7.6950002 10
24.275 -0.45300001 7.6939998 10
24.228001 -0.46200001 7.6960001 9
24.172001 -0.47099999 7.6939998 10
24.131001 -0.47999999 7.697 9
24.084999 -0.49000001 7.698 9
24.038 -0.498 7.697 10
23.983 -0.50700003 7.6939998 9
23.952 -0.51700002 7.6989999 10
23.885 -0.52499998 7.691 9
23.84 -0.53399998 7.6900001 8
23.785999 -0.54299998 7.6859999 9
23.736 -0.55199999 7.6830001 9
23.698999 -0.56199998 7.6830001 9
23.646 -0.56999999 7.678 9
23.613001 -0.57999998 7.6789999 9
23.551001 -0.58700001 7.6700001 9
23.500999 -0.59600002 7.665 9
23.437 -0.60500002 7.6550002 9
23.406 -0.61400002 7.6550002 9
23.341 -0.62099999 7.6440001 9
23.318001 -0.63099998 7.6459999 9
23.249001 -0.639 7.6329999 9
23.184 -0.64700001 7.6199999 9
23.153999 -0.65600002 7.619 9
23.121 -0.66399997 7.6160002 9
23.059999 -0.67199999 7.6040001 9
23.018 -0.68099999 7.598 9
22.969 -0.68900001 7.5890002 9
22.938999 -0.69800001 7.585 9
22.879 -0.70499998 7.572 9
22.83 -0.71399999 7.5619998 9
22.785 -0.722 7.553 9
22.754999 -0.73100001 7.5489998 9
22.711 -0.73900002 7.539 9
22.658001 -0.74699998 7.526 9
22.605 -0.75400001 7.513 9
22.566 -0.76300001 7.5040002 9
22.532 -0.77100003 7.4970002 8
22.462 -0.77700001 7.4770002 11
22.419001 -0.78500003 7.4660001 9
22.408001 -0.79400003 7.4650002 9
22.337999 -0.801 7.4439998 10
22.312 -0.80900002 7.4380002 10
22.292999 -0.81800002 7.4330001 9
22.232 -0.82499999 7.414 9
22.179001 -0.83099997 7.3979998 11
22.162001 -0.83999997 7.3930001 8
22.104 -0.847 7.3740001 10
22.048 -0.85399997 7.355 11
22.004 -0.861 7.3410001 10
21.98 -0.86900002 7.3319998 10
21.955 -0.87699997 7.323 8
21.898001 -0.884 7.303 11
21.841999 -0.88999999 7.283 11
21.818001 -0.898 7.2729998 11
21.757 -0.90399998 7.2509999 11
21.721001 -0.91100001 7.2360001 11
21.68 -0.91799998 7.2199998 11
21.631001 -0.92400002 7.2010002 11
21.598 -0.93099999 7.1869998 11
21.559999 -0.93800002 7.1700001 11
21.535 -0.94499999 7.158 11
21.493 -0.95200002 7.1399999 12
21.443001 -0.958 7.119 12
21.42 -0.96600002 7.1059999 12
21.384001 -0.972 7.0890002 13
21.361 -0.97899997 7.0770001 14
21.347 -0.986 7.066 16
21.358 -0.99400002 7.0640001 17
21.374001 -1.003 7.0630002 20
21.381001 -1.012 7.0580001 24
21.403 -1.021 7.059 22
21.413 -1.029 7.0549998 29
21.429001 -1.038 7.052 26
21.454 -1.0470001 7.053 28
21.457001 -1.0549999 7.046 27
21.482 -1.064 7.046 27
21.504999 -1.073 7.0440001 34
21.538 -1.082 7.046 34
21.559 -1.091 7.0430002 34
21.577999 -1.1 7.04 33
21.610001 -1.108 7.04 26
21.643999 -1.118 7.0409999 27
21.671 -1.127 7.039 26
21.690001 -1.136 7.0339999 31
21.733 -1.145 7.0370002 26
21.752001 -1.154 7.0310001 31
21.796 -1.163 7.033 24
21.836 -1.173 7.0339999 25
21.870001 -1.182 7.0320001 32
21.912001 -1.192 7.0320001 32
21.940001 -1.2 7.0279999 31
21.981001 -1.209 7.0279999 32
22.013 -1.2180001 7.0240002 32
22.044001 -1.227 7.02 31
22.097 -1.237 7.0219998 27
22.138 -1.2460001 7.02 32
22.177 -1.255 7.0170002 31
22.224001 -1.2640001 7.0159998 26
22.271999 -1.274 7.0159998 27
22.313 -1.283 7.0120001 28
22.374001 -1.293 7.0149999 26
22.409 -1.302 7.0089998 30
22.466999 -1.312 7.0100002 26
22.507999 -1.321 7.0050001 25
22.556999 -1.33 7.0019999 26
22.629 -1.341 7.006 25
22.688 -1.35 7.006 28
22.740999 -1.36 7.0029998 25
22.785 -1.368 6.9980001 31
22.849001 -1.3789999 6.9980001 26
22.912001 -1.3890001 6.9970002 25
22.974001 -1.398 6.9959998 30
23.023001 -1.4069999 6.9899998 31
23.091 -1.4170001 6.9899998 30
23.17 -1.428 6.9920001 29
23.231001 -1.437 6.9889998 29
23.308001 -1.448 6.9899998 25
23.364 -1.456 6.9850001 30
23.42 -1.465 6.9790001 30
23.49 -1.476 6.9759998 32
23.559 -1.485 6.973 31
23.628 -1.495 6.9699998 25
23.709999 -1.505 6.9699998 25
23.778 -1.5140001 6.9650002 28
23.864 -1.525 6.9650002 26
23.954 -1.535 6.967 29
24.027 -1.545 6.9619999 30
24.124001 -1.556 6.9640002 25
24.188 -1.5650001 6.9559999 29
24.271999 -1.575 6.9530001 27
24.351999 -1.585 6.9489999 28
24.438 -1.595 6.9460001 23
24.530001 -1.6059999 6.9439998 26
24.632 -1.617 6.9439998 28
24.728001 -1.627 6.9419999 28
24.825001 -1.637 6.941 23
24.919001 -1.648 6.9380002 24
25.013 -1.658 6.934 27
25.105 -1.668 6.9289999 27
25.195 -1.677 6.9229999 27
25.306 -1.689 6.9219999 29
25.42 -1.7 6.9219999 25
25.517 -1.71 6.9159999 25
25.615 -1.719 6.9109998 28
25.712999 -1.729 6.9039998 26
25.844 -1.7410001 6.9060001 22
25.966999 -1.753 6.9050002 22
26.084 -1.7640001 6.902 27
26.198999 -1.774 6.8979998 25
26.325001 -1.785 6.8959999 29
26.438999 -1.795 6.8909998 25
26.549 -1.8049999 6.8839998 29
26.681999 -1.817 6.8829999 27
26.816999 -1.829 6.881 28
26.937 -1.839 6.8740001 25
27.052999 -1.849 6.8660002 29
27.204 -1.8609999 6.8660002 23
27.35 -1.872 6.8639998 25
27.497 -1.8839999 6.8629999 24
27.628 -1.8940001 6.855 25
27.782 -1.906 6.8540001 28
27.927999 -1.9170001 6.849 24
28.076 -1.928 6.8439999 27
28.223 -1.939 6.8379998 27
28.378 -1.951 6.8340001 25
28.509001 -1.961 6.8239999 25
28.704 -1.975 6.8280001 21
28.875 -1.9859999 6.8260002 24
29.033001 -1.998 6.8189998 28
29.191999 -2.0090001 6.8119998 25
29.358 -2.02 6.8049998 24
29.535 -2.0309999 6.8000002 28
29.711 -2.043 6.7940001 25
29.895 -2.0550001 6.79 27
30.066999 -2.066 6.7820001 24
30.259001 -2.0780001 6.777 24
30.474001 -2.0910001 6.7779999 23
30.636999 -2.1010001 6.7649999 25
30.841999 -2.1129999 6.7610002 23
31.039 -2.1259999 6.7529998 23
31.233 -2.1370001 6.7449999 26
31.431 -2.148 6.7360001 22
31.658001 -2.1619999 6.7329998 25
31.856001 -2.1719999 6.724 22
32.064999 -2.1830001 6.7129998 23
32.301998 -2.197 6.711 22
32.528 -2.2090001 6.7030001 23
32.764999 -2.221 6.698 23
32.976002 -2.2320001 6.6859999 22
33.207001 -2.244 6.6760001 22
33.446999 -2.256 6.6680002 24
33.674999 -2.266 6.6550002 24
33.881001 -2.2750001 6.638 23
34.021999 -2.2809999 6.6079998 22
34.056 -2.277 6.5549998 24
34.041 -2.2709999 6.493 26
34.049999 -2.266 6.4359999 25
34.054001 -2.2609999 6.3779998 25
34.047001 -2.2550001 6.316 24
34.062 -2.2490001 6.2600002 21
34.049999 -2.2420001 6.1989999 14
34.061001 -2.237 6.1409998 9
34.039001 -2.2279999 6.0760002 3
34.188 -2.2309999 6.0419998 1
0 0 0 0
0 0 0 0
0 0 0 0
0 0 0 1
34.075001 -2.1849999 5.7160001 2
34.035999 -2.174 5.6479998 4
34.043999 -2.1659999 5.5879998 4
33.922001 -2.1500001 5.506 3
0 0 0 0
0 0 0 2
0 0 0 0
0 0 0 2
0 0 0 0
0 0 0 2
38.061001 -2.336 5.6859999 2
38.234001 -2.3340001 5.6409998 2
38.266998 -2.3239999 5.5739999 2
38.422001 -2.3210001 5.5240002 2
38.476002 -2.3110001 5.461 3
38.645 -2.3080001 5.4120002 2
38.778999 -2.303 5.3579998 2
38.958 -2.3 5.3099999 2
0 0 0 3
33.903999 -1.977 4.493 9
33.936001 -1.966 4.434 10
33.948002 -1.954 4.3709998 6
0 0 0 0
0 0 0 0
0 0 0 0
0 0 0 0
0 0 0 0
0 0 0 0
0 0 0 3
25.870001 -1.404 2.934 7
25.83 -1.39 2.8800001 15
25.799 -1.377 2.8269999 16
25.766001 -1.363 2.773 18
25.735001 -1.35 2.72 20
25.709999 -1.337 2.668 22
25.704 -1.323 2.6170001 24
25.677999 -1.3099999 2.5639999 26
25.666 -1.296 2.513 28
25.653999 -1.283 2.4619999 29
25.634001 -1.2690001 2.411 31
25.617001 -1.255 2.359 33
25.624001 -1.242 2.3099999 36
25.604 -1.228 2.2579999 37
25.573 -1.2130001 2.2049999 38
25.563 -1.198 2.1530001 38
25.548 -1.183 2.102 42
25.545 -1.169 2.0510001 41
25.539 -1.154 2.0009999 40
25.528999 -1.1390001 1.95 43
25.523001 -1.124 1.899 45
25.516001 -1.109 1.848 37
25.497999 -1.0930001 1.796 47
25.497999 -1.0779999 1.7460001 48
25.481001 -1.062 1.6950001 51
25.475 -1.046 1.6440001 50
25.451 -1.029 1.5930001 47
25.465 -1.0140001 1.544 49
25.468 -0.99699998 1.493 48
25.462999 -0.98100001 1.442 47
25.426001 -0.963 1.39 55
25.445 -0.94700003 1.341 56
25.424 -0.92900002 1.289 57
25.434 -0.91299999 1.239 60
25.434 -0.89499998 1.1900001 59
25.427 -0.87800002 1.1390001 63
25.417999 -0.86000001 1.0880001 64
25.429001 -0.84200001 1.0369999 63
25.431 -0.82499999 0.98799998 64
25.42 -0.80599999 0.93699998 57
25.454 -0.78899997 0.88800001 33
25.445 -0.76999998 0.83700001 7
0 0 0 0
0 0 0 0
0 0 0 0
0 0 0 0
0 0 0 0
0 0 0 0
0 0 0 0
0 0 0 0
0 0 0 0
0 0 0 1
17.882999 -0.391 0.20200001 1
17.606001 -0.37 0.164 1
0 0 0 0
0 0 0 0
0 0 0 0
0 0 0 2
17.070999 -0.289 -0.0060000001 3
17.087999 -0.27500001 -0.039000001 2
17.047001 -0.259 -0.071999997 1
17.002001 -0.244 -0.105 1
17.018999 -0.23 -0.139 1
17.039 -0.215 -0.17200001 1
16.972 -0.199 -0.204 1
16.952 -0.184 -0.237 1
17.004999 -0.169 -0.271 1
16.959999 -0.154 -0.303 8
16.961 -0.139 -0.33500001 6
16.957001 -0.123 -0.36700001 2
17.021999 -0.108 -0.40099999 1
16.931 -0.092 -0.43099999 1
16.99 -0.077 -0.465 1
16.992001 -0.061000001 -0.49700001 2
17.000999 -0.045000002 -0.52999997 2
17.025999 -0.028999999 -0.56300002 2
17.128 -0.013 -0.59899998 2
17.290001 0.0020000001 -0.63700002 3
17.400999 0.018999999 -0.67400002 4
17.500999 0.035999998 -0.71100003 4
17.507 0.052000001 -0.74400002 1
0 0 0 2
0 0 0 1
0 0 0 1
19.316 0.134 -0.96499997 2
0 0 0 2
16.768999 0.15000001 -0.89999998 4
0 0 0 4
15.39 0.169 -0.88300002 2
0 0 0 3
13.686 0.178 -0.83499998 3
13.083 0.183 -0.82300001 3
12.488 0.18799999 -0.80800003 3
12.024 0.193 -0.80000001 3
11.605 0.198 -0.79299998 3
11.162 0.20200001 -0.78299999 2
10.722 0.206 -0.77100003 3
10.345 0.20900001 -0.76300001 3
9.9989996 0.213 -0.755 3
9.6669998 0.21600001 -0.74699998 3
9.3400002 0.219 -0.73900002 3
9.052 0.222 -0.73199999 4
8.8050003 0.22499999 -0.72799999 3
8.566 0.228 -0.72299999 3
8.2810001 0.23 -0.71399999 3
8.073 0.233 -0.70999998 3
7.8569999 0.235 -0.70499998 3
7.6240001 0.237 -0.69700003 4
7.4260001 0.23800001 -0.69199997 3
7.2519999 0.241 -0.68800002 3
7.0770001 0.243 -0.68400002 3
6.8920002 0.244 -0.67799997 4
6.7059999 0.245 -0.671 4
6.5539999 0.24699999 -0.667 4
6.4120002 0.249 -0.66399997 4
6.2610002 0.25 -0.65899998 3
6.119 0.25099999 -0.65399998 4
5.994 0.25299999 -0.65100002 3
5.875 0.255 -0.648 3
5.757 0.25600001 -0.64499998 3
5.6350002 0.257 -0.63999999 3
5.5289998 0.259 -0.63700002 3
5.408 0.259 -0.63200003 3
5.3039999 0.25999999 -0.62900001 3
5.2119999 0.26199999 -0.62699997 3
5.1199999 0.26300001 -0.62400001 3
5.026 0.264 -0.62099999 3
4.9380002 0.26499999 -0.61799997 3
4.8670001 0.26699999 -0.61699998 3
4.7719998 0.26699999 -0.61199999 3
4.6810002 0.26800001 -0.60799998 3
4.6209998 0.27000001 -0.60799998 3
4.5289998 0.27000001 -0.60299999 4
4.4650002 0.271 -0.60100001 3
4.4710002 0.27700001 -0.60900003 3
4.4109998 0.278 -0.60799998 3
4.3600001 0.28 -0.60799998 4
4.2589998 0.27900001 -0.60000002 2
4.1690001 0.278 -0.59399998 2
4.1110001 0.27900001 -0.59200001 3
4.0310001 0.278 -0.58600003 1
4.013 0.28200001 -0.58999997 3
3.937 0.28099999 -0.58499998 2
3.967 0.28799999 -0.59500003 2
3.905 0.28799999 -0.59200001 2
3.8080001 0.28600001 -0.58200002 4
3.763 0.287 -0.58099997 5
3.7279999 0.289 -0.58099997 7
3.691 0.28999999 -0.58099997 9
3.654 0.292 -0.57999998 9
3.6159999 0.29300001 -0.579 10
3.576 0.294 -0.57800001 10
3.5380001 0.29499999 -0.57700002 10
3.503 0.29699999 -0.57599998 10
3.464 0.29699999 -0.57499999 10
3.428 0.29800001 -0.574 9
3.4070001 0.301 -0.57499999 8
3.382 0.303 -0.57499999 5
3.329 0.30199999 -0.57099998 3
3.3399999 0.30700001 -0.57700002 2
3.3789999 0.315 -0.58899999 2
3.3429999 0.315 -0.58700001 2
3.3099999 0.31600001 -0.58499998 2
3.329 0.322 -0.59299999 2
3.283 0.32100001 -0.58899999 1
3.1619999 0.31299999 -0.57200003 1
3.1559999 0.317 -0.57499999 1
3.1459999 0.31900001 -0.57700002 1
3.1459999 0.32300001 -0.58099997 1
3.1110001 0.32300001 -0.57800001 2
3.0469999 0.31999999 -0.56999999 2
2.9909999 0.31799999 -0.56400001 2
3.0380001 0.32699999 -0.57599998 2
3.0380001 0.33000001 -0.57999998 1
3.0450001 0.33500001 -0.58499998 1
2.96 0.329 -0.57200003 1
2.9579999 0.33199999 -0.57599998 2
2.9809999 0.338 -0.58399999 1
2.8150001 0.32300001 -0.55500001 1
2.836 0.32800001 -0.56199998 1
2.8169999 0.33000001 -0.56199998 1
2.7509999 0.32499999 -0.55199999 1
2.7260001 0.32499999 -0.55000001 1
2.72 0.32800001 -0.55199999 1
2.6930001 0.32800001 -0.54900002 1
2.7290001 0.33500001 -0.56 1
2.7379999 0.34 -0.565 1
2.6830001 0.336 -0.55599999 1
2.6659999 0.33700001 -0.55599999 1
2.619 0.33399999 -0.54799998 1
2.5999999 0.33500001 -0.54699999 1
2.589 0.336 -0.54799998 1
2.566 0.336 -0.546 1
2.5550001 0.338 -0.546 1
2.549 0.34 -0.54699999 1
2.527 0.34 -0.54500002 1
2.517 0.34200001 -0.546 1
2.506 0.34299999 -0.546 1
2.4890001 0.34400001 -0.54500002 1
2.4749999 0.34400001 -0.54400003 1
2.4660001 0.34599999 -0.54400003 1
2.4489999 0.34599999 -0.54299998 1
2.4449999 0.34900001 -0.54400003 1
2.427 0.34900001 -0.54299998 1
2.414 0.34900001 -0.542 1
2.405 0.35100001 -0.542 1
2.3929999 0.352 -0.542 1
2.385 0.35299999 -0.542 1
2.369 0.354 -0.54100001 1
2.3610001 0.35499999 -0.54100001 1
2.355 0.35699999 -0.54100001 1
2.339 0.35699999 -0.54000002 1
2.3329999 0.35800001 -0.54000002 1
2.3139999 0.35800001 -0.53799999 1
2.3099999 0.36000001 -0.53899997 1
2.2950001 0.36000001 -0.537 1
2.29 0.36199999 -0.53799999 1
2.276 0.36199999 -0.537 1
2.2720001 0.36300001 -0.537 1
2.263 0.36399999 -0.537 1
2.257 0.366 -0.537 1
2.2460001 0.36700001 -0.53600001 1
2.2390001 0.368 -0.53600001 1
2.227 0.368 -0.53500003 1
2.2219999 0.36899999 -0.53600001 1
2.211 0.37 -0.53399998 1
2.2079999 0.37200001 -0.53500003 1
2.2060001 0.373 -0.53600001 1
2.194 0.37400001 -0.53500003 1
2.1900001 0.375 -0.53500003 1
2.1819999 0.37599999 -0.53500003 1
2.1670001 0.37599999 -0.53299999 1
2.164 0.377 -0.53299999 1
2.151 0.377 -0.53100002 1
2.1470001 0.37799999 -0.53200001 1
2.1389999 0.37900001 -0.53100002 1
2.1400001 0.38100001 -0.53299999 1
2.135 0.382 -0.53200001 1
2.1270001 0.38299999 -0.53200001 1
2.1229999 0.384 -0.53200001 1
2.1199999 0.38600001 -0.53200001 1
2.112 0.38600001 -0.53100002 1
2.1099999 0.38800001 -0.53200001 1
2.1040001 0.38800001 -0.53100002 1
2.095 0.389 -0.52999997 1
2.096 0.391 -0.53200001 1
2.086 0.391 -0.52999997 1
2.0829999 0.39199999 -0.52999997 1
2.082 0.39399999 -0.53100002 1
2.0780001 0.39500001 -0.53100002 1
2.069 0.39500001 -0.52999997 1
2.0739999 0.398 -0.53200001 1
2.063 0.39700001 -0.52999997 1
2.0610001 0.39899999 -0.52999997 1
2.0580001 0.40000001 -0.52999997 1
2.056 0.40099999 -0.52999997 1
2.0510001 0.40200001 -0.52999997 1
2.049 0.403 -0.52999997 1
2.046 0.40400001 -0.52999997 1
2.04 0.405 -0.52899998 1
2.0380001 0.40599999 -0.52899998 1
2.036 0.40700001 -0.52899998 1
2.03 0.40700001 -0.52899998 1
2.0220001 0.40700001 -0.52700001 1
2.026 0.41 -0.52899998 1
2.029 0.412 -0.52999997 1
2.0309999 0.414 -0.53100002 1
2.0239999 0.414 -0.52999997 1
2.0190001 0.414 -0.52899998 1
2.017 0.41499999 -0.52899998 1
2.016 0.41600001 -0.52899998 1
2.0120001 0.417 -0.528 1
2.0090001 0.41800001 -0.528 1
2.0090001 0.419 -0.528 1
2.0050001 0.41999999 -0.528 1
2.007 0.421 -0.528 1
2.0079999 0.42300001 -0.52899998 1
2.0020001 0.42300001 -0.528 1
2 0.42399999 -0.52700001 1
2.003 0.426 -0.528 1
2.0090001 0.428 -0.52999997 1
2.0009999 0.428 -0.528 1
1.9960001 0.428 -0.52700001 1
1.995 0.42899999 -0.52700001 1
1.995 0.43000001 -0.52700001 2
1.994 0.43099999 -0.52700001 2
1.997 0.433 -0.528 2
1.993 0.433 -0.52700001 2
2 0.43599999 -0.52899998 1
2.0009999 0.43700001 -0.52899998 1
1.9960001 0.43700001 -0.528 2
1.994 0.43799999 -0.52700001 2
1.9960001 0.43900001 -0.52700001 2
1.9910001 0.43900001 -0.52600002 2
1.9960001 0.44100001 -0.52700001 2
1.995 0.442 -0.52700001 2
2 0.44400001 -0.528 1
1.999 0.44400001 -0.528 2
1.997 0.44499999 -0.52700001 1
1.998 0.44600001 -0.52700001 2
1.998 0.447 -0.52700001 2
1.998 0.44800001 -0.52700001 2
2.0009999 0.449 -0.52700001 1
1.999 0.44999999 -0.52600002 2
2.0020001 0.45100001 -0.52700001 2
2.0020001 0.45199999 -0.52600002 2
2.01 0.45500001 -0.528 1
2.0050001 0.454 -0.52600002 2
2.0090001 0.456 -0.52700001 1
2.0150001 0.458 -0.528 1
2.013 0.458 -0.52700001 1
2.0120001 0.45899999 -0.52600002 1
2.017 0.46000001 -0.52700001 1
2.013 0.46000001 -0.52600002 1
2.0190001 0.46200001 -0.52700001 1
2.0250001 0.46399999 -0.528 1
2.0209999 0.46399999 -0.52600002 1
2.0280001 0.46599999 -0.52700001 1
2.03 0.46700001 -0.52700001 1
2.0320001 0.46799999 -0.52700001 1
2.0309999 0.46799999 -0.52600002 1
2.0380001 0.47 -0.52700001 1
2.0369999 0.47 -0.52600002 1
2.0480001 0.47299999 -0.528 1
2.049 0.47400001 -0.528 1
2.05 0.47499999 -0.52700001 1
2.056 0.47600001 -0.528 1
2.059 0.477 -0.528 1
2.063 0.479 -0.528 1
2.0680001 0.47999999 -0.52899998 1
2.0669999 0.47999999 -0.52700001 1
2.0769999 0.48300001 -0.52899998 2
2.0710001 0.48199999 -0.52600002 1
2.0799999 0.484 -0.528 1
2.0769999 0.48300001 -0.52600002 1
2.0899999 0.48699999 -0.528 1
2.089 0.486 -0.52700001 1
2.099 0.48899999 -0.52899998 1
2.099 0.48899999 -0.528 1
2.1059999 0.491 -0.528 1
2.1099999 0.49200001 -0.528 1
2.1159999 0.493 -0.528 1
2.1210001 0.49399999 -0.528 1
2.131 0.49700001 -0.52999997 2
2.135 0.498 -0.52899998 2
2.148 0.50099999 -0.53100002 1
2.1530001 0.50199997 -0.53100002 2
2.1530001 0.50199997 -0.52999997 2
2.1600001 0.50300002 -0.52999997 2
2.164 0.50400001 -0.52999997 2
2.1700001 0.505 -0.52999997 2
2.1800001 0.50700003 -0.53100002 2
2.1849999 0.50800002 -0.53100002 2
2.194 0.50999999 -0.53200001 2
2.2 0.51099998 -0.53200001 1
2.204 0.51200002 -0.53100002 2
2.2130001 0.514 -0.53200001 2
2.224 0.51599997 -0.53299999 2
2.223 0.51499999 -0.53100002 2
2.2249999 0.51499999 -0.52999997 2
2.2390001 0.51800001 -0.53200001 2
2.247 0.51999998 -0.53200001 1
2.253 0.51999998 -0.53200001 1
2.263 0.52200001 -0.53200001 1
2.27 0.523 -0.53200001 1
2.277 0.52399999 -0.53200001 1
2.286 0.52600002 -0.53299999 1
2.2939999 0.52700001 -0.53299999 1
2.302 0.528 -0.53299999 1
2.316 0.53100002 -0.53399998 1
2.329 0.53299999 -0.53500003 1
2.3399999 0.53500003 -0.53600001 1
2.348 0.53600001 -0.53600001 1
2.3559999 0.537 -0.53600001 1
2.3659999 0.53899997 -0.53600001 1
2.378 0.54000002 -0.537 1
2.391 0.54299998 -0.53799999 1
2.402 0.54400003 -0.53799999 1
2.4130001 0.546 -0.53799999 1
2.4230001 0.54699999 -0.53799999 1
2.431 0.54799998 -0.53799999 1
2.4419999 0.54900002 -0.53799999 1
2.448 0.54900002 -0.537 1
2.477 0.55500001 -0.54100001 1
2.474 0.55299997 -0.53799999 1
2.4909999 0.55599999 -0.54000002 1
2.5009999 0.55699998 -0.54000002 1
2.5150001 0.55900002 -0.54000002 2
2.527 0.56 -0.54100001 2
2.5339999 0.56 -0.54000002 1
2.5569999 0.56400001 -0.542 2
2.563 0.56400001 -0.54100001 2
2.582 0.56699997 -0.542 2
2.592 0.56800002 -0.542 2
2.5999999 0.56800002 -0.54100001 2
2.615 0.56999999 -0.542 2
2.631 0.57200003 -0.542 2
2.6500001 0.574 -0.54400003 2
2.6670001 0.57599998 -0.54400003 2
2.6800001 0.57800001 -0.54400003 2
2.694 0.579 -0.54400003 1
2.7049999 0.57999998 -0.54400003 1
2.7279999 0.583 -0.546 2
2.7449999 0.58499998 -0.546 2
2.7609999 0.58600003 -0.546 2
2.78 0.588 -0.54699999 2
2.7820001 0.58700001 -0.54500002 1
2.885 0.60699999 -0.56199998 2
2.9809999 0.625 -0.57700002 1
2.993 0.625 -0.57599998 1
2.9630001 0.61699998 -0.56699997 2
2.8900001 0.59899998 -0.55000001 2
2.9159999 0.602 -0.55199999 2
2.941 0.60500002 -0.55299997 2
2.96 0.60699999 -0.55400002 2
2.974 0.60699999 -0.55299997 2
3.148 0.63999999 -0.58200002 2
3.1440001 0.63700002 -0.57800001 2
3.1129999 0.62800002 -0.56800002 1
3.2520001 0.65399998 -0.58999997 2
3.21 0.64300001 -0.579 1
3.2909999 0.65600002 -0.58999997 2
3.181 0.63099998 -0.56599998 1
3.2290001 0.63800001 -0.57099998 1
3.217 0.63300002 -0.565 1
3.2460001 0.63599998 -0.56699997 1
3.2969999 0.64300001 -0.57200003 2
3.3380001 0.648 -0.57499999 2
3.4030001 0.65700001 -0.58200002 2
3.4560001 0.66500002 -0.58700001 2
3.418 0.65399998 -0.57700002 2
3.5039999 0.667 -0.58700001 2
3.428 0.64899999 -0.56999999 2
3.4949999 0.65899998 -0.57800001 2
3.454 0.64700001 -0.56699997 2
3.516 0.65600002 -0.57300001 2
3.5439999 0.65700001 -0.57300001 2
3.575 0.65899998 -0.574 2
3.684 0.676 -0.58700001 2
3.7119999 0.67699999 -0.58700001 2
3.724 0.67500001 -0.58399999 3
3.75 0.676 -0.58399999 2
3.8 0.68099999 -0.58700001 2
3.845 0.685 -0.58899999 3
3.8039999 0.67400002 -0.57800001 2
3.892 0.685 -0.58700001 3
3.9189999 0.68599999 -0.58600003 2
3.925 0.68199998 -0.58200002 2
3.9719999 0.68599999 -0.58399999 2
4.0229998 0.69 -0.58700001 3
4.0970001 0.699 -0.59200001 4
4.1739998 0.70700002 -0.59799999 4
4.2150002 0.70899999 -0.59899998 3
4.165 0.69599998 -0.58700001 3
4.1620002 0.69 -0.58099997 3
4.3130002 0.70999998 -0.597 3
4.3119998 0.70499998 -0.59100002 3
4.3449998 0.70499998 -0.58999997 3
4.3909998 0.70700002 -0.59100002 4
4.4510002 0.71100003 -0.59399998 4
4.507 0.71499997 -0.59600002 3
4.5760002 0.72000003 -0.59899998 3
4.6170001 0.72100002 -0.59899998 3
4.6810002 0.72500002 -0.60100001 2
4.7319999 0.727 -0.60100001 4
4.8189998 0.73400003 -0.60699999 2
4.8779998 0.73699999 -0.60799998 2
4.9489999 0.741 -0.61000001 2
5.006 0.74299997 -0.611 2
5.0609999 0.745 -0.61199999 4
5.1599998 0.75199997 -0.61699998 3
5.224 0.755 -0.61799997 4
5.302 0.759 -0.62099999 3
5.3850002 0.76300001 -0.62400001 3
5.4809999 0.76899999 -0.62800002 3
5.5689998 0.77399999 -0.63099998 3
5.658 0.77899998 -0.634 3
5.7459998 0.78299999 -0.63599998 4
5.8569999 0.79000002 -0.64099997 4
5.961 0.796 -0.64499998 8
6.0139999 0.79400003 -0.64300001 12
6.092 0.796 -0.64399999 13
6.1849999 0.79900002 -0.64600003 14
6.27 0.801 -0.64700001 13
6.348 0.80199999 -0.64700001 10
6.4650002 0.80800003 -0.65100002 9
6.6409998 0.81999999 -0.66100001 5
6.7740002 0.82599998 -0.66500002 4
6.9060001 0.83200002 -0.67000002 4
7.0440001 0.83899999 -0.67400002 4
7.1750002 0.84299999 -0.67799997 3
7.3150001 0.84899998 -0.68199998 4
7.4359999 0.852 -0.68400002 4
7.5830002 0.85699999 -0.68800002 4
7.7480001 0.86400002 -0.69300002 4
7.915 0.87 -0.69800001 4
8.059 0.87300003 -0.70099998 4
8.2270002 0.87900001 -0.70599997 4
8.3970003 0.884 -0.70999998 5
8.5649996 0.889 -0.71399999 5
8.7279997 0.89200002 -0.71700001 4
8.9049997 0.89600003 -0.72000003 3
9.0649996 0.898 -0.722 4
9.309 0.90700001 -0.73000002 3
9.5170002 0.912 -0.73500001 4
9.7119999 0.91500002 -0.73799998 4
9.9130001 0.91799998 -0.74199998 4
10.22 0.93000001 -0.75199997 2
10.467 0.93599999 -0.75800002 3
10.724 0.94099998 -0.76300001 3
10.999 0.94700003 -0.76899999 3
11.25 0.94999999 -0.77399999 3
11.499 0.95200002 -0.77700001 2
11.844 0.96100003 -0.78600001 2
12.204 0.97000003 -0.796 3
12.56 0.977 -0.80400002 3
12.884 0.98100001 -0.81 3
13.288 0.98900002 -0.81900001 3
13.671 0.99400002 -0.82700002 3
14.114 1.002 -0.83700001 3
14.506 1.005 -0.84299999 3
14.988 1.0140001 -0.85399997 2
15.53 1.024 -0.86699998 2
16.143 1.036 -0.88200003 2
16.743999 1.045 -0.89600003 2
17.320999 1.052 -0.90700001 2
18.077 1.066 -0.926 2
17.983999 1.029 -0.90100002 1
18.552999 1.029 -0.90799999 1
0 0 0 1
20.818001 1.081 -0.972 3
21.841999 1.095 -0.99599999 5
0 0 0 1
24.674999 1.149 -1.069 1
0 0 0 5
20.461 0.88 -0.84200001 7
20.173 0.83099997 -0.80800003 5
20.122 0.792 -0.78299999 3
20.118 0.75700003 -0.76200002 4
20.099001 0.71899998 -0.73900002 4
19.917 0.676 -0.71100003 4
19.615 0.63 -0.67900002 3
18.948999 0.574 -0.63599998 3
18.6 0.52899998 -0.60399997 2
17.671 0.47 -0.55500001 4
17.493 0.433 -0.53200001 3
17.483999 0.40099999 -0.51300001 4
17.472 0.368 -0.49399999 3
17.49 0.336 -0.47600001 4
17.351999 0.301 -0.45500001 1
0 0 0 0
0 0 0 1
17.268999 0.20299999 -0.40000001 11
17.247 0.169 -0.382 56
17.236 0.13699999 -0.36399999 46
17.219 0.104 -0.347 1
17.16 0.071000002 -0.329 1
17.063 0.037999999 -0.31 2
17.07 0.0060000001 -0.29300001 2
17.007999 -0.026000001 -0.27500001 1
16.969 -0.057999998 -0.25799999 1
0 0 0 0
0 0 0 0
0 0 0 0
0 0 0 1
17.016001 -0.222 -0.178 1
17.017 -0.255 -0.162 1
17.080999 -0.289 -0.147 3
17.108999 -0.322 -0.132 13
17.122999 -0.35600001 -0.116 13
17.131001 -0.389 -0.101 8
17.177 -0.42300001 -0.086000003 5
17.106001 -0.454 -0.07 6
17.051001 -0.486 -0.055 9
17.037001 -0.51899999 -0.039999999 8
17.047001 -0.55299997 -0.025 7
17.056 -0.58700001 -0.0099999998 6
17.059 -0.62 0.0040000002 4
17.084 -0.65399998 0.017999999 1
17.200001 -0.69300002 0.033 1
0 0 0 0
0 0 0 0
0 0 0 0
0 0 0 0
0 0 0 1
17.639999 -0.91900003 0.121 1
17.809999 -0.963 0.13600001 1
18.018999 -1.01 0.152 1
18.08 -1.049 0.167 1
18.379 -1.102 0.184 2
18.391001 -1.1390001 0.198 1
18.638 -1.192 0.215 1
18.743 -1.2359999 0.23100001 2
0 0 0 0
0 0 0 0
0 0 0 0
0 0 0 0
0 0 0 0
0 0 0 7
0 0 0 18
34.183998 -2.799 0.62 27
33.965 -2.849 0.63999999 46
33.959999 -2.9159999 0.66299999 68
33.950001 -2.983 0.68599999 119
33.972 -3.053 0.70999998 116
33.983002 -3.122 0.73299998 119
33.995998 -3.1889999 0.755 115
34.007 -3.2590001 0.778 113
34.026001 -3.3280001 0.80000001 121
34.035 -3.395 0.82099998 118
34.027 -3.461 0.84200001 112
34.063 -3.533 0.86400002 109
0 0 0 19
17.756001 -1.9119999 0.472 23
17.677 -1.938 0.47999999 27
17.634001 -1.969 0.49000001 31
17.607 -2 0.49900001 35
17.576 -2.0309999 0.509 42
17.541 -2.062 0.51800001 37
17.518999 -2.0940001 0.52700001 46
17.511999 -2.128 0.53600001 34
17.493999 -2.1600001 0.54500002 32
17.483999 -2.1930001 0.55400002 36
17.462 -2.224 0.56300002 38
17.459 -2.2579999 0.57200003 40
17.461 -2.293 0.58099997 42
17.452999 -2.326 0.58999997 39
17.455 -2.3610001 0.59899998 58
17.461 -2.3959999 0.60799998 31
17.473 -2.4319999 0.61699998 51
17.475 -2.4660001 0.625 53
17.48 -2.5009999 0.634 46
17.483999 -2.536 0.64200002 53
17.51 -2.573 0.65100002 47
17.523001 -2.609 0.66000003 37
17.558001 -2.648 0.66900003 25
17.586 -2.6860001 0.67799997 33
17.622999 -2.7260001 0.68699998 27
17.693001 -2.7709999 0.69700003 20
17.783001 -2.819 0.708 10
0 0 0 2
34.882 -5.664 1.418 1
0 0 0 0
0 0 0 4
38.578999 -6.4829998 1.613 5
38.588001 -6.5580001 1.628 5
38.652 -6.6420002 1.6440001 5
38.634998 -6.7119999 1.658 4
0 0 0 0
0 0 0 20
34.879002 -6.256 1.533 28
34.928001 -6.3299999 1.5470001 2
35.005001 -6.4089999 1.561 2
35.056 -6.4840002 1.575 2
34.910999 -6.5219998 1.579 2
0 0 0 0
0 0 0 4
35.014999 -6.7360001 1.6160001 16
34.946999 -6.7880001 1.623 49
34.835999 -6.8299999 1.627 42
34.695999 -6.8660002 1.63 20
34.686001 -6.927 1.6390001 83
34.691002 -6.9910002 1.648 80
34.712002 -7.0580001 1.6569999 66
34.726002 -7.1240001 1.666 67
34.73 -7.1869998 1.675 84
34.734001 -7.2490001 1.683 81
34.744999 -7.3130002 1.691 85
34.762001 -7.3790002 1.7 76
34.77 -7.4419999 1.707 78
34.787998 -7.5079999 1.716 78
34.816002 -7.5749998 1.724 77
34.824001 -7.638 1.7309999 65
34.838001 -7.6999998 1.738 76
34.827 -7.7579999 1.744 79
34.855 -7.8249998 1.751 63
34.866001 -7.888 1.757 78
34.882 -7.9499998 1.7640001 76
34.889 -8.0109997 1.7690001 76
34.908001 -8.0740004 1.775 79
34.905998 -8.1330004 1.779 78
34.923 -8.1949997 1.785 76
34.948002 -8.2600002 1.791 37
35.005001 -8.3319998 1.798 73
35.009998 -8.3909998 1.802 99
35.013 -8.4499998 1.806 96
35.039001 -8.5129995 1.811 70
0 0 0 17
31.43 -7.7399998 1.631 21
31.329 -7.7649999 1.628 18
31.200001 -7.7839999 1.624 20
31.101999 -7.809 1.6210001 32
31.101999 -7.8579998 1.623 44
31.113001 -7.9109998 1.626 46
31.115999 -7.96 1.627 48
31.125999 -8.0109997 1.63 46
31.142 -8.0640001 1.632 46
31.138 -8.1110001 1.633 39
31.155001 -8.1630001 1.635 46
31.157 -8.2110004 1.635 46
31.159 -8.2589998 1.636 47
31.158001 -8.3059998 1.636 45
31.18 -8.3579998 1.638 47
31.198999 -8.4099998 1.6390001 40
31.200001 -8.4560003 1.6390001 4
0 0 0 75
35.249001 -9.658 1.851 64
35.257999 -9.7119999 1.851 64
35.280998 -9.7690001 1.852 74
35.300999 -9.8249998 1.852 52
35.297001 -9.8739996 1.85 51
0 0 0 1
30.993 -8.757 1.622 1
30.927 -8.7819996 1.617 1
0 0 0 8
35.341999 -10.133 1.8430001 7
35.374001 -10.191 1.842 6
35.387001 -10.243 1.84 14
35.388 -10.29 1.8380001 18
35.396 -10.34 1.836 12
35.409 -10.39 1.8329999 9
35.417999 -10.439 1.83 12
35.422001 -10.486 1.8279999 15
35.436001 -10.536 1.825 22
35.431999 -10.58 1.821 23
35.439999 -10.628 1.817 23
35.473999 -10.683 1.8150001 21
0 0 0 1
28.385 -8.618 1.4450001 1
28.302999 -8.6280003 1.438 1
27.861 -8.5270004 1.4119999 2
27.443001 -8.4320002 1.386 12
27.334 -8.4320002 1.377 23
27.264999 -8.4420004 1.369 29
27.240999 -8.467 1.364 32
27.191999 -8.4829998 1.357 36
27.164 -8.5050001 1.351 38
27.124001 -8.5229998 1.345 40
27.101 -8.5459995 1.339 43
27.084999 -8.5710001 1.334 43
27.063 -8.5930004 1.3279999 46
27.025999 -8.6110001 1.321 48
27.018999 -8.6370001 1.3150001 52
27.007999 -8.6630001 1.3099999 57
27.006001 -8.6899996 1.304 46
26.983999 -8.71 1.298 63
26.961 -8.7299995 1.2920001 62
26.962 -8.7580004 1.286 63
26.962 -8.7849998 1.281 61
26.964001 -8.8120003 1.275 47
26.945999 -8.8319998 1.267 58
26.933001 -8.8540001 1.261 51
26.945 -8.8830004 1.255 48
26.941999 -8.9069996 1.249 46
26.948 -8.9329996 1.242 46
26.941 -8.9549999 1.2359999 43
26.958 -8.9849997 1.23 41
26.962 -9.0089998 1.224 42
0 0 0 1
10.052 -3.3759999 0.45100001 3
10.003 -3.368 0.44600001 9
9.96 -3.362 0.44100001 12
9.9490004 -3.3659999 0.43900001 17
9.9209995 -3.3640001 0.435 21
9.9119997 -3.369 0.43200001 12
9.882 -3.3659999 0.42699999 23
9.8559999 -3.365 0.42399999 24
9.8540001 -3.3710001 0.421 18
9.8330002 -3.3710001 0.417 16
9.835 -3.3789999 0.414 16
9.816 -3.3789999 0.41100001 15
9.7989998 -3.3800001 0.40700001 15
9.7919998 -3.3840001 0.40400001 17
9.7919998 -3.391 0.40099999 17
9.7740002 -3.391 0.398 16
9.7720003 -3.3959999 0.39399999 17
9.7690001 -3.401 0.391 18
9.7469997 -3.3989999 0.38699999 18
9.7410002 -3.4030001 0.384 25
9.7410002 -3.4089999 0.38100001 18
9.7340002 -3.4119999 0.37799999 26
9.7259998 -3.414 0.37400001 28
9.7089996 -3.4130001 0.37 28
9.7110004 -3.4189999 0.36700001 28
9.7030001 -3.421 0.36399999 28
9.6899996 -3.421 0.36000001 28
9.6949997 -3.428 0.35699999 30
9.6829996 -3.428 0.35299999 29
9.6859999 -3.4330001 0.34999999 29
9.6759996 -3.434 0.34599999 29
9.6739998 -3.437 0.34299999 29
9.677 -3.4419999 0.33899999 29
9.6780005 -3.4460001 0.336 30
9.6680002 -3.4460001 0.33199999 30
9.6599998 -3.4460001 0.329 30
9.6599998 -3.45 0.32499999 31
9.6599998 -3.4530001 0.32100001 31
9.6450005 -3.45 0.31799999 31
9.6459999 -3.454 0.31400001 31
9.651 -3.4579999 0.31099999 32
9.658 -3.4630001 0.30700001 31
9.6389999 -3.4590001 0.303 31
9.6499996 -3.4649999 0.30000001 31
9.6490002 -3.467 0.296 30
9.6400003 -3.4660001 0.292 30
9.6289997 -3.464 0.28799999 31
9.6350002 -3.4679999 0.285 31
9.6339998 -3.4690001 0.28099999 31
9.625 -3.467 0.27700001 31
9.632 -3.471 0.27399999 31
9.6199999 -3.4679999 0.27000001 31
9.6190004 -3.4679999 0.266 31
9.6289997 -3.473 0.26199999 31
9.6230001 -3.4719999 0.25799999 31
9.6309996 -3.4749999 0.255 31
9.625 -3.473 0.25099999 31
9.6230001 -3.473 0.24699999 31
9.625 -3.474 0.243 31
9.625 -3.474 0.23899999 31
9.6219997 -3.473 0.235 31
9.6230001 -3.473 0.23100001 31
9.6300001 -3.4749999 0.228 32
9.625 -3.4719999 0.223 32
9.6190004 -3.47 0.219 32
9.6210003 -3.4690001 0.215 32
9.6199999 -3.4679999 0.212 32
9.6269999 -3.47 0.208 33
9.6260004 -3.4679999 0.204 32
9.6190004 -3.464 0.2 32
9.632 -3.467 0.19599999 32
9.6289997 -3.464 0.192 33
9.6409998 -3.467 0.18799999 32
9.6339998 -3.4619999 0.184 32
9.6300001 -3.4590001 0.18000001 31
9.6429996 -3.461 0.176 31
9.6339998 -3.4560001 0.17200001 31
9.6429996 -3.4560001 0.168 32
9.6379995 -3.4519999 0.164 32
9.6520004 -3.454 0.16 32
9.6540003 -3.4519999 0.156 33
9.6549997 -3.4489999 0.152 32
9.6459999 -3.4430001 0.148 33
9.6470003 -3.4389999 0.14399999 32
9.658 -3.4400001 0.14 32
9.6730003 -3.441 0.13600001 31
9.6739998 -3.438 0.132 30
9.6680002 -3.4319999 0.12800001 30
9.6750002 -3.4300001 0.123 30
9.6750002 -3.4260001 0.12 30
9.677 -3.4230001 0.115 30
9.6870003 -3.4219999 0.111 30
9.677 -3.4130001 0.107 29
9.7040005 -3.418 0.103 29
9.6929998 -3.4089999 0.098999999 29
9.7119999 -3.411 0.094999999 29
9.7089996 -3.404 0.090999998 28
9.7220001 -3.4030001 0.086999997 28
9.7259998 -3.3989999 0.082999997 28
9.7299995 -3.395 0.079000004 28
9.7259998 -3.388 0.074000001 27
9.7510004 -3.3900001 0.07 26
9.7410002 -3.381 0.066 17
9.7580004 -3.381 0.061999999 16
9.7720003 -3.3789999 0.057999998 19
9.7790003 -3.375 0.054000001 24
9.7860003 -3.3710001 0.050000001 24
9.8050003 -3.3710001 0.045000002 14
9.8269997 -3.3710001 0.041999999 14
9.8330002 -3.3659999 0.037999999 13
9.8570004 -3.3670001 0.033 15
9.8549995 -3.359 0.028999999 23
9.8769999 -3.359 0.025 19
9.8839998 -3.3540001 0.021 18
9.9130001 -3.3559999 0.017000001 15
9.9300003 -3.3540001 0.013 13
9.9759998 -3.3610001 0.0089999996 12
10.009 -3.3640001 0.0049999999 8
10.04 -3.3659999 0 3
10.12 -3.3840001 -0.003 1
0 0 0 38
26.931 -8.9580002 -0.030999999 39
26.926001 -8.9309998 -0.041999999 40
26.916 -8.9040003 -0.052999999 42
26.91 -8.8769999 -0.064000003 44
26.917999 -8.8549995 -0.075000003 49
26.913 -8.8280001 -0.085000001 52
26.906 -8.7989998 -0.097000003 50
26.905001 -8.7729998 -0.107 53
26.915001 -8.7480001 -0.118 58
26.922001 -8.724 -0.12899999 61
26.912001 -8.6929998 -0.14 64
26.933001 -8.6719999 -0.15000001 62
26.945 -8.6479998 -0.161 56
26.969 -8.6269999 -0.17200001 50
26.966999 -8.5979996 -0.184 50
26.981001 -8.573 -0.19400001 48
27.024 -8.5570002 -0.204 45
27.028999 -8.5290003 -0.215 42
27.056 -8.507 -0.226 39
27.086 -8.4860001 -0.236 37
27.108 -8.4619999 -0.24699999 31
27.139 -8.4399996 -0.25799999 33
27.191 -8.4239998 -0.26800001 32
27.233 -8.4060001 -0.27900001 25
27.280001 -8.3879995 -0.28999999 24
27.355 -8.3780003 -0.301 14
28.009001 -8.5439997 -0.31799999 35
28.120001 -8.5430002 -0.329 41
28.117001 -8.507 -0.34 51
28.107 -8.4689999 -0.34999999 53
28.101 -8.4309998 -0.36000001 57
28.084999 -8.3909998 -0.37 54
28.083 -8.3540001 -0.37900001 50
28.072001 -8.3149996 -0.389 54
28.075001 -8.2790003 -0.39899999 34
0 0 0 1
6.7470002 -1.971 -0.1 2
6.7470002 -1.962 -0.102 2
6.743 -1.952 -0.105 3
6.744 -1.943 -0.107 3
6.744 -1.934 -0.109 3
6.7389998 -1.923 -0.111 3
6.7329998 -1.9119999 -0.113 3
6.7150002 -1.898 -0.115 4
6.678 -1.878 -0.117 8
6.6849999 -1.87 -0.119 12
6.697 -1.864 -0.121 7
6.757 -1.8710001 -0.124 1
6.7859998 -1.869 -0.127 1
6.8039999 -1.863 -0.12899999 1
0 0 0 25
27.931 -7.5679998 -0.55000001 48
27.923 -7.5250001 -0.55699998 45
27.903 -7.4770002 -0.565 46
27.903999 -7.434 -0.57300001 48
27.9 -7.3899999 -0.58099997 51
27.889999 -7.3439999 -0.58899999 51
27.872 -7.296 -0.59600002 51
27.864 -7.2509999 -0.60299999 45
27.844 -7.2020001 -0.61000001 50
0 0 0 6
12.587 -3.2160001 -0.28200001 13
12.572 -3.1919999 -0.285 21
12.507 -3.155 -0.287 26
12.52 -3.138 -0.28999999 25
12.535 -3.1210001 -0.29300001 31
12.51 -3.0940001 -0.296 25
12.477 -3.066 -0.29800001 37
12.451 -3.039 -0.30000001 29
12.483 -3.026 -0.30399999 31
12.49 -3.007 -0.30599999 41
12.453 -2.977 -0.308 31
12.449 -2.9549999 -0.31099999 27
12.433 -2.9300001 -0.31299999 27
12.447 -2.9119999 -0.31600001 32
12.417 -2.8840001 -0.317 27
12.418 -2.8629999 -0.31999999 25
12.412 -2.8399999 -0.322 26
12.448 -2.826 -0.32499999 30
12.417 -2.7980001 -0.32699999 21
12.476 -2.789 -0.33000001 11
12.543 -2.7820001 -0.33399999 10
12.611 -2.7750001 -0.338 13
12.665 -2.7639999 -0.34099999 10
12.681 -2.7449999 -0.34400001 14
12.774 -2.7420001 -0.34799999 10
12.799 -2.7249999 -0.35100001 9
12.876 -2.7179999 -0.35499999 11
12.95 -2.71 -0.35800001 8
12.988 -2.6949999 -0.361 15
13.058 -2.6860001 -0.36500001 13
13.142 -2.6789999 -0.368 9
13.205 -2.6670001 -0.37200001 9
13.257 -2.6530001 -0.375 9
13.324 -2.642 -0.37799999 6
0 0 0 42
30.141001 -5.8639998 -0.861 43
30.129 -5.8060002 -0.86299998 43
30.121 -5.7470002 -0.86500001 43
30.108999 -5.6880002 -0.86699998 43
30.080999 -5.6259999 -0.86900002 39
30.083 -5.5689998 -0.87099999 39
30.073999 -5.5089998 -0.87099999 29
0 0 0 48
15.065 -2.7019999 -0.43799999 45
15.07 -2.674 -0.43900001 45
15.07 -2.645 -0.43900001 41
15.063 -2.6140001 -0.43900001 49
15.053 -2.5840001 -0.43900001 24
15.049 -2.5539999 -0.43900001 43
15.042 -2.523 -0.43900001 42
15.044 -2.494 -0.43900001 26
15.026 -2.4619999 -0.43900001 45
15.029 -2.4330001 -0.43900001 25
15.022 -2.4030001 -0.43799999 24
15.015 -2.372 -0.43799999 26
15.011 -2.3410001 -0.43700001 34
15.095 -2.325 -0.43900001 8
15.192 -2.309 -0.44100001 9
15.276 -2.2920001 -0.44299999 10
15.366 -2.2750001 -0.44499999 8
15.451 -2.257 -0.44600001 7
15.539 -2.2390001 -0.44800001 7
15.642 -2.223 -0.44999999 7
15.742 -2.2049999 -0.45100001 7
15.853 -2.1889999 -0.45300001 9
16.089001 -2.1889999 -0.45899999 10
0 0 0 58
17.422001 -2.299 -0.493 41
17.429001 -2.2650001 -0.491 39
17.424 -2.2290001 -0.48899999 62
17.431999 -2.1949999 -0.48699999 56
17.455 -2.1619999 -0.48500001 59
17.471001 -2.128 -0.48300001 33
17.479 -2.0940001 -0.48100001 46
17.496 -2.0599999 -0.479 45
17.525 -2.027 -0.477 43
17.552999 -1.994 -0.47499999 38
17.6 -1.964 -0.47299999 38
17.636999 -1.932 -0.47099999 34
17.688 -1.901 -0.46900001 24
17.778999 -1.874 -0.46799999 18
17.91 -1.852 -0.46799999 2
0 0 0 17
33.908001 -3.365 -0.87199998 14
33.766998 -3.2820001 -0.86199999 14
33.804001 -3.2149999 -0.85500002 13
33.502998 -3.118 -0.83999997 23
33.334999 -3.0320001 -0.82700002 69
0 0 0 28
19.965 -1.733 -0.486 58
19.975 -1.693 -0.48100001 46
19.997 -1.653 -0.47600001 24
0 0 0 2
17.549999 -1.378 -0.40799999 28
17.497999 -1.3380001 -0.40200001 63
17.35 -1.29 -0.39300001 1
17.294001 -1.25 -0.38699999 1
17.176001 -1.206 -0.37900001 1
17.177999 -1.171 -0.37400001 1
17.141001 -1.132 -0.368 1
17.115 -1.095 -0.361 1
17.069 -1.056 -0.35499999 7
17.09 -1.022 -0.34900001 1
17.089001 -0.986 -0.34299999 1
17.18 -0.95599997 -0.33899999 3
17.173 -0.92000002 -0.333 25
17.028999 -0.87699997 -0.324 160
16.971001 -0.838 -0.31600001 161
16.987 -0.80299997 -0.31 159
16.986 -0.76800001 -0.30399999 156
17.013 -0.73400003 -0.29699999 154
17.02 -0.699 -0.29100001 153
17.018 -0.66299999 -0.28400001 152
16.973 -0.62599999 -0.27599999 152
16.945 -0.58899999 -0.26800001 150
16.959999 -0.55500001 -0.26100001 42
16.955 -0.51899999 -0.25400001 43
16.979 -0.48500001 -0.24699999 16
17.097 -0.45300001 -0.241 9
17.087999 -0.41800001 -0.233 12
17.062 -0.382 -0.22499999 13
17.072001 -0.347 -0.21699999 8
17.035999 -0.31 -0.208 1
16.966999 -0.27399999 -0.199 1
16.973 -0.23899999 -0.191 1
17.038 -0.205 -0.184 1
17.066 -0.17 -0.175 1
0 0 0 0
0 0 0 1
16.993999 -0.064000003 -0.148 1
0 0 0 0
0 0 0 0
0 0 0 0
0 0 0 0
0 0 0 1
17.142 0.145 -0.093999997 1
0 0 0 0
0 0 0 0
0 0 0 0
0 0 0 0
0 0 0 0
0 0 0 0
0 0 0 0
0 0 0 1
18.546 0.49599999 -0.003 1
0 0 0 0
0 0 0 1
19.115999 0.62699997 0.032000002 1
0 0 0 0
0 0 0 0
0 0 0 1
0 0 0 3
37.035999 1.585 0.183 73
36.949001 1.654 0.206 71
36.736 1.7180001 0.23 66
36.938 1.799 0.25600001 36
37.5 1.9 0.28600001 6
38.188 2.0109999 0.317 8
38.673 2.112 0.34799999 7
38.766998 2.1949999 0.377 49
38.777 2.2709999 0.40400001 7
40.952 2.4790001 0.456 84
40.967999 2.5580001 0.486 54
41.167999 2.652 0.51800001 79
41.323002 2.7420001 0.55000001 35
41.778999 2.8529999 0.58700001 57
41.477001 2.9130001 0.61299998 8
0 0 0 33
45.223999 3.3499999 0.73699999 62
45.32 3.444 0.773 60
45.511002 3.5450001 0.81 7
0 0 0 98
48.973 4 0.94700003 99
49.487999 4.1360002 0.995 16
49.674999 4.2449999 1.0369999 24
49.59 4.3299999 1.074 40
0 0 0 0
0 0 0 0
0 0 0 0
0 0 0 0
0 0 0 88
57.189999 5.631 1.512 6
56.188 5.6360002 1.5319999 5
0 0 0 0
0 0 0 0
0 0 0 0
0 0 0 7
59.02 6.4530001 1.851 16
60.179001 6.6880002 1.938 30
61.380001 6.9320002 2.029 30
62.506001 7.1690001 2.118 27
0 0 0 43
66.440002 7.8569999 2.3640001 44
68.140999 8.1750002 2.4820001 52
0 0 0 0
0 0 0 28
80.992996 10.147 3.1630001 34
0 0 0 0
0 0 0 0
0 0 0 12
80.039001 10.578 3.405 11
0 0 0 0
0 0 0 0
0 0 0 0
0 0 0 0
0 0 0 0
0 0 0 0
0 0 0 0
0 0 0 35
117.5 17.299999 5.9450002 44
117.403 17.478001 6.0469999 65
117.337 17.66 6.151 73
117.186 17.825001 6.2470002 71
117.126 18.004999 6.3509998 61
0 0 0 32
0 0 0 0
0 0 0 24
0 0 0 0
0 0 0 17
87.306 14.252 5.2179999 40
0 0 0 0
0 0 0 0
0 0 0 20
87.026001 14.741 5.5240002 25
86.646004 14.806 5.5809999 23
86.611 14.931 5.6609998 18
86.091003 14.969 5.7049999 17
85.939003 15.074 5.7779999 18
85.921997 15.199 5.8569999 22
86.025002 15.343 5.9460001 17
87.616997 15.755 6.138 18
87.407997 15.845 6.2059999 24
87.290001 15.95 6.2800002 30
87.155998 16.049 6.3509998 26
86.973 16.139 6.4200001 26
86.922997 16.253 6.4990001 26
86.621002 16.315001 6.5570002 20
86.675003 16.445 6.6409998 24
86.821999 16.593 6.7340002 25
86.837997 16.712 6.816 32
86.864998 16.836 6.901 33
86.726997 16.927 6.9720001 32
86.642998 17.028 7.0479999 30
86.457001 17.107 7.1149998 25
86.289001 17.187 7.1810002 23
0 0 0 25
113.886 22.983999 9.6929998 28
113.789 23.112 9.7930002 37
113.704 23.243999 9.8920002 33
113.63 23.374001 9.9940004 39
113.711 23.531 10.107 39
113.659 23.663 10.21 38
113.662 23.806 10.317 52
113.585 23.93 10.418 43
113.404 24.031 10.508 33
113.305 24.148001 10.606 32
0 0 0 0
0 0 0 0
0 0 0 0
0 0 0 0
0 0 0 0
0 0 0 0
0 0 0 29
123.204 27.412001 12.452 25
123.101 27.525999 12.553 36
123.126 27.667999 12.67 44
123.173 27.811001 12.79 27
0 0 0 0
0 0 0 0
0 0 0 0
0 0 0 0
0 0 0 0
0 0 0 33
112.791 26.298 12.432 45
112.759 26.405001 12.531 54
112.763 26.518 12.631 63
112.721 26.618999 12.728 82
112.689 26.719 12.828 77
112.632 26.816999 12.922 78
112.674 26.934 13.027 63
112.68 27.042 13.129 66
0 0 0 5
46.213001 11.176 5.467 6
46.187 11.212 5.5050001 6
46.196999 11.255 5.5469999 7
0 0 0 64
112.543 27.618999 13.707 71
112.52 27.709999 13.803 66
112.448 27.788 13.892 57
112.446 27.885 13.991 54
112.477 27.982 14.09 47
112.473 28.073 14.186 37
112.563 28.188999 14.292 28
112.461 28.253 14.375 23
0 0 0 0
0 0 0 0
0 0 0 25
112.635 28.639999 14.78 23
112.596 28.712 14.866 24
112.57 28.787001 14.956 30
