# .PCD v0.7 - Point Cloud Data file format
VERSION 0.7
FIELDS x y z intensity
SIZE 4 4 4 4
TYPE F F F F
COUNT 1 1 1 1
WIDTH 1676
HEIGHT 1
VIEWPOINT 0 0 0 1 0 0 0
POINTS 1676
DATA ascii
1.697 -0.184 -0.53500003 1
1.702 -0.184 -0.53500003 1
1.705 -0.183 -0.53500003 1
1.7079999 -0.182 -0.53500003 1
1.726 -0.183 -0.53899997 1
1.733 -0.182 -0.54000002 1
1.732 -0.18099999 -0.53799999 1
1.743 -0.18099999 -0.54000002 1
1.742 -0.18000001 -0.53799999 1
1.7460001 -0.17900001 -0.53799999 1
1.755 -0.17900001 -0.53899997 1
1.758 -0.178 -0.53799999 1
1.766 -0.178 -0.53899997 1
1.773 -0.177 -0.53899997 1
1.777 -0.176 -0.53899997 1
1.7819999 -0.175 -0.53899997 1
1.7869999 -0.175 -0.53899997 1
1.795 -0.17399999 -0.53899997 1
1.799 -0.17299999 -0.53899997 1
1.811 -0.17299999 -0.54000002 1
1.808 -0.17200001 -0.53799999 1
1.817 -0.171 -0.53899997 1
1.83 -0.171 -0.54000002 1
1.831 -0.17 -0.53899997 1
1.841 -0.17 -0.54000002 1
1.852 -0.17 -0.54100001 1
1.854 -0.169 -0.54000002 1
1.86 -0.168 -0.53899997 1
1.875 -0.168 -0.54100001 1
1.881 -0.167 -0.54100001 1
1.888 -0.16599999 -0.54100001 1
1.902 -0.16599999 -0.54299998 1
1.908 -0.16500001 -0.542 1
1.9119999 -0.16500001 -0.54100001 1
1.925 -0.164 -0.542 1
1.941 -0.164 -0.54500002 1
1.9450001 -0.163 -0.54400003 1
1.957 -0.163 -0.54500002 1
1.966 -0.162 -0.54400003 1
1.9680001 -0.161 -0.542 1
1.987 -0.161 -0.54500002 1
1.995 -0.16 -0.54500002 1
2.0079999 -0.16 -0.546 1
2.0220001 -0.16 -0.54699999 1
2.0280001 -0.15899999 -0.546 1
2.0380001 -0.15800001 -0.546 1
2.05 -0.15800001 -0.54699999 1
2.0550001 -0.15700001 -0.54500002 1
2.0869999 -0.15800001 -0.551 1
2.098 -0.15700001 -0.551 1
2.112 -0.15700001 -0.55199999 1
2.122 -0.156 -0.55199999 1
2.135 -0.155 -0.55199999 1
2.141 -0.154 -0.551 1
2.154 -0.154 -0.551 1
2.1700001 -0.153 -0.55199999 1
2.181 -0.153 -0.55199999 1
2.1960001 -0.152 -0.55199999 1
2.2090001 -0.152 -0.55199999 1
2.224 -0.15099999 -0.55299997 1
2.2349999 -0.15000001 -0.55199999 1
2.2609999 -0.15000001 -0.55500001 1
2.276 -0.15000001 -0.55599999 1
2.2920001 -0.149 -0.55599999 1
2.302 -0.148 -0.55500001 1
2.3269999 -0.149 -0.55800003 1
2.348 -0.148 -0.55900002 1
2.3610001 -0.147 -0.55800003 1
2.3829999 -0.147 -0.56 1
2.404 -0.147 -0.56099999 1
2.4189999 -0.146 -0.56099999 1
2.4360001 -0.146 -0.56099999 1
2.4660001 -0.146 -0.56400001 1
2.4790001 -0.145 -0.56300002 1
2.5009999 -0.145 -0.56400001 1
2.5179999 -0.14399999 -0.56400001 1
2.543 -0.14399999 -0.565 1
2.5610001 -0.14300001 -0.565 1
2.5869999 -0.14300001 -0.56699997 1
2.612 -0.142 -0.56800002 1
2.7219999 -0.147 -0.58700001 1
2.7390001 -0.146 -0.58600003 1
2.7060001 -0.142 -0.57499999 1
2.688 -0.14 -0.56599998 1
2.7650001 -0.142 -0.57800001 1
2.8199999 -0.14300001 -0.58499998 1
2.813 -0.141 -0.57800001 1
2.8989999 -0.14300001 -0.59100002 1
2.9059999 -0.142 -0.58700001 1
2.8989999 -0.14 -0.58099997 1
2.904 -0.138 -0.57700002 1
3.049 -0.14300001 -0.60000002 1
3.0239999 -0.14 -0.58999997 1
3.1110001 -0.142 -0.60100001 2
3.0999999 -0.14 -0.59399998 1
3.138 -0.14 -0.59600002 1
3.1389999 -0.138 -0.58999997 1
3.22 -0.14 -0.60000002 1
3.2149999 -0.138 -0.59299999 1
3.2539999 -0.13699999 -0.59399998 1
3.391 -0.141 -0.61299998 2
3.302 -0.13600001 -0.59100002 1
3.4619999 -0.14 -0.61299998 2
3.378 -0.13500001 -0.59200001 1
3.421 -0.13500001 -0.59399998 1
3.4849999 -0.13500001 -0.59799999 2
3.5050001 -0.134 -0.59500003 2
3.526 -0.133 -0.59200001 1
3.615 -0.134 -0.60000002 2
3.688 -0.13500001 -0.60500002 3
3.7479999 -0.13500001 -0.60799998 3
3.7780001 -0.134 -0.60600001 3
3.927 -0.138 -0.62199998 2
3.9419999 -0.13600001 -0.61699998 2
3.974 -0.13500001 -0.61400002 2
4.026 -0.13500001 -0.61500001 2
4.0580001 -0.134 -0.61199999 2
4.1350002 -0.134 -0.61500001 2
4.1820002 -0.134 -0.61400002 2
4.2880001 -0.13500001 -0.62099999 2
4.4159999 -0.13699999 -0.63099998 3
4.4460001 -0.13600001 -0.62699997 3
4.506 -0.13500001 -0.62699997 4
4.605 -0.13600001 -0.63099998 2
4.7010002 -0.13699999 -0.63499999 3
4.7989998 -0.13699999 -0.639 3
4.8969998 -0.138 -0.64200002 4
4.9959998 -0.139 -0.64499998 4
5.0910001 -0.139 -0.64700001 3
5.198 -0.14 -0.65100002 4
5.3169999 -0.14 -0.65499997 3
5.4349999 -0.141 -0.65799999 3
5.566 -0.142 -0.66299999 4
5.7199998 -0.14399999 -0.67000002 3
5.8790002 -0.145 -0.676 4
6.0300002 -0.147 -0.68199998 4
6.1799998 -0.148 -0.68599999 4
6.329 -0.149 -0.69 4
6.5240002 -0.15099999 -0.69800001 4
6.7030001 -0.153 -0.70300001 4
6.9229999 -0.155 -0.71200001 5
7.1360002 -0.15700001 -0.71899998 5
7.3439999 -0.15899999 -0.72500002 5
7.651 -0.163 -0.74000001 9
7.8569999 -0.16500001 -0.74299997 14
8.04 -0.16599999 -0.74400002 14
8.2959995 -0.168 -0.75 15
8.6049995 -0.17200001 -0.76099998 15
8.9069996 -0.175 -0.76800001 9
9.2220001 -0.178 -0.77700001 5
9.5830002 -0.182 -0.787 5
9.9779997 -0.186 -0.79799998 4
10.37 -0.19 -0.80800003 4
10.781 -0.19499999 -0.81800002 4
11.28 -0.20100001 -0.83200002 3
11.833 -0.207 -0.847 3
12.317 -0.212 -0.85699999 3
12.995 -0.22 -0.87699997 3
0 0 0 5
14.442 -0.23800001 -0.91399997 4
15.112 -0.245 -0.92400002 4
15.473 -0.24699999 -0.91299999 2
0 0 0 2
0 0 0 2
0 0 0 2
0 0 0 1
0 0 0 0
0 0 0 10
0 0 0 1
17.301001 -0.24699999 -0.727 3
17.17 -0.242 -0.685 3
17.061001 -0.237 -0.64399999 3
17.035 -0.234 -0.60699999 3
17.000999 -0.23100001 -0.56999999 6
17.006001 -0.228 -0.53399998 5
17.039 -0.226 -0.498 2
17.049 -0.22400001 -0.46200001 1
16.993999 -0.221 -0.42399999 8
17.011 -0.219 -0.38699999 11
17.014 -0.21699999 -0.35100001 3
17.003 -0.215 -0.31400001 1
17.063 -0.214 -0.27900001 1
17.091 -0.212 -0.243 1
17.1 -0.211 -0.207 1
17.094999 -0.20900001 -0.17 1
17.096001 -0.208 -0.133 1
17.184999 -0.208 -0.097999997 2
17.202999 -0.207 -0.061000001 3
17.188999 -0.206 -0.024 2
17.266001 -0.206 0.012 1
0 0 0 0
0 0 0 1
17.808001 -0.211 0.126 1
18.138 -0.214 0.168 1
18.405001 -0.21699999 0.20900001 1
0 0 0 0
0 0 0 0
0 0 0 0
0 0 0 0
0 0 0 0
0 0 0 0
0 0 0 0
0 0 0 0
0 0 0 0
0 0 0 0
0 0 0 0
0 0 0 0
0 0 0 0
0 0 0 0
0 0 0 0
0 0 0 0
0 0 0 25
0 0 0 2
33.855 -0.43399999 1.753 9
33.845001 -0.43799999 1.823 17
33.833 -0.442 1.893 26
33.813999 -0.447 1.9630001 23
33.791 -0.45100001 2.0320001 18
33.817001 -0.456 2.105 18
33.900002 -0.463 2.181 16
33.819 -0.46700001 2.2460001 18
33.676998 -0.47099999 2.306 26
33.638 -0.47600001 2.3729999 53
33.618 -0.48199999 2.4419999 64
33.626999 -0.48899999 2.513 62
33.629002 -0.495 2.5829999 61
33.636002 -0.50199997 2.6530001 60
33.630001 -0.509 2.7219999 60
33.646 -0.51700002 2.793 67
33.638 -0.52399999 2.8610001 66
33.639 -0.53200001 2.9300001 65
33.651001 -0.54000002 3 65
33.66 -0.54799998 3.0699999 62
33.695 -0.55699998 3.142 58
33.689999 -0.565 3.21 58
33.702999 -0.574 3.28 33
33.743 -0.583 3.352 9
0 0 0 8
0 0 0 0
0 0 0 4
25.974001 -0.47799999 2.79 7
25.955 -0.48500001 2.8399999 9
25.945 -0.493 2.8900001 14
25.926001 -0.5 2.9400001 18
25.907 -0.50800002 2.9890001 20
25.889 -0.51599997 3.0369999 21
25.856001 -0.523 3.085 24
25.851 -0.53200001 3.1340001 24
25.837 -0.54000002 3.184 26
25.829 -0.54900002 3.233 28
25.813999 -0.55699998 3.2820001 29
25.812 -0.56599998 3.332 31
25.802999 -0.57499999 3.381 31
25.790001 -0.58399999 3.4300001 32
25.782 -0.59399998 3.4779999 32
25.768999 -0.60299999 3.526 33
25.753 -0.61199999 3.573 33
25.768 -0.62199998 3.6240001 35
25.747999 -0.63200003 3.671 33
25.74 -0.64099997 3.7179999 34
25.736 -0.65200001 3.766 38
25.732 -0.662 3.8139999 38
25.731001 -0.67199999 3.862 39
25.712999 -0.68300003 3.9070001 38
25.714001 -0.69300002 3.9549999 40
25.684 -0.70300001 3.9990001 40
25.705 -0.71399999 4.0489998 41
25.701 -0.72500002 4.0960002 43
25.693001 -0.73699999 4.1420002 42
25.674999 -0.74699998 4.1849999 43
25.688999 -0.759 4.2340002 43
25.674999 -0.76999998 4.2789998 44
25.677999 -0.78200001 4.3260002 46
25.67 -0.79400003 4.3709998 41
25.653 -0.80400002 4.4130001 43
25.665001 -0.81699997 4.461 47
25.659 -0.82800001 4.5050001 47
25.659 -0.84100002 4.5510001 47
25.649 -0.85299999 4.5949998 49
25.641001 -0.86500001 4.638 50
25.656 -0.87800002 4.6859999 54
25.646999 -0.88999999 4.7290001 49
25.638 -0.903 4.7719998 52
25.641001 -0.91600001 4.816 50
25.621 -0.92699999 4.8569999 56
25.613001 -0.94099998 4.8990002 52
25.632999 -0.954 4.9460001 54
25.639 -0.96700001 4.9899998 51
25.632999 -0.98000002 5.0320001 52
25.617001 -0.99199998 5.0700002 54
25.628 -1.006 5.1149998 55
25.65 -1.02 5.1620002 49
25.646999 -1.034 5.2030001 40
25.638 -1.0470001 5.243 53
25.639 -1.061 5.2839999 57
25.642 -1.075 5.3260002 54
25.646999 -1.089 5.369 53
25.643999 -1.103 5.4099998 47
25.659 -1.117 5.454 44
25.659 -1.132 5.4949999 44
25.669001 -1.146 5.5370002 49
25.67 -1.16 5.5770001 48
25.674 -1.175 5.618 48
25.677999 -1.189 5.658 45
25.688999 -1.204 5.6999998 48
25.701 -1.219 5.7410002 37
25.702999 -1.234 5.7800002 45
25.711 -1.249 5.8210001 44
25.719 -1.2640001 5.8610001 45
25.725 -1.279 5.901 43
25.743999 -1.294 5.9429998 40
25.75 -1.3099999 5.9819999 37
25.76 -1.325 6.0219998 36
25.768999 -1.341 6.0609999 36
25.778 -1.357 6.0999999 35
25.812 -1.373 6.1440001 29
25.822001 -1.3890001 6.1830001 31
25.822001 -1.405 6.2189999 29
25.849001 -1.421 6.2620001 28
25.870001 -1.437 6.303 25
25.886 -1.454 6.3429999 23
25.903 -1.47 6.382 22
25.938999 -1.488 6.4260001 21
25.987 -1.506 6.4720001 18
26.191999 -1.534 6.559 14
26.714001 -1.58 6.7249999 20
26.872 -1.6059999 6.7989998 27
26.785 -1.617 6.8109999 30
26.671 -1.626 6.8169999 25
26.556999 -1.635 6.8210001 32
26.424 -1.643 6.8210001 31
26.319 -1.652 6.8260002 31
26.226 -1.663 6.835 30
26.103001 -1.671 6.835 25
25.978001 -1.679 6.8340001 27
25.855 -1.687 6.8319998 24
25.759001 -1.697 6.8379998 26
25.65 -1.704 6.8379998 27
25.552 -1.714 6.842 26
25.469999 -1.724 6.849 27
25.35 -1.7309999 6.8460002 31
25.25 -1.739 6.8470001 29
25.166 -1.749 6.8520002 25
25.073999 -1.758 6.855 25
24.986 -1.767 6.8590002 26
24.915001 -1.777 6.8660002 26
24.816 -1.785 6.8660002 26
24.726 -1.794 6.8670001 29
24.636999 -1.802 6.868 24
24.545 -1.811 6.868 24
24.476 -1.8200001 6.8730001 25
24.400999 -1.83 6.8769999 25
24.329 -1.839 6.8800001 31
24.242001 -1.847 6.8790002 25
24.177999 -1.857 6.8850002 26
24.087 -1.865 6.882 26
23.999001 -1.872 6.8790002 26
23.934999 -1.881 6.8829999 27
23.857 -1.89 6.8829999 27
23.791 -1.899 6.8850002 35
23.733 -1.909 6.8899999 35
23.67 -1.918 6.8920002 31
23.606001 -1.927 6.8940001 30
23.552 -1.937 6.8990002 32
23.485001 -1.9450001 6.8979998 33
23.437 -1.955 6.9029999 26
23.377001 -1.964 6.9050002 25
23.320999 -1.973 6.9070001 26
23.254 -1.98 6.9050002 25
23.184 -1.988 6.9029999 31
23.141001 -1.998 6.9070001 33
23.08 -2.007 6.9060001 28
23.034 -2.016 6.9099998 27
22.976 -2.0250001 6.9089999 33
22.917999 -2.033 6.908 33
22.870001 -2.0409999 6.9089999 32
22.829 -2.0510001 6.9120002 26
22.771999 -2.0580001 6.9099998 26
22.726999 -2.0680001 6.9109998 26
22.662001 -2.075 6.9060001 31
22.632 -2.085 6.9109998 32
22.583 -2.0929999 6.9099998 26
22.552999 -2.1029999 6.914 26
22.507 -2.112 6.9130001 26
22.478001 -2.1210001 6.9169998 32
22.438999 -2.1300001 6.9180002 26
22.393999 -2.138 6.9159999 33
22.360001 -2.148 6.9180002 34
22.346001 -2.1589999 6.9250002 27
22.322001 -2.1689999 6.9289999 29
22.289 -2.178 6.9289999 28
22.26 -2.1860001 6.9310002 30
22.219 -2.194 6.9289999 35
22.193001 -2.2030001 6.9310002 30
22.181999 -2.214 6.9369998 37
22.143999 -2.2219999 6.934 28
22.110001 -2.2309999 6.9320002 32
22.091999 -2.2409999 6.9359999 31
22.052 -2.2479999 6.9320002 30
22.035999 -2.2579999 6.9349999 30
22.000999 -2.266 6.9310002 30
21.979 -2.2739999 6.9320002 30
21.969 -2.2850001 6.9359999 26
21.938999 -2.293 6.9330001 32
21.909 -2.3010001 6.9299998 30
21.902 -2.3110001 6.934 25
21.877001 -2.3199999 6.9320002 31
21.865 -2.329 6.934 31
21.843 -2.3380001 6.9320002 32
21.837 -2.3469999 6.9349999 31
21.812 -2.355 6.9320002 32
21.806 -2.365 6.9349999 24
21.790001 -2.3740001 6.934 25
21.787001 -2.3840001 6.9359999 25
21.771999 -2.392 6.9349999 31
21.766001 -2.402 6.9359999 26
21.757 -2.411 6.9359999 25
21.75 -2.4200001 6.9369998 31
21.731001 -2.428 6.9330001 31
0 0 0 1
18.132999 -2.0409999 5.7880001 4
18.104 -2.046 5.7800002 12
18.080999 -2.052 5.7729998 17
18.062 -2.0569999 5.7680001 20
18.049999 -2.0639999 5.7639999 18
18.032 -2.069 5.7589998 16
18.007999 -2.0739999 5.7509999 19
17.985001 -2.079 5.743 21
17.978001 -2.085 5.7399998 23
17.959 -2.0899999 5.7329998 24
17.943001 -2.096 5.7270002 25
17.931 -2.102 5.7210002 23
17.931999 -2.109 5.7199998 20
17.917 -2.1140001 5.7129998 26
17.921 -2.122 5.7119999 22
17.9 -2.1259999 5.7030001 27
17.886999 -2.131 5.6960001 27
17.874001 -2.1359999 5.6900001 31
17.861 -2.141 5.6820002 30
17.833 -2.1440001 5.6700001 31
17.837 -2.151 5.6669998 31
17.826 -2.1559999 5.6599998 32
17.827999 -2.1619999 5.6560001 34
17.826 -2.168 5.651 24
17.811001 -2.1730001 5.6420002 33
17.798 -2.177 5.6329999 31
17.813999 -2.184 5.6329999 33
17.801001 -2.1889999 5.6240001 33
17.775 -2.191 5.6100001 32
17.782 -2.198 5.6059999 34
17.790001 -2.204 5.6020002 37
17.784 -2.2090001 5.5939999 36
17.781 -2.214 5.5869999 35
17.773001 -2.2179999 5.5770001 37
17.774 -2.224 5.5700002 38
17.775 -2.2279999 5.5640001 37
17.754 -2.2309999 5.5500002 36
17.757 -2.2360001 5.5430002 37
17.742001 -2.2390001 5.5300002 35
17.747999 -2.244 5.5240002 41
17.753 -2.2490001 5.5170002 40
17.756001 -2.2539999 5.5089998 27
17.75 -2.2579999 5.4980001 43
17.740999 -2.2609999 5.487 38
17.752001 -2.266 5.4809999 29
17.733999 -2.2690001 5.4650002 39
17.724001 -2.2709999 5.4520001 38
17.740999 -2.277 5.447 39
17.722 -2.279 5.4310002 38
17.731001 -2.283 5.4239998 29
17.731001 -2.2869999 5.4130001 40
17.725 -2.289 5.4000001 37
17.721001 -2.2920001 5.388 38
17.721001 -2.2950001 5.3759999 27
17.716999 -2.2980001 5.3629999 37
17.714001 -2.3010001 5.3509998 39
17.695999 -2.3010001 5.3330002 39
17.709999 -2.306 5.3249998 41
17.716 -2.3099999 5.3140001 41
17.709 -2.3110001 5.3000002 43
17.704 -2.3139999 5.2849998 45
17.702 -2.3150001 5.2709999 43
17.705999 -2.3180001 5.2579999 41
17.690001 -2.319 5.2399998 41
17.693001 -2.3210001 5.2270002 44
17.688 -2.322 5.2119999 42
17.688999 -2.3239999 5.198 42
17.698 -2.3269999 5.1859999 30
17.687 -2.3269999 5.1680002 44
17.704 -2.3310001 5.158 45
17.681 -2.3299999 5.1360002 44
17.690001 -2.332 5.1230001 40
17.686001 -2.3329999 5.1059999 41
17.691999 -2.335 5.0929999 42
17.677 -2.3340001 5.072 42
17.679001 -2.335 5.0570002 42
17.691 -2.3369999 5.0430002 44
17.684 -2.3369999 5.0250001 43
17.690001 -2.3380001 5.0100002 44
17.681 -2.3380001 4.9910002 45
17.674 -2.3369999 4.9710002 41
17.674 -2.3369999 4.954 44
17.688999 -2.339 4.941 45
17.676001 -2.3380001 4.9190001 46
17.674 -2.3369999 4.9000001 48
17.667 -2.336 4.8800001 43
17.674 -2.336 4.8639998 43
17.674 -2.336 4.8449998 44
17.672001 -2.335 4.8260002 46
17.677999 -2.335 4.8080001 49
17.677999 -2.335 4.789 33
17.677999 -2.3340001 4.77 50
17.672001 -2.332 4.7480001 49
17.673 -2.3310001 4.7290001 49
17.68 -2.3310001 4.711 47
17.665001 -2.3269999 4.6859999 46
17.679001 -2.3280001 4.6700001 46
17.674999 -2.325 4.6479998 45
17.673 -2.323 4.6269999 45
17.681999 -2.323 4.6090002 48
17.667 -2.319 4.5840001 46
17.674 -2.3169999 4.5640001 42
17.679001 -2.316 4.5440001 54
17.662001 -2.312 4.5180001 44
17.653999 -2.3080001 4.494 48
17.658001 -2.3050001 4.474 45
17.667999 -2.3039999 4.454 49
17.676001 -2.302 4.434 36
17.67 -2.299 4.4099998 51
17.686001 -2.2969999 4.3909998 34
17.673 -2.2920001 4.3649998 49
17.68 -2.29 4.3439999 50
17.68 -2.2869999 4.3200002 54
17.667 -2.2809999 4.2940001 48
17.681999 -2.279 4.2740002 50
17.676001 -2.2750001 4.2490001 51
17.684 -2.2720001 4.2280002 32
17.684 -2.2679999 4.204 51
17.683001 -2.263 4.1789999 51
17.679001 -2.2579999 4.1539998 49
17.674 -2.253 4.1290002 49
17.687 -2.25 4.1069999 46
17.684999 -2.2449999 4.0819998 47
17.695999 -2.2420001 4.059 32
17.686001 -2.2360001 4.0320001 48
17.681 -2.23 4.006 44
17.690001 -2.2249999 3.9820001 48
17.698999 -2.2219999 3.9590001 31
17.690001 -2.2149999 3.9319999 43
17.702999 -2.211 3.9089999 42
17.695 -2.204 3.882 42
17.700001 -2.1989999 3.8570001 42
17.715 -2.1949999 3.8340001 29
17.705999 -2.187 3.806 39
17.712 -2.1819999 3.7809999 39
17.709999 -2.175 3.7539999 41
17.716 -2.1689999 3.7290001 40
17.722 -2.1630001 3.7030001 39
17.723 -2.1570001 3.677 40
17.728001 -2.1500001 3.651 37
17.742001 -2.145 3.6270001 28
17.728001 -2.1359999 3.5969999 36
17.754 -2.132 3.575 26
17.73 -2.1210001 3.5420001 35
17.754999 -2.1159999 3.52 37
17.76 -2.109 3.493 35
17.761999 -2.102 3.4649999 35
17.77 -2.095 3.4389999 35
17.775999 -2.0869999 3.4119999 32
17.774 -2.079 3.3829999 33
17.785999 -2.0710001 3.3570001 32
17.794001 -2.0639999 3.3299999 31
17.811001 -2.0569999 3.3050001 32
17.802999 -2.0469999 3.2739999 29
17.844 -2.043 3.253 27
17.854 -2.0350001 3.2260001 26
17.849001 -2.0250001 3.1960001 26
17.870001 -2.0179999 3.1700001 25
17.893 -2.0109999 3.145 24
17.903999 -2.0020001 3.1170001 22
17.908001 -1.993 3.0880001 20
17.938999 -1.9859999 3.0650001 19
17.966999 -1.979 3.039 17
17.993999 -1.972 3.0139999 14
18.021999 -1.964 2.9879999 10
18.061001 -1.9579999 2.964 3
0 0 0 9
34.318001 -3.6789999 5.5170002 15
34.335999 -3.6600001 5.4619999 14
34.323002 -3.638 5.402 16
34.351002 -3.619 5.3470001 11
34.418999 -3.6040001 5.3000002 3
34.397999 -3.5799999 5.2379999 2
34.452 -3.562 5.1859999 2
0 0 0 0
0 0 0 0
0 0 0 0
0 0 0 0
0 0 0 0
0 0 0 0
0 0 0 0
0 0 0 0
0 0 0 0
0 0 0 0
0 0 0 0
0 0 0 0
0 0 0 0
0 0 0 0
0 0 0 0
0 0 0 0
0 0 0 0
0 0 0 0
0 0 0 0
0 0 0 0
0 0 0 0
0 0 0 0
0 0 0 0
0 0 0 0
0 0 0 0
0 0 0 0
0 0 0 0
0 0 0 0
0 0 0 0
0 0 0 1
34.112 -2.7090001 3.2809999 12
34.087002 -2.677 3.2179999 32
34.095001 -2.6470001 3.158 43
34.069 -2.6140001 3.096 44
34.049999 -2.582 3.033 47
34.016998 -2.5480001 2.9690001 48
34.007 -2.5150001 2.9070001 53
33.990002 -2.4820001 2.845 51
34.001999 -2.451 2.7850001 51
33.966 -2.415 2.72 50
33.981998 -2.3829999 2.661 52
33.966 -2.349 2.599 49
33.960999 -2.316 2.5380001 49
33.960999 -2.2820001 2.477 50
33.949001 -2.2490001 2.4170001 45
33.945999 -2.2149999 2.3559999 45
33.948002 -2.181 2.2950001 30
33.969002 -2.1470001 2.2349999 14
34.111 -2.1210001 2.1830001 9
34.087002 -2.086 2.122 14
34.044998 -2.0469999 2.0580001 18
34.030998 -2.0109999 1.9960001 18
34.063 -1.977 1.936 15
34.122002 -1.944 1.8789999 18
34.143002 -1.91 1.8200001 19
34.153999 -1.874 1.7589999 18
34.171001 -1.8380001 1.699 13
0 0 0 10
25.792 -1.331 1.191 18
25.742001 -1.3 1.143 24
25.697001 -1.27 1.095 28
25.667 -1.24 1.048 32
25.632 -1.21 1.002 36
25.608999 -1.1799999 0.95499998 39
25.582001 -1.149 0.90899998 40
25.569 -1.12 0.86400002 44
25.552 -1.091 0.81999999 32
0 0 0 1
0 0 0 0
0 0 0 0
0 0 0 0
0 0 0 0
0 0 0 0
0 0 0 0
0 0 0 0
0 0 0 0
0 0 0 0
0 0 0 0
0 0 0 1
18.153999 -0.495 0.17 1
17.896999 -0.46599999 0.13699999 1
17.531 -0.435 0.104 1
0 0 0 0
0 0 0 0
0 0 0 1
17.160999 -0.34 -0.015 2
17.146 -0.31799999 -0.044 3
17.141001 -0.296 -0.074000001 3
17.114 -0.27399999 -0.102 1
17.063999 -0.25099999 -0.131 1
17.121 -0.23 -0.16 1
17.073999 -0.207 -0.189 1
17.024 -0.185 -0.21600001 1
0 0 0 0
0 0 0 0
0 0 0 1
17.080999 -0.096000001 -0.331 2
17.052 -0.072999999 -0.359 3
17.066999 -0.050000001 -0.38699999 3
17.028999 -0.028000001 -0.41499999 1
17.041 -0.0049999999 -0.44299999 1
17.041 0.017000001 -0.47099999 1
17.099001 0.039999999 -0.5 1
17.120001 0.063000001 -0.52899998 1
17.135 0.086000003 -0.55699998 1
17.17 0.11 -0.58600003 1
17.226 0.134 -0.616 1
17.280001 0.15800001 -0.64600003 2
17.372999 0.183 -0.67699999 3
17.447001 0.208 -0.708 4
17.566 0.234 -0.741 7
17.551001 0.25799999 -0.76899999 3
17.579 0.28299999 -0.79799998 3
17.587 0.30700001 -0.82599998 4
17.612 0.33199999 -0.85399997 4
17.631001 0.35800001 -0.88300002 3
17.701 0.384 -0.91399997 4
17.868999 0.412 -0.94999999 6
17.752001 0.435 -0.972 5
0 0 0 0
0 0 0 2
15.118 0.435 -0.89700001 2
14.505 0.43799999 -0.88300002 3
13.997 0.442 -0.87300003 3
13.47 0.44499999 -0.86000001 3
12.902 0.44499999 -0.84399998 3
12.502 0.449 -0.83700001 3
12.052 0.44999999 -0.82499999 3
11.659 0.45300001 -0.815 2
11.324 0.456 -0.80800003 2
10.98 0.458 -0.80000001 3
10.662 0.46000001 -0.792 3
10.333 0.461 -0.78299999 3
10.05 0.463 -0.77600002 3
9.7609997 0.46399999 -0.76800001 3
9.5209999 0.46599999 -0.76200002 2
9.2980003 0.46900001 -0.75800002 3
9.0550003 0.47 -0.75099999 3
8.8380003 0.472 -0.74599999 3
8.6420002 0.47400001 -0.741 2
8.4209995 0.47400001 -0.73400003 3
8.2349997 0.47600001 -0.73000002 3
8.0690002 0.47799999 -0.72600001 3
7.8709998 0.47799999 -0.71899998 3
7.6690001 0.47799999 -0.71100003 3
7.5190001 0.479 -0.708 4
7.4050002 0.48300001 -0.70700002 4
7.2519999 0.484 -0.70300001 4
7.1009998 0.48500001 -0.69800001 3
6.9190001 0.48300001 -0.68900001 3
6.7779999 0.48300001 -0.68400002 3
6.6539998 0.484 -0.68099999 4
6.5430002 0.486 -0.67799997 4
6.467 0.49000001 -0.67799997 4
6.323 0.48800001 -0.67199999 3
6.217 0.48899999 -0.66799998 3
6.1079998 0.49000001 -0.66500002 2
6.0079999 0.491 -0.66100001 3
5.9130001 0.49200001 -0.65799999 3
5.8270001 0.49399999 -0.65600002 3
5.7350001 0.49399999 -0.653 3
5.6570001 0.49599999 -0.65100002 3
5.5609999 0.49599999 -0.64700001 3
5.4790001 0.49700001 -0.64399999 3
5.3930001 0.49700001 -0.64099997 3
5.3060002 0.49700001 -0.63700002 3
5.23 0.498 -0.634 4
5.1490002 0.498 -0.63099998 5
5.098 0.5 -0.63099998 3
5.027 0.50099999 -0.62800002 3
4.9489999 0.50099999 -0.62400001 5
4.8959999 0.50300002 -0.62300003 3
4.836 0.50400001 -0.62099999 3
4.7779999 0.505 -0.61900002 3
4.717 0.50599998 -0.61699998 3
4.665 0.50700003 -0.61500001 3
4.6069999 0.50800002 -0.61299998 2
4.5630002 0.509 -0.61199999 2
4.506 0.50999999 -0.60900003 3
4.4439998 0.509 -0.60600001 4
4.395 0.50999999 -0.60399997 3
4.3909998 0.51700002 -0.60799998 3
4.3400002 0.51700002 -0.60600001 3
4.3940001 0.52999997 -0.61799997 3
4.2389998 0.51800001 -0.60100001 2
4.2210002 0.52200001 -0.60299999 2
4.1680002 0.52100003 -0.60000002 2
4.1789999 0.52899998 -0.60600001 3
4.131 0.52899998 -0.60299999 2
4.0419998 0.523 -0.59399998 2
4.0430002 0.52999997 -0.59899998 2
4.0679998 0.53899997 -0.60600001 2
3.9979999 0.53500003 -0.60000002 2
3.9790001 0.53899997 -0.60100001 2
3.9660001 0.54299998 -0.60299999 2
3.8859999 0.537 -0.59399998 2
3.865 0.54000002 -0.59500003 2
3.8940001 0.55000001 -0.60299999 2
3.8010001 0.542 -0.59200001 2
3.7820001 0.54500002 -0.59299999 3
3.8559999 0.56099999 -0.60799998 2
3.7620001 0.55299997 -0.597 3
3.733 0.55400002 -0.59600002 3
3.6470001 0.546 -0.58499998 2
3.661 0.55400002 -0.59100002 2
3.6199999 0.55299997 -0.58700001 2
3.6010001 0.55500001 -0.58700001 2
3.6210001 0.56300002 -0.59399998 3
3.5669999 0.56 -0.588 1
3.5380001 0.56 -0.58600003 3
3.4489999 0.551 -0.574 1
3.4679999 0.55900002 -0.58099997 1
3.45 0.56099999 -0.57999998 1
3.4100001 0.55900002 -0.57599998 2
3.5179999 0.58200002 -0.59799999 2
3.398 0.56699997 -0.57999998 2
3.4400001 0.57800001 -0.58999997 2
3.4089999 0.57800001 -0.58700001 2
3.3929999 0.57999998 -0.58700001 2
3.3280001 0.57300001 -0.57800001 2
3.348 0.58099997 -0.58399999 2
3.3069999 0.579 -0.57999998 1
3.3150001 0.58399999 -0.583 1
3.2409999 0.57599998 -0.57300001 1
3.276 0.58600003 -0.58099997 1
3.2160001 0.57999998 -0.57300001 1
3.2079999 0.583 -0.574 1
3.207 0.58700001 -0.57599998 2
3.2149999 0.59200001 -0.579 1
3.2939999 0.611 -0.59600002 1
3.2249999 0.60299999 -0.58499998 2
3.2179999 0.60600001 -0.58600003 1
3.3540001 0.63599998 -0.61299998 2
3.1589999 0.60299999 -0.57999998 1
3.102 0.59600002 -0.57099998 1
3.1489999 0.60900003 -0.58200002 1
3.1359999 0.61000001 -0.58099997 1
3.1470001 0.616 -0.58499998 1
3.158 0.62300003 -0.58899999 2
3.0669999 0.60900003 -0.574 2
3.1930001 0.63700002 -0.59899998 2
0 0 0 2
3.0650001 0.62 -0.579 2
3.04 0.61799997 -0.57599998 2
3.0139999 0.61699998 -0.57200003 1
2.9519999 0.60699999 -0.56199998 2
2.927 0.60600001 -0.55900002 2
2.924 0.60900003 -0.56 2
2.915 0.61000001 -0.56 2
2.9030001 0.611 -0.55900002 2
2.8859999 0.611 -0.55699998 2
2.881 0.61299998 -0.55699998 2
2.8710001 0.61500001 -0.55699998 2
2.8670001 0.61699998 -0.55699998 2
2.8529999 0.61699998 -0.55599999 2
2.852 0.62 -0.55699998 2
2.8410001 0.62099999 -0.55599999 2
2.947 0.648 -0.57800001 1
2.99 0.66100001 -0.588 2
2.8199999 0.62599999 -0.55500001 1
2.8959999 0.64600003 -0.57099998 1
2.895 0.64899999 -0.57200003 2
2.891 0.65100002 -0.57200003 2
2.7909999 0.63200003 -0.55400002 1
2.7850001 0.63300002 -0.55299997 2
2.7709999 0.63300002 -0.55199999 2
2.776 0.63700002 -0.55299997 2
2.7679999 0.63800001 -0.55299997 2
2.7590001 0.639 -0.55199999 2
2.753 0.63999999 -0.551 2
2.7620001 0.64499998 -0.55400002 2
2.7579999 0.64700001 -0.55400002 2
2.747 0.64700001 -0.55299997 2
2.7420001 0.64899999 -0.55199999 2
2.7360001 0.64999998 -0.55199999 2
2.7349999 0.65200001 -0.55199999 2
2.734 0.65499997 -0.55299997 2
2.727 0.65600002 -0.55199999 2
2.7309999 0.65899998 -0.55299997 2
2.7179999 0.65799999 -0.551 2
2.711 0.65899998 -0.551 2
2.7030001 0.66000003 -0.54900002 2
2.7060001 0.66299999 -0.551 2
2.7079999 0.66600001 -0.551 2
2.7030001 0.667 -0.551 2
2.7049999 0.67000002 -0.55199999 2
2.6989999 0.671 -0.551 2
2.7049999 0.67500001 -0.55299997 2
2.694 0.67400002 -0.551 2
2.688 0.67500001 -0.55000001 2
2.694 0.67799997 -0.551 2
2.674 0.67500001 -0.54699999 2
2.677 0.67799997 -0.54799998 2
2.6760001 0.68000001 -0.54799998 2
2.6800001 0.68400002 -0.54900002 2
2.6800001 0.685 -0.55000001 2
2.6819999 0.68800002 -0.55000001 2
2.671 0.68699998 -0.54799998 2
2.677 0.69099998 -0.54900002 2
2.6789999 0.69300002 -0.55000001 2
2.675 0.69400001 -0.54900002 2
2.671 0.69499999 -0.54799998 2
2.671 0.69700003 -0.54799998 2
2.677 0.69999999 -0.55000001 2
2.6670001 0.699 -0.54799998 2
2.6760001 0.70300001 -0.54900002 2
2.675 0.70499998 -0.54900002 2
2.668 0.70499998 -0.54699999 2
2.6700001 0.70700002 -0.54799998 2
2.675 0.70999998 -0.54900002 2
2.6700001 0.70999998 -0.54699999 2
2.677 0.71399999 -0.54900002 2
2.6719999 0.71399999 -0.54699999 1
2.6760001 0.71700001 -0.54799998 1
2.675 0.71799999 -0.54799998 1
2.783 0.74800003 -0.56900001 1
2.681 0.722 -0.54799998 1
2.6819999 0.72399998 -0.54799998 1
2.701 0.73000002 -0.551 1
2.6860001 0.72799999 -0.54799998 1
2.691 0.73000002 -0.54900002 1
2.6900001 0.73100001 -0.54799998 1
2.694 0.73400003 -0.54799998 2
2.691 0.73400003 -0.54699999 2
2.7 0.73799998 -0.54900002 2
2.7060001 0.74000001 -0.54900002 2
2.7060001 0.74199998 -0.54900002 2
2.7130001 0.745 -0.55000001 2
2.7149999 0.74599999 -0.54900002 2
2.7160001 0.74800003 -0.54900002 2
2.7179999 0.74900001 -0.54900002 2
2.7260001 0.75199997 -0.55000001 2
2.7320001 0.755 -0.55000001 2
2.737 0.75700003 -0.55000001 2
2.743 0.75999999 -0.551 2
2.7420001 0.75999999 -0.55000001 2
2.7409999 0.76099998 -0.54900002 2
2.7539999 0.76499999 -0.551 2
2.7579999 0.76700002 -0.551 2
2.7490001 0.76499999 -0.54799998 2
2.7579999 0.76899999 -0.54900002 2
2.7650001 0.77100003 -0.54900002 2
2.7720001 0.77399999 -0.55000001 2
2.776 0.77499998 -0.55000001 2
2.773 0.77499998 -0.54799998 2
2.786 0.77899998 -0.55000001 2
2.7880001 0.77999997 -0.54900002 2
2.796 0.78299999 -0.55000001 2
2.8010001 0.78500003 -0.55000001 2
2.812 0.78799999 -0.551 1
2.9779999 0.83499998 -0.58200002 2
2.898 0.81300002 -0.565 1
2.9549999 0.829 -0.57499999 2
2.8889999 0.81099999 -0.56099999 1
2.9679999 0.83399999 -0.57499999 1
2.9030001 0.81599998 -0.56099999 1
2.9349999 0.82499999 -0.56599998 1
3.079 0.86500001 -0.59299999 2
3.023 0.85000002 -0.58099997 1
2.95 0.829 -0.565 1
2.971 0.83499998 -0.56800002 1
3.0550001 0.85900003 -0.58200002 2
3.0450001 0.85600001 -0.579 1
2.9360001 0.82499999 -0.55699998 2
2.931 0.82300001 -0.55400002 2
2.951 0.829 -0.55699998 2
2.9619999 0.83200002 -0.55699998 2
2.96 0.83099997 -0.55500001 2
2.9749999 0.83499998 -0.55599999 2
2.9820001 0.83600003 -0.55599999 2
2.997 0.83999997 -0.55699998 2
3.0020001 0.84100002 -0.55699998 2
0 0 0 2
3.1459999 0.88099998 -0.57999998 1
3.0929999 0.86500001 -0.56800002 1
3.177 0.88800001 -0.58200002 1
3.224 0.90100002 -0.58899999 1
3.1989999 0.89300001 -0.58200002 2
3.142 0.87599999 -0.56999999 1
3.191 0.889 -0.57700002 1
3.1789999 0.88499999 -0.57300001 1
3.1489999 0.87599999 -0.565 1
3.263 0.90700001 -0.58399999 2
3.217 0.89300001 -0.57300001 2
3.2360001 0.898 -0.57499999 2
3.2479999 0.89999998 -0.57499999 2
3.2390001 0.89600003 -0.57099998 1
3.3440001 0.92400002 -0.58700001 2
3.2980001 0.91000003 -0.57700002 2
3.312 0.91299999 -0.57700002 1
3.3269999 0.91600001 -0.57800001 2
3.3429999 0.91900003 -0.57800001 2
3.365 0.92400002 -0.57999998 2
3.4230001 0.93800002 -0.58700001 2
3.3710001 0.92199999 -0.57599998 2
3.3599999 0.91799998 -0.57200003 2
3.362 0.917 -0.56999999 2
3.3629999 0.91600001 -0.56800002 2
3.395 0.92299998 -0.57099998 2
3.4530001 0.93699998 -0.57800001 2
3.402 0.921 -0.56699997 1
3.4560001 0.93400002 -0.57300001 2
3.4419999 0.92900002 -0.56900001 2
3.4879999 0.93900001 -0.574 2
3.5510001 0.954 -0.58099997 2
3.5969999 0.96499997 -0.58600003 2
3.5539999 0.95099998 -0.57599998 2
3.552 0.94800001 -0.57300001 2
3.579 0.95300001 -0.57499999 3
3.598 0.95599997 -0.57499999 3
3.609 0.95700002 -0.574 4
3.6289999 0.95999998 -0.574 4
3.6489999 0.963 -0.57499999 4
3.6600001 0.963 -0.574 3
3.7869999 0.99400002 -0.58999997 3
3.7950001 0.99299997 -0.58899999 2
3.9059999 1.02 -0.60299999 3
3.839 1 -0.58899999 2
3.9030001 1.0140001 -0.59600002 2
3.8970001 1.0089999 -0.59200001 3
3.915 1.011 -0.59100002 3
3.8900001 1.001 -0.58399999 3
4.0630002 1.043 -0.60699999 3
3.9860001 1.02 -0.59200001 3
3.951 1.008 -0.58399999 3
4.0359998 1.026 -0.59299999 3
4.085 1.035 -0.597 3
4.1030002 1.0369999 -0.59600002 3
4.0869999 1.029 -0.58999997 2
4.1240001 1.035 -0.59200001 3
4.1329999 1.034 -0.58899999 3
4.2290001 1.054 -0.59899998 3
4.204 1.044 -0.59200001 2
4.2540002 1.052 -0.59600002 2
4.2550001 1.049 -0.59200001 3
4.2540002 1.045 -0.588 3
4.2950001 1.051 -0.58999997 3
4.3379998 1.057 -0.59200001 2
4.3759999 1.062 -0.59299999 4
4.4380002 1.073 -0.59799999 2
4.4629998 1.075 -0.597 2
4.4850001 1.075 -0.59600002 4
4.5370002 1.0829999 -0.59899998 2
4.5760002 1.0880001 -0.60000002 4
4.6160002 1.0930001 -0.60100001 2
4.6659999 1.1 -0.60299999 3
4.7010002 1.103 -0.60399997 4
4.7579999 1.1109999 -0.60699999 2
4.8150001 1.12 -0.60900003 2
4.8569999 1.124 -0.61000001 4
4.8990002 1.128 -0.611 3
4.9499998 1.135 -0.61299998 2
4.987 1.137 -0.61299998 3
5.0349998 1.143 -0.61400002 3
5.1020002 1.152 -0.61799997 2
5.1529999 1.158 -0.61900002 3
5.2160001 1.166 -0.62199998 3
5.2729998 1.1720001 -0.62400001 2
5.336 1.1799999 -0.62599999 3
5.3800001 1.184 -0.62599999 3
5.4489999 1.192 -0.62900001 3
5.5110002 1.199 -0.63099998 4
5.5809999 1.207 -0.634 3
5.6409998 1.214 -0.63599998 3
5.7059999 1.22 -0.63800001 3
5.7690001 1.226 -0.639 3
5.8520002 1.237 -0.64300001 3
5.9089999 1.2410001 -0.64399999 3
5.973 1.247 -0.64499998 3
6.0549998 1.256 -0.648 3
6.1300001 1.2640001 -0.65100002 4
6.217 1.273 -0.65399998 4
6.2989998 1.2819999 -0.65700001 4
6.3870001 1.291 -0.66000003 3
6.48 1.301 -0.66299999 4
6.5879998 1.314 -0.66799998 4
6.6690001 1.321 -0.67000002 4
6.744 1.327 -0.67199999 4
6.8260002 1.3329999 -0.67299998 4
6.9089999 1.34 -0.67500001 4
7.0229998 1.352 -0.68000001 3
7.1199999 1.3609999 -0.68199998 3
7.197 1.365 -0.68300003 3
7.2979999 1.374 -0.68599999 3
7.4130001 1.385 -0.69 3
7.5190001 1.3940001 -0.69199997 3
7.652 1.4069999 -0.69700003 3
7.7880001 1.421 -0.70300001 3
7.914 1.432 -0.70700002 3
8.0430002 1.444 -0.71100003 3
8.1400003 1.448 -0.71200001 4
8.2410002 1.454 -0.713 4
8.3620005 1.4630001 -0.71600002 5
8.4610004 1.467 -0.71600002 5
8.5959997 1.477 -0.72000003 4
8.7379999 1.488 -0.72399998 3
8.8830004 1.499 -0.727 4
9.0480003 1.513 -0.73199999 5
9.191 1.522 -0.736 3
9.3219995 1.529 -0.73799998 3
9.4820004 1.54 -0.741 3
9.625 1.548 -0.74400002 4
9.8140001 1.562 -0.74900001 3
10.191 1.6059999 -0.76899999 8
10.336 1.612 -0.76999998 10
10.529 1.625 -0.77600002 6
10.71 1.635 -0.77899998 9
10.904 1.647 -0.78299999 10
11.059 1.652 -0.78500003 14
11.195 1.653 -0.78399998 14
11.3 1.65 -0.78100002 8
11.448 1.652 -0.78100002 3
11.732 1.673 -0.79000002 3
11.95 1.684 -0.79400003 2
12.202 1.699 -0.80000001 3
12.474 1.715 -0.80699998 3
12.719 1.727 -0.81199998 3
13.022 1.7460001 -0.81999999 3
13.309 1.761 -0.82700002 3
13.585 1.774 -0.83200002 3
13.905 1.7920001 -0.83999997 2
14.284 1.816 -0.85000002 2
14.626 1.8329999 -0.85799998 2
14.942 1.846 -0.86400002 2
15.296 1.863 -0.87199998 2
15.715 1.886 -0.88200003 2
16.173 1.9119999 -0.89499998 2
16.562 1.928 -0.90200001 1
17.063 1.956 -0.91500002 1
16.709999 1.885 -0.88200003 1
17.167999 1.905 -0.89200002 1
0 0 0 4
0 0 0 0
0 0 0 1
19.573999 2.0280001 -0.954 1
0 0 0 0
0 0 0 1
23.131001 2.2679999 -1.072 3
0 0 0 4
24.944 2.3510001 -1.1160001 1
0 0 0 0
0 0 0 0
0 0 0 2
28.622 2.4809999 -1.192 3
0 0 0 0
0 0 0 1
29.405001 2.3800001 -1.158 14
29.364 2.3199999 -1.1339999 120
29.344 2.2609999 -1.1109999 152
29.370001 2.2060001 -1.09 150
29.516001 2.1600001 -1.074 14
0 0 0 6
38.521 2.6689999 -1.346 17
37.535999 2.527 -1.285 5
0 0 0 0
0 0 0 23
0 0 0 153
24.847 1.478 -0.78100002 154
24.841 1.428 -0.76300001 170
24.865 1.38 -0.74699998 160
24.902 1.332 -0.73100001 157
24.914 1.283 -0.71499997 1
0 0 0 94
35.784 1.7 -0.98000002 69
35.777 1.6289999 -0.95599997 68
0 0 0 5
20.542 0.85299999 -0.52200001 6
20.159 0.796 -0.5 2
19.705 0.73900002 -0.47600001 1
19.415001 0.68800002 -0.45699999 1
19.055 0.63599998 -0.43599999 1
18.799 0.58899999 -0.419 1
18.715 0.54799998 -0.40599999 1
18.393999 0.50099999 -0.38800001 1
18.118999 0.456 -0.37099999 4
17.738001 0.41 -0.35299999 3
17.705 0.373 -0.34200001 3
17.591999 0.33399999 -0.329 1
0 0 0 0
0 0 0 0
0 0 0 0
0 0 0 1
17.284 0.15000001 -0.27599999 1
17.212 0.115 -0.26499999 1
17.177999 0.079000004 -0.25600001 1
0 0 0 0
0 0 0 0
0 0 0 0
0 0 0 0
0 0 0 0
0 0 0 1
17.084 -0.171 -0.19400001 1
17.091 -0.206 -0.186 1
17.080999 -0.242 -0.178 1
17.101999 -0.278 -0.17 1
17.184999 -0.31400001 -0.163 14
17.184 -0.34999999 -0.156 11
17.187 -0.38699999 -0.148 8
17.214001 -0.42399999 -0.141 6
17.212999 -0.46000001 -0.133 5
17.198 -0.49599999 -0.126 4
17.226999 -0.53299999 -0.119 4
17.198999 -0.56800002 -0.112 3
17.124001 -0.60100001 -0.104 3
17.097 -0.63599998 -0.097999997 4
17.125999 -0.67400002 -0.090999998 3
17.124001 -0.70999998 -0.085000001 6
17.146999 -0.74599999 -0.078000002 4
17.153 -0.78299999 -0.071999997 3
17.156 -0.81900001 -0.066 2
17.191 -0.85699999 -0.059999999 3
17.216 -0.89499998 -0.054000001 3
17.198999 -0.93000001 -0.048 1
17.240999 -0.96899998 -0.043000001 1
17.299999 -1.008 -0.037 1
17.292 -1.044 -0.032000002 1
17.334999 -1.084 -0.026000001 1
17.378 -1.122 -0.021 1
17.343 -1.1569999 -0.016000001 1
17.445 -1.2 -0.011 1
17.68 -1.253 -0.0060000001 1
17.715 -1.293 -0.001 152
17.656 -1.326 0.0020000001 26
17.716 -1.368 0.0070000002 1
0 0 0 11
34.238998 -2.7880001 0.030999999 14
34.009998 -2.839 0.037999999 36
34.015999 -2.9100001 0.046 55
34.005001 -2.98 0.054000001 84
34.015999 -3.0510001 0.061999999 86
34.023998 -3.1229999 0.068000004 122
34.042999 -3.1960001 0.075000003 121
34.050999 -3.267 0.082000002 112
34.061001 -3.3399999 0.089000002 108
34.084 -3.4130001 0.096000001 102
34.099998 -3.4849999 0.101 110
0 0 0 8
17.822001 -1.895 0.059 20
17.76 -1.925 0.061000001 26
17.695999 -1.955 0.064000003 30
17.646999 -1.987 0.066 31
17.632 -2.0220001 0.068999998 38
17.606001 -2.0539999 0.071000002 41
17.576 -2.0869999 0.072999999 44
17.556999 -2.1210001 0.075000003 49
17.544001 -2.155 0.075999998 55
17.528 -2.1889999 0.078000002 58
17.511 -2.223 0.079999998 64
17.511 -2.2579999 0.081 40
17.493 -2.2920001 0.082999997 70
17.499001 -2.3280001 0.083999999 38
17.503 -2.3640001 0.085000001 40
17.52 -2.402 0.086999997 59
17.534 -2.4400001 0.088 33
17.524 -2.473 0.088 54
17.528 -2.5109999 0.089000002 45
17.556 -2.549 0.090000004 45
17.572001 -2.5880001 0.090999998 28
17.597 -2.6259999 0.090999998 33
17.641001 -2.668 0.092 22
17.65 -2.7049999 0.092 26
17.722 -2.7509999 0.093000002 19
17.809999 -2.8010001 0.093000002 12
0 0 0 0
0 0 0 0
0 0 0 0
0 0 0 4
38.605 -6.4499998 0.198 5
38.557999 -6.5180001 0.19599999 4
38.659 -6.6100001 0.19499999 4
38.717999 -6.6950002 0.19400001 4
0 0 0 0
0 0 0 47
34.910999 -6.2399998 0.168 27
0 0 0 0
0 0 0 0
0 0 0 2
30.327 -5.6550002 0.13600001 2
30.379999 -5.723 0.133 1
0 0 0 0
0 0 0 8
34.997002 -6.79 0.142 10
34.779999 -6.8140001 0.13699999 6
34.716 -6.8649998 0.133 17
34.723999 -6.9330001 0.12800001 19
34.737 -6.9990001 0.124 17
0 0 0 1
27.813 -5.7069998 0.090999998 2
27.775 -5.75 0.086000003 2
27.809999 -5.8080001 0.082000002 1
27.806999 -5.8579998 0.077 1
0 0 0 8
34.811001 -7.461 0.085000001 8
34.827999 -7.527 0.079000004 9
34.862 -7.598 0.072999999 10
34.873001 -7.6630001 0.066 8
34.879002 -7.7259998 0.059 9
34.924999 -7.796 0.052000001 10
34.931 -7.8600001 0.045000002 9
34.912998 -7.9159999 0.037999999 11
34.937 -7.9829998 0.030999999 8
34.965 -8.0500002 0.023 10
34.966999 -8.1110001 0.015 9
34.973999 -8.1730003 0.0070000002 10
0 0 0 0
0 0 0 1
0 0 0 0
0 0 0 1
0 0 0 4
30.605 -7.4640002 -0.037 7
30.573 -7.506 -0.045000002 9
30.549 -7.5510001 -0.052999999 12
30.57 -7.6069999 -0.061000001 14
30.584 -7.6599998 -0.068999998 16
30.563999 -7.7049999 -0.078000002 15
30.579 -7.7579999 -0.086999997 14
30.582001 -7.8080001 -0.094999999 14
30.582001 -7.8579998 -0.103 13
30.576 -7.9039998 -0.112 11
30.561001 -7.9489999 -0.121 12
30.583 -8.0019999 -0.13 10
0 0 0 3
28.115999 -7.4439998 -0.13699999 6
28.038 -7.4660001 -0.145 13
28.035999 -7.5089998 -0.154 23
28.007999 -7.5440001 -0.162 31
28.007999 -7.5869999 -0.17200001 38
28.006001 -7.6279998 -0.18099999 23
0 0 0 1
6.8600001 -1.8890001 -0.048 1
6.8299999 -1.89 -0.050000001 2
6.8099999 -1.895 -0.052999999 3
6.8070002 -1.904 -0.055 2
6.816 -1.916 -0.057 2
6.8169999 -1.926 -0.059999999 3
6.803 -1.932 -0.061999999 3
6.8140001 -1.944 -0.064000003 2
6.8140001 -1.9529999 -0.067000002 3
6.8189998 -1.964 -0.068999998 2
6.8200002 -1.974 -0.071999997 1
0 0 0 17
28.128 -8.2189999 -0.31799999 40
28.127001 -8.2559996 -0.32800001 52
28.125999 -8.2930002 -0.33899999 52
28.141001 -8.335 -0.34999999 52
28.153999 -8.375 -0.36000001 52
28.157 -8.4119997 -0.37099999 43
28.155001 -8.4469995 -0.38100001 43
28.172001 -8.4879999 -0.39300001 51
28.174999 -8.5240002 -0.403 50
28.181999 -8.5609999 -0.414 46
27.917 -8.5150003 -0.421 18
27.389 -8.3879995 -0.42399999 18
27.313999 -8.3979998 -0.43399999 24
27.273001 -8.4180002 -0.44400001 28
27.242001 -8.4399996 -0.454 27
27.191 -8.4560003 -0.46399999 33
27.159 -8.4779997 -0.47499999 34
27.122999 -8.4980001 -0.48500001 38
27.101 -8.5220003 -0.495 40
27.077999 -8.5439997 -0.50599998 44
27.052999 -8.566 -0.51700002 44
27.041 -8.592 -0.52700001 45
27.028 -8.6169996 -0.53799999 50
27.002001 -8.6379995 -0.54900002 54
26.997 -8.665 -0.56 59
26.989 -8.6899996 -0.57099998 59
26.98 -8.7150002 -0.58200002 61
26.975 -8.7410002 -0.59299999 59
26.957001 -8.7629995 -0.60399997 54
26.959999 -8.79 -0.616 50
26.950001 -8.8129997 -0.62699997 46
26.961 -8.8430004 -0.63800001 43
26.964001 -8.8699999 -0.64999998 43
26.950001 -8.8909998 -0.662 39
26.966 -8.9209995 -0.67400002 39
26.968 -8.9460001 -0.685 35
0 0 0 1
10.07 -3.358 -0.264 8
10.037 -3.3559999 -0.26800001 12
10.009 -3.3559999 -0.271 14
9.9729996 -3.352 -0.27500001 16
9.9580002 -3.355 -0.27900001 12
9.9320002 -3.355 -0.28200001 19
9.8999996 -3.352 -0.285 22
9.8900003 -3.3559999 -0.28999999 14
9.8780003 -3.3599999 -0.294 24
9.8570004 -3.3599999 -0.29699999 15
9.8439999 -3.3629999 -0.301 15
9.8380003 -3.368 -0.30500001 16
9.8330002 -3.3740001 -0.31 17
9.8100004 -3.3729999 -0.31299999 18
9.8059998 -3.378 -0.317 16
9.7989998 -3.3829999 -0.32100001 17
9.7869997 -3.385 -0.32499999 17
9.7810001 -3.3889999 -0.329 18
9.7679996 -3.391 -0.333 25
9.7700005 -3.398 -0.33700001 28
9.7480001 -3.3959999 -0.34099999 28
9.757 -3.405 -0.345 29
9.7419996 -3.4059999 -0.34900001 29
9.7410002 -3.411 -0.354 29
9.7320004 -3.4130001 -0.35800001 30
9.7220001 -3.414 -0.361 29
9.7189999 -3.4189999 -0.366 29
9.717 -3.4230001 -0.37 29
9.7110004 -3.4260001 -0.37400001 29
9.71 -3.4300001 -0.37799999 29
9.6940002 -3.4289999 -0.382 29
9.7030001 -3.4360001 -0.38600001 30
9.6929998 -3.437 -0.38999999 30
9.6999998 -3.4430001 -0.39500001 30
9.6890001 -3.444 -0.398 31
9.6859999 -3.4460001 -0.40200001 31
9.6879997 -3.451 -0.40599999 31
9.6879997 -3.454 -0.41100001 30
9.6709995 -3.4519999 -0.414 30
9.6829996 -3.4590001 -0.419 30
9.6750002 -3.4590001 -0.42199999 30
9.6689997 -3.46 -0.426 30
9.6630001 -3.461 -0.43000001 30
9.6619997 -3.4630001 -0.43399999 30
9.6619997 -3.4660001 -0.43900001 30
9.658 -3.467 -0.44299999 31
9.6599998 -3.47 -0.447 31
9.6520004 -3.4690001 -0.45100001 32
9.6420002 -3.467 -0.454 32
9.6499996 -3.4719999 -0.458 32
9.6450005 -3.4719999 -0.46200001 33
9.6479998 -3.4749999 -0.46700001 33
9.6499996 -3.477 -0.47 33
9.6529999 -3.4790001 -0.47499999 33
9.6400003 -3.4749999 -0.47799999 33
9.6459999 -3.4779999 -0.48199999 32
9.6499996 -3.4809999 -0.48699999 32
9.6490002 -3.4809999 -0.49000001 32
9.6429996 -3.4790001 -0.49399999 32
9.6499996 -3.4820001 -0.498 32
9.6429996 -3.48 -0.50199997 32
9.6330004 -3.4760001 -0.505 32
9.6420002 -3.48 -0.50999999 32
9.6339998 -3.477 -0.51300001 31
9.6420002 -3.4790001 -0.51700002 31
9.6400003 -3.4779999 -0.52100003 31
9.6420002 -3.4779999 -0.52499998 31
9.6389999 -3.4760001 -0.528 32
9.6470003 -3.4779999 -0.53299999 32
9.6470003 -3.477 -0.53600001 32
9.6400003 -3.473 -0.54000002 32
9.6499996 -3.4760001 -0.54400003 31
9.6590004 -3.477 -0.54799998 31
9.6529999 -3.473 -0.551 31
9.6529999 -3.4719999 -0.55500001 31
9.6429996 -3.4660001 -0.55800003 31
9.651 -3.467 -0.56199998 30
9.6440001 -3.4619999 -0.565 30
9.6499996 -3.4619999 -0.56900001 30
9.6490002 -3.4590001 -0.57200003 30
9.6499996 -3.457 -0.57599998 30
9.6529999 -3.4549999 -0.57999998 30
9.6619997 -3.4560001 -0.58399999 30
9.6560001 -3.45 -0.58700001 31
9.6669998 -3.451 -0.59100002 31
9.6569996 -3.444 -0.59399998 31
9.6759996 -3.448 -0.59799999 31
9.6789999 -3.4449999 -0.602 31
9.6809998 -3.4419999 -0.60500002 31
9.6879997 -3.441 -0.60900003 30
9.6890001 -3.437 -0.61199999 29
9.6929998 -3.434 -0.61500001 28
9.6920004 -3.4289999 -0.61900002 28
9.6949997 -3.4260001 -0.62199998 28
9.6899996 -3.4189999 -0.625 28
9.7019997 -3.4189999 -0.62900001 28
9.6990004 -3.4130001 -0.63200003 28
9.7060003 -3.411 -0.63499999 26
9.7329998 -3.415 -0.63999999 24
9.7309999 -3.4089999 -0.64300001 18
9.7329998 -3.404 -0.64600003 18
9.7349997 -3.3989999 -0.64899999 18
9.743 -3.3959999 -0.653 16
9.757 -3.395 -0.65600002 18
9.7510004 -3.3870001 -0.65899998 18
9.7550001 -3.382 -0.662 16
9.7729998 -3.382 -0.66600001 16
9.783 -3.3800001 -0.67000002 16
9.7819996 -3.3729999 -0.67199999 17
9.7969999 -3.3710001 -0.676 17
9.7989998 -3.365 -0.67900002 14
9.8129997 -3.3629999 -0.68300003 13
9.8260002 -3.3599999 -0.68599999 15
9.8330002 -3.355 -0.68900001 22
9.8450003 -3.352 -0.69300002 22
9.8529997 -3.3469999 -0.69599998 20
9.8859997 -3.3499999 -0.69999999 14
9.908 -3.3499999 -0.704 12
9.9160004 -3.345 -0.70700002 16
9.9320002 -3.342 -0.71100003 14
9.948 -3.339 -0.71499997 15
9.9799995 -3.3410001 -0.71899998 12
10.021 -3.346 -0.72399998 8
10.055 -3.349 -0.72899997 6
10.084 -3.3499999 -0.73400003 2
0 0 0 3
13.215 -4.3660002 -0.96700001 3
13.173 -4.3390002 -0.96700001 3
13.092 -4.3000002 -0.96399999 3
12.982 -4.2519999 -0.958 3
12.897 -4.211 -0.954 3
12.824 -4.1750002 -0.95200002 3
12.737 -4.1339998 -0.94800001 3
12.661 -4.0970001 -0.94400001 3
12.621 -4.0710001 -0.94400001 3
12.548 -4.0349998 -0.94 3
12.454 -3.9920001 -0.935 3
12.396 -3.96 -0.93300003 3
12.292 -3.9130001 -0.92799997 2
12.283 -3.898 -0.92900002 2
12.347 -3.904 -0.935 3
12.41 -3.9100001 -0.94199997 6
0 0 0 4
12.151 -3.802 -0.926 3
11.892 -3.707 -0.90799999 3
11.84 -3.677 -0.90499997 3
11.783 -3.6459999 -0.903 3
11.711 -3.609 -0.898 3
11.675 -3.585 -0.89700001 3
11.612 -3.5510001 -0.89300001 3
11.551 -3.5190001 -0.88999999 3
0 0 0 1
6.724 -2.0320001 -0.51899999 7
6.7680001 -2.0369999 -0.523 105
6.79 -2.0350001 -0.52600002 156
6.8060002 -2.0309999 -0.528 156
6.7919998 -2.0179999 -0.52700001 156
6.7729998 -2.0039999 -0.52600002 156
6.77 -1.994 -0.52600002 156
6.7690001 -1.985 -0.52700001 156
6.789 -1.982 -0.52899998 152
6.7740002 -1.969 -0.528 143
6.7969999 -1.966 -0.52999997 65
6.8189998 -1.9630001 -0.53200001 131
6.822 -1.955 -0.53299999 135
6.7449999 -1.923 -0.52700001 46
6.7129998 -1.905 -0.52399999 4
6.704 -1.893 -0.52399999 5
6.6830001 -1.878 -0.52200001 16
6.7140002 -1.877 -0.52499998 85
6.7709999 -1.883 -0.52899998 152
6.7379999 -1.864 -0.52700001 156
6.7600002 -1.8609999 -0.528 156
6.7709999 -1.854 -0.52899998 156
6.8000002 -1.852 -0.53100002 156
6.7810001 -1.837 -0.52999997 155
6.7940001 -1.83 -0.53100002 156
6.7800002 -1.816 -0.52899998 156
6.8109999 -1.814 -0.53200001 44
6.8280001 -1.808 -0.53299999 16
6.875 -1.8099999 -0.53600001 22
6.8740001 -1.8 -0.53500003 7
0 0 0 3
11.179 -2.8929999 -0.87 3
11.186 -2.8770001 -0.86900002 3
11.215 -2.8670001 -0.87099999 2
11.228 -2.8529999 -0.87099999 2
11.24 -2.8380001 -0.87099999 2
11.245 -2.8210001 -0.87 2
11.263 -2.8080001 -0.87 2
11.356 -2.813 -0.87599999 2
11.383 -2.8010001 -0.87699997 3
11.432 -2.7939999 -0.87900001 2
11.443 -2.7780001 -0.87900001 2
11.464 -2.7650001 -0.87900001 2
11.481 -2.75 -0.87900001 2
11.55 -2.7479999 -0.88200003 2
11.528 -2.723 -0.87900001 2
11.536 -2.7060001 -0.87800002 2
11.589 -2.6989999 -0.88 2
11.609 -2.684 -0.88 2
11.656 -2.675 -0.88099998 2
11.747 -2.6760001 -0.88599998 2
11.816 -2.671 -0.889 3
11.844 -2.658 -0.889 2
11.849 -2.638 -0.88700002 2
11.916 -2.632 -0.889 3
11.961 -2.622 -0.88999999 3
12.014 -2.6129999 -0.89099997 3
12.104 -2.6110001 -0.89499998 3
12.157 -2.6010001 -0.89600003 4
12.237 -2.5969999 -0.89899999 4
12.28 -2.5840001 -0.89999998 4
12.369 -2.5810001 -0.903 4
12.409 -2.5669999 -0.903 4
12.477 -2.559 -0.90399998 4
12.51 -2.543 -0.90399998 3
12.573 -2.5339999 -0.90499997 4
12.621 -2.5209999 -0.90399998 3
12.692 -2.5120001 -0.90600002 3
12.697 -2.49 -0.90200001 3
12.71 -2.4690001 -0.89899999 3
12.846 -2.473 -0.90499997 3
12.892 -2.4579999 -0.90399998 3
12.997 -2.454 -0.90700001 3
13.091 -2.447 -0.90899998 3
13.217 -2.4460001 -0.91399997 3
13.308 -2.438 -0.91500002 3
13.414 -2.4330001 -0.91799998 3
13.544 -2.4319999 -0.92199999 3
13.702 -2.4349999 -0.92799997 3
13.857 -2.4360001 -0.93300003 3
14.084 -2.45 -0.94300002 3
13.422 -2.309 -0.89300001 3
13.846 -2.3570001 -0.91600001 5
13.865 -2.3340001 -0.912 7
0 0 0 18
14.879 -2.448 -0.96600002 26
14.959 -2.4330001 -0.96600002 31
14.968 -2.4059999 -0.95899999 36
15.009 -2.3840001 -0.95599997 26
15.022 -2.3570001 -0.94999999 25
15.032 -2.3299999 -0.94400001 29
15.101 -2.312 -0.94099998 11
15.208 -2.3 -0.94099998 11
15.297 -2.2839999 -0.93900001 11
15.404 -2.27 -0.93800002 11
15.475 -2.25 -0.935 10
15.588 -2.237 -0.93400002 10
15.668 -2.2179999 -0.93099999 10
15.768 -2.2019999 -0.92900002 8
15.876 -2.1860001 -0.92699999 8
16.139 -2.191 -0.93400002 5
0 0 0 32
17.469 -2.3050001 -0.99299997 58
17.468 -2.27 -0.98400003 53
17.49 -2.24 -0.97500002 34
17.5 -2.207 -0.96600002 38
17.493 -2.171 -0.95599997 50
17.514 -2.1389999 -0.94700003 47
17.525999 -2.1070001 -0.93699998 43
17.535 -2.073 -0.92699999 44
17.555 -2.0420001 -0.91799998 39
17.593 -2.0120001 -0.91000003 25
17.621 -1.98 -0.89999998 31
17.65 -1.949 -0.89099997 28
17.697001 -1.919 -0.88200003 24
17.77 -1.892 -0.875 21
17.856001 -1.867 -0.86799997 14
0 0 0 25
0 0 0 25
0 0 0 25
0 0 0 25
0 0 0 2
33.887001 -3.1429999 -1.5140001 5
33.976002 -3.0840001 -1.494 15
0 0 0 43
20.018 -1.738 -0.85299999 72
20.003 -1.698 -0.838 57
20.002001 -1.658 -0.824 37
0 0 0 1
17.495001 -1.381 -0.69499999 1
17.419001 -1.341 -0.67900002 2
17.382 -1.304 -0.66500002 2
17.327999 -1.266 -0.64999998 2
17.263 -1.227 -0.63499999 2
17.237 -1.191 -0.62099999 2
17.275 -1.16 -0.60900003 2
17.205 -1.122 -0.59299999 2
17.172001 -1.086 -0.57800001 2
17.181 -1.053 -0.56599998 2
17.177 -1.0190001 -0.55199999 2
17.139999 -0.98299998 -0.537 1
17.127001 -0.94999999 -0.523 1
17.072001 -0.912 -0.50700003 14
17.084 -0.87900001 -0.493 167
17.101 -0.847 -0.479 185
17.056 -0.81199998 -0.46399999 185
17.077 -0.77899998 -0.44999999 185
17.077 -0.74599999 -0.43599999 185
17.038 -0.71100003 -0.41999999 185
17.045 -0.67799997 -0.40599999 185
17.01 -0.64300001 -0.38999999 185
17.039 -0.61199999 -0.37599999 185
