# .PCD v0.7 - Point Cloud Data file format
VERSION 0.7
FIELDS x y z intensity
SIZE 4 4 4 4
TYPE F F F F
COUNT 1 1 1 1
WIDTH 1647
HEIGHT 1
VIEWPOINT 0 0 0 1 0 0 0
POINTS 1647
DATA ascii
1.98 -0.458 -0.54500002 1
1.971 -0.45500001 -0.54400003 1
1.976 -0.45699999 -0.546 1
1.967 -0.45500001 -0.54500002 1
1.9680001 -0.45500001 -0.54699999 1
1.956 -0.45199999 -0.54500002 1
1.952 -0.45100001 -0.54400003 1
1.943 -0.449 -0.54299998 1
1.946 -0.449 -0.54500002 1
1.937 -0.447 -0.54299998 1
1.928 -0.44499999 -0.542 1
1.9299999 -0.44499999 -0.54299998 1
1.925 -0.44400001 -0.54299998 1
1.926 -0.44400001 -0.54400003 1
1.919 -0.442 -0.54299998 1
1.916 -0.44100001 -0.54299998 1
1.9069999 -0.43799999 -0.542 1
1.906 -0.43799999 -0.542 1
1.9069999 -0.43799999 -0.54299998 1
1.902 -0.43599999 -0.542 1
1.902 -0.43599999 -0.54299998 1
1.897 -0.435 -0.54299998 1
1.891 -0.433 -0.542 1
1.89 -0.43200001 -0.542 1
1.89 -0.43200001 -0.54299998 1
1.8789999 -0.42899999 -0.54000002 1
1.8789999 -0.428 -0.54100001 1
1.881 -0.428 -0.542 1
1.8789999 -0.42699999 -0.542 1
1.87 -0.42500001 -0.54000002 1
1.869 -0.42399999 -0.54000002 1
1.862 -0.42199999 -0.53899997 1
1.859 -0.421 -0.53799999 1
1.859 -0.41999999 -0.53899997 1
1.855 -0.419 -0.53799999 1
1.85 -0.417 -0.537 1
1.853 -0.417 -0.53899997 1
1.845 -0.41499999 -0.537 1
1.84 -0.41299999 -0.53600001 1
1.844 -0.41299999 -0.537 1
1.844 -0.412 -0.537 1
1.847 -0.412 -0.53799999 1
1.8380001 -0.41 -0.53600001 1
1.842 -0.41 -0.53799999 1
1.837 -0.40799999 -0.53600001 1
1.839 -0.40799999 -0.537 1
1.839 -0.40700001 -0.537 1
1.839 -0.40599999 -0.537 1
1.8380001 -0.405 -0.537 1
1.842 -0.405 -0.53899997 1
1.836 -0.403 -0.537 1
1.836 -0.40200001 -0.537 1
1.8380001 -0.40200001 -0.53799999 1
1.834 -0.40000001 -0.537 1
1.8329999 -0.39899999 -0.53600001 1
1.834 -0.398 -0.537 1
1.837 -0.398 -0.53799999 1
1.8380001 -0.39700001 -0.53799999 1
1.835 -0.396 -0.537 1
1.835 -0.39500001 -0.537 1
1.839 -0.39500001 -0.53799999 1
1.841 -0.39399999 -0.53799999 1
1.835 -0.39199999 -0.53600001 1
1.846 -0.39300001 -0.53899997 1
1.844 -0.391 -0.53799999 1
1.839 -0.389 -0.537 1
1.834 -0.38699999 -0.53500003 1
1.842 -0.38800001 -0.537 1
1.837 -0.38600001 -0.53500003 1
1.847 -0.38699999 -0.53799999 1
1.85 -0.38600001 -0.53799999 1
1.851 -0.38499999 -0.53799999 1
1.849 -0.384 -0.537 1
1.846 -0.382 -0.53600001 1
1.862 -0.384 -0.54000002 1
1.852 -0.38100001 -0.537 1
1.864 -0.382 -0.54000002 1
1.864 -0.38100001 -0.53899997 1
1.865 -0.38 -0.53899997 1
1.8609999 -0.377 -0.537 1
1.8609999 -0.37599999 -0.537 1
1.864 -0.37599999 -0.537 1
1.8609999 -0.37400001 -0.53500003 1
1.865 -0.373 -0.53600001 1
1.867 -0.37200001 -0.53600001 1
1.876 -0.373 -0.53799999 1
1.881 -0.37200001 -0.53799999 1
1.883 -0.37099999 -0.53799999 1
1.882 -0.36899999 -0.537 1
1.8940001 -0.37099999 -0.54000002 1
1.895 -0.36899999 -0.53899997 1
1.893 -0.36700001 -0.53799999 1
1.897 -0.36700001 -0.53799999 1
1.9069999 -0.36700001 -0.54000002 1
1.908 -0.366 -0.53899997 1
1.9170001 -0.366 -0.54100001 1
1.919 -0.36500001 -0.54000002 1
1.909 -0.361 -0.537 1
1.926 -0.36300001 -0.54100001 1
1.931 -0.36199999 -0.54100001 1
1.939 -0.36199999 -0.542 1
1.941 -0.361 -0.542 1
1.948 -0.361 -0.542 1
1.942 -0.35800001 -0.54000002 1
1.95 -0.35800001 -0.54100001 1
1.9529999 -0.35699999 -0.54000002 1
1.9529999 -0.35499999 -0.53899997 1
1.96 -0.35499999 -0.54000002 1
1.9630001 -0.354 -0.53899997 1
1.972 -0.35299999 -0.54000002 1
1.98 -0.35299999 -0.54100001 1
1.973 -0.34999999 -0.53799999 1
1.989 -0.35100001 -0.54100001 1
2.0020001 -0.352 -0.54299998 1
2.016 -0.352 -0.54500002 1
2.023 -0.352 -0.546 1
2.0239999 -0.34999999 -0.54500002 1
2.0350001 -0.34999999 -0.546 1
2.039 -0.34900001 -0.54500002 1
2.0469999 -0.34799999 -0.546 1
2.0580001 -0.34799999 -0.54699999 1
2.0610001 -0.347 -0.546 1
2.072 -0.347 -0.54799998 1
2.0840001 -0.347 -0.54900002 1
2.089 -0.34599999 -0.54900002 1
2.086 -0.34299999 -0.546 1
2.0899999 -0.34200001 -0.54500002 1
2.109 -0.34299999 -0.54799998 1
2.1129999 -0.34099999 -0.54699999 1
2.1140001 -0.34 -0.546 1
2.1300001 -0.34 -0.54799998 1
2.1400001 -0.34 -0.54900002 1
2.1440001 -0.338 -0.54799998 1
2.148 -0.33700001 -0.54699999 1
2.1600001 -0.336 -0.54799998 1
2.168 -0.33500001 -0.54799998 1
2.187 -0.336 -0.55000001 1
2.201 -0.336 -0.551 1
2.2019999 -0.33399999 -0.55000001 1
2.214 -0.33399999 -0.55000001 1
2.2249999 -0.333 -0.551 1
2.257 -0.33500001 -0.55599999 1
0 0 0 1
2.2969999 -0.33700001 -0.56099999 1
2.3169999 -0.33700001 -0.56400001 1
2.3759999 -0.34400001 -0.57599998 1
2.5090001 -0.36000001 -0.60500002 1
0 0 0 1
2.3239999 -0.329 -0.55599999 1
2.3329999 -0.32800001 -0.55500001 1
2.3429999 -0.32699999 -0.55500001 1
2.4749999 -0.34299999 -0.583 1
2.487 -0.34200001 -0.583 1
2.4449999 -0.333 -0.56999999 1
2.3929999 -0.324 -0.55599999 1
2.5009999 -0.336 -0.57800001 1
2.467 -0.329 -0.56699997 1
2.437 -0.322 -0.55699998 1
2.457 -0.322 -0.55900002 1
2.523 -0.32800001 -0.57099998 1
2.527 -0.32600001 -0.56800002 1
2.539 -0.32499999 -0.56800002 1
2.5710001 -0.32600001 -0.57200003 1
2.569 -0.32300001 -0.56800002 1
2.6429999 -0.33000001 -0.58099997 1
2.6289999 -0.32499999 -0.57499999 1
2.675 -0.32800001 -0.58099997 1
2.6070001 -0.317 -0.56300002 1
2.6919999 -0.324 -0.57800001 1
2.6459999 -0.31600001 -0.565 1
2.6919999 -0.31900001 -0.57099998 1
2.7049999 -0.317 -0.56999999 1
2.7460001 -0.31900001 -0.57499999 1
2.747 -0.317 -0.57099998 1
2.747 -0.31400001 -0.56800002 1
2.7720001 -0.31400001 -0.56900001 2
2.793 -0.31299999 -0.56999999 2
2.8110001 -0.31200001 -0.56900001 2
2.8369999 -0.31200001 -0.57099998 2
2.8529999 -0.31099999 -0.56999999 2
2.881 -0.31099999 -0.57099998 2
2.908 -0.31 -0.57300001 2
2.924 -0.30899999 -0.57200003 2
2.9630001 -0.31 -0.57499999 2
2.99 -0.31 -0.57599998 2
3.01 -0.30899999 -0.57499999 2
3.043 -0.30899999 -0.57700002 1
3.1110001 -0.31200001 -0.58499998 2
3.1059999 -0.308 -0.57999998 2
3.1300001 -0.308 -0.579 2
3.1659999 -0.308 -0.58099997 2
3.1960001 -0.30700001 -0.58200002 2
3.2260001 -0.30700001 -0.58200002 2
3.2550001 -0.30599999 -0.583 2
3.362 -0.31200001 -0.59600002 2
3.4059999 -0.31299999 -0.59899998 2
3.5190001 -0.31999999 -0.61299998 2
3.4879999 -0.31299999 -0.60299999 2
3.474 -0.308 -0.59500003 2
3.4790001 -0.30500001 -0.58999997 2
3.631 -0.315 -0.61000001 3
3.5569999 -0.30399999 -0.59200001 2
3.6700001 -0.31 -0.60500002 3
3.6659999 -0.30599999 -0.59799999 2
3.74 -0.308 -0.60399997 2
3.7750001 -0.30700001 -0.60299999 3
3.8299999 -0.308 -0.60600001 3
3.8239999 -0.30399999 -0.59899998 2
3.8900001 -0.30500001 -0.60299999 2
3.983 -0.308 -0.61000001 3
4.0019999 -0.30500001 -0.60699999 2
4.0419998 -0.30399999 -0.60600001 2
4.112 -0.30500001 -0.60900003 2
4.165 -0.30500001 -0.61000001 2
4.244 -0.30700001 -0.61500001 2
4.3210001 -0.308 -0.61799997 2
4.3839998 -0.308 -0.62 2
4.4489999 -0.308 -0.62199998 2
4.5139999 -0.308 -0.62300003 2
4.592 -0.30899999 -0.62599999 2
4.6659999 -0.30899999 -0.62800002 3
4.7470002 -0.31 -0.63 3
4.8299999 -0.31099999 -0.63300002 3
4.9109998 -0.31099999 -0.634 3
5.007 -0.31200001 -0.63800001 3
5.1279998 -0.315 -0.64499998 3
5.2589998 -0.31799999 -0.65200001 6
5.3379998 -0.317 -0.65200001 9
5.4050002 -0.31600001 -0.64999998 13
5.4809999 -0.315 -0.64899999 12
5.5960002 -0.317 -0.653 9
5.6989999 -0.317 -0.65499997 7
5.855 -0.31999999 -0.662 4
5.9959998 -0.322 -0.667 4
6.118 -0.32300001 -0.66900003 3
6.1960001 -0.32100001 -0.66600001 5
6.2150002 -0.31600001 -0.65600002 5
6.2150002 -0.31099999 -0.64499998 4
6.2529998 -0.30700001 -0.63700002 3
6.27 -0.30199999 -0.62699997 2
6.302 -0.29800001 -0.61900002 2
6.3099999 -0.292 -0.60799998 2
6.303 -0.28600001 -0.59500003 2
6.3130002 -0.28099999 -0.58399999 2
6.309 -0.27500001 -0.57200003 2
6.2979999 -0.26899999 -0.55900002 3
6.323 -0.26499999 -0.54900002 111
6.3249998 -0.259 -0.537 153
6.302 -0.25299999 -0.523 155
6.3200002 -0.248 -0.51300001 155
6.335 -0.243 -0.50199997 155
6.3309999 -0.23800001 -0.49000001 155
6.3210001 -0.23199999 -0.47600001 155
6.3140001 -0.226 -0.46399999 41
6.2490001 -0.219 -0.447 23
6.29 -0.215 -0.43799999 155
6.309 -0.20999999 -0.42699999 155
6.3610001 -0.207 -0.41800001 157
6.348 -0.20100001 -0.40400001 157
6.3530002 -0.19599999 -0.39199999 160
6.3569999 -0.191 -0.38 158
6.3400002 -0.186 -0.36700001 156
6.3249998 -0.18000001 -0.35299999 155
6.2839999 -0.17399999 -0.33899999 30
6.3119998 -0.17 -0.32800001 152
6.3179998 -0.16500001 -0.315 155
6.3540001 -0.161 -0.30399999 167
6.3600001 -0.156 -0.292 166
6.3429999 -0.15099999 -0.27900001 158
6.335 -0.146 -0.266 155
6.3569999 -0.142 -0.25400001 155
6.316 -0.13600001 -0.23999999 155
6.3629999 -0.133 -0.229 155
6.3639998 -0.12800001 -0.21600001 155
6.3369999 -0.123 -0.20200001 152
6.3930001 -0.119 -0.191 99
6.3920002 -0.115 -0.178 55
6.4229999 -0.111 -0.16599999 25
6.4159999 -0.106 -0.153 4
0 0 0 23
28.367001 -0.43200001 -0.56199998 50
28.364 -0.41299999 -0.505 45
28.357 -0.39399999 -0.447 45
28.341999 -0.375 -0.389 56
28.336 -0.35600001 -0.331 49
28.306 -0.33700001 -0.273 48
28.298 -0.31900001 -0.215 50
28.306999 -0.301 -0.15700001 58
28.305 -0.28299999 -0.1 45
28.297001 -0.26499999 -0.041999999 45
28.290001 -0.248 0.014 49
28.319 -0.23100001 0.071999997 26
28.466 -0.215 0.131 8
0 0 0 10
31.045 -0.198 0.27000001 15
31.021999 -0.17900001 0.333 19
31.006001 -0.162 0.396 19
31.028999 -0.14399999 0.461 13
31.253 -0.127 0.52899998 7
31.517 -0.111 0.59799999 7
31.565001 -0.093999997 0.66299999 7
31.547001 -0.077 0.727 6
31.558001 -0.059999999 0.79400003 7
31.566999 -0.043000001 0.85900003 8
31.538 -0.027000001 0.92299998 7
31.552999 -0.0099999998 0.98900002 8
0 0 0 1
28.358999 0.017999999 1.005 2
0 0 0 14
31.504 0.050999999 1.245 16
31.506001 0.066 1.311 17
31.476 0.081 1.374 15
31.441999 0.094999999 1.437 19
31.459999 0.109 1.502 41
31.472 0.123 1.567 56
31.468 0.13699999 1.632 57
31.462999 0.15099999 1.697 57
31.461 0.164 1.761 46
31.451 0.178 1.824 52
31.459 0.191 1.8890001 55
31.436001 0.20299999 1.952 51
31.437 0.21600001 2.016 54
31.431999 0.228 2.0799999 55
31.413 0.23999999 2.1440001 55
31.437 0.252 2.2090001 56
31.423 0.264 2.2720001 47
31.426001 0.27500001 2.3369999 45
31.379999 0.28600001 2.3970001 45
31.319 0.296 2.457 46
31.261999 0.30700001 2.5150001 54
31.266001 0.317 2.579 51
31.254 0.32699999 2.642 54
31.25 0.33700001 2.704 55
31.245001 0.347 2.767 55
31.247 0.35699999 2.8310001 55
31.24 0.366 2.8940001 53
31.249001 0.375 2.9560001 55
31.237 0.384 3.0179999 55
31.229 0.39199999 3.0799999 43
31.219999 0.40099999 3.142 48
31.235001 0.40900001 3.2060001 32
31.278999 0.41800001 3.273 12
0 0 0 0
0 0 0 0
0 0 0 0
0 0 0 0
0 0 0 0
0 0 0 0
0 0 0 0
0 0 0 0
0 0 0 0
0 0 0 0
0 0 0 0
0 0 0 0
0 0 0 0
0 0 0 1
0 0 0 0
0 0 0 0
0 0 0 3
42.144001 0.70899999 5.902 2
0 0 0 0
0 0 0 0
0 0 0 0
0 0 0 2
40.019001 0.69700003 5.9879999 2
39.769001 0.69700003 6.027 2
0 0 0 0
0 0 0 3
35.523998 0.63099998 5.5840001 3
0 0 0 0
0 0 0 2
37.063 0.66600001 6.0359998 2
36.544998 0.65899998 6.02 3
36.248001 0.65499997 6.039 3
35.918999 0.64999998 6.0510001 4
35.529999 0.64499998 6.0510001 10
35.268002 0.64099997 6.0700002 19
35.078999 0.63800001 6.1030002 26
34.812 0.634 6.1199999 25
34.525002 0.62900001 6.132 25
34.241001 0.62400001 6.1440001 25
33.946999 0.61900002 6.152 24
33.655998 0.61299998 6.1599998 24
33.373001 0.60699999 6.1680002 23
33.110001 0.602 6.1789999 23
32.841999 0.59600002 6.1869998 22
32.566002 0.58999997 6.1929998 21
32.310001 0.58399999 6.2020001 22
32.07 0.57800001 6.2119999 22
31.804001 0.57200003 6.2160001 26
31.549999 0.565 6.2220001 24
31.319 0.56 6.23 23
31.101999 0.55400002 6.2410002 24
30.878 0.54799998 6.25 25
30.648001 0.542 6.256 24
30.414 0.53500003 6.2600002 27
30.228001 0.52899998 6.2729998 25
30.045 0.523 6.2859998 26
29.802 0.51599997 6.2849998 23
29.601 0.509 6.2919998 27
29.416 0.50300002 6.302 24
29.200001 0.49599999 6.3039999 26
28.999001 0.48899999 6.309 23
28.816999 0.48300001 6.316 29
28.615999 0.47499999 6.3179998 25
28.452 0.46900001 6.3280001 24
28.259001 0.46200001 6.3309999 24
28.073 0.45500001 6.335 25
27.927999 0.44800001 6.348 24
27.729 0.44100001 6.3460002 24
27.546 0.43399999 6.3470001 26
27.402 0.42699999 6.3569999 24
27.24 0.41999999 6.362 27
27.089001 0.41299999 6.369 23
26.927 0.40599999 6.3720002 24
26.766001 0.398 6.3740001 23
26.622 0.391 6.3800001 24
26.476 0.38499999 6.3850002 24
26.336 0.377 6.3909998 23
26.16 0.36899999 6.3870001 25
26.039 0.36199999 6.3959999 24
25.893 0.35499999 6.3990002 25
25.764999 0.34799999 6.4050002 25
25.622999 0.34 6.4070001 25
25.487 0.333 6.4089999 25
25.355 0.32600001 6.4120002 24
25.219999 0.31799999 6.414 24
25.107 0.31099999 6.4190001 28
24.983999 0.30399999 6.4229999 26
24.864 0.296 6.427 30
24.76 0.28799999 6.434 25
24.639 0.28099999 6.4359999 25
24.528 0.27399999 6.4400001 25
24.399 0.266 6.4400001 24
24.291 0.25799999 6.4439998 24
24.158001 0.25 6.441 24
24.066999 0.244 6.447 29
23.952999 0.236 6.448 26
23.848 0.228 6.4510002 26
23.757999 0.221 6.4569998 30
23.667 0.213 6.4619999 25
23.559999 0.205 6.4629998 30
23.469999 0.198 6.467 26
23.372999 0.191 6.4699998 30
23.284 0.183 6.473 26
23.197001 0.175 6.4770002 26
23.098 0.168 6.4770002 31
23.003 0.16 6.4780002 26
22.931999 0.153 6.4850001 27
22.834 0.145 6.4840002 26
22.753 0.13699999 6.4860001 29
22.676001 0.13 6.4899998 24
22.597 0.122 6.493 24
22.504999 0.115 6.4920001 24
22.429001 0.107 6.494 27
22.368999 0.098999999 6.5009999 24
22.325001 0.092 6.5120001 25
22.349001 0.085000001 6.5430002 20
22.448 0.078000002 6.5960002 15
22.478001 0.068999998 6.6279998 28
22.525999 0.061999999 6.665 30
22.604 0.055 6.711 33
22.642 0.048 6.7449999 27
22.698 0.039000001 6.7839999 24
22.711 0.032000002 6.8109999 28
22.705999 0.024 6.8309999 27
22.702999 0.016000001 6.8520002 27
22.683001 0.0080000004 6.8670001 26
22.681 0 6.8870001 27
22.656 -0.0080000004 6.9000001 24
22.646 -0.016000001 6.9180002 27
22.618999 -0.024 6.9289999 29
22.611 -0.032000002 6.9460001 25
22.566 -0.041000001 6.9520001 29
22.552999 -0.048999999 6.967 31
22.511 -0.057999998 6.973 31
22.469 -0.064999998 6.9790001 30
22.434 -0.072999999 6.9860001 26
22.399 -0.082000002 6.993 31
22.344 -0.090000004 6.9920001 30
22.306 -0.097999997 6.9980001 30
22.243999 -0.107 6.9949999 24
22.195999 -0.115 6.9959998 27
22.158001 -0.123 7 28
22.091999 -0.132 6.9949999 27
22.047001 -0.139 6.9959998 27
22.004 -0.148 6.9980001 27
21.962 -0.156 6.9990001 29
21.924999 -0.164 7.0019999 22
21.893 -0.17200001 7.006 23
21.858999 -0.18099999 7.0079999 23
21.806999 -0.189 7.0050001 23
21.759001 -0.198 7.0029998 27
21.726999 -0.205 7.0050001 24
21.694 -0.214 7.007 31
21.667 -0.222 7.0100002 29
21.632 -0.23100001 7.0110002 31
21.584999 -0.23800001 7.007 29
21.572001 -0.24699999 7.0139999 26
21.532 -0.255 7.0120001 31
21.504 -0.26300001 7.013 25
21.475 -0.27200001 7.0139999 30
21.438999 -0.28 7.0120001 29
21.407 -0.28799999 7.0110002 28
21.385 -0.29699999 7.013 23
21.367001 -0.30500001 7.0159998 28
21.341 -0.31299999 7.0159998 23
21.308001 -0.322 7.0139999 27
21.278 -0.33000001 7.0120001 29
21.263 -0.338 7.0149999 28
21.243 -0.347 7.0159998 24
21.23 -0.35499999 7.0190001 28
21.202 -0.36399999 7.0159998 24
21.193001 -0.37200001 7.0190001 23
21.177 -0.38 7.02 24
21.16 -0.389 7.02 24
21.142 -0.39700001 7.02 24
21.127001 -0.405 7.02 23
21.120001 -0.414 7.0229998 28
21.087 -0.42199999 7.0159998 26
21.084 -0.43000001 7.02 24
21.072001 -0.43799999 7.0190001 23
21.063999 -0.447 7.0209999 23
21.046 -0.456 7.0180001 27
21.046 -0.465 7.0209999 26
21.034 -0.472 7.02 27
21.018 -0.48100001 7.0170002 26
21.032 -0.49000001 7.0240002 24
21.011 -0.498 7.0180001 28
21.011999 -0.50700003 7.02 28
21.02 -0.51499999 7.0240002 23
21.018 -0.52399999 7.0250001 28
21.006001 -0.53200001 7.0209999 28
21.003 -0.54000002 7.0209999 28
21.007999 -0.54900002 7.0219998 27
21.01 -0.55699998 7.0229998 23
21.007999 -0.56599998 7.0209999 27
21.007999 -0.574 7.02 23
21.018999 -0.583 7.0229998 27
21.013 -0.59200001 7.0190001 27
21.016001 -0.60000002 7.0190001 27
21.021999 -0.60799998 7.0180001 21
21.030001 -0.61699998 7.0190001 27
21.044001 -0.62599999 7.0209999 23
21.045 -0.63499999 7.0180001 22
21.049999 -0.64300001 7.0159998 27
21.069 -0.65200001 7.0190001 23
21.068001 -0.66000003 7.0139999 27
21.082001 -0.66799998 7.0149999 28
21.1 -0.67699999 7.0159998 23
21.112 -0.68599999 7.0149999 25
21.113001 -0.69400001 7.0100002 29
21.122 -0.70300001 7.0079999 30
21.115999 -0.71200001 7 29
21.122 -0.72000003 6.9959998 29
21.106001 -0.727 6.9840002 30
21.099001 -0.73500001 6.9749999 30
21.108999 -0.74400002 6.9710002 29
21.080999 -0.75099999 6.9549999 28
21.079 -0.75800002 6.947 23
21.048 -0.76499999 6.9289999 26
21.041 -0.773 6.9180002 28
21.024 -0.77999997 6.9039998 28
20.996 -0.78600001 6.8860002 29
20.978001 -0.79400003 6.8709998 27
20.966 -0.801 6.8569999 29
20.933001 -0.80699998 6.8369999 31
20.891001 -0.81400001 6.8130002 31
20.804001 -0.81699997 6.7750001 31
20.753 -0.82300001 6.7480001 35
20.674999 -0.82800001 6.711 31
20.608999 -0.83200002 6.6789999 28
20.514999 -0.83600003 6.638 26
20.417999 -0.83899999 6.5949998 23
20.358 -0.84299999 6.5640001 28
20.339001 -0.85000002 6.546 25
20.351999 -0.85699999 6.5380001 26
20.375999 -0.866 6.533 25
20.417 -0.87400001 6.533 23
20.445999 -0.88300002 6.5289998 30
20.476999 -0.89099997 6.526 32
20.514999 -0.89999998 6.5240002 32
20.569 -0.90899998 6.527 25
20.599001 -0.917 6.5219998 31
20.645 -0.926 6.5219998 28
20.693001 -0.93400002 6.5219998 29
20.73 -0.94300002 6.5190001 28
20.773001 -0.95200002 6.5170002 30
20.827999 -0.95999998 6.5190001 31
20.877001 -0.96899998 6.5180001 26
20.92 -0.97799999 6.5139999 29
20.971001 -0.986 6.5139999 31
21.028999 -0.99599999 6.5149999 24
21.059999 -1.0039999 6.507 31
21.114 -1.013 6.5050001 26
21.18 -1.022 6.5079999 25
21.23 -1.031 6.5050001 25
21.257999 -1.039 6.494 30
21.329 -1.048 6.4970002 25
21.377001 -1.056 6.493 30
21.431999 -1.0650001 6.4889998 29
21.502001 -1.075 6.4910002 28
21.57 -1.084 6.4910002 23
21.620001 -1.0930001 6.4850001 23
21.677 -1.102 6.4809999 29
21.754 -1.1109999 6.4829998 29
21.826 -1.12 6.4819999 29
21.910999 -1.131 6.4850001 24
21.958 -1.138 6.4770002 28
22.037001 -1.148 6.4770002 28
22.108 -1.158 6.4759998 24
22.181999 -1.1670001 6.474 24
22.239 -1.175 6.4660001 28
22.315001 -1.184 6.4640002 24
22.399 -1.194 6.4640002 23
22.462 -1.2029999 6.4569998 28
22.546 -1.212 6.4559999 27
22.652 -1.223 6.461 24
22.736 -1.233 6.4590001 28
22.815001 -1.242 6.454 23
22.905001 -1.252 6.4530001 24
22.978001 -1.261 6.4460001 23
23.047001 -1.2690001 6.4390001 27
23.149 -1.279 6.4400001 27
23.243999 -1.289 6.4380002 22
23.356001 -1.3 6.4400001 22
23.441999 -1.3099999 6.4349999 21
23.540001 -1.319 6.4330001 25
23.649 -1.33 6.4330001 22
23.733999 -1.339 6.427 26
23.847 -1.349 6.427 26
23.948999 -1.359 6.4239998 23
24.054001 -1.369 6.421 27
24.166 -1.378 6.4190001 29
24.266001 -1.388 6.414 28
24.371 -1.398 6.4089999 24
24.486 -1.408 6.4060001 24
24.591999 -1.418 6.402 23
24.709 -1.427 6.3979998 22
24.813 -1.437 6.3899999 25
24.947001 -1.448 6.3899999 25
25.084999 -1.459 6.3909998 22
25.212999 -1.469 6.388 21
25.334 -1.479 6.3829999 26
25.454 -1.489 6.3769999 23
25.565001 -1.499 6.368 27
25.719 -1.511 6.368 23
25.841999 -1.52 6.3610001 28
25.993 -1.531 6.3610001 23
26.105 -1.54 6.3499999 26
26.250999 -1.55 6.3460002 21
26.382999 -1.5599999 6.3379998 21
26.551001 -1.572 6.3400002 23
26.700001 -1.5829999 6.335 23
26.84 -1.592 6.3270001 26
27.000999 -1.604 6.3239999 24
27.171 -1.615 6.323 24
27.334999 -1.626 6.3179998 24
27.52 -1.638 6.3179998 25
27.643999 -1.646 6.303 29
27.742001 -1.653 6.283 35
27.797001 -1.6569999 6.2509999 38
27.802999 -1.658 6.2080002 44
27.806 -1.658 6.164 46
27.802999 -1.658 6.119 46
27.798 -1.658 6.0739999 45
27.787001 -1.6569999 6.026 43
27.798 -1.6569999 5.9829998 44
27.795 -1.6569999 5.9369998 41
27.782 -1.655 5.888 40
27.780001 -1.654 5.842 43
27.775999 -1.653 5.7950001 42
27.784 -1.652 5.75 45
27.798 -1.651 5.7059999 46
27.775999 -1.649 5.6539998 46
27.788 -1.648 5.6090002 46
27.791 -1.647 5.5619998 48
27.774 -1.6440001 5.5120001 47
27.778 -1.642 5.4650002 47
27.775999 -1.64 5.415 46
27.783001 -1.638 5.369 47
27.775999 -1.635 5.3200002 46
27.775 -1.632 5.2719998 37
27.767 -1.628 5.2210002 43
27.764 -1.625 5.1719999 41
27.771 -1.622 5.125 41
27.775999 -1.619 5.0770001 42
27.764999 -1.615 5.026 40
27.774 -1.612 4.9770002 40
27.775999 -1.608 4.928 42
27.774 -1.604 4.8769999 42
27.771 -1.599 4.8270001 41
27.766001 -1.594 4.776 41
27.780001 -1.591 4.7280002 41
27.757999 -1.584 4.6739998 41
27.775999 -1.581 4.6259999 42
27.767 -1.575 4.5739999 42
27.76 -1.569 4.5219998 39
27.76 -1.563 4.4710002 40
27.768999 -1.558 4.421 40
27.774 -1.553 4.3699999 38
27.771999 -1.5470001 4.3179998 39
27.767 -1.54 4.2659998 37
27.768999 -1.534 4.2140002 40
27.775 -1.527 4.1630001 41
27.771 -1.52 4.1100001 41
27.775 -1.513 4.059 40
27.77 -1.506 4.006 38
27.778999 -1.499 3.9549999 37
27.783001 -1.492 3.9030001 31
27.785 -1.484 3.8499999 36
27.791 -1.477 3.7980001 37
27.780001 -1.4680001 3.7449999 36
27.785 -1.46 3.6930001 35
27.794001 -1.452 3.641 35
27.794001 -1.443 3.5869999 35
27.806 -1.4349999 3.5350001 36
27.813 -1.426 3.4820001 37
27.813 -1.4170001 3.428 36
27.813999 -1.4069999 3.3740001 35
27.813 -1.398 3.3199999 35
27.823999 -1.388 3.267 35
27.843 -1.3789999 3.2149999 32
27.830999 -1.369 3.1589999 33
27.841 -1.358 3.1059999 32
27.837999 -1.348 3.053 32
27.847 -1.337 2.9990001 30
27.863001 -1.327 2.9460001 28
27.868999 -1.316 2.892 28
27.871 -1.3049999 2.8380001 25
27.895 -1.295 2.7850001 25
27.903999 -1.283 2.7320001 25
27.927 -1.272 2.6789999 25
27.948999 -1.261 2.625 23
27.983 -1.25 2.572 21
27.993 -1.238 2.517 18
28.023001 -1.226 2.4649999 12
28.046 -1.214 2.411 10
28.098 -1.2029999 2.3599999 5
28.09 -1.189 2.303 1
0 0 0 46
32.030998 -1.325 2.4990001 47
32.051998 -1.3099999 2.4360001 45
32.216 -1.3 2.3840001 21
32.708 -1.303 2.3559999 18
33.355 -1.311 2.336 13
31.882 -1.2359999 2.1689999 1
0 0 0 0
0 0 0 11
36.333 -1.35 2.2550001 17
36.352001 -1.33 2.1819999 20
36.332001 -1.309 2.108 27
36.333 -1.288 2.0350001 23
0 0 0 1
28.978001 -0.99299997 1.507 1
0 0 0 4
36.275002 -1.2 1.74 5
36.272999 -1.178 1.6670001 5
36.231998 -1.154 1.592 4
36.268002 -1.133 1.522 7
36.237999 -1.109 1.447 8
36.223 -1.086 1.375 7
36.242001 -1.063 1.303 6
36.390999 -1.044 1.235 3
0 0 0 0
0 0 0 2
31.419001 -0.83899999 0.87800002 6
31.384001 -0.81699997 0.815 10
31.361 -0.79500002 0.75 13
31.344 -0.773 0.68699998 15
31.316999 -0.75 0.62400001 13
31.298 -0.72799999 0.56199998 13
31.231001 -0.704 0.49900001 9
0 0 0 2
28.615999 -0.60399997 0.34299999 7
28.514999 -0.58099997 0.285 21
28.476999 -0.56 0.228 36
28.437 -0.53799999 0.171 44
28.429001 -0.51599997 0.115 45
28.422001 -0.49399999 0.057999998 47
28.417 -0.47299999 0.0020000001 43
28.384001 -0.44999999 -0.052999999 48
28.377001 -0.428 -0.11 48
28.379999 -0.40599999 -0.16500001 51
28.361 -0.384 -0.221 49
28.347 -0.361 -0.27599999 53
28.348 -0.338 -0.33199999 42
28.333 -0.31600001 -0.38699999 50
28.309999 -0.292 -0.442 51
28.289 -0.26899999 -0.498 51
28.296 -0.24600001 -0.55299997 50
28.277 -0.222 -0.60699999 50
28.266001 -0.199 -0.662 38
28.238001 -0.175 -0.71700001 21
28.268999 -0.15099999 -0.773 6
0 0 0 39
31.549 -0.114 -0.98400003 46
31.539 -0.086999997 -1.045 44
31.518999 -0.059 -1.105 45
31.52 -0.030999999 -1.1670001 42
31.496 -0.0040000002 -1.227 39
31.459999 0.024 -1.286 31
0 0 0 1
12.21 0.030999999 -0.54500002 17
12.195 0.041999999 -0.56800002 22
12.186 0.052999999 -0.58999997 24
12.189 0.064000003 -0.61400002 25
12.18 0.075000003 -0.63599998 33
12.176 0.086000003 -0.65899998 24
12.177 0.097999997 -0.68199998 22
12.167 0.109 -0.70499998 23
12.16 0.12 -0.727 42
12.152 0.132 -0.74900001 36
12.14 0.14300001 -0.77200001 33
12.105 0.155 -0.792 27
11.934 0.164 -0.80299997 14
11.451 0.169 -0.792 4
10.917 0.171 -0.77499998 2
10.443 0.17399999 -0.76099998 2
10.065 0.177 -0.75099999 3
9.6850004 0.18000001 -0.741 4
9.382 0.184 -0.73500001 4
9.0970001 0.18700001 -0.72899997 4
8.7959995 0.19 -0.72100002 3
8.533 0.193 -0.71499997 4
8.2309999 0.19400001 -0.70499998 4
7.993 0.197 -0.699 4
7.7849998 0.2 -0.69499999 4
7.6020002 0.20299999 -0.69099998 4
7.4070001 0.205 -0.68699998 4
7.2290001 0.208 -0.68300003 4
7.0320001 0.20900001 -0.67699999 5
6.8299999 0.20999999 -0.67000002 10
6.6609998 0.212 -0.66500002 10
6.5310001 0.215 -0.66399997 9
6.4180002 0.21799999 -0.66399997 8
6.309 0.221 -0.66299999 6
6.165 0.222 -0.65899998 4
6.0100002 0.223 -0.653 4
5.8860002 0.22499999 -0.64899999 3
5.7670002 0.226 -0.64600003 3
5.6539998 0.228 -0.64300001 3
5.5500002 0.23 -0.64099997 4
5.4289999 0.23100001 -0.63599998 3
5.3330002 0.23199999 -0.634 3
5.2459998 0.234 -0.63200003 4
5.132 0.235 -0.62699997 3
5.039 0.236 -0.62400001 3
4.9549999 0.237 -0.62199998 3
4.8660002 0.23899999 -0.61900002 3
4.79 0.23999999 -0.61699998 3
4.7059999 0.241 -0.61400002 3
4.6230001 0.242 -0.611 3
4.5599999 0.244 -0.61000001 3
4.4780002 0.244 -0.60600001 4
4.4219999 0.24600001 -0.60600001 2
4.3390002 0.24600001 -0.60100001 2
4.296 0.249 -0.602 3
4.2119999 0.249 -0.597 2
4.1479998 0.249 -0.59500003 2
4.131 0.25299999 -0.59899998 2
4.0279999 0.25099999 -0.58999997 2
4.0840001 0.259 -0.60500002 3
3.9430001 0.255 -0.58999997 2
3.9679999 0.26100001 -0.60000002 3
3.8510001 0.25799999 -0.58899999 1
3.8740001 0.264 -0.59799999 3
3.7809999 0.26199999 -0.58899999 2
3.71 0.26100001 -0.58399999 4
3.6800001 0.26300001 -0.58499998 4
3.645 0.26499999 -0.58499998 3
3.6329999 0.26800001 -0.588 2
3.559 0.26699999 -0.58200002 2
3.5209999 0.26800001 -0.57999998 1
3.5150001 0.271 -0.58499998 2
3.447 0.27000001 -0.57800001 1
3.4849999 0.27700001 -0.58999997 1
3.438 0.27700001 -0.58700001 2
3.3840001 0.27700001 -0.58200002 2
3.322 0.27500001 -0.57599998 2
3.299 0.27700001 -0.57700002 2
3.375 0.28799999 -0.59500003 2
3.2479999 0.28 -0.57700002 2
3.2920001 0.28799999 -0.58999997 2
3.27 0.28999999 -0.58999997 2
3.164 0.28400001 -0.57599998 1
3.1930001 0.28999999 -0.58499998 2
3.072 0.28299999 -0.56699997 2
3.1389999 0.29300001 -0.58399999 2
3.0109999 0.28400001 -0.56400001 2
2.9809999 0.285 -0.56199998 2
2.997 0.28999999 -0.56900001 2
2.9560001 0.289 -0.565 1
2.9119999 0.28799999 -0.56099999 1
2.98 0.29800001 -0.57800001 1
2.9419999 0.29800001 -0.574 1
2.8499999 0.292 -0.56 1
2.8399999 0.294 -0.56199998 1
2.8 0.29300001 -0.55699998 1
2.8010001 0.29699999 -0.56099999 1
2.822 0.30199999 -0.56800002 1
2.8099999 0.30399999 -0.56999999 1
2.7 0.29499999 -0.551 1
2.6789999 0.296 -0.54900002 1
2.7590001 0.308 -0.56900001 1
2.651 0.29899999 -0.55000001 1
2.6830001 0.30500001 -0.56 1
2.655 0.30500001 -0.55699998 1
2.698 0.31299999 -0.56900001 1
2.6400001 0.30899999 -0.56 1
2.651 0.31400001 -0.565 1
2.6029999 0.31099999 -0.55800003 1
2.6889999 0.324 -0.57999998 1
2.54 0.30899999 -0.55000001 1
2.5150001 0.30899999 -0.54799998 1
2.507 0.31099999 -0.54900002 1
2.4849999 0.31099999 -0.546 1
2.4760001 0.31200001 -0.54699999 1
2.457 0.31299999 -0.546 1
2.45 0.31400001 -0.54699999 1
2.4300001 0.315 -0.54500002 1
2.461 0.32100001 -0.55400002 1
2.487 0.32699999 -0.56300002 1
2.46 0.32600001 -0.55900002 1
2.4890001 0.333 -0.56800002 1
2.3840001 0.322 -0.54699999 1
2.418 0.329 -0.55699998 1
2.3770001 0.32600001 -0.54900002 1
2.3440001 0.324 -0.54400003 1
2.3510001 0.32699999 -0.54799998 1
2.322 0.32600001 -0.54400003 1
0 0 0 1
0 0 0 1
2.3329999 0.33500001 -0.55199999 1
2.329 0.33700001 -0.55400002 1
2.3410001 0.34099999 -0.55800003 1
2.29 0.336 -0.54799998 1
2.3740001 0.35100001 -0.56999999 1
2.2750001 0.338 -0.54900002 1
2.233 0.33399999 -0.54000002 1
2.329 0.35100001 -0.56599998 1
2.2449999 0.34099999 -0.54699999 1
2.2249999 0.34 -0.54400003 1
2.2609999 0.34799999 -0.55500001 1
2.1930001 0.34 -0.54000002 1
2.211 0.345 -0.546 1
2.1919999 0.34400001 -0.54299998 1
2.141 0.338 -0.53200001 1
2.145 0.34099999 -0.53399998 1
2.1370001 0.34200001 -0.53399998 1
2.1289999 0.34200001 -0.53299999 1
2.1240001 0.34400001 -0.53399998 1
2.1129999 0.34400001 -0.53200001 1
2.108 0.345 -0.53299999 1
2.099 0.34599999 -0.53200001 1
2.0899999 0.34599999 -0.53100002 1
2.0869999 0.34799999 -0.53100002 1
2.115 0.354 -0.54000002 1
2.118 0.35699999 -0.542 1
2.152 0.36500001 -0.55199999 1
2.1689999 0.37 -0.55800003 1
2.1340001 0.366 -0.55000001 1
2.0840001 0.359 -0.53899997 1
2.0929999 0.36199999 -0.542 1
2.1029999 0.366 -0.546 1
2.0380001 0.35600001 -0.52999997 1
2.0250001 0.35600001 -0.528 1
2.027 0.35800001 -0.52899998 1
2.0239999 0.359 -0.52899998 1
2.023 0.361 -0.52999997 1
2.0109999 0.36000001 -0.528 1
2.0139999 0.36300001 -0.52999997 1
2.0020001 0.36199999 -0.528 1
2.0039999 0.36399999 -0.52899998 1
2.0009999 0.36500001 -0.52899998 1
1.995 0.366 -0.52899998 1
2.003 0.36899999 -0.53200001 1
1.994 0.36899999 -0.52999997 1
1.9809999 0.368 -0.52700001 1
1.989 0.37099999 -0.52999997 1
1.979 0.37099999 -0.528 1
1.978 0.37200001 -0.52899998 1
1.969 0.37200001 -0.52700001 1
1.9630001 0.373 -0.52600002 1
1.9680001 0.375 -0.528 1
1.962 0.375 -0.52700001 1
1.961 0.377 -0.528 1
1.9579999 0.377 -0.52700001 1
1.957 0.37900001 -0.528 1
1.951 0.37900001 -0.52700001 1
1.955 0.38100001 -0.528 1
1.948 0.38100001 -0.52700001 1
1.9579999 0.38499999 -0.52999997 1
1.9450001 0.38299999 -0.52700001 1
1.947 0.38499999 -0.528 1
1.944 0.38600001 -0.528 1
1.944 0.38699999 -0.528 1
1.941 0.38800001 -0.528 1
1.941 0.389 -0.528 1
1.941 0.38999999 -0.528 1
1.938 0.391 -0.528 1
1.927 0.38999999 -0.52499998 1
1.932 0.39199999 -0.52700001 1
1.932 0.39399999 -0.52700001 1
1.928 0.39399999 -0.52600002 1
1.934 0.396 -0.528 1
1.926 0.396 -0.52600002 1
1.934 0.39899999 -0.528 1
1.926 0.398 -0.52600002 1
1.9299999 0.40000001 -0.52700001 1
1.9220001 0.39899999 -0.52499998 1
1.927 0.40099999 -0.52700001 1
1.927 0.40200001 -0.52600002 1
1.923 0.40200001 -0.52499998 1
1.9220001 0.403 -0.52499998 1
1.924 0.405 -0.52600002 1
1.92 0.405 -0.52499998 1
1.923 0.40599999 -0.52499998 1
1.918 0.40599999 -0.52399999 1
1.923 0.40799999 -0.52499998 1
1.923 0.40900001 -0.52499998 1
1.92 0.40900001 -0.52399999 1
1.92 0.41 -0.52399999 1
1.924 0.412 -0.52499998 1
1.925 0.41299999 -0.52499998 1
1.928 0.41499999 -0.52499998 1
1.925 0.414 -0.52399999 1
1.926 0.41600001 -0.52399999 1
1.927 0.417 -0.52399999 1
1.933 0.419 -0.52499998 1
1.933 0.419 -0.52499998 1
1.937 0.421 -0.52600002 1
1.937 0.421 -0.52499998 1
1.9400001 0.42300001 -0.52600002 1
1.9400001 0.42399999 -0.52499998 1
1.937 0.42399999 -0.52399999 1
1.941 0.42500001 -0.52499998 1
1.947 0.42699999 -0.52600002 1
1.95 0.428 -0.52600002 1
1.949 0.428 -0.52499998 1
1.951 0.42899999 -0.52499998 1
1.96 0.43200001 -0.52700001 1
1.962 0.433 -0.52700001 1
1.966 0.43399999 -0.52700001 1
1.972 0.43599999 -0.528 1
1.971 0.43599999 -0.52700001 1
1.971 0.43700001 -0.52700001 1
1.975 0.43799999 -0.52700001 1
1.976 0.43799999 -0.52600002 1
1.975 0.43900001 -0.52499998 1
1.979 0.44 -0.52600002 1
1.993 0.44299999 -0.52899998 1
1.984 0.442 -0.52499998 1
1.993 0.44400001 -0.52700001 1
1.9859999 0.44299999 -0.52399999 1
2.0050001 0.447 -0.528 1
1.993 0.44499999 -0.52399999 1
2.007 0.44800001 -0.52700001 1
2.0079999 0.44800001 -0.52600002 1
2.017 0.45100001 -0.52700001 1
2.0179999 0.45100001 -0.52700001 1
2.029 0.454 -0.528 1
2.0320001 0.454 -0.528 1
2.033 0.45500001 -0.52700001 1
2.043 0.45699999 -0.52899998 1
2.046 0.458 -0.528 1
2.049 0.458 -0.528 1
2.056 0.46000001 -0.52899998 1
2.0569999 0.46000001 -0.528 1
2.0699999 0.463 -0.52999997 1
2.0739999 0.46399999 -0.52999997 1
2.073 0.463 -0.528 1
2.079 0.465 -0.528 1
2.085 0.46599999 -0.52899998 1
2.096 0.46799999 -0.52999997 1
2.098 0.46900001 -0.52899998 1
2.1010001 0.46900001 -0.528 1
2.1140001 0.472 -0.52999997 1
2.118 0.472 -0.52999997 1
2.1259999 0.47400001 -0.52999997 1
2.1300001 0.47400001 -0.52999997 1
2.1359999 0.47499999 -0.52999997 1
2.1429999 0.477 -0.52999997 1
2.1819999 0.48500001 -0.53799999 1
2.2509999 0.5 -0.55299997 1
2.2349999 0.49599999 -0.54799998 1
2.2479999 0.498 -0.54900002 1
2.3269999 0.51599997 -0.56699997 1
2.27 0.50199997 -0.551 1
2.29 0.50599998 -0.55400002 1
2.217 0.48899999 -0.53399998 1
2.2869999 0.50400001 -0.54900002 1
2.3110001 0.509 -0.55299997 1
2.2390001 0.493 -0.53399998 1
2.24 0.49200001 -0.53299999 1
2.263 0.49700001 -0.53600001 1
2.2690001 0.49700001 -0.53600001 1
2.276 0.498 -0.53500003 1
2.289 0.5 -0.537 1
2.2880001 0.49900001 -0.53399998 1
2.3039999 0.50199997 -0.53600001 1
2.3150001 0.50300002 -0.537 1
2.322 0.50400001 -0.53600001 1
2.339 0.50700003 -0.53799999 1
2.3529999 0.509 -0.53899997 1
2.362 0.50999999 -0.53899997 1
2.3710001 0.51099998 -0.53899997 1
2.381 0.51200002 -0.53899997 1
2.3940001 0.514 -0.53899997 1
2.402 0.51499999 -0.53899997 1
2.4920001 0.53299999 -0.55699998 1
2.4219999 0.51599997 -0.53899997 1
2.562 0.54500002 -0.56699997 1
2.4519999 0.52100003 -0.54100001 1
2.4719999 0.52399999 -0.54299998 1
2.4809999 0.52399999 -0.542 1
2.4979999 0.52700001 -0.54299998 1
2.506 0.52700001 -0.542 1
2.5139999 0.52700001 -0.542 1
2.527 0.52899998 -0.542 1
2.5420001 0.52999997 -0.542 1
2.559 0.53200001 -0.54299998 1
2.576 0.53399998 -0.54400003 1
2.7019999 0.55900002 -0.56800002 1
2.6170001 0.54000002 -0.54699999 1
2.6229999 0.54000002 -0.546 1
2.6500001 0.54299998 -0.54900002 1
2.654 0.542 -0.54699999 1
2.733 0.55699998 -0.56 1
2.707 0.55000001 -0.55199999 1
2.734 0.55400002 -0.55400002 1
2.793 0.56400001 -0.56300002 1
2.799 0.56300002 -0.56099999 1
2.8510001 0.57099998 -0.56800002 1
2.911 0.58099997 -0.57700002 1
2.8310001 0.56300002 -0.55800003 1
2.8699999 0.56900001 -0.56199998 1
2.862 0.565 -0.55800003 1
2.9059999 0.57200003 -0.56300002 1
2.9400001 0.57599998 -0.56599998 1
2.9590001 0.57800001 -0.56599998 1
2.957 0.57499999 -0.56199998 1
3 0.58099997 -0.56699997 1
3.0220001 0.583 -0.56800002 1
3.0710001 0.58999997 -0.57300001 1
3.109 0.59500003 -0.57700002 1
3.075 0.58600003 -0.56699997 1
3.1800001 0.60299999 -0.58200002 2
3.234 0.61000001 -0.588 2
3.174 0.59600002 -0.574 1
3.1730001 0.59299999 -0.56999999 2
3.2149999 0.59799999 -0.57300001 1
3.2360001 0.59899998 -0.57300001 2
3.2850001 0.60600001 -0.57800001 2
3.286 0.60299999 -0.574 2
3.3529999 0.61199999 -0.58099997 2
3.3629999 0.611 -0.579 2
3.392 0.61299998 -0.57999998 2
3.3789999 0.60699999 -0.574 2
3.4519999 0.61699998 -0.58200002 2
3.392 0.60299999 -0.56699997 2
3.421 0.60500002 -0.56800002 2
3.4820001 0.61199999 -0.574 2
3.5009999 0.61199999 -0.57300001 2
3.546 0.616 -0.57499999 1
3.569 0.61699998 -0.57499999 1
3.6099999 0.62 -0.57700002 1
3.6500001 0.62300003 -0.57800001 3
3.681 0.625 -0.579 2
3.72 0.62699997 -0.57999998 1
3.744 0.62699997 -0.579 2
3.845 0.63999999 -0.58999997 2
3.9130001 0.64700001 -0.59500003 2
3.941 0.64700001 -0.59399998 2
3.97 0.648 -0.59399998 2
3.95 0.63999999 -0.58600003 2
3.9719999 0.639 -0.58399999 2
4.0079999 0.63999999 -0.58399999 2
4.0700002 0.64600003 -0.58700001 2
4.1620002 0.65600002 -0.59500003 2
4.158 0.64999998 -0.58899999 2
4.2360001 0.65700001 -0.59500003 2
4.3150001 0.66500002 -0.60100001 2
4.3470001 0.66399997 -0.59899998 3
4.3649998 0.662 -0.59600002 3
4.4260001 0.66600001 -0.59899998 3
4.4699998 0.667 -0.59899998 3
4.5370002 0.671 -0.602 3
4.5960002 0.67400002 -0.60399997 3
4.6630001 0.67799997 -0.60600001 3
4.7259998 0.68199998 -0.60799998 4
4.7750001 0.68300003 -0.60799998 3
4.855 0.68800002 -0.61199999 4
4.9039998 0.68800002 -0.61199999 4
4.9819999 0.69300002 -0.61500001 3
5.0679998 0.69800001 -0.61900002 4
5.1479998 0.70300001 -0.62199998 4
5.2340002 0.708 -0.62599999 7
5.2750001 0.70599997 -0.62400001 10
5.3000002 0.70300001 -0.62 9
5.3779998 0.70599997 -0.62199998 6
5.5279999 0.71799999 -0.63200003 3
5.6269999 0.72299999 -0.63599998 3
5.737 0.72899997 -0.64099997 3
5.8169999 0.73199999 -0.64200002 3
5.9299998 0.73799998 -0.64700001 3
6.0180001 0.74000001 -0.648 3
6.105 0.74199998 -0.64999998 4
6.217 0.74699998 -0.653 4
6.309 0.75 -0.65499997 4
6.4289999 0.755 -0.65899998 4
6.5359998 0.75800002 -0.662 4
6.6420002 0.76099998 -0.66399997 3
6.7470002 0.76300001 -0.66500002 3
6.8800001 0.76800001 -0.66900003 3
6.9920001 0.76999998 -0.671 3
7.158 0.778 -0.67799997 4
7.348 0.787 -0.68599999 5
7.5229998 0.79500002 -0.69300002 12
7.6110001 0.79299998 -0.69099998 13
7.7069998 0.792 -0.69 13
7.8270001 0.792 -0.69099998 14
7.9790001 0.796 -0.69400001 14
8.1809998 0.80299997 -0.70099998 8
8.3979998 0.81199998 -0.70899999 5
8.5860004 0.81699997 -0.71399999 5
8.7770004 0.82099998 -0.71799999 5
8.9840002 0.82700002 -0.72399998 6
9.1549997 0.82800001 -0.72600001 5
9.3830004 0.83399999 -0.73199999 4
9.6210003 0.83999997 -0.73799998 4
9.8479996 0.84399998 -0.74299997 4
10.105 0.85100001 -0.75 3
10.362 0.85600001 -0.75599998 3
10.629 0.861 -0.76200002 4
10.941 0.86799997 -0.77100003 4
11.205 0.87099999 -0.77499998 4
11.582 0.88200003 -0.787 3
11.914 0.88700002 -0.79400003 3
12.226 0.89099997 -0.80000001 3
12.636 0.89999998 -0.81099999 3
13.027 0.90600002 -0.81999999 3
13.497 0.91600001 -0.833 3
14.017 0.92799997 -0.84799999 4
0 0 0 3
12.868 0.80900002 -0.74699998 11
12.823 0.78500003 -0.72799999 12
12.735 0.75800002 -0.708 14
12.711 0.73400003 -0.69099998 10
12.628 0.708 -0.671 17
12.58 0.68400002 -0.65399998 15
12.539 0.66100001 -0.63700002 16
12.477 0.63499999 -0.61799997 14
12.455 0.61299998 -0.602 9
12.383 0.588 -0.58399999 10
12.325 0.56400001 -0.56699997 14
12.284 0.54100001 -0.551 19
12.232 0.51700002 -0.53399998 15
12.182 0.493 -0.51700002 13
12.141 0.47 -0.50099999 17
12.078 0.44600001 -0.484 9
12.046 0.42399999 -0.46900001 23
12.046 0.40200001 -0.45500001 38
12.046 0.38 -0.44100001 37
12.064 0.36000001 -0.428 35
12.067 0.338 -0.41499999 27
12.086 0.317 -0.40200001 23
12.093 0.29499999 -0.38800001 40
12.099 0.273 -0.375 24
12.109 0.25099999 -0.361 24
12.111 0.23 -0.34799999 33
12.131 0.208 -0.33500001 36
12.138 0.186 -0.322 20
12.15 0.164 -0.30899999 33
12.166 0.141 -0.296 22
12.183 0.119 -0.28299999 23
12.187 0.097000003 -0.271 22
12.207 0.075000003 -0.25799999 19
12.232 0.052000001 -0.245 21
0 0 0 51
28.172001 0.015 -0.505 53
28.202999 -0.035999998 -0.47600001 52
28.240999 -0.088 -0.44800001 48
28.261999 -0.141 -0.419 51
28.292 -0.19499999 -0.38999999 52
28.313999 -0.249 -0.361 50
28.344 -0.30199999 -0.33199999 53
28.375999 -0.35600001 -0.30399999 50
28.396999 -0.41 -0.27599999 46
28.416 -0.46399999 -0.24699999 46
0 0 0 1
6.3969998 -0.12800001 -0.043000001 1
6.3720002 -0.14 -0.035999998 1
6.3210001 -0.15099999 -0.029999999 3
6.3530002 -0.164 -0.024 3
6.3509998 -0.176 -0.017000001 2
6.3590002 -0.18799999 -0.011 3
6.3449998 -0.2 -0.0049999999 3
6.3460002 -0.212 0 3
6.3850002 -0.226 0.0060000001 2
6.3990002 -0.23899999 0.012 1
0 0 0 16
27.870001 -1.15 0.105 24
27.802999 -1.202 0.13 32
27.745001 -1.253 0.155 37
27.693001 -1.3049999 0.18000001 37
27.674999 -1.3559999 0.204 43
27.653999 -1.409 0.229 48
27.635 -1.462 0.25299999 54
27.611 -1.515 0.27700001 59
27.591999 -1.566 0.30000001 65
27.622999 -1.622 0.324 59
27.632 -1.676 0.347 53
27.656 -1.7309999 0.37099999 47
27.674999 -1.786 0.39399999 41
27.707001 -1.8430001 0.41800001 40
27.733999 -1.899 0.44100001 35
27.804001 -1.957 0.465 27
27.902 -2.0190001 0.48899999 16
0 0 0 5
9.8299999 -0.74900001 0.18700001 17
9.7609997 -0.76300001 0.19400001 21
9.724 -0.77899998 0.20100001 24
9.6920004 -0.79500002 0.208 17
9.6669998 -0.81199998 0.214 25
9.6420002 -0.829 0.221 26
9.6230001 -0.84600002 0.228 27
9.6029997 -0.86299998 0.235 28
9.5860004 -0.88 0.241 29
9.5799999 -0.89899999 0.248 32
9.5530005 -0.91500002 0.25400001 34
9.5469999 -0.93300003 0.26100001 34
9.5279999 -0.949 0.26699999 35
9.5270004 -0.96799999 0.27399999 34
9.5050001 -0.98400003 0.28 35
9.4890003 -1.001 0.28600001 42
9.4899998 -1.02 0.292 41
9.4870005 -1.038 0.29899999 40
9.4809999 -1.056 0.30500001 41
9.4720001 -1.074 0.31099999 44
9.4650002 -1.092 0.317 48
9.4549999 -1.109 0.32300001 50
9.4589996 -1.128 0.329 48
9.4610004 -1.147 0.33500001 52
9.4560003 -1.164 0.34099999 50
9.4619999 -1.184 0.347 51
9.4429998 -1.2 0.352 48
9.4510002 -1.219 0.35800001 45
9.4540005 -1.237 0.36300001 42
9.4630003 -1.257 0.36899999 42
9.4540005 -1.274 0.37400001 41
9.4589996 -1.293 0.38 38
9.4589996 -1.312 0.38499999 35
9.4759998 -1.332 0.391 36
9.4720001 -1.35 0.396 32
9.4700003 -1.368 0.40099999 32
9.4799995 -1.387 0.40700001 30
9.4910002 -1.4069999 0.412 30
9.4960003 -1.426 0.417 29
9.5120001 -1.446 0.42300001 29
9.5389996 -1.469 0.42899999 29
9.5430002 -1.487 0.43399999 28
9.5530005 -1.507 0.43900001 27
9.5799999 -1.53 0.44499999 26
9.5869999 -1.549 0.44999999 24
9.6169996 -1.572 0.456 16
9.6409998 -1.594 0.461 15
9.677 -1.618 0.46700001 20
9.7299995 -1.645 0.47400001 14
9.8050003 -1.676 0.48199999 5
0 0 0 37
30.818001 -5.3829999 1.5420001 41
30.836 -5.4439998 1.556 43
30.865999 -5.507 1.5700001 45
30.893 -5.5679998 1.584 43
30.936001 -5.6329999 1.598 45
30.955999 -5.6939998 1.6109999 47
30.982 -5.756 1.624 47
31.02 -5.8200002 1.638 47
31.049999 -5.8829999 1.651 40
31.082001 -5.9450002 1.664 46
31.114 -6.007 1.676 46
31.129999 -6.066 1.688 47
31.173 -6.1300001 1.701 46
31.186001 -6.1890001 1.712 44
31.205999 -6.2480001 1.723 44
31.267 -6.3169999 1.737 39
31.278 -6.3740001 1.7460001 46
31.320999 -6.4390001 1.7589999 46
31.334999 -6.4980001 1.7690001 47
31.379999 -6.5630002 1.781 47
31.396 -6.6209998 1.791 46
31.431999 -6.6849999 1.801 48
31.462 -6.7449999 1.811 47
31.483 -6.8049998 1.8200001 49
31.52 -6.868 1.831 47
31.544001 -6.927 1.84 49
31.57 -6.987 1.849 46
0 0 0 5
20.745001 -4.6620002 1.225 19
20.674 -4.6820002 1.225 26
20.613001 -4.7030001 1.226 31
20.561001 -4.7259998 1.227 35
20.507 -4.7480001 1.228 36
20.486 -4.7779999 1.2309999 40
20.465 -4.8070002 1.234 39
20.440001 -4.835 1.2359999 43
20.431999 -4.8670001 1.239 34
20.398001 -4.8920002 1.24 45
20.389 -4.9239998 1.243 53
20.371 -4.9520001 1.245 51
20.362 -4.9840002 1.248 59
20.362 -5.0159998 1.251 61
20.344 -5.0450001 1.253 58
20.347 -5.0780001 1.255 37
20.349001 -5.1100001 1.258 54
20.343 -5.1409998 1.26 45
20.348 -5.1739998 1.262 45
20.351 -5.2069998 1.265 31
20.362 -5.2410002 1.268 41
20.368999 -5.2740002 1.27 43
20.372 -5.3060002 1.272 38
20.398001 -5.3429999 1.275 29
20.427999 -5.382 1.279 34
20.472 -5.4239998 1.283 33
20.493 -5.461 1.285 28
20.541 -5.5040002 1.29 21
20.605 -5.5510001 1.295 14
0 0 0 31
31.344999 -8.5369997 1.973 36
31.296 -8.5690002 1.971 38
31.264 -8.6040001 1.97 47
31.231001 -8.6400003 1.969 49
31.198 -8.6750002 1.967 51
31.181 -8.7150002 1.966 57
31.167999 -8.7539997 1.966 61
31.162001 -8.7959995 1.966 61
31.141001 -8.8330002 1.964 61
31.139999 -8.875 1.964 51
31.139999 -8.9180002 1.9630001 47
31.15 -8.9610004 1.9630001 47
31.158001 -9.0059996 1.962 43
31.17 -9.0500002 1.9630001 38
31.172001 -9.092 1.961 34
31.201 -9.1409998 1.962 34
31.216999 -9.1859999 1.961 29
31.253 -9.2370005 1.962 25
31.306 -9.2930002 1.9630001 17
31.42 -9.3649998 1.969 12
0 0 0 14
33.444 -10.051 2.0910001 14
33.424 -10.087 2.0869999 14
33.432999 -10.13 2.086 14
33.473 -10.182 2.0840001 14
33.505001 -10.232 2.0829999 15
33.535999 -10.28 2.082 15
33.554001 -10.325 2.079 15
33.583 -10.373 2.0769999 15
33.596001 -10.416 2.075 15
33.652 -10.472 2.075 15
33.668999 -10.515 2.0710001 15
33.730999 -10.572 2.0710001 15
33.722 -10.606 2.066 18
33.796001 -10.666 2.0650001 15
33.841 -10.717 2.063 15
33.844002 -10.754 2.0580001 15
33.910999 -10.811 2.0569999 15
33.923 -10.85 2.053 17
33.972 -10.9 2.05 15
33.992001 -10.941 2.046 15
34.081001 -11.004 2.0450001 15
34.132999 -11.054 2.043 15
34.155998 -11.095 2.0380001 15
34.208 -11.145 2.0350001 15
34.252998 -11.192 2.0309999 15
34.306 -11.242 2.027 15
34.387001 -11.3 2.0250001 16
34.426998 -11.344 2.0209999 16
34.502998 -11.4 2.0179999 16
34.542999 -11.444 2.013 16
34.636002 -11.505 2.0109999 16
34.682999 -11.55 2.006 16
34.743 -11.6 2.003 16
34.821999 -11.656 1.999 16
34.874001 -11.702 1.994 16
34.952999 -11.757 1.99 16
35.018002 -11.806 1.9859999 16
35.143002 -11.876 1.984 16
35.200001 -11.922 1.978 16
35.325001 -11.991 1.977 16
35.333 -12.02 1.969 16
35.465 -12.09 1.967 16
35.604 -12.163 1.965 16
35.721001 -12.228 1.9630001 15
35.748001 -12.262 1.955 17
35.887001 -12.333 1.952 17
35.972 -12.386 1.948 17
36.049999 -12.436 1.942 17
36.171001 -12.501 1.938 17
36.187 -12.529 1.928 16
36.342999 -12.605 1.926 15
36.400002 -12.645 1.918 17
36.521999 -12.709 1.913 16
36.653999 -12.775 1.909 17
36.757 -12.831 1.903 15
36.882 -12.895 1.898 14
37.009998 -12.959 1.8940001 14
37.103001 -13.01 1.886 14
37.305 -13.099 1.885 14
37.382999 -13.144 1.877 14
37.556 -13.222 1.874 14
37.666 -13.278 1.867 14
37.855 -13.361 1.865 13
38.037998 -13.441 1.8609999 13
38.174999 -13.505 1.854 12
38.264 -13.551 1.846 14
38.366001 -13.602 1.8380001 14
38.553001 -13.682 1.8329999 12
38.700001 -13.747 1.827 12
38.849998 -13.814 1.821 11
38.966999 -13.867 1.812 12
39.151001 -13.944 1.808 14
39.266998 -13.997 1.798 13
39.455002 -14.075 1.7920001 15
39.507 -14.103 1.78 14
39.618 -14.153 1.771 14
39.82 -14.234 1.765 12
39.957001 -14.291 1.756 12
40.111 -14.354 1.749 11
40.202 -14.394 1.738 10
40.587002 -14.539 1.739 9
40.667999 -14.574 1.727 9
40.896 -14.661 1.722 8
41.214001 -14.781 1.719 8
41.557999 -14.909 1.717 9
41.09 -14.745 1.682 11
41.041 -14.731 1.663 9
42.433998 -15.233 1.7029999 17
42.577 -15.287 1.691 22
42.585999 -15.292 1.675 22
42.695999 -15.332 1.6619999 24
42.673 -15.324 1.643 25
42.755001 -15.353 1.63 28
42.765999 -15.356 1.613 27
42.782001 -15.36 1.596 28
42.786999 -15.36 1.58 29
42.742001 -15.341 1.5599999 27
42.755001 -15.342 1.543 30
42.762001 -15.34 1.525 26
42.737 -15.327 1.506 31
42.715 -15.313 1.487 31
42.695999 -15.3 1.47 31
42.651001 -15.278 1.45 31
42.585999 -15.247 1.429 31
42.546001 -15.225 1.41 33
42.522999 -15.208 1.391 33
42.513 -15.196 1.372 32
42.514 -15.186 1.354 31
42.537998 -15.184 1.336 30
42.577999 -15.188 1.3200001 24
42.560001 -15.169 1.302 24
42.592999 -15.169 1.284 24
42.589001 -15.155 1.265 23
42.681999 -15.175 1.249 18
42.741001 -15.182 1.232 17
43.070999 -15.284 1.223 11
43.181999 -15.308 1.207 10
43.805 -15.511 1.205 7
44.143002 -15.614 1.1950001 8
44.634998 -15.77 1.189 7
44.778 -15.802 1.173 7
44.973 -15.851 1.158 5
45.465 -16.004999 1.149 5
44.804001 -15.751 1.113 5
46.995998 -16.499001 1.147 4
46.639999 -16.351 1.117 4
0 0 0 13
42.861 -14.982 0.98699999 25
42.860001 -14.959 0.96799999 30
42.845001 -14.93 0.949 30
42.841999 -14.905 0.93000001 28
42.838001 -14.879 0.91100001 28
42.807999 -14.843 0.89099997 24
42.798 -14.814 0.87199998 25
42.768002 -14.777 0.85100001 23
42.766998 -14.749 0.83200002 27
42.75 -14.716 0.81199998 25
42.737 -14.684 0.79299998 27
42.702999 -14.643 0.773 26
42.687 -14.608 0.75199997 26
42.666 -14.571 0.73400003 23
42.676998 -14.544 0.71399999 26
42.653999 -14.505 0.69400001 27
42.623001 -14.462 0.67400002 24
42.608002 -14.425 0.65499997 24
42.585999 -14.385 0.63499999 26
42.582001 -14.35 0.61699998 23
42.533001 -14.3 0.597 23
42.521 -14.261 0.57700002 26
42.504002 -14.22 0.55900002 24
42.472 -14.173 0.53799999 27
42.453999 -14.131 0.51800001 28
42.43 -14.087 0.49900001 25
42.412998 -14.043 0.48100001 28
42.414001 -14.005 0.461 27
42.373001 -13.953 0.442 26
42.341999 -13.904 0.42300001 28
42.326 -13.859 0.405 21
42.223999 -13.786 0.38499999 7
42.196999 -13.738 0.36500001 8
42.214001 -13.702 0.347 9
42.207001 -13.658 0.32800001 9
42.183998 -13.609 0.30899999 11
42.16 -13.559 0.29100001 14
42.139999 -13.509 0.271 13
42.137001 -13.463 0.25400001 17
42.118999 -13.413 0.235 19
42.073002 -13.354 0.21600001 22
42.053001 -13.302 0.198 22
42.027 -13.248 0.17900001 23
41.995998 -13.192 0.161 24
41.963001 -13.134 0.14399999 25
41.938999 -13.079 0.126 26
41.914001 -13.025 0.109 30
41.876999 -12.964 0.090000004 30
41.844002 -12.906 0.072999999 50
41.818001 -12.849 0.055 52
41.818001 -12.799 0.037 27
41.785 -12.739 0.02 22
41.762001 -12.681 0.0020000001 26
41.710999 -12.615 -0.013 25
41.695999 -12.559 -0.030999999 27
41.68 -12.503 -0.048999999 27
41.638 -12.439 -0.064999998 27
0 0 0 2
31.285 -9.2670002 -0.072999999 14
31.226 -9.2080002 -0.086999997 22
31.176001 -9.1529999 -0.098999999 28
31.139999 -9.1020002 -0.111 34
31.120001 -9.0550003 -0.123 42
31.112 -9.0109997 -0.13500001 35
31.079 -8.9589996 -0.147 43
31.087 -8.9200001 -0.15899999 47
31.077999 -8.8739996 -0.171 49
31.08 -8.8319998 -0.183 54
31.069 -8.7860003 -0.19400001 57
31.091999 -8.7489996 -0.206 64
