# .PCD v0.7 - Point Cloud Data file format
VERSION 0.7
FIELDS x y z intensity
SIZE 4 4 4 4
TYPE F F F F
COUNT 1 1 1 1
WIDTH 1750
HEIGHT 1
VIEWPOINT 0 0 0 1 0 0 0
POINTS 1750
DATA ascii
9.4560003 -2.9630001 0.84399998 37
9.4610004 -2.957 0.838 35
9.448 -2.9449999 0.83099997 39
9.4549999 -2.9400001 0.82499999 39
9.4569998 -2.9330001 0.81900001 39
9.4619999 -2.927 0.81300002 37
9.4560003 -2.9170001 0.80599999 37
9.4659996 -2.9119999 0.80000001 36
9.4659996 -2.904 0.79400003 38
9.4689999 -2.8970001 0.78799999 40
9.467 -2.888 0.78100002 43
9.4689999 -2.8800001 0.77499998 44
9.467 -2.8710001 0.76800001 44
9.4659996 -2.862 0.76200002 44
9.4630003 -2.852 0.755 44
9.4680004 -2.8440001 0.74900001 44
9.4779997 -2.8380001 0.74299997 44
9.4750004 -2.8280001 0.736 44
9.4840002 -2.8210001 0.73000002 43
9.4870005 -2.813 0.72399998 45
9.4899998 -2.8039999 0.71799999 43
9.4910002 -2.7950001 0.71100003 43
9.493 -2.786 0.70499998 43
9.4960003 -2.777 0.69800001 41
9.5019999 -2.7679999 0.69199997 40
9.5039997 -2.7590001 0.68599999 40
9.5179996 -2.753 0.68000001 39
9.5139999 -2.7409999 0.67299998 37
9.5220003 -2.733 0.667 36
9.5340004 -2.7260001 0.66100001 37
9.5319996 -2.714 0.65399998 35
9.5419998 -2.7060001 0.648 35
9.5439997 -2.6960001 0.64099997 35
9.5480003 -2.6860001 0.63499999 34
9.5609999 -2.678 0.62900001 34
9.5710001 -2.6689999 0.62300003 33
9.5799999 -2.661 0.616 34
9.5780001 -2.648 0.61000001 31
9.6040001 -2.6440001 0.60399997 30
9.6070004 -2.6329999 0.59799999 30
9.625 -2.6259999 0.59200001 30
9.6210003 -2.6129999 0.58499998 30
9.6339998 -2.6040001 0.579 29
9.6400003 -2.5940001 0.57200003 28
9.665 -2.5880001 0.56699997 27
9.6709995 -2.5769999 0.56 26
9.6859999 -2.5680001 0.55400002 26
9.6960001 -2.5580001 0.54799998 26
9.7220001 -2.552 0.54299998 20
9.7360001 -2.5420001 0.53600001 19
9.7519999 -2.5339999 0.52999997 17
9.7709999 -2.5250001 0.52399999 17
9.7930002 -2.5179999 0.51899999 18
9.8330002 -2.5139999 0.514 15
9.8699999 -2.51 0.509 12
9.9280005 -2.5109999 0.505 9
9.9899998 -2.5120001 0.50099999 6
0 0 0 24
27.391001 -6.8109999 1.335 29
27.368999 -6.7659998 1.314 34
27.348 -6.7199998 1.295 39
27.325001 -6.6739998 1.274 40
27.305 -6.6290002 1.255 44
27.294001 -6.586 1.235 46
27.288 -6.5450001 1.216 51
27.287001 -6.5040002 1.197 55
27.292 -6.4640002 1.179 47
27.308001 -6.4260001 1.16 63
27.288 -6.3800001 1.141 52
27.319 -6.3449998 1.124 58
27.339001 -6.3070002 1.1059999 45
27.363001 -6.2709999 1.0880001 42
27.388 -6.2329998 1.0700001 40
27.413 -6.1960001 1.053 43
27.444 -6.1589999 1.035 40
27.490999 -6.125 1.018 35
27.549 -6.0939999 1.002 30
27.622 -6.066 0.986 25
27.729 -6.0440001 0.97100002 12
0 0 0 6
35.962002 -7.7210002 1.212 8
35.959 -7.6609998 1.188 8
35.931999 -7.5960002 1.163 7
35.91 -7.5310001 1.1390001 8
35.845001 -7.4580002 1.114 7
35.832001 -7.395 1.09 6
35.812 -7.3299999 1.066 7
35.835999 -7.2750001 1.044 6
35.828999 -7.2119999 1.021 6
35.844002 -7.1529999 0.99800003 6
35.870998 -7.0970001 0.97600001 3
35.985001 -7.0570002 0.95599997 2
35.876999 -6.974 0.93199998 2
35.929001 -6.9200001 0.91000003 2
0 0 0 0
0 0 0 3
0 0 0 0
0 0 0 1
0 0 0 0
0 0 0 4
31.468 -5.6690001 0.662 5
31.471001 -5.6129999 0.64300001 6
31.433001 -5.5500002 0.62400001 6
31.434 -5.4920001 0.60500002 6
31.379999 -5.4250002 0.58600003 6
31.386 -5.369 0.56800002 7
31.365 -5.3070002 0.54900002 6
31.355 -5.2480001 0.53200001 6
31.333 -5.1859999 0.51300001 6
31.337999 -5.1279998 0.49599999 7
31.42 -5.0830002 0.479 3
31.514999 -5.0380001 0.463 3
31.662001 -5.0029998 0.44800001 3
31.785 -4.9629998 0.43200001 2
0 0 0 7
0 0 0 0
0 0 0 0
0 0 0 0
0 0 0 8
35.136002 -5.085 0.36700001 7
35.147999 -5.0190001 0.34900001 7
0 0 0 1
28.041 -3.895 0.25 1
27.966 -3.8299999 0.235 1
28.004999 -3.78 0.222 2
27.948 -3.717 0.207 2
27.944 -3.6619999 0.19400001 2
27.93 -3.6059999 0.18099999 2
27.914 -3.549 0.167 2
27.906 -3.493 0.154 2
27.836 -3.4289999 0.141 1
0 0 0 3
0 0 0 11
34.859001 -4.086 0.12899999 16
34.830002 -4.0139999 0.114 17
34.808998 -3.941 0.098999999 19
34.778999 -3.869 0.083999999 16
34.881001 -3.8099999 0.07 6
35.080002 -3.76 0.056000002 11
35.119999 -3.6930001 0.041000001 8
0 0 0 25
0 0 0 25
0 0 0 25
0 0 0 0
0 0 0 0
0 0 0 3
0 0 0 1
0 0 0 0
0 0 0 3
0 0 0 3
15.401 -1.273 -0.045000002 2
15.429 -1.243 -0.050000001 5
15.385 -1.2079999 -0.055 24
15.353 -1.174 -0.059999999 34
15.319 -1.1390001 -0.064999998 30
15.321 -1.108 -0.07 45
15.367 -1.079 -0.075000003 15
15.118 -1.03 -0.078000002 9
15.266 -1.0089999 -0.083999999 30
15.355 -0.98199999 -0.089000002 21
15.237 -0.94300002 -0.092 4
15.371 -0.91799998 -0.097000003 4
15.357 -0.88499999 -0.101 4
15.456 -0.85900003 -0.106 4
15.471 -0.82700002 -0.11 22
15.662 -0.80500001 -0.115 22
15.706 -0.77399999 -0.12 56
0 0 0 44
17.253 -0.77700001 -0.14 39
17.252001 -0.74000001 -0.14399999 67
17.257999 -0.704 -0.147 56
17.275999 -0.66799998 -0.15099999 57
17.278 -0.63200003 -0.155 53
17.304001 -0.59600002 -0.15800001 46
17.33 -0.56099999 -0.162 40
17.344999 -0.52399999 -0.16500001 38
17.375999 -0.48800001 -0.169 39
17.400999 -0.45199999 -0.17200001 35
17.443001 -0.41600001 -0.175 28
17.514999 -0.38 -0.17900001 25
17.599001 -0.345 -0.182 16
0 0 0 53
33.895 -0.52100003 -0.361 55
33.887001 -0.449 -0.366 50
33.869999 -0.377 -0.37 57
33.852001 -0.30399999 -0.37400001 48
33.820999 -0.23199999 -0.377 55
33.801998 -0.16 -0.38 53
33.77 -0.086999997 -0.38299999 53
0 0 0 1
19.892 0.030999999 -0.229 1
19.916 0.072999999 -0.23100001 1
0 0 0 1
17.136 0.13600001 -0.20100001 1
0 0 0 0
0 0 0 0
0 0 0 0
0 0 0 0
0 0 0 1
16.975 0.34999999 -0.20299999 1
16.888 0.384 -0.20200001 1
16.879999 0.41999999 -0.20200001 1
16.882999 0.456 -0.20200001 2
16.872 0.491 -0.20200001 5
16.846001 0.52499998 -0.20200001 6
16.91 0.56300002 -0.20200001 9
16.889 0.597 -0.20200001 9
16.864 0.63200003 -0.20100001 8
16.865999 0.667 -0.2 7
16.834 0.70200002 -0.199 7
16.739 0.73299998 -0.197 2
16.704 0.76599997 -0.19599999 1
16.698 0.801 -0.19400001 3
16.656 0.833 -0.193 21
16.778 0.875 -0.193 6
16.783001 0.90899998 -0.192 5
16.785999 0.94499999 -0.19 6
16.764 0.97899997 -0.18799999 7
16.757999 1.013 -0.18700001 8
16.763 1.049 -0.185 8
16.757999 1.0829999 -0.183 8
16.771999 1.118 -0.18099999 10
16.771999 1.152 -0.17900001 12
16.673 1.1799999 -0.175 1
16.59 1.2079999 -0.17200001 1
16.729 1.253 -0.171 1
16.695 1.284 -0.168 1
16.738001 1.322 -0.16599999 1
16.674999 1.352 -0.163 1
16.6 1.38 -0.15899999 1
0 0 0 0
0 0 0 0
0 0 0 0
0 0 0 0
0 0 0 1
16.827 1.604 -0.141 1
16.715 1.627 -0.13699999 1
0 0 0 0
0 0 0 0
0 0 0 0
0 0 0 0
0 0 0 0
0 0 0 0
0 0 0 0
0 0 0 0
0 0 0 0
0 0 0 1
0 0 0 0
0 0 0 1
0 0 0 0
0 0 0 0
0 0 0 0
0 0 0 0
0 0 0 9
36.419998 4.8340001 -0.121 76
36.404999 4.9039998 -0.109 84
36.389999 4.9699998 -0.097999997 64
36.808998 5.098 -0.086999997 5
37.331001 5.2410002 -0.075000003 6
38.046001 5.414 -0.063000001 21
38.036999 5.4840002 -0.050000001 4
38.109001 5.5650001 -0.037 3
40.292 5.9590001 -0.024 92
40.263 6.0289998 -0.0099999998 83
40.43 6.1290002 0.0040000002 48
40.469002 6.2119999 0.018999999 46
40.490002 6.29 0.035 28
0 0 0 11
35.199001 5.5970001 0.057 16
35.216 5.664 0.071000002 5
0 0 0 50
44.699001 7.3499999 0.126 28
44.973 7.4770002 0.14399999 18
45.334999 7.619 0.164 3
0 0 0 94
48.145 8.2629995 0.215 39
0 0 0 4
41.500999 7.27 0.221 12
0 0 0 0
0 0 0 62
55.636002 10.038 0.368 91
55.995998 10.2 0.396 125
55.966999 10.292 0.421 110
55.933998 10.382 0.44600001 106
56.18 10.524 0.47400001 25
56.522999 10.684 0.50099999 16
56.555 10.786 0.528 24
0 0 0 62
63.771999 12.377 0.65600002 39
63.818001 12.492 0.68699998 37
63.75 12.585 0.71600002 51
64.768997 12.892 0.75800002 10
64.378998 12.921 0.78500003 24
0 0 0 0
0 0 0 0
0 0 0 0
0 0 0 0
0 0 0 0
0 0 0 14
69.134003 14.654 1.082 21
70.675003 15.094 1.1440001 30
0 0 0 15
81.587997 17.677 1.403 13
0 0 0 0
0 0 0 0
0 0 0 21
79.905998 17.804001 1.541 26
80.069 17.959999 1.59 26
81.642998 18.434 1.663 12
0 0 0 0
0 0 0 0
0 0 0 0
0 0 0 0
0 0 0 0
0 0 0 0
0 0 0 0
0 0 0 0
0 0 0 0
0 0 0 0
0 0 0 0
0 0 0 17
86.129997 21.041 2.3629999 19
85.810997 21.079 2.402 14
0 0 0 0
0 0 0 0
0 0 0 14
83.089996 20.854 2.5150001 14
83.009003 20.940001 2.5569999 14
83.051003 21.055 2.608 18
85.277 21.73 2.7249999 19
85.426003 21.875 2.776 30
85.350998 21.962 2.823 27
85.240997 22.040001 2.868 25
85.266998 22.148001 2.9170001 29
85.406998 22.289 2.9719999 25
85.176003 22.330999 3.013 18
85.289001 22.464001 3.0639999 23
85.401001 22.594999 3.118 18
85.285004 22.664 3.1630001 22
85.351997 22.781 3.2149999 24
85.303001 22.864 3.26 19
0 0 0 0
0 0 0 0
0 0 0 13
82.928001 22.596001 3.362 18
82.843002 22.663 3.4070001 22
82.761002 22.729 3.4519999 28
82.776001 22.822001 3.5009999 28
82.796997 22.914 3.55 22
82.774002 22.993999 3.5969999 25
82.757004 23.075001 3.645 18
82.425003 23.065001 3.6760001 13
0 0 0 0
0 0 0 0
0 0 0 0
0 0 0 0
0 0 0 0
0 0 0 0
0 0 0 0
0 0 0 15
87.014999 25.096001 4.3319998 15
0 0 0 0
0 0 0 20
86.533997 25.184 4.4559999 23
86.309998 25.191999 4.494 20
86.261002 25.25 4.5409999 16
86.069 25.264999 4.5799999 15
0 0 0 0
0 0 0 12
0 0 0 0
0 0 0 25
0 0 0 0
0 0 0 39
110.605 33.068001 6.3249998 57
110.551 33.131001 6.3850002 73
110.506 33.194 6.4439998 82
110.498 33.266998 6.5029998 83
110.52 33.348999 6.566 81
110.477 33.409 6.6220002 82
110.443 33.469002 6.6849999 80
110.434 33.537998 6.7459998 90
110.397 33.595001 6.8010001 80
110.383 33.659 6.862 79
110.378 33.723 6.9190001 70
110.38 33.789001 6.9829998 85
110.375 33.849998 7.04 78
110.33 33.897999 7.0939999 76
110.323 33.953999 7.1560001 69
110.265 33.994999 7.2090001 78
110.287 34.061001 7.27 67
110.265 34.108002 7.3280001 62
110.279 34.167 7.388 65
110.25 34.209999 7.441 60
110.288 34.272999 7.5019999 59
110.22 34.301998 7.5560002 42
110.229 34.353001 7.6149998 43
110.175 34.383999 7.6659999 35
110.259 34.456001 7.7290001 23
0 0 0 25
0 0 0 0
0 0 0 0
0 0 0 0
0 0 0 0
0 0 0 25
0 0 0 25
0 0 0 25
0 0 0 27
124.205 39.229 9.3240004 28
0 0 0 25
0 0 0 25
0 0 0 29
118.618 37.576 9.1350002 40
118.607 37.596001 9.1940002 35
118.611 37.620998 9.2480001 28
0 0 0 27
110.681 35.140999 8.7370005 31
110.597 35.130001 8.7810001 36
110.609 35.148998 8.8330002 46
110.638 35.171001 8.8830004 48
110.658 35.188999 8.9350004 42
110.618 35.186001 8.9820004 43
110.661 35.208 9.0349998 38
110.632 35.206001 9.0810003 38
110.624 35.209 9.1260004 37
110.583 35.200001 9.1680002 33
110.65 35.223 9.2209997 31
110.575 35.200001 9.2629995 32
110.635 35.217999 9.3149996 33
110.543 35.187 9.3500004 28
110.637 35.213001 9.4040003 30
110.68 35.221001 9.4540005 35
110.631 35.198002 9.4949999 39
110.625 35.188 9.5389996 38
110.612 35.174 9.5799999 38
110.6 35.159 9.6230001 41
110.637 35.157001 9.6689997 42
110.703 35.164001 9.7150002 39
110.635 35.125999 9.7519999 46
110.635 35.108002 9.7939997 35
110.695 35.109001 9.8380003 37
110.583 35.051998 9.8690004 40
110.54 35.014999 9.9090004 33
110.526 34.987999 9.9449997 35
110.435 34.931999 9.9799995 43
110.479 34.919998 10.02 41
110.36 34.854 10.048 43
110.458 34.854 10.095 45
110.393 34.803001 10.123 48
110.404 34.773998 10.162 44
110.341 34.719002 10.192 47
110.411 34.703999 10.238 35
110.454 34.681 10.275 30
110.473 34.647999 10.312 38
110.471 34.606998 10.347 34
110.471 34.566002 10.378 42
110.518 34.536999 10.416 33
110.589 34.514 10.455 29
110.553 34.456001 10.485 24
0 0 0 0
0 0 0 0
0 0 0 0
0 0 0 0
0 0 0 0
0 0 0 0
0 0 0 0
0 0 0 0
0 0 0 0
0 0 0 26
120.399 36.865002 11.76 26
120.387 36.791 11.787 27
0 0 0 0
0 0 0 33
120.624 36.645 11.888 29
120.62 36.567001 11.913 25
0 0 0 0
0 0 0 0
0 0 0 26
120.64 36.256001 12.005 33
120.642 36.172001 12.027 36
120.798 36.132999 12.065 41
120.708 36.019001 12.077 37
120.744 35.943001 12.098 42
120.687 35.834999 12.112 32
0 0 0 21
112.357 33.188999 11.31 25
112.27 33.075001 11.318 22
0 0 0 0
0 0 0 0
0 0 0 0
0 0 0 0
0 0 0 27
111.612 32.327999 11.336 25
111.523 32.207001 11.336 32
111.603 32.132 11.355 25
111.688 32.056 11.374 24
111.693 31.955999 11.384 25
0 0 0 0
0 0 0 0
0 0 0 0
0 0 0 0
0 0 0 0
0 0 0 35
111.834 31.253 11.442 29
111.727 31.112 11.436 49
111.734 31.003 11.438 42
111.748 30.892 11.442 43
111.805 30.790001 11.452 40
111.893 30.698999 11.46 23
111.809 30.558001 11.452 34
111.946 30.475 11.463 34
111.933 30.351 11.46 35
112.003 30.247 11.466 23
0 0 0 0
0 0 0 0
0 0 0 0
0 0 0 0
0 0 0 52
114.288 30.093 11.673 50
114.368 29.983 11.672 30
114.374 29.848 11.667 31
114.405 29.719999 11.662 28
114.358 29.573 11.646 26
114.492 29.471001 11.654 28
114.605 29.358999 11.651 26
114.566 29.209 11.636 24
0 0 0 0
0 0 0 25
114.732 28.825001 11.612 26
114.753 28.684 11.599 29
0 0 0 0
0 0 0 22
120.71 29.707001 12.15 28
120.642 29.535999 12.123 31
120.71 29.393999 12.11 40
120.767 29.247999 12.096 33
120.819 29.101999 12.078 31
120.796 28.938 12.055 33
120.888 28.792999 12.04 26
115.293 27.306999 11.458 34
115.35 27.159 11.442 35
115.324 26.993999 11.415 34
115.424 26.857 11.4 34
115.444 26.702999 11.374 31
115.499 26.554001 11.353 37
115.545 26.400999 11.33 32
115.642 26.259001 11.311 34
115.582 26.08 11.276 26
121.412 27.224001 11.811 31
121.428 27.052 11.78 38
121.4 26.868999 11.744 37
121.543 26.726 11.722 44
121.718 26.586 11.703 34
121.649 26.391001 11.661 35
121.771 26.24 11.637 33
121.787 26.062 11.601 25
0 0 0 0
0 0 0 27
0 0 0 43
70.987999 14.763 6.6669998 62
69.571999 14.362 6.5100002 55
67.861 13.907 6.3249998 33
66.164001 13.457 6.1420002 40
64.527 13.024 5.967 18
63.276001 12.672 5.8270001 48
62.109001 12.341 5.6950002 46
60.951 12.017 5.5650001 45
59.304001 11.597 5.3909998 42
58.976002 11.441 5.336 44
57.900002 11.14 5.2150002 55
56.597 10.798 5.072 45
55.325001 10.467 4.9359999 55
54.230999 10.173 4.8140001 49
53.724998 9.993 4.7449999 46
52.694 9.7150002 4.6300001 48
51.389 9.3909998 4.4910002 54
50.808998 9.2019997 4.4169998 32
50.074001 8.9879999 4.3280001 57
48.777 8.6750002 4.1929998 54
48.334999 8.5179996 4.1300001 40
47.469002 8.2860003 4.033 57
46.330002 8.0100002 3.9119999 46
45.911999 7.8610001 3.8529999 18
44.495998 7.5440001 3.711 24
44.471001 7.4660001 3.6849999 62
44.499001 7.3969998 3.6630001 61
44.521 7.3249998 3.641 57
44.528999 7.2509999 3.6170001 58
0 0 0 8
40.662998 6.4840002 3.256 9
0 0 0 0
0 0 0 6
36.567001 5.6430001 2.8640001 34
36.005001 5.4949999 2.7980001 18
35.422001 5.3449998 2.7309999 19
35.026001 5.224 2.6789999 18
34.495998 5.085 2.6170001 33
33.998001 4.9530001 2.5580001 29
33.556 4.8299999 2.503 16
33.169998 4.717 2.4530001 20
32.855 4.6149998 2.408 32
32.566002 4.5180001 2.365 39
32.568001 4.461 2.3429999 45
32.589001 4.4070001 2.322 46
32.604 4.3520002 2.3010001 46
32.618 4.296 2.279 45
32.632999 4.2410002 2.257 47
32.651001 4.1849999 2.2349999 46
32.674 4.131 2.2130001 47
32.681999 4.0739999 2.1900001 44
32.702 4.0180001 2.1670001 41
32.730999 3.9649999 2.145 33
32.737 3.9070001 2.1210001 42
32.716 3.846 2.095 98
32.741001 3.7909999 2.0710001 40
32.181999 3.6689999 2.0109999 10
32.018002 3.5929999 1.976 79
32.014999 3.5350001 1.95 101
32.763 3.559 1.97 97
32.806 3.506 1.946 88
32.823002 3.448 1.92 75
32.825001 3.3889999 1.893 96
32.848999 3.3329999 1.868 98
32.854 3.2739999 1.84 94
32.875999 3.2160001 1.814 102
32.893002 3.1589999 1.7869999 100
32.909 3.102 1.76 102
32.916 3.043 1.7309999 100
32.937 2.9849999 1.704 101
32.948002 2.928 1.676 105
32.960999 2.869 1.647 93
32.991001 2.812 1.619 97
33 2.7520001 1.589 99
33.025002 2.6949999 1.5599999 101
33.089001 2.6400001 1.533 56
33.394001 2.6040001 1.516 3
0 0 0 0
0 0 0 0
0 0 0 0
0 0 0 19
25.287001 1.743 1.028 27
25.247999 1.694 1.002 34
25.195999 1.645 0.97500002 38
25.17 1.597 0.949 44
25.132 1.55 0.92299998 39
25.1 1.502 0.89600003 50
25.101 1.457 0.87099999 56
25.094 1.411 0.84500003 59
25.104 1.367 0.81999999 39
25.106001 1.322 0.79400003 24
25.121 1.277 0.76800001 7
25.084 1.229 0.741 1
0 0 0 1
0 0 0 0
0 0 0 0
0 0 0 0
0 0 0 1
18.701 0.71399999 0.43200001 1
18.639 0.67900002 0.41100001 1
18.584 0.64399999 0.389 1
18.540001 0.60900003 0.368 1
0 0 0 4
0 0 0 12
58.285999 1.602 0.95999998 13
0 0 0 27
33.866001 0.81 0.48100001 10
33.861 0.75 0.442 17
0 0 0 2
0 0 0 0
0 0 0 0
0 0 0 0
0 0 0 0
0 0 0 0
0 0 0 7
0 0 0 9
33.986 0.212 0.082000002 10
33.855999 0.152 0.039999999 22
33.769001 0.092 0 44
33.715 0.032000002 -0.041999999 94
33.75 -0.024 -0.082000002 113
33.761002 -0.082999997 -0.124 118
33.782001 -0.142 -0.167 111
33.799999 -0.199 -0.208 90
33.833 -0.25799999 -0.25099999 80
33.860001 -0.317 -0.294 64
33.876999 -0.375 -0.33700001 54
33.894001 -0.433 -0.38 45
33.910999 -0.491 -0.42300001 55
0 0 0 1
17.594999 -0.315 -0.26499999 18
17.532 -0.34400001 -0.28600001 18
17.457001 -0.37099999 -0.308 27
17.424999 -0.40000001 -0.33000001 26
17.389 -0.42899999 -0.352 36
17.365999 -0.45699999 -0.37400001 40
17.333 -0.48500001 -0.396 40
17.323999 -0.514 -0.419 46
17.294001 -0.542 -0.44100001 45
17.291 -0.57099998 -0.46399999 44
17.275 -0.59899998 -0.48699999 49
17.271999 -0.62699997 -0.50999999 33
17.247999 -0.65499997 -0.53299999 56
17.243999 -0.68300003 -0.55599999 56
17.228001 -0.71100003 -0.579 63
17.232 -0.73900002 -0.60299999 67
17.231001 -0.76700002 -0.62599999 64
17.233999 -0.79500002 -0.64999998 57
17.216 -0.82200003 -0.67299998 52
0 0 0 7
15.645 -0.79699999 -0.65499997 7
15.561 -0.81800002 -0.67299998 8
15.471 -0.838 -0.69099998 7
15.396 -0.85900003 -0.70899999 11
15.316 -0.87800002 -0.727 9
15.25 -0.898 -0.745 9
15.183 -0.91799998 -0.76300001 9
15.118 -0.93800002 -0.78100002 12
15.041 -0.95700002 -0.79799998 10
14.961 -0.97500002 -0.81599998 7
14.906 -0.995 -0.83399999 9
14.826 -1.012 -0.85000002 29
14.823 -1.035 -0.87099999 36
14.837 -1.058 -0.89300001 42
14.837 -1.081 -0.91500002 42
14.845 -1.104 -0.93699998 33
14.831 -1.126 -0.95700002 28
14.767 -1.143 -0.97500002 28
14.554 -1.149 -0.98199999 12
13.775 -1.107 -0.949 3
13.114 -1.074 -0.92299998 3
12.59 -1.05 -0.90399998 2
12.182 -1.034 -0.89300001 3
11.786 -1.017 -0.88099998 2
11.46 -1.006 -0.87300003 3
11.123 -0.99199998 -0.86400002 3
10.754 -0.97500002 -0.85100001 2
10.449 -0.96200001 -0.84200001 3
10.157 -0.94999999 -0.83399999 3
9.8859997 -0.93900001 -0.82599998 4
9.6269999 -0.92799997 -0.81900001 4
9.3520002 -0.91500002 -0.80900002 3
9.1400003 -0.90700001 -0.80500001 4
8.9130001 -0.89700001 -0.79799998 4
8.6590004 -0.88300002 -0.78799999 3
8.448 -0.87300003 -0.78100002 4
8.2200003 -0.861 -0.77200001 5
8.0279999 -0.852 -0.76599997 5
7.8299999 -0.84200001 -0.759 8
7.605 -0.82800001 -0.74900001 13
7.4549999 -0.82200003 -0.745 12
7.3270001 -0.81699997 -0.74299997 12
7.2480001 -0.81800002 -0.74599999 12
7.1409998 -0.815 -0.74599999 11
7.0120001 -0.81 -0.74299997 9
6.8140001 -0.796 -0.73199999 4
6.6630001 -0.787 -0.72600001 4
6.5310001 -0.77999997 -0.72100002 4
6.4050002 -0.773 -0.71700001 4
6.2800002 -0.76599997 -0.713 4
6.1479998 -0.75800002 -0.70700002 3
6.0549998 -0.75400001 -0.70499998 3
5.9499998 -0.74800003 -0.70200002 3
5.8210001 -0.73900002 -0.69499999 3
5.737 -0.736 -0.69400001 3
5.6370001 -0.73000002 -0.69 3
5.552 -0.72600001 -0.68800002 4
5.4530001 -0.71899998 -0.68400002 3
5.3499999 -0.71200001 -0.67900002 3
5.2620001 -0.70700002 -0.676 3
5.1789999 -0.70200002 -0.67299998 3
5.0949998 -0.69599998 -0.67000002 3
5.0100002 -0.69099998 -0.66600001 3
4.941 -0.68699998 -0.66399997 3
4.8600001 -0.68099999 -0.66100001 3
4.79 -0.67699999 -0.65799999 3
4.7280002 -0.67400002 -0.65700001 3
4.6609998 -0.67000002 -0.65499997 3
4.5890002 -0.66399997 -0.65100002 2
4.526 -0.66000003 -0.64899999 2
4.4590001 -0.65499997 -0.64600003 4
4.414 -0.65399998 -0.64600003 2
4.4029999 -0.65700001 -0.65100002 4
4.2919998 -0.64499998 -0.64099997 3
4.256 -0.64399999 -0.64200002 2
4.1989999 -0.63999999 -0.63999999 3
4.152 -0.63700002 -0.639 4
4.092 -0.63200003 -0.63599998 2
4.053 -0.63 -0.63499999 2
3.9979999 -0.62599999 -0.63300002 2
3.961 -0.62400001 -0.63300002 3
3.96 -0.62800002 -0.63800001 3
3.9189999 -0.62599999 -0.63700002 2
3.872 -0.62199998 -0.63499999 2
3.8150001 -0.61699998 -0.63200003 2
3.744 -0.60900003 -0.625 2
3.7060001 -0.60600001 -0.62400001 2
3.6800001 -0.60500002 -0.625 2
3.648 -0.60399997 -0.625 3
3.5880001 -0.597 -0.62 2
3.5380001 -0.59200001 -0.61699998 2
3.4549999 -0.58099997 -0.60699999 2
3.4200001 -0.579 -0.60600001 2
3.4920001 -0.59399998 -0.62400001 2
3.461 -0.59200001 -0.62300003 2
3.438 -0.59100002 -0.62400001 2
3.425 -0.59200001 -0.62599999 2
3.2839999 -0.56999999 -0.60500002 2
3.378 -0.58999997 -0.62699997 2
3.2690001 -0.57300001 -0.611 2
3.2390001 -0.57099998 -0.61000001 2
3.2679999 -0.579 -0.62 2
3.1919999 -0.56800002 -0.61000001 1
3.1719999 -0.56699997 -0.611 1
3.1440001 -0.565 -0.61000001 1
3.1500001 -0.56800002 -0.61500001 2
3.0209999 -0.54699999 -0.59399998 2
2.997 -0.54500002 -0.59399998 2
2.9679999 -0.542 -0.59200001 2
2.9449999 -0.54000002 -0.59200001 2
2.9260001 -0.53899997 -0.59200001 2
3.063 -0.56599998 -0.62300003 2
0 0 0 2
2.9300001 -0.546 -0.60399997 1
2.8510001 -0.53399998 -0.59200001 1
2.832 -0.53200001 -0.59200001 1
2.869 -0.54100001 -0.60299999 1
2.799 -0.52999997 -0.59200001 1
2.7279999 -0.51800001 -0.57999998 1
2.7090001 -0.51599997 -0.57999998 1
2.694 -0.51499999 -0.57999998 1
2.671 -0.51300001 -0.579 1
2.6559999 -0.51099998 -0.579 1
2.6389999 -0.50999999 -0.579 1
2.6170001 -0.50700003 -0.57700002 1
2.598 -0.505 -0.57599998 1
2.5799999 -0.50300002 -0.57599998 1
2.566 -0.50199997 -0.57599998 1
2.5480001 -0.5 -0.57499999 1
2.536 -0.49900001 -0.57499999 1
2.517 -0.49700001 -0.574 1
2.5039999 -0.49599999 -0.574 1
2.487 -0.49399999 -0.57300001 1
2.4719999 -0.49200001 -0.57200003 1
2.46 -0.491 -0.57300001 1
2.444 -0.48899999 -0.57200003 1
2.425 -0.486 -0.56999999 1
2.4200001 -0.48699999 -0.57200003 1
2.401 -0.484 -0.57099998 1
2.3859999 -0.48199999 -0.56999999 1
2.3710001 -0.47999999 -0.56900001 1
2.3610001 -0.479 -0.56900001 1
2.3410001 -0.47600001 -0.56699997 1
2.3340001 -0.47600001 -0.56800002 1
2.3199999 -0.47400001 -0.56699997 1
2.3080001 -0.47299999 -0.56699997 1
2.302 -0.472 -0.56800002 1
2.2909999 -0.47099999 -0.56800002 1
2.27 -0.46799999 -0.565 1
2.266 -0.46799999 -0.56599998 1
2.25 -0.465 -0.565 1
2.2379999 -0.46399999 -0.56400001 1
2.227 -0.46200001 -0.56400001 1
2.2060001 -0.45899999 -0.56099999 1
2.1960001 -0.45699999 -0.56 1
2.187 -0.456 -0.56 1
2.1819999 -0.456 -0.56099999 1
2.1700001 -0.454 -0.56 1
2.158 -0.45199999 -0.55900002 1
2.152 -0.45199999 -0.56 1
2.141 -0.44999999 -0.55900002 1
2.1300001 -0.44800001 -0.55800003 1
2.1270001 -0.44800001 -0.56 1
2.119 -0.447 -0.55900002 1
2.1099999 -0.44600001 -0.55900002 1
2.0940001 -0.44299999 -0.55699998 1
2.098 -0.44400001 -0.56 1
2.0829999 -0.44100001 -0.55800003 1
2.0780001 -0.44100001 -0.55800003 1
2.0650001 -0.43799999 -0.55699998 1
2.0580001 -0.43700001 -0.55699998 1
2.0510001 -0.43599999 -0.55599999 1
2.0309999 -0.43200001 -0.55299997 1
2.0350001 -0.433 -0.55599999 1
2.0239999 -0.43099999 -0.55400002 1
2.0220001 -0.43099999 -0.55500001 1
2.0109999 -0.42899999 -0.55400002 1
2.0050001 -0.428 -0.55400002 1
1.99 -0.42500001 -0.55199999 1
1.993 -0.426 -0.55400002 1
1.9809999 -0.42399999 -0.55199999 1
1.977 -0.42300001 -0.55299997 1
1.973 -0.42199999 -0.55299997 1
1.97 -0.42199999 -0.55400002 1
1.965 -0.421 -0.55400002 1
1.961 -0.41999999 -0.55400002 1
1.9529999 -0.41800001 -0.55299997 1
1.9579999 -0.41999999 -0.55599999 1
1.946 -0.417 -0.55400002 1
1.938 -0.41499999 -0.55299997 1
1.932 -0.414 -0.55199999 1
1.916 -0.41100001 -0.54900002 1
1.9220001 -0.412 -0.55199999 1
1.915 -0.41 -0.551 1
1.908 -0.40900001 -0.551 1
1.908 -0.40900001 -0.55199999 1
1.903 -0.40799999 -0.55199999 1
1.898 -0.40599999 -0.551 1
1.897 -0.40599999 -0.55199999 1
1.886 -0.403 -0.55000001 1
1.886 -0.403 -0.551 1
1.875 -0.40099999 -0.54900002 1
1.878 -0.40099999 -0.55000001 1
1.873 -0.40000001 -0.55000001 1
1.87 -0.39899999 -0.55000001 1
1.865 -0.398 -0.55000001 1
1.863 -0.39700001 -0.55000001 1
1.8559999 -0.39500001 -0.54900002 1
1.8559999 -0.39500001 -0.55000001 1
1.847 -0.39300001 -0.54799998 1
1.844 -0.39199999 -0.54799998 1
1.846 -0.39199999 -0.54900002 1
1.84 -0.38999999 -0.54799998 1
1.836 -0.389 -0.54799998 1
1.834 -0.38800001 -0.54799998 1
1.829 -0.38699999 -0.54699999 1
1.826 -0.38600001 -0.54699999 1
1.825 -0.38499999 -0.54699999 1
1.825 -0.38499999 -0.54799998 1
1.823 -0.384 -0.54799998 1
1.8200001 -0.38299999 -0.54699999 1
1.818 -0.382 -0.54699999 1
1.821 -0.382 -0.54900002 1
1.8150001 -0.38 -0.54699999 1
1.812 -0.37900001 -0.54699999 1
1.808 -0.37799999 -0.546 1
1.8150001 -0.37799999 -0.54900002 1
1.808 -0.37599999 -0.54699999 1
1.806 -0.375 -0.54699999 1
1.7970001 -0.373 -0.54500002 1
1.801 -0.373 -0.546 1
1.806 -0.37400001 -0.54799998 1
1.793 -0.37 -0.54500002 1
1.795 -0.37 -0.54500002 1
1.7970001 -0.37 -0.546 1
1.795 -0.36899999 -0.546 1
1.788 -0.366 -0.54400003 1
1.7970001 -0.368 -0.54699999 1
1.79 -0.36500001 -0.54500002 1
1.796 -0.366 -0.54699999 1
1.7869999 -0.36300001 -0.54400003 1
1.7920001 -0.36399999 -0.546 1
1.783 -0.361 -0.54299998 1
1.785 -0.36000001 -0.54400003 1
1.7920001 -0.361 -0.546 1
1.788 -0.359 -0.54500002 1
1.78 -0.35699999 -0.542 1
1.783 -0.35699999 -0.54299998 1
1.789 -0.35699999 -0.54500002 1
1.789 -0.35600001 -0.54500002 1
1.7920001 -0.35600001 -0.546 1
1.7920001 -0.35499999 -0.546 1
1.789 -0.35299999 -0.54500002 1
1.796 -0.354 -0.54699999 1
1.788 -0.35100001 -0.54400003 1
1.793 -0.35100001 -0.54500002 1
1.795 -0.35100001 -0.546 1
1.802 -0.35100001 -0.54699999 1
1.802 -0.34999999 -0.54699999 1
1.8 -0.34900001 -0.546 1
1.806 -0.34900001 -0.54799998 1
1.804 -0.347 -0.54699999 1
1.808 -0.347 -0.54799998 1
1.798 -0.34400001 -0.54400003 1
1.808 -0.345 -0.54699999 1
1.814 -0.345 -0.54799998 1
1.814 -0.34400001 -0.54799998 1
1.817 -0.34299999 -0.54799998 1
1.816 -0.34200001 -0.54699999 1
1.818 -0.34099999 -0.54799998 1
1.823 -0.34099999 -0.54799998 1
1.827 -0.34 -0.54900002 1
1.83 -0.34 -0.54900002 1
1.827 -0.338 -0.54799998 1
1.83 -0.33700001 -0.54799998 1
1.827 -0.33500001 -0.546 1
1.829 -0.33500001 -0.546 1
1.834 -0.33399999 -0.54699999 1
1.837 -0.333 -0.54699999 1
1.841 -0.333 -0.54799998 1
1.845 -0.33199999 -0.54799998 1
1.847 -0.331 -0.54799998 1
1.852 -0.331 -0.54799998 1
1.855 -0.33000001 -0.54799998 1
1.8609999 -0.33000001 -0.54900002 1
1.863 -0.329 -0.54900002 1
1.87 -0.329 -0.55000001 1
1.869 -0.32699999 -0.54900002 1
1.876 -0.32699999 -0.55000001 1
1.881 -0.32600001 -0.55000001 1
1.875 -0.324 -0.54699999 1
1.8890001 -0.32499999 -0.55000001 1
1.892 -0.324 -0.55000001 1
1.892 -0.322 -0.54900002 1
1.904 -0.32300001 -0.551 1
1.906 -0.322 -0.551 1
1.908 -0.31999999 -0.55000001 1
1.908 -0.31900001 -0.54900002 1
1.919 -0.31900001 -0.551 1
1.924 -0.31799999 -0.551 1
1.933 -0.31799999 -0.55199999 1
1.942 -0.31799999 -0.55299997 1
1.947 -0.31799999 -0.55400002 1
1.9450001 -0.31600001 -0.551 1
1.9579999 -0.31600001 -0.55400002 1
1.957 -0.31400001 -0.55199999 1
1.962 -0.31299999 -0.55199999 1
1.972 -0.31299999 -0.55299997 1
1.98 -0.31299999 -0.55400002 1
1.987 -0.31200001 -0.55400002 1
1.993 -0.31200001 -0.55400002 1
1.995 -0.31 -0.55299997 1
2.0039999 -0.31 -0.55400002 1
2.0120001 -0.30899999 -0.55400002 1
2.017 -0.308 -0.55400002 1
2.029 -0.308 -0.55599999 1
2.036 -0.30700001 -0.55599999 1
2.046 -0.30700001 -0.55699998 1
2.0469999 -0.30599999 -0.55500001 1
2.062 -0.30599999 -0.55800003 1
2.0639999 -0.30399999 -0.55599999 1
2.0610001 -0.30199999 -0.55299997 1
2.075 -0.30199999 -0.55500001 1
2.0810001 -0.301 -0.55500001 1
2.0969999 -0.301 -0.55699998 1
2.1159999 -0.30199999 -0.56 1
2.115 -0.30000001 -0.55699998 1
2.1270001 -0.30000001 -0.55900002 1
2.135 -0.29899999 -0.55900002 1
2.1459999 -0.29899999 -0.55900002 1
2.155 -0.29800001 -0.55900002 1
2.1700001 -0.29800001 -0.56099999 1
2.1789999 -0.29699999 -0.56099999 1
2.1949999 -0.29699999 -0.56300002 1
2.1989999 -0.296 -0.56099999 1
2.217 -0.296 -0.56400001 1
2.289 -0.303 -0.579 1
2.2490001 -0.296 -0.56699997 1
2.277 -0.29800001 -0.57099998 1
2.293 -0.29800001 -0.57300001 1
2.319 -0.29899999 -0.57700002 1
2.454 -0.31400001 -0.60699999 1
2.349 -0.29800001 -0.57800001 1
2.345 -0.29499999 -0.57499999 1
2.3859999 -0.29800001 -0.58200002 1
2.503 -0.31 -0.60699999 1
2.3800001 -0.29300001 -0.57499999 1
2.3829999 -0.29100001 -0.57300001 1
2.405 -0.29100001 -0.57499999 1
2.4579999 -0.29499999 -0.58399999 1
2.4820001 -0.296 -0.58700001 1
2.4319999 -0.287 -0.57200003 1
2.4660001 -0.289 -0.57700002 1
2.4649999 -0.287 -0.574 1
2.4990001 -0.28799999 -0.57800001 1
2.513 -0.287 -0.57800001 1
2.5639999 -0.29100001 -0.58700001 1
2.5350001 -0.285 -0.57700002 1
2.5710001 -0.28600001 -0.58099997 1
2.5569999 -0.28200001 -0.57499999 1
2.5880001 -0.28299999 -0.57800001 1
2.5880001 -0.28099999 -0.57499999 1
2.6670001 -0.287 -0.58899999 1
2.6359999 -0.28099999 -0.57800001 1
2.6489999 -0.27900001 -0.57700002 1
2.6719999 -0.27900001 -0.57800001 1
2.7130001 -0.28099999 -0.58399999 1
2.7690001 -0.28400001 -0.59200001 1
2.7609999 -0.28 -0.58600003 1
2.8039999 -0.28200001 -0.59100002 1
2.786 -0.27700001 -0.583 1
2.9230001 -0.28799999 -0.60799998 1
2.9089999 -0.28400001 -0.60000002 1
2.8570001 -0.27599999 -0.58499998 2
2.872 -0.27500001 -0.58399999 2
2.898 -0.27399999 -0.58499998 2
3.0079999 -0.28200001 -0.60299999 2
3.0280001 -0.28099999 -0.602 1
3.0780001 -0.28299999 -0.60699999 1
3.0439999 -0.27599999 -0.59600002 1
3.1240001 -0.28099999 -0.60699999 1
3.194 -0.28400001 -0.616 1
3.237 -0.285 -0.61900002 2
3.2980001 -0.287 -0.625 2
3.2 -0.27500001 -0.602 1
3.221 -0.27399999 -0.60100001 1
3.2720001 -0.27500001 -0.60500002 1
3.289 -0.273 -0.60299999 2
0 0 0 2
3.451 -0.28 -0.62099999 2
3.471 -0.27900001 -0.61900002 2
3.4460001 -0.273 -0.60900003 2
3.5599999 -0.27900001 -0.62400001 2
3.589 -0.278 -0.62300003 2
3.6630001 -0.28 -0.63 3
3.6500001 -0.27599999 -0.62099999 2
3.681 -0.27500001 -0.62 2
3.7780001 -0.278 -0.63 3
3.7809999 -0.27500001 -0.62400001 2
3.832 -0.27500001 -0.62599999 2
3.8710001 -0.27399999 -0.62599999 3
3.921 -0.27399999 -0.62699997 2
3.928 -0.271 -0.62199998 2
4.0489998 -0.27599999 -0.634 3
4.0190001 -0.27000001 -0.62199998 2
4.217 -0.28 -0.64600003 2
4.2220001 -0.27599999 -0.639 2
4.2529998 -0.27399999 -0.63599998 4
4.3309999 -0.27599999 -0.63999999 2
4.3730001 -0.27399999 -0.639 2
4.4499998 -0.27500001 -0.64200002 2
4.5240002 -0.27599999 -0.64499998 2
4.5999999 -0.27599999 -0.64700001 2
4.6669998 -0.27599999 -0.648 5
4.763 -0.27700001 -0.653 3
4.8299999 -0.27700001 -0.653 3
4.927 -0.278 -0.65799999 3
5.0120001 -0.27900001 -0.66000003 3
5.1259999 -0.28099999 -0.66500002 4
5.2309999 -0.28200001 -0.66900003 4
5.3299999 -0.28299999 -0.67199999 4
5.4349999 -0.28400001 -0.67500001 4
5.5710001 -0.28600001 -0.68199998 4
5.6880002 -0.287 -0.685 3
5.7909999 -0.28799999 -0.68699998 4
5.9349999 -0.28999999 -0.69300002 3
6.0949998 -0.29300001 -0.69999999 3
6.2620001 -0.296 -0.708 3
6.401 -0.29699999 -0.71100003 4
6.5609999 -0.29899999 -0.71700001 4
6.7210002 -0.301 -0.72100002 4
6.9159999 -0.30399999 -0.72899997 4
7.0770001 -0.30500001 -0.73299998 4
7.2600002 -0.30700001 -0.73699999 4
7.4759998 -0.31099999 -0.745 3
7.698 -0.31400001 -0.75300002 3
7.8979998 -0.31600001 -0.75700003 4
8.1870003 -0.32100001 -0.76899999 4
8.5039997 -0.32699999 -0.78200001 7
8.8059998 -0.33199999 -0.792 10
9.0469999 -0.33399999 -0.796 14
9.2980003 -0.336 -0.80000001 9
9.665 -0.34200001 -0.81300002 4
10.08 -0.34900001 -0.82800001 6
10.391 -0.352 -0.833 5
10.8 -0.35800001 -0.84500003 4
11.281 -0.366 -0.86000001 3
11.736 -0.37200001 -0.87099999 3
12.236 -0.38 -0.884 2
12.834 -0.389 -0.90200001 3
13.592 -0.40200001 -0.92799997 3
14.315 -0.414 -0.949 3
15.103 -0.426 -0.97100002 3
15.534 -0.428 -0.96700001 5
0 0 0 26
17.296 -0.45300001 -1.007 41
17.322001 -0.442 -0.97399998 37
17.334 -0.43000001 -0.94 36
17.354 -0.41999999 -0.90600002 26
17.348 -0.40799999 -0.87099999 35
17.381001 -0.398 -0.83700001 26
17.384001 -0.38699999 -0.80199999 37
17.403999 -0.37599999 -0.76700002 27
17.406 -0.36500001 -0.73199999 37
17.429001 -0.35499999 -0.69700003 30
17.452999 -0.345 -0.66299999 22
17.469 -0.33500001 -0.62699997 22
17.486 -0.324 -0.59200001 21
17.521 -0.315 -0.55699998 23
17.549999 -0.30500001 -0.52200001 20
17.583 -0.29499999 -0.48699999 19
17.627001 -0.28600001 -0.45199999 15
17.666 -0.27599999 -0.41600001 5
17.691999 -0.26699999 -0.38 1
0 0 0 64
33.896999 -0.47400001 -0.58899999 62
33.909 -0.456 -0.51899999 68
33.891998 -0.43700001 -0.447 67
33.894001 -0.419 -0.37599999 64
33.886002 -0.40099999 -0.30599999 77
33.862 -0.384 -0.235 111
33.853001 -0.366 -0.16500001 97
33.862999 -0.34900001 -0.093999997 106
33.868 -0.333 -0.024 106
33.862 -0.317 0.043000001 103
33.860001 -0.30000001 0.114 100
33.842999 -0.28400001 0.186 137
33.854 -0.26800001 0.25600001 99
33.826 -0.252 0.32699999 130
33.827999 -0.237 0.39700001 135
33.842999 -0.222 0.46799999 139
33.827999 -0.207 0.53799999 139
33.82 -0.193 0.60799998 144
33.824001 -0.178 0.68000001 144
33.828999 -0.164 0.75099999 139
33.827999 -0.15000001 0.82099998 135
33.831001 -0.13600001 0.89200002 142
33.813 -0.123 0.96200001 133
33.82 -0.11 1.033 137
33.817001 -0.097000003 1.103 135
33.818001 -0.083999999 1.174 139
33.817001 -0.071999997 1.245 135
33.806 -0.059 1.3150001 128
33.819 -0.046999998 1.386 93
33.810001 -0.035999998 1.455 135
33.800999 -0.024 1.526 135
33.797001 -0.013 1.596 135
33.800999 -0.0020000001 1.6670001 131
33.797001 0.0080000004 1.737 133
33.800999 0.017999999 1.807 82
33.82 0.028999999 1.878 71
33.816002 0.039000001 1.947 66
33.823002 0.048999999 2.0190001 66
33.814999 0.057999998 2.089 67
33.824001 0.067000002 2.1600001 73
33.819 0.077 2.23 79
33.824001 0.085000001 2.3 69
33.814999 0.093999997 2.369 65
33.808998 0.103 2.4389999 68
33.813999 0.111 2.51 61
33.808998 0.119 2.5799999 58
33.800999 0.127 2.648 56
33.819 0.134 2.7190001 60
33.805 0.141 2.7880001 66
33.805 0.148 2.8570001 66
33.807999 0.155 2.9260001 62
33.835999 0.162 2.9979999 57
33.851002 0.168 3.0680001 58
33.868999 0.17399999 3.1370001 52
33.866001 0.17900001 3.2060001 29
33.879002 0.185 3.276 5
0 0 0 0
0 0 0 0
0 0 0 0
0 0 0 0
0 0 0 0
0 0 0 0
0 0 0 0
0 0 0 0
0 0 0 0
0 0 0 0
0 0 0 0
0 0 0 0
0 0 0 0
0 0 0 0
0 0 0 0
0 0 0 0
0 0 0 1
34 0.248 4.513 2
34.055 0.249 4.5869999 1
33.998001 0.25 4.645 1
0 0 0 0
0 0 0 2
34.035 0.252 4.848 2
0 0 0 0
0 0 0 2
34.030998 0.252 5.0450001 2
33.990002 0.25099999 5.1040001 1
34.082001 0.25099999 5.1830001 2
34.068001 0.25099999 5.2470002 2
33.955002 0.249 5.2940001 2
34.041 0.248 5.3720002 2
34.058998 0.24699999 5.4390001 2
34.110001 0.245 5.5100002 2
34.026001 0.243 5.5609999 2
0 0 0 0
0 0 0 2
0 0 0 0
0 0 0 2
34.050999 0.23100001 5.882 2
33.992001 0.227 5.9330001 1
0 0 0 0
0 0 0 0
0 0 0 2
34.069 0.214 6.1960001 2
34.273998 0.212 6.2940001 2
34.368 0.208 6.3730001 3
34.335999 0.20299999 6.427 4
34.237999 0.198 6.4699998 5
33.938999 0.191 6.474 13
33.741001 0.186 6.4959998 18
33.566002 0.17900001 6.5209999 24
33.335999 0.17299999 6.5339999 26
33.129002 0.167 6.5510001 27
32.91 0.16 6.5650001 28
32.623001 0.154 6.5630002 27
32.408001 0.147 6.5760002 26
32.174 0.14 6.5840001 26
31.934999 0.133 6.5890002 28
31.743999 0.126 6.6040001 24
31.527 0.12 6.6110001 29
31.295 0.112 6.6149998 25
31.097 0.106 6.6240001 29
30.912001 0.098999999 6.6360002 26
30.701 0.090999998 6.6420002 26
30.502001 0.083999999 6.6490002 25
30.304001 0.077 6.6550002 23
30.086 0.07 6.6560001 28
29.91 0.061999999 6.665 26
29.739 0.055 6.6750002 25
29.540001 0.046999998 6.677 29
29.358999 0.039999999 6.6830001 26
29.157 0.032000002 6.684 26
29.035 0.025 6.7020001 26
28.868999 0.017000001 6.7080002 26
28.708 0.0099999998 6.7140002 29
28.549 0.0020000001 6.7210002 23
28.377001 -0.0040000002 6.723 30
28.23 -0.012 6.7309999 26
28.072001 -0.018999999 6.7350001 26
27.912001 -0.027000001 6.7389998 30
27.757999 -0.035 6.7420001 25
27.622999 -0.043000001 6.7509999 24
27.472 -0.050000001 6.7550001 25
27.327999 -0.057999998 6.7589998 23
27.167999 -0.066 6.7589998 28
27.025 -0.074000001 6.7620001 28
26.908001 -0.082000002 6.7709999 27
26.777 -0.089000002 6.777 31
26.648001 -0.097000003 6.7820001 26
26.514 -0.105 6.7849998 25
26.377001 -0.113 6.7859998 26
26.273001 -0.121 6.7950001 26
26.143 -0.12899999 6.7969999 22
26.016001 -0.13699999 6.7989998 27
25.874001 -0.145 6.7969999 25
25.750999 -0.153 6.7989998 22
25.645 -0.161 6.8039999 28
25.539 -0.169 6.8099999 26
25.444 -0.176 6.8169999 26
25.323 -0.184 6.8179998 30
25.218 -0.193 6.822 24
25.105 -0.20100001 6.823 29
25.007999 -0.20900001 6.8280001 26
24.900999 -0.21699999 6.8299999 25
24.813 -0.22499999 6.836 26
24.726999 -0.234 6.842 28
24.611 -0.241 6.8390002 30
24.511999 -0.249 6.842 25
24.427999 -0.25799999 6.8470001 25
24.326 -0.266 6.8470001 26
24.240999 -0.27399999 6.8520002 25
24.149 -0.28200001 6.8530002 26
24.079 -0.28999999 6.8610001 27
23.988001 -0.29800001 6.862 33
23.91 -0.30700001 6.8660002 27
23.815001 -0.31400001 6.8649998 26
23.729 -0.322 6.8660002 26
23.641001 -0.331 6.8660002 32
23.566999 -0.33899999 6.8699999 26
23.51 -0.347 6.8769999 28
23.419001 -0.35499999 6.875 31
23.362 -0.36399999 6.882 26
23.290001 -0.37200001 6.8850002 33
23.215 -0.38 6.8860002 34
23.141001 -0.38800001 6.8870001 32
23.082001 -0.396 6.8920002 26
23.011999 -0.40400001 6.8930001 26
22.934999 -0.41299999 6.8920002 31
22.872 -0.421 6.8940001 25
22.799 -0.42899999 6.8930001 26
22.728001 -0.43700001 6.8930001 26
22.667999 -0.44499999 6.895 26
22.598 -0.45300001 6.8930001 25
22.531 -0.461 6.8930001 32
22.476 -0.46900001 6.895 27
22.43 -0.47799999 6.9000001 28
22.365999 -0.486 6.8990002 34
22.311001 -0.49399999 6.9000001 33
22.256001 -0.50199997 6.901 33
22.205999 -0.50999999 6.9029999 33
22.174 -0.51899999 6.9099998 27
0 0 0 2
17.865 -0.43399999 5.5949998 4
17.813 -0.44 5.592 12
17.816999 -0.44800001 5.6059999 17
17.790001 -0.45500001 5.6100001 16
17.778999 -0.461 5.619 19
17.76 -0.46900001 5.625 17
17.737 -0.47499999 5.6300001 19
17.719 -0.48300001 5.6360002 19
17.712999 -0.49000001 5.645 22
17.702999 -0.498 5.6529999 22
17.674 -0.50400001 5.6550002 23
17.669001 -0.51200002 5.664 22
17.652 -0.51899999 5.6690001 24
17.646 -0.52600002 5.677 25
17.643 -0.53399998 5.6859999 25
17.629999 -0.54100001 5.691 25
17.618999 -0.54799998 5.697 26
17.594999 -0.55500001 5.698 28
17.597 -0.56300002 5.7080002 28
17.586 -0.56999999 5.7119999 29
17.573 -0.57700002 5.717 29
17.565001 -0.58499998 5.7220001 29
17.551001 -0.59200001 5.7249999 31
17.562 -0.60000002 5.737 32
17.562 -0.60699999 5.744 33
17.530001 -0.61400002 5.7410002 31
17.539 -0.62199998 5.75 33
17.535 -0.62900001 5.756 36
17.525 -0.63599998 5.7579999 34
17.528999 -0.64399999 5.7659998 35
17.516001 -0.65100002 5.7680001 35
17.517 -0.65799999 5.7729998 36
17.516001 -0.66600001 5.7779999 38
17.507 -0.67299998 5.7810001 37
17.511999 -0.68099999 5.7870002 40
17.499001 -0.68800002 5.7870002 40
17.497999 -0.69499999 5.7909999 41
17.495001 -0.70300001 5.7950001 40
17.496 -0.70999998 5.7989998 44
17.49 -0.71799999 5.8000002 44
17.488001 -0.72399998 5.803 44
17.487 -0.73199999 5.8060002 47
17.48 -0.73900002 5.8060002 45
17.481001 -0.74599999 5.809 45
17.474001 -0.75400001 5.809 43
17.476 -0.75999999 5.8109999 49
17.464001 -0.76700002 5.8099999 46
17.476 -0.77499998 5.8150001 46
17.474001 -0.78200001 5.816 46
17.469999 -0.78899997 5.8150001 49
17.461 -0.796 5.8130002 49
17.450001 -0.80299997 5.8099999 46
17.457001 -0.81 5.8119998 49
17.472 -0.81800002 5.8169999 56
17.461 -0.82499999 5.8130002 51
17.448 -0.83099997 5.809 50
17.452999 -0.838 5.809 48
17.455 -0.84500003 5.809 45
17.448999 -0.852 5.8060002 47
17.452 -0.85900003 5.8049998 50
17.465 -0.86699998 5.8080001 34
17.445999 -0.87300003 5.8000002 52
17.444 -0.87900001 5.7969999 46
17.451 -0.88700002 5.7969999 50
17.448999 -0.89300001 5.7930002 50
17.457001 -0.89999998 5.7930002 34
17.444 -0.90600002 5.7849998 50
17.458 -0.91399997 5.7859998 34
17.455 -0.92000002 5.7810001 52
17.445 -0.92699999 5.7740002 48
17.445999 -0.93300003 5.77 54
17.455 -0.94 5.7690001 54
17.443001 -0.94599998 5.7600002 49
17.450001 -0.95300001 5.757 47
17.466 -0.95999998 5.757 35
17.455 -0.96499997 5.7480001 56
17.450001 -0.972 5.7399998 47
17.466999 -0.97899997 5.7399998 34
17.447001 -0.98400003 5.7270002 44
17.447001 -0.991 5.7210002 42
17.444 -0.99599999 5.7129998 44
17.445999 -1.003 5.7069998 44
17.445999 -1.0089999 5.6989999 43
17.469 -1.016 5.6989999 48
17.469999 -1.022 5.6919999 46
17.457001 -1.028 5.6799998 40
17.462 -1.034 5.6729999 39
17.458 -1.04 5.6630001 40
17.479 -1.0470001 5.6609998 38
17.458 -1.051 5.645 37
17.454 -1.056 5.6350002 37
17.466999 -1.063 5.6290002 41
17.474001 -1.069 5.6220002 41
17.473 -1.075 5.612 41
17.476999 -1.081 5.6030002 42
17.474001 -1.086 5.5910001 40
17.474001 -1.091 5.5809999 39
17.473 -1.097 5.5689998 38
17.483999 -1.103 5.5619998 41
17.479 -1.108 5.5489998 39
17.48 -1.113 5.5370002 38
17.486 -1.119 5.527 39
17.5 -1.125 5.52 28
17.486 -1.128 5.5029998 38
17.488001 -1.1339999 5.4910002 36
17.503 -1.14 5.4829998 38
17.495001 -1.1440001 5.4679999 37
17.504 -1.15 5.4569998 37
17.51 -1.155 5.4450002 37
17.514 -1.16 5.4320002 37
17.507 -1.164 5.4159999 35
17.511 -1.169 5.4039998 35
17.517 -1.174 5.3909998 36
17.518 -1.178 5.3769999 33
17.509001 -1.182 5.3590002 32
17.525999 -1.187 5.349 33
17.52 -1.191 5.3319998 31
17.537001 -1.197 5.3210001 32
17.535999 -1.2 5.3060002 30
17.535 -1.205 5.289 30
17.527 -1.2079999 5.27 31
17.535999 -1.212 5.256 31
17.549999 -1.217 5.244 32
17.545 -1.221 5.2249999 31
17.548 -1.225 5.2090001 30
17.558001 -1.229 5.1950002 31
17.566 -1.233 5.1799998 30
17.563 -1.2359999 5.1609998 29
17.565001 -1.24 5.1430001 28
17.572001 -1.244 5.1269999 22
17.57 -1.247 5.1079998 28
17.577 -1.251 5.0910001 29
17.594999 -1.255 5.0780001 27
17.599001 -1.2589999 5.0599999 27
17.601 -1.262 5.0409999 27
17.618999 -1.266 5.026 20
17.611 -1.268 5.0040002 25
17.627001 -1.272 4.9889998 19
17.618 -1.274 4.9660001 23
17.635 -1.278 4.9499998 24
17.632999 -1.28 4.9289999 19
17.646 -1.284 4.9120002 23
17.634001 -1.285 4.888 22
17.648001 -1.288 4.8709998 22
17.657 -1.291 4.8520002 21
17.649 -1.293 4.8280001 21
17.649 -1.295 4.8060002 20
17.667999 -1.298 4.789 19
17.67 -1.301 4.7670002 19
17.677999 -1.303 4.7470002 19
17.676001 -1.304 4.723 18
17.691 -1.307 4.7049999 19
17.676001 -1.307 4.678 15
17.683001 -1.309 4.6570001 17
17.698999 -1.312 4.6370001 17
17.701 -1.313 4.6139998 17
17.705999 -1.3150001 4.592 16
17.704 -1.316 4.5679998 16
17.708 -1.317 4.5440001 16
17.718 -1.319 4.5229998 15
17.712 -1.319 4.4970002 16
17.719999 -1.3200001 4.474 16
17.723 -1.321 4.4499998 15
17.719999 -1.321 4.4239998 15
17.728001 -1.323 4.401 15
17.74 -1.324 4.3790002 14
17.736 -1.324 4.3530002 15
17.733999 -1.324 4.3260002 15
17.725 -1.323 4.2979999 14
17.738001 -1.324 4.2750001 14
17.733999 -1.323 4.2480001 14
17.735001 -1.323 4.2220001 14
17.747 -1.324 4.198 14
17.747 -1.323 4.1719999 14
17.735001 -1.322 4.1420002 14
17.74 -1.321 4.1160002 14
17.724001 -1.319 4.085 14
17.733999 -1.319 4.0599999 14
17.731001 -1.318 4.0320001 14
17.736 -1.317 4.0050001 15
17.719 -1.3150001 3.973 15
17.729 -1.314 3.948 15
17.721001 -1.312 3.918 15
17.722 -1.311 3.8900001 15
17.707001 -1.308 3.859 15
17.702 -1.307 3.829 15
17.702 -1.304 3.8 16
17.709999 -1.303 3.7739999 17
17.688 -1.3 3.74 16
17.687 -1.2970001 3.711 16
17.694 -1.296 3.684 16
17.687 -1.293 3.6530001 17
17.674 -1.289 3.6210001 16
17.669001 -1.2869999 3.5899999 18
17.672001 -1.284 3.5610001 17
17.659 -1.28 3.529 17
17.650999 -1.277 3.4979999 18
17.652 -1.274 3.4679999 19
17.649 -1.271 3.437 18
17.632 -1.266 3.404 18
17.615999 -1.262 3.3699999 19
17.618 -1.2589999 3.3399999 20
17.617001 -1.255 3.3099999 20
17.618 -1.251 3.28 21
17.601 -1.2460001 3.2460001 22
17.603001 -1.242 3.2149999 17
17.587999 -1.237 3.181 23
17.584 -1.233 3.1489999 23
17.58 -1.228 3.118 22
17.572001 -1.223 3.085 24
17.559 -1.2180001 3.052 25
17.558001 -1.2130001 3.02 23
17.556 -1.209 2.9879999 24
17.521999 -1.201 2.9519999 25
17.531 -1.197 2.9219999 27
17.523001 -1.191 2.888 26
17.516001 -1.186 2.855 22
17.504999 -1.1799999 2.8210001 29
17.502001 -1.174 2.79 28
17.490999 -1.168 2.756 29
17.489 -1.1619999 2.724 31
17.483999 -1.156 2.691 30
17.495001 -1.151 2.6600001 32
17.462 -1.143 2.6229999 33
17.471001 -1.137 2.592 35
17.452 -1.13 2.5569999 35
17.452999 -1.124 2.526 37
17.452999 -1.118 2.493 35
17.445 -1.11 2.4590001 25
17.437 -1.103 2.4260001 38
17.417999 -1.095 2.3900001 36
17.431 -1.089 2.3599999 40
17.424 -1.082 2.326 39
17.433001 -1.075 2.2939999 27
17.408001 -1.066 2.2579999 37
17.398001 -1.058 2.224 38
17.403 -1.051 2.1919999 33
17.393999 -1.043 2.1570001 60
17.398001 -1.035 2.125 32
17.389999 -1.027 2.0899999 30
17.377001 -1.018 2.0550001 47
17.371 -1.01 2.0209999 50
17.363001 -1.001 1.988 50
17.365999 -0.99299997 1.955 50
17.356001 -0.98400003 1.92 48
17.347 -0.97399998 1.885 47
17.355 -0.96600002 1.853 49
17.344 -0.95700002 1.818 52
17.348 -0.94800001 1.785 34
17.353001 -0.93900001 1.752 32
17.332001 -0.92900002 1.716 45
17.337 -0.92000002 1.683 31
17.316999 -0.90899998 1.648 50
17.326 -0.89999998 1.615 52
17.319 -0.88999999 1.581 34
17.305 -0.87900001 1.546 54
17.318001 -0.87 1.5140001 33
17.302999 -0.85900003 1.478 53
17.304001 -0.84899998 1.4450001 51
17.299999 -0.83899999 1.411 49
17.297001 -0.82800001 1.376 54
17.302999 -0.81800002 1.3430001 54
17.291 -0.80699998 1.309 58
17.277 -0.79500002 1.274 59
17.288 -0.78500003 1.2410001 62
17.277 -0.773 1.206 62
17.278 -0.76200002 1.173 59
17.268 -0.75 1.138 54
17.268999 -0.73900002 1.104 56
17.284 -0.72899997 1.072 59
17.275999 -0.71700001 1.038 56
17.289 -0.70499998 1.0039999 68
17.284 -0.69300002 0.97000003 57
17.275999 -0.68099999 0.93599999 56
17.285 -0.66900003 0.903 50
17.287001 -0.65700001 0.86900002 54
17.284 -0.64499998 0.83499998 55
17.306 -0.63300002 0.80199999 54
17.299 -0.62 0.76800001 56
17.304001 -0.60799998 0.73500001 49
17.311001 -0.59500003 0.70099998 49
17.326 -0.583 0.66799998 33
17.326 -0.56999999 0.634 45
17.323999 -0.55599999 0.59899998 40
17.326 -0.54299998 0.56599998 43
17.329 -0.52999997 0.53200001 44
17.337 -0.51599997 0.498 39
17.348 -0.50300002 0.465 36
17.348 -0.48899999 0.43099999 38
17.363001 -0.47499999 0.396 40
17.368999 -0.461 0.36300001 40
17.368999 -0.447 0.329 42
17.389 -0.433 0.29499999 40
17.396999 -0.419 0.26100001 37
17.400999 -0.40400001 0.227 37
17.42 -0.38999999 0.193 35
17.431 -0.375 0.16 32
17.441 -0.36000001 0.126 30
17.466999 -0.34599999 0.092 28
17.474001 -0.331 0.057999998 25
17.52 -0.31600001 0.024 22
17.552 -0.301 -0.0089999996 20
17.582001 -0.28600001 -0.043000001 17
17.636 -0.271 -0.077 11
17.723 -0.25600001 -0.111 2
0 0 0 68
33.917999 -0.43000001 -0.34200001 60
33.886002 -0.398 -0.40599999 57
33.875999 -0.36700001 -0.47 60
33.874001 -0.33500001 -0.53500003 62
33.880001 -0.30399999 -0.60000002 58
33.855999 -0.271 -0.66399997 55
33.835999 -0.23899999 -0.72799999 50
33.823002 -0.206 -0.792 40
33.791 -0.17299999 -0.85600001 19
33.571999 -0.14 -0.91399997 13
33.448002 -0.106 -0.97299999 18
33.273998 -0.072999999 -1.031 32
33.674999 -0.041000001 -1.107 39
0 0 0 11
19.716999 0.014 -0.72100002 38
19.716999 0.034000002 -0.75800002 64
19.712 0.054000001 -0.79500002 75
19.691999 0.074000001 -0.82999998 80
19.681 0.093999997 -0.866 71
19.688 0.114 -0.903 58
19.694 0.134 -0.94 54
19.687 0.154 -0.97500002 54
19.673 0.175 -1.011 65
19.653 0.19499999 -1.046 49
19.530001 0.214 -1.075 19
0 0 0 2
17.038 0.223 -1 2
0 0 0 3
15.106 0.23 -0.94099998 3
14.424 0.235 -0.92500001 3
13.721 0.23899999 -0.90499997 3
13.086 0.241 -0.88599998 3
12.502 0.244 -0.86900002 3
11.93 0.24600001 -0.85000002 3
11.49 0.25 -0.83899999 4
11.16 0.255 -0.83499998 9
10.88 0.25999999 -0.833 7
10.434 0.26100001 -0.81699997 3
10.014 0.26199999 -0.80199999 3
9.6990004 0.264 -0.79400003 3
9.4069996 0.26699999 -0.78600001 4
9.1389999 0.26899999 -0.77899998 4
8.8850002 0.27200001 -0.773 3
8.6079998 0.273 -0.764 3
8.3540001 0.27500001 -0.75599998 3
8.099 0.27599999 -0.74699998 3
7.8769999 0.27700001 -0.74000001 3
7.664 0.278 -0.73299998 4
7.4840002 0.28 -0.72799999 4
7.316 0.28299999 -0.72399998 5
7.0669999 0.28099999 -0.71100003 11
6.934 0.28400001 -0.70999998 11
6.8049998 0.28600001 -0.708 12
6.6690001 0.289 -0.70499998 10
6.572 0.292 -0.70499998 9
6.4130001 0.292 -0.699 5
6.2160001 0.29100001 -0.68800002 3
6.0929999 0.292 -0.68400002 3
5.9590001 0.29300001 -0.67900002 3
5.849 0.294 -0.676 3
5.7449999 0.296 -0.67299998 3
5.631 0.29699999 -0.66900003 3
5.5240002 0.29800001 -0.66500002 3
