# .PCD v0.7 - Point Cloud Data file format
VERSION 0.7
FIELDS x y z intensity
SIZE 4 4 4 4
TYPE F F F F
COUNT 1 1 1 1
WIDTH 1776
HEIGHT 1
VIEWPOINT 0 0 0 1 0 0 0
POINTS 1776
DATA ascii
12.643 -0.17200001 -0.93800002 3
12.043 -0.163 -0.91900003 2
11.521 -0.155 -0.903 2
11.044 -0.148 -0.889 3
10.571 -0.141 -0.87300003 2
10.107 -0.134 -0.85600001 2
9.6079998 -0.126 -0.83399999 3
9.1719999 -0.119 -0.815 4
8.7980003 -0.114 -0.80000001 13
8.5229998 -0.109 -0.79299998 16
8.283 -0.105 -0.78799999 15
8.0349998 -0.101 -0.78100002 13
7.6680002 -0.094999999 -0.76099998 6
7.3699999 -0.090000004 -0.74699998 5
7.1350002 -0.086999997 -0.73799998 6
6.9229999 -0.082999997 -0.73000002 5
6.723 -0.079999998 -0.72299999 5
6.5560002 -0.075999998 -0.71799999 4
6.375 -0.072999999 -0.71200001 5
6.21 -0.07 -0.70599997 4
6.0489998 -0.067000002 -0.69999999 3
5.8800001 -0.064000003 -0.69199997 3
5.7270002 -0.061999999 -0.68599999 3
5.6020002 -0.059 -0.68199998 3
5.4640002 -0.057 -0.67699999 3
5.3449998 -0.054000001 -0.67299998 4
5.2340002 -0.052000001 -0.66900003 2
5.1160002 -0.050000001 -0.66500002 4
5.0180001 -0.046999998 -0.662 2
4.9089999 -0.045000002 -0.65700001 3
4.802 -0.043000001 -0.653 2
4.7129998 -0.041000001 -0.64999998 3
4.6170001 -0.039000001 -0.64600003 3
4.5310001 -0.037 -0.64300001 4
4.448 -0.035 -0.63999999 2
4.3410001 -0.033 -0.63300002 2
4.2729998 -0.032000002 -0.63200003 3
4.171 -0.029999999 -0.625 1
4.1139998 -0.028000001 -0.625 2
4.0349998 -0.026000001 -0.62 2
3.987 -0.025 -0.62099999 2
3.9920001 -0.024 -0.62900001 2
3.8870001 -0.022 -0.62 2
3.9430001 -0.021 -0.63700002 3
3.8840001 -0.018999999 -0.63499999 3
3.704 -0.017000001 -0.61299998 2
3.6919999 -0.016000001 -0.61799997 2
3.609 -0.015 -0.611 3
3.559 -0.013 -0.60900003 2
3.5799999 -0.012 -0.61900002 3
3.464 -0.0099999998 -0.60600001 2
3.5120001 -0.0089999996 -0.62099999 2
3.381 -0.0080000004 -0.60399997 2
3.355 -0.0060000001 -0.60600001 2
3.4530001 -0.0049999999 -0.63 2
3.3800001 -0.0040000002 -0.62300003 2
3.253 -0.003 -0.60500002 1
3.3139999 -0.001 -0.62300003 2
3.21 0 -0.60900003 2
3.0810001 0 -0.58999997 2
3.049 0.001 -0.58999997 2
3.0139999 0.003 -0.588 2
3.1830001 0.0040000002 -0.62699997 2
3.115 0.0049999999 -0.62 2
3.0510001 0.0060000001 -0.61199999 1
2.8710001 0.0070000002 -0.58099997 1
2.8540001 0.0080000004 -0.583 1
2.938 0.0099999998 -0.60500002 1
2.8340001 0.011 -0.58899999 1
2.7679999 0.011 -0.57999998 1
2.7509999 0.013 -0.58099997 1
2.6819999 0.013 -0.57099998 1
2.7420001 0.015 -0.58899999 1
2.694 0.016000001 -0.583 1
2.7030001 0.017000001 -0.58999997 1
2.635 0.017999999 -0.579 1
2.5710001 0.018999999 -0.56999999 1
2.5550001 0.02 -0.56999999 1
2.5350001 0.021 -0.56999999 2
2.513 0.022 -0.56900001 2
2.494 0.023 -0.56900001 2
2.4779999 0.024 -0.56999999 2
2.448 0.025 -0.56699997 2
2.427 0.026000001 -0.56599998 2
2.4089999 0.026000001 -0.56599998 2
2.395 0.027000001 -0.56599998 2
2.3729999 0.028000001 -0.565 2
2.3529999 0.028999999 -0.56400001 2
2.332 0.029999999 -0.56300002 1
2.313 0.030999999 -0.56199998 1
2.2950001 0.032000002 -0.56099999 1
2.283 0.033 -0.56199998 1
2.2650001 0.034000002 -0.56099999 1
2.2420001 0.035 -0.55800003 1
2.2309999 0.035999998 -0.55900002 1
2.2160001 0.037 -0.55900002 1
2.204 0.037 -0.55900002 1
2.188 0.037999999 -0.55800003 1
2.1789999 0.039000001 -0.55900002 2
2.158 0.039999999 -0.55699998 1
2.1440001 0.041000001 -0.55699998 2
2.1270001 0.041999999 -0.55500001 1
2.1159999 0.043000001 -0.55599999 1
2.102 0.043000001 -0.55500001 1
2.0899999 0.044 -0.55500001 1
2.0810001 0.045000002 -0.55500001 1
2.0680001 0.046 -0.55500001 1
2.0539999 0.046999998 -0.55400002 1
2.0380001 0.048 -0.55299997 1
2.029 0.048999999 -0.55299997 1
2.017 0.048999999 -0.55199999 1
2.0050001 0.050000001 -0.55199999 1
1.989 0.050999999 -0.55000001 1
1.982 0.052000001 -0.551 1
1.969 0.052000001 -0.55000001 1
1.962 0.052999999 -0.55000001 1
1.95 0.054000001 -0.54900002 1
1.933 0.055 -0.54699999 1
1.926 0.056000002 -0.54799998 1
1.909 0.056000002 -0.54500002 1
1.899 0.057 -0.54500002 1
1.887 0.057 -0.54400003 1
1.876 0.057999998 -0.54299998 1
1.87 0.059 -0.54400003 1
1.863 0.059999999 -0.54400003 1
1.852 0.061000001 -0.54299998 1
1.85 0.061999999 -0.54400003 1
1.84 0.061999999 -0.54400003 1
1.827 0.063000001 -0.542 1
1.819 0.064000003 -0.542 1
1.811 0.064000003 -0.54100001 1
1.808 0.064999998 -0.542 1
1.795 0.066 -0.54000002 1
1.7920001 0.067000002 -0.542 1
1.783 0.067000002 -0.54100001 1
1.774 0.068000004 -0.54000002 1
1.768 0.068999998 -0.54000002 1
1.7640001 0.07 -0.54100001 1
1.758 0.07 -0.54100001 1
1.748 0.071000002 -0.53899997 1
1.738 0.071999997 -0.53799999 1
1.7359999 0.071999997 -0.53899997 1
1.729 0.072999999 -0.53899997 1
1.728 0.074000001 -0.54000002 1
1.716 0.075000003 -0.53799999 1
1.7130001 0.075000003 -0.53899997 1
1.71 0.075999998 -0.53899997 1
1.7029999 0.077 -0.53899997 1
1.701 0.078000002 -0.54000002 1
1.697 0.078000002 -0.54000002 1
1.688 0.079000004 -0.53899997 1
1.671 0.079000004 -0.53500003 1
1.669 0.079999998 -0.53600001 1
1.664 0.081 -0.53600001 1
1.66 0.081 -0.53600001 1
1.66 0.082000002 -0.537 1
1.651 0.082999997 -0.53500003 1
1.647 0.082999997 -0.53500003 1
1.6390001 0.083999999 -0.53399998 1
1.64 0.085000001 -0.53600001 1
1.631 0.085000001 -0.53399998 1
1.619 0.086000003 -0.53100002 1
1.615 0.086000003 -0.53100002 1
1.614 0.086999997 -0.53200001 1
1.607 0.088 -0.53100002 1
1.604 0.088 -0.53100002 1
1.598 0.089000002 -0.52999997 1
1.607 0.090000004 -0.53399998 1
1.602 0.090999998 -0.53299999 1
1.596 0.090999998 -0.53200001 1
1.592 0.092 -0.53200001 1
1.592 0.093000002 -0.53299999 1
1.581 0.093000002 -0.52999997 1
1.587 0.093999997 -0.53299999 1
1.581 0.094999999 -0.53200001 1
1.576 0.094999999 -0.53100002 1
1.5700001 0.096000001 -0.52999997 1
1.569 0.096000001 -0.53100002 1
1.577 0.097999997 -0.53399998 1
1.572 0.097999997 -0.53299999 1
1.564 0.097999997 -0.53100002 1
1.562 0.098999999 -0.53100002 1
1.562 0.1 -0.53200001 1
1.562 0.101 -0.53299999 1
1.561 0.101 -0.53299999 1
1.553 0.102 -0.53100002 1
1.556 0.103 -0.53200001 1
1.5470001 0.103 -0.52999997 1
1.552 0.104 -0.53200001 1
1.552 0.105 -0.53299999 1
1.552 0.106 -0.53299999 1
1.549 0.106 -0.53299999 1
1.538 0.106 -0.52999997 1
1.5470001 0.107 -0.53299999 1
1.543 0.108 -0.53200001 1
1.546 0.109 -0.53399998 1
1.541 0.109 -0.53299999 1
1.544 0.11 -0.53399998 1
1.5420001 0.111 -0.53299999 1
1.541 0.111 -0.53299999 1
1.539 0.112 -0.53299999 1
1.538 0.113 -0.53299999 1
1.53 0.113 -0.53100002 1
1.5319999 0.113 -0.53100002 1
1.535 0.114 -0.53299999 1
1.533 0.115 -0.53200001 1
1.535 0.116 -0.53299999 1
1.5319999 0.116 -0.53200001 1
1.5319999 0.117 -0.53200001 1
1.527 0.117 -0.53100002 1
1.5319999 0.118 -0.53299999 1
1.5319999 0.119 -0.53299999 1
1.534 0.12 -0.53299999 1
1.535 0.12 -0.53399998 1
1.535 0.121 -0.53399998 1
1.529 0.121 -0.53200001 1
1.5319999 0.122 -0.53299999 1
1.531 0.123 -0.53200001 1
1.529 0.123 -0.53100002 1
1.531 0.124 -0.53200001 1
1.5369999 0.125 -0.53399998 1
1.5369999 0.126 -0.53399998 1
1.522 0.125 -0.528 1
1.5369999 0.127 -0.53399998 1
1.53 0.127 -0.53100002 1
1.533 0.127 -0.53100002 1
1.53 0.12800001 -0.52999997 1
1.53 0.12800001 -0.52999997 1
1.533 0.12899999 -0.53100002 1
1.533 0.13 -0.52999997 1
1.535 0.13 -0.53100002 1
1.544 0.132 -0.53299999 1
1.533 0.131 -0.52899998 1
1.535 0.132 -0.52999997 1
1.543 0.133 -0.53200001 1
1.543 0.134 -0.53100002 1
1.543 0.134 -0.53100002 1
1.543 0.13500001 -0.52999997 1
1.538 0.13500001 -0.528 1
1.538 0.13500001 -0.52700001 1
1.545 0.13600001 -0.52899998 1
1.554 0.138 -0.53200001 1
1.559 0.138 -0.53299999 1
1.554 0.139 -0.53100002 1
1.559 0.139 -0.53200001 1
1.557 0.14 -0.52999997 1
1.558 0.14 -0.52999997 1
1.568 0.141 -0.53299999 1
1.568 0.142 -0.53200001 1
1.569 0.142 -0.53100002 1
1.566 0.14300001 -0.52999997 1
1.566 0.14300001 -0.52899998 1
1.574 0.14399999 -0.53100002 1
1.573 0.14399999 -0.52899998 1
1.586 0.146 -0.53299999 1
1.575 0.145 -0.528 1
1.5779999 0.146 -0.528 1
1.59 0.147 -0.53100002 1
1.597 0.148 -0.53299999 1
1.596 0.149 -0.53100002 1
1.596 0.149 -0.52999997 1
1.597 0.149 -0.52999997 1
1.607 0.15099999 -0.53200001 1
1.61 0.15099999 -0.53200001 1
1.613 0.152 -0.53200001 1
1.614 0.152 -0.53100002 1
1.614 0.152 -0.52999997 1
1.623 0.154 -0.53100002 1
1.623 0.154 -0.52999997 1
1.6289999 0.155 -0.53100002 1
1.632 0.155 -0.53100002 1
1.633 0.155 -0.52899998 1
1.649 0.15700001 -0.53299999 1
1.652 0.15800001 -0.53299999 1
1.653 0.15800001 -0.53200001 1
1.663 0.15899999 -0.53399998 1
1.66 0.15899999 -0.53100002 1
1.666 0.16 -0.53200001 1
1.687 0.162 -0.537 1
1.688 0.162 -0.53600001 1
1.694 0.163 -0.53600001 1
1.697 0.164 -0.53600001 1
1.702 0.164 -0.53500003 1
1.706 0.16500001 -0.53500003 1
1.71 0.16500001 -0.53500003 1
1.7180001 0.16599999 -0.53600001 1
1.721 0.167 -0.53500003 1
1.728 0.167 -0.53500003 1
1.7309999 0.168 -0.53500003 1
1.7410001 0.169 -0.53600001 1
1.748 0.17 -0.53600001 1
1.752 0.17 -0.53600001 1
1.761 0.171 -0.537 1
1.773 0.17200001 -0.53899997 1
1.7690001 0.17200001 -0.53500003 1
1.781 0.17299999 -0.537 1
1.793 0.17399999 -0.53899997 1
1.795 0.17399999 -0.537 1
1.8099999 0.176 -0.54000002 1
1.819 0.176 -0.54000002 1
1.826 0.177 -0.54000002 1
1.829 0.177 -0.53899997 1
1.841 0.17900001 -0.54100001 1
1.844 0.17900001 -0.53899997 1
1.855 0.18000001 -0.54000002 1
1.87 0.18099999 -0.542 1
1.87 0.18099999 -0.54000002 1
1.881 0.182 -0.54100001 1
1.892 0.183 -0.542 1
1.9069999 0.184 -0.54400003 1
1.906 0.184 -0.54100001 1
1.923 0.185 -0.54400003 1
1.936 0.186 -0.54500002 1
1.948 0.18700001 -0.546 1
1.9630001 0.18799999 -0.54699999 1
1.966 0.189 -0.546 1
1.982 0.19 -0.54799998 2
1.9960001 0.191 -0.54900002 2
2.0109999 0.192 -0.55000001 2
2.0150001 0.192 -0.54900002 2
2.029 0.193 -0.55000001 2
2.0420001 0.19400001 -0.55000001 2
2.0550001 0.19499999 -0.551 1
2.0680001 0.19599999 -0.55199999 2
2.0810001 0.197 -0.55199999 2
2.095 0.197 -0.55299997 2
2.1059999 0.198 -0.55299997 2
2.125 0.199 -0.55500001 2
2.131 0.2 -0.55299997 2
2.141 0.2 -0.55299997 2
2.1619999 0.20200001 -0.55500001 2
2.1700001 0.20200001 -0.55400002 2
2.184 0.20299999 -0.55500001 1
2.1930001 0.20299999 -0.55400002 1
2.21 0.204 -0.55500001 1
2.2249999 0.205 -0.55500001 1
2.2520001 0.207 -0.55900002 2
2.256 0.206 -0.55599999 1
2.2820001 0.208 -0.55900002 2
2.2980001 0.20900001 -0.56 2
2.3080001 0.20900001 -0.55900002 2
2.325 0.20999999 -0.55900002 2
2.348 0.211 -0.56099999 2
2.3659999 0.212 -0.56199998 2
2.385 0.213 -0.56199998 2
2.4000001 0.214 -0.56199998 2
2.4200001 0.215 -0.56300002 2
2.437 0.215 -0.56300002 2
2.45 0.215 -0.56300002 2
2.4790001 0.21699999 -0.565 2
2.4990001 0.21799999 -0.56599998 2
2.5150001 0.21799999 -0.565 2
2.5409999 0.22 -0.56699997 1
2.5580001 0.22 -0.56699997 1
2.573 0.22 -0.56599998 1
2.6029999 0.222 -0.56800002 1
2.6240001 0.223 -0.56900001 1
2.648 0.22400001 -0.56900001 2
2.6689999 0.22400001 -0.56900001 1
2.701 0.226 -0.57200003 1
2.72 0.226 -0.57099998 1
2.8139999 0.233 -0.58600003 1
2.822 0.23199999 -0.583 1
2.8080001 0.229 -0.57599998 2
2.835 0.23 -0.57700002 2
2.8529999 0.23 -0.57499999 2
2.881 0.23100001 -0.57599998 2
2.9230001 0.233 -0.57999998 2
2.9579999 0.235 -0.58099997 2
2.9890001 0.236 -0.58200002 2
3.0350001 0.23800001 -0.58600003 2
3.066 0.23800001 -0.58700001 2
3.099 0.23899999 -0.588 2
3.1240001 0.23999999 -0.58700001 2
3.1659999 0.241 -0.58999997 2
3.2049999 0.242 -0.59100002 2
3.234 0.243 -0.59100002 2
3.277 0.244 -0.59299999 2
0 0 0 2
3.4030001 0.249 -0.60399997 2
3.51 0.255 -0.61699998 2
3.477 0.25099999 -0.60500002 2
3.5090001 0.25099999 -0.60399997 2
3.602 0.255 -0.61400002 2
3.575 0.25099999 -0.60299999 3
3.6300001 0.252 -0.60500002 3
3.674 0.25299999 -0.60600001 3
3.892 0.266 -0.63499999 3
3.8699999 0.26199999 -0.625 2
3.914 0.26199999 -0.625 3
3.9089999 0.259 -0.61699998 2
3.9330001 0.25799999 -0.61400002 2
4.0370002 0.26199999 -0.62300003 2
4.059 0.26100001 -0.61900002 2
4.1739998 0.26499999 -0.62900001 2
4.2410002 0.26699999 -0.63099998 2
4.276 0.266 -0.62900001 2
4.349 0.26699999 -0.63200003 2
4.4239998 0.26800001 -0.634 3
4.4970002 0.26899999 -0.63700002 3
4.5809999 0.271 -0.63999999 3
4.6469998 0.271 -0.64099997 3
4.744 0.27399999 -0.64600003 3
4.822 0.27399999 -0.648 3
4.9260001 0.27599999 -0.653 4
5.0079999 0.27700001 -0.65399998 4
5.1040001 0.278 -0.65700001 3
5.2179999 0.28 -0.66299999 3
5.3369999 0.28200001 -0.66799998 3
5.4349999 0.28299999 -0.67000002 3
5.5539999 0.285 -0.67500001 3
5.6810002 0.287 -0.68000001 3
5.8249998 0.289 -0.68599999 3
5.9679999 0.29100001 -0.69199997 4
6.1490002 0.29499999 -0.70099998 5
6.2410002 0.294 -0.70099998 6
6.3800001 0.29499999 -0.704 6
6.5609999 0.29699999 -0.71200001 6
6.7280002 0.29899999 -0.71799999 6
6.8979998 0.30000001 -0.72299999 5
7.0819998 0.30199999 -0.73000002 7
7.302 0.30500001 -0.73900002 5
7.5180001 0.30700001 -0.74699998 4
7.7600002 0.30899999 -0.75599998 4
8.033 0.31299999 -0.76800001 3
8.3409996 0.317 -0.78200001 4
8.6149998 0.31900001 -0.792 3
8.9119997 0.322 -0.80299997 3
9.2440004 0.32499999 -0.815 3
9.6160002 0.329 -0.82999998 2
10.051 0.33399999 -0.84899998 2
10.495 0.338 -0.86799997 2
10.851 0.33899999 -0.87699997 4
11.246 0.34 -0.88800001 2
11.726 0.34299999 -0.90499997 3
12.175 0.34400001 -0.917 2
12.716 0.34599999 -0.93400002 3
13.323 0.34900001 -0.954 3
13.914 0.34999999 -0.97100002 4
14.517 0.34999999 -0.986 3
14.769 0.34099999 -0.97600001 4
15.43 0.34 -0.99199998 5
16.243999 0.34099999 -1.0140001 5
16.9 0.336 -1.024 5
0 0 0 1
0 0 0 2
0 0 0 1
0 0 0 2
0 0 0 0
0 0 0 0
0 0 0 0
0 0 0 8
72.002998 0.722 -3.1889999 11
0 0 0 30
66.594002 0.51599997 -2.7079999 158
66.598999 0.43900001 -2.5880001 161
0 0 0 33
61.937 0.266 -2.1849999 179
61.950001 0.19400001 -2.0739999 173
61.931 0.121 -1.962 150
0 0 0 150
93.978996 -0.039999999 -2.6389999 46
94.028 -0.152 -2.473 28
94.040001 -0.26499999 -2.3050001 30
94.029999 -0.37900001 -2.138 27
94.010002 -0.491 -1.973 23
0 0 0 0
0 0 0 25
93.963997 -0.83600003 -1.474 24
94.071999 -0.95099998 -1.312 15
0 0 0 45
0 0 0 21
74.181 -1.029 -0.64300001 69
74.125 -1.122 -0.514 67
73.234001 -1.202 -0.37799999 117
0 0 0 31
68.564003 -1.299 -0.118 36
68.522003 -1.386 0 24
67.917 -1.461 0.116 66
68.014 -1.551 0.233 8
0 0 0 0
0 0 0 0
0 0 0 0
0 0 0 0
0 0 0 0
0 0 0 6
59.814999 -1.911 0.912 51
0 0 0 0
0 0 0 0
0 0 0 0
0 0 0 0
0 0 0 0
0 0 0 0
0 0 0 14
44.563 -1.905 1.272 122
44.606998 -1.9680001 1.346 5
0 0 0 87
47.944 -2.2460001 1.601 86
0 0 0 13
44.021 -2.184 1.612 29
43.921001 -2.24 1.679 14
43.271999 -2.266 1.722 7
42.339001 -2.277 1.753 23
41.834999 -2.3080001 1.798 27
41.339001 -2.339 1.842 19
40.985001 -2.3770001 1.891 12
40.187 -2.3870001 1.9170001 17
39.839001 -2.4219999 1.962 28
39.247002 -2.441 1.993 22
38.796001 -2.4690001 2.0309999 23
38.298 -2.4909999 2.063 22
37.874001 -2.5179999 2.099 25
37.43 -2.5409999 2.131 19
37.042 -2.5680001 2.165 26
36.543999 -2.586 2.191 15
36.080002 -2.6040001 2.217 23
35.882999 -2.6429999 2.2590001 35
35.720001 -2.6819999 2.302 50
35.730999 -2.734 2.355 48
35.73 -2.786 2.408 48
35.748001 -2.839 2.4619999 48
35.731998 -2.8889999 2.513 47
35.740002 -2.9419999 2.5650001 50
35.735001 -2.993 2.6170001 84
35.737999 -3.046 2.6689999 82
35.748001 -3.099 2.721 79
35.75 -3.151 2.7709999 89
35.771 -3.2049999 2.8239999 86
35.784 -3.2590001 2.8759999 70
35.778999 -3.3110001 2.925 60
35.791 -3.365 2.977 58
35.806 -3.4189999 3.029 63
35.797001 -3.471 3.0769999 58
35.805 -3.5250001 3.1270001 60
35.801998 -3.5780001 3.1760001 58
35.82 -3.632 3.2260001 60
35.826 -3.6860001 3.2750001 59
35.828999 -3.7390001 3.3239999 59
35.833 -3.793 3.372 57
35.842999 -3.846 3.4200001 58
35.847 -3.9000001 3.4679999 57
35.856998 -3.954 3.516 57
35.862999 -4.0079999 3.563 55
35.875999 -4.0619998 3.6110001 11
36.071999 -4.138 3.677 2
36.106998 -4.1950002 3.727 3
36.081001 -4.2459998 3.77 3
0 0 0 0
0 0 0 0
0 0 0 0
0 0 0 0
0 0 0 0
0 0 0 0
0 0 0 0
0 0 0 0
0 0 0 0
0 0 0 0
0 0 0 0
0 0 0 0
0 0 0 13
28.125 -3.892 3.415 24
28.063 -3.925 3.4400001 29
28.023001 -3.961 3.467 35
27.979 -3.9949999 3.4920001 37
27.944 -4.0320001 3.52 40
27.915001 -4.0689998 3.5469999 42
27.902 -4.1069999 3.576 44
27.872999 -4.1440001 3.6029999 49
27.865999 -4.184 3.632 51
27.854 -4.2220001 3.661 57
27.851999 -4.2620001 3.6900001 57
27.837999 -4.302 3.7179999 57
27.847 -4.3439999 3.7479999 49
27.847 -4.3839998 3.7780001 47
27.841999 -4.4239998 3.806 49
27.872 -4.4679999 3.8380001 44
27.888 -4.5120001 3.869 42
27.902 -4.5539999 3.8989999 41
27.941 -4.6009998 3.9330001 36
27.966 -4.645 3.964 33
28.025999 -4.6950002 4 26
28.066999 -4.743 4.033 19
28.193001 -4.803 4.0780001 6
0 0 0 3
0 0 0 0
0 0 0 0
0 0 0 0
0 0 0 0
0 0 0 0
0 0 0 0
0 0 0 0
0 0 0 0
0 0 0 8
36.104 -6.7090001 5.5819998 21
36.151001 -6.7670002 5.6199999 8
0 0 0 0
0 0 0 0
0 0 0 0
0 0 0 0
0 0 0 2
0 0 0 0
0 0 0 2
36.264 -7.184 5.8730001 2
36.479 -7.276 5.9349999 2
0 0 0 0
0 0 0 2
36.541 -7.4330001 6.026 3
36.602001 -7.494 6.0640001 3
36.604 -7.5419998 6.0910001 4
36.578999 -7.585 6.112 4
36.487999 -7.6129999 6.1230001 5
36.314999 -7.6240001 6.119 8
0 0 0 1
20.188 -4.29 3.4289999 15
20.112 -4.3000002 3.4289999 19
20.07 -4.316 3.4349999 23
20.017 -4.3299999 3.4389999 27
19.989 -4.3499999 3.447 28
19.954 -4.3660002 3.4530001 32
19.906 -4.381 3.457 32
19.889 -4.402 3.467 26
19.875 -4.4229999 3.4760001 29
19.860001 -4.4439998 3.4849999 40
19.834 -4.4629998 3.4920001 41
19.811001 -4.4809999 3.4990001 44
19.806 -4.5040002 3.5090001 47
19.799 -4.526 3.5190001 47
19.794001 -4.5489998 3.5280001 37
19.782 -4.5700002 3.5369999 35
19.782 -4.5929999 3.5480001 36
19.764 -4.6110001 3.5539999 59
19.75 -4.631 3.562 37
19.74 -4.652 3.5699999 50
19.740999 -4.6739998 3.579 54
19.73 -4.6950002 3.586 56
19.726999 -4.7160001 3.595 54
19.731001 -4.7389998 3.605 54
19.735001 -4.7620001 3.6140001 50
19.740999 -4.7849998 3.6240001 47
19.742001 -4.8070002 3.6329999 30
19.739 -4.8280001 3.6400001 44
19.740999 -4.849 3.648 44
19.732 -4.869 3.654 42
19.743999 -4.8920002 3.664 47
19.745001 -4.9130001 3.6719999 40
19.757999 -4.9369998 3.6819999 40
19.781 -4.9640002 3.6930001 31
19.775999 -4.9829998 3.6989999 37
19.777 -5.0029998 3.7060001 35
19.813 -5.0320001 3.7190001 26
19.836 -5.0580001 3.73 32
19.854 -5.0830002 3.7390001 30
19.878 -5.1079998 3.75 26
19.898001 -5.1329999 3.7590001 23
19.93 -5.1609998 3.7709999 20
19.979 -5.1929998 3.7850001 17
20.032 -5.2249999 3.8010001 10
20.055 -5.25 3.8110001 1
0 0 0 22
30.990999 -8.1700001 5.9029999 22
30.872 -8.1669998 5.888 21
30.766001 -8.1660004 5.8730001 24
30.719 -8.1809998 5.8709998 24
30.688999 -8.1999998 5.8709998 24
30.653999 -8.217 5.8699999 26
30.622999 -8.2349997 5.869 27
30.604 -8.2559996 5.8709998 28
30.580999 -8.2749996 5.8720002 27
30.587999 -8.3030005 5.8769999 26
30.542 -8.3149996 5.8720002 27
30.528999 -8.3360004 5.8740001 26
30.507999 -8.3549995 5.8740001 29
30.486 -8.3730001 5.8730001 27
30.476 -8.3940001 5.8740001 25
30.445 -8.4090004 5.8709998 27
30.448999 -8.4329996 5.8740001 25
30.42 -8.448 5.8709998 28
30.421 -8.4700003 5.8730001 26
30.405001 -8.4879999 5.8709998 24
30.400999 -8.5089998 5.8709998 25
30.388 -8.5270004 5.8699999 24
30.389 -8.5469999 5.8709998 27
30.392 -8.5690002 5.8720002 27
30.381001 -8.5869999 5.8699999 23
30.371 -8.6029997 5.869 27
30.372999 -8.6239996 5.869 24
30.384001 -8.6459999 5.8709998 24
30.367001 -8.6599998 5.8660002 26
30.385 -8.684 5.868 24
30.379999 -8.7010002 5.8660002 27
30.389 -8.7209997 5.8660002 26
30.402 -8.743 5.8660002 23
30.424999 -8.7670002 5.869 25
30.419001 -8.7819996 5.8649998 24
30.424999 -8.8009996 5.8629999 26
30.448999 -8.823 5.8649998 26
30.454 -8.8409996 5.862 26
30.469 -8.8610001 5.8610001 28
30.476999 -8.8780003 5.8600001 25
30.509001 -8.9029999 5.8610001 24
30.506001 -8.9169998 5.8559999 25
30.532 -8.9390001 5.8559999 23
30.566 -8.9630003 5.8579998 23
30.575001 -8.9790001 5.8540001 24
30.594 -8.9980001 5.8520002 23
30.611 -9.0150003 5.8499999 24
30.649 -9.0389996 5.8509998 24
30.674 -9.059 5.849 24
30.700001 -9.0780001 5.8470001 24
30.739 -9.1009998 5.848 25
30.771999 -9.1219997 5.8470001 23
30.785999 -9.1359997 5.8429999 24
30.816 -9.1560001 5.8400002 25
30.858 -9.1789999 5.8390002 23
30.893 -9.1990004 5.8379998 23
30.917999 -9.2159996 5.8340001 23
30.957001 -9.2360001 5.8330002 23
30.993999 -9.2559996 5.8309999 23
31.042 -9.2779999 5.8299999 22
31.070999 -9.2939997 5.8270001 25
31.107 -9.3129997 5.823 22
31.148001 -9.3319998 5.8210001 23
31.209 -9.3570004 5.8210001 23
31.25 -9.3760004 5.8179998 26
31.308001 -9.3999996 5.8179998 23
31.356001 -9.4189997 5.816 24
31.396 -9.4370003 5.8109999 25
31.469 -9.4630003 5.8140001 23
31.496 -9.4759998 5.8060002 25
31.551001 -9.4969997 5.803 23
31.617001 -9.5200005 5.803 22
31.665001 -9.5380001 5.8000002 22
31.736 -9.5620003 5.7989998 22
31.812 -9.5889997 5.7989998 23
31.867001 -9.6070004 5.7950001 23
31.933001 -9.6289997 5.7930002 23
31.997999 -9.6499996 5.79 23
32.054001 -9.6680002 5.7859998 23
32.125 -9.6899996 5.783 24
32.208 -9.7150002 5.7839999 24
32.257 -9.7299995 5.777 24
32.333 -9.7519999 5.7750001 24
32.416 -9.7749996 5.7740002 24
32.494999 -9.7980003 5.7719998 24
32.588001 -9.8240004 5.7709999 24
32.632 -9.835 5.763 24
32.735001 -9.8640003 5.7639999 24
32.816002 -9.8850002 5.7600002 25
32.883999 -9.9020004 5.7540002 25
32.981998 -9.9280005 5.7529998 25
33.067001 -9.9490004 5.7490001 25
33.144001 -9.967 5.7449999 25
33.213001 -9.9820004 5.7379999 25
33.319 -10.009 5.7360001 25
33.416 -10.032 5.7340002 25
33.511002 -10.054 5.7309999 26
33.625999 -10.082 5.73 26
33.708 -10.099 5.723 26
33.817001 -10.123 5.7220001 26
33.903 -10.141 5.7140002 26
34.028999 -10.17 5.7140002 26
34.125999 -10.19 5.71 27
34.209999 -10.206 5.7020001 27
34.313999 -10.226 5.698 27
34.43 -10.25 5.6939998 27
34.550999 -10.275 5.691 27
34.667 -10.298 5.6869998 23
34.792999 -10.324 5.6849999 28
34.923 -10.35 5.6830001 28
35.026001 -10.368 5.6750002 28
35.110001 -10.379 5.665 28
35.240002 -10.404 5.6609998 28
35.345001 -10.421 5.6529999 27
35.501999 -10.453 5.6529999 27
35.616001 -10.471 5.6459999 29
35.724998 -10.486 5.638 23
35.844002 -10.506 5.6300001 24
35.945 -10.518 5.6199999 23
36.053001 -10.532 5.6100001 21
36.138 -10.539 5.5960002 17
36.223 -10.546 5.5819998 15
36.312 -10.553 5.5679998 11
36.445999 -10.573 5.5609999 9
36.521999 -10.574 5.5450001 5
36.639 -10.588 5.5339999 2
36.891998 -10.64 5.5440001 3
37.193001 -10.705 5.559 2
0 0 0 0
0 0 0 0
0 0 0 0
0 0 0 0
0 0 0 0
0 0 0 0
0 0 0 0
0 0 0 0
0 0 0 0
0 0 0 2
36.376999 -10.209 5.1110001 3
36.353001 -10.176 5.0770001 3
36.298 -10.134 5.04 3
36.243 -10.092 5.0009999 3
0 0 0 0
0 0 0 0
0 0 0 0
0 0 0 2
0 0 0 0
0 0 0 2
38.387001 -10.476 5.0630002 2
0 0 0 0
0 0 0 2
0 0 0 0
0 0 0 0
0 0 0 2
38.946999 -10.426 4.9289999 2
0 0 0 0
0 0 0 0
0 0 0 0
0 0 0 0
0 0 0 0
0 0 0 0
0 0 0 3
0 0 0 3
19.964001 -5.1729999 2.362 14
19.896 -5.1350002 2.335 18
19.864 -5.1059999 2.313 21
19.827 -5.0760002 2.29 25
19.812 -5.052 2.27 23
19.802 -5.0289998 2.25 32
19.77 -4.9990001 2.227 34
19.743 -4.9710002 2.2060001 27
19.726999 -4.9460001 2.1849999 27
19.716999 -4.9219999 2.1659999 40
19.707001 -4.8969998 2.1459999 41
19.712 -4.8759999 2.1270001 33
19.704 -4.8520002 2.1070001 46
19.691 -4.8270001 2.0869999 45
19.691999 -4.8039999 2.0680001 48
19.684 -4.7789998 2.049 44
19.684999 -4.757 2.03 43
19.683001 -4.7329998 2.0109999 46
19.681 -4.7090001 1.9910001 52
19.68 -4.6849999 1.972 57
19.679001 -4.6609998 1.9529999 57
19.681999 -4.638 1.934 62
19.688999 -4.6149998 1.916 58
19.701 -4.5929999 1.898 62
19.700001 -4.5679998 1.878 60
19.698999 -4.5430002 1.859 54
19.723 -4.5229998 1.842 57
19.722 -4.4980001 1.823 49
19.738001 -4.4759998 1.8049999 54
19.763 -4.4559999 1.788 34
19.768999 -4.4310002 1.7690001 45
19.783001 -4.408 1.75 48
19.813999 -4.3889999 1.734 34
19.820999 -4.3629999 1.715 41
19.846001 -4.342 1.697 39
19.868 -4.3200002 1.6799999 29
19.912001 -4.302 1.664 32
19.957001 -4.2839999 1.648 28
19.995001 -4.2639999 1.631 24
20.061001 -4.25 1.617 18
20.129 -4.237 1.603 11
0 0 0 41
36.061001 -7.487 2.8010001 49
36.042 -7.4320002 2.7650001 51
36.026001 -7.3759999 2.7290001 52
36.012001 -7.3210001 2.6919999 51
36.001999 -7.2659998 2.6570001 50
35.991001 -7.211 2.6210001 48
35.986 -7.1560001 2.585 52
35.981998 -7.1009998 2.55 52
35.987 -7.0479999 2.5150001 55
35.98 -6.9920001 2.4790001 54
35.977001 -6.9380002 2.444 55
35.964001 -6.8790002 2.408 53
35.952 -6.822 2.3729999 54
35.958 -6.7670002 2.3380001 54
35.953999 -6.711 2.303 52
35.955002 -6.6539998 2.2679999 49
35.955002 -6.598 2.233 52
35.950001 -6.54 2.198 53
35.933998 -6.4809999 2.1630001 50
35.919998 -6.4200001 2.1270001 48
35.932999 -6.3649998 2.0940001 49
35.914001 -6.3039999 2.0580001 49
35.944 -6.2509999 2.0250001 40
35.952999 -6.1939998 1.992 31
36.071999 -6.1560001 1.965 27
36.123001 -6.105 1.933 22
0 0 0 16
27.913 -4.625 1.441 25
27.868999 -4.5710001 1.4119999 30
27.823 -4.5170002 1.3839999 36
27.797001 -4.4660001 1.357 39
27.777 -4.4159999 1.33 44
27.76 -4.3660002 1.303 47
27.761999 -4.3189998 1.277 42
27.747999 -4.27 1.252 57
27.749001 -4.2220001 1.226 64
27.747999 -4.1739998 1.2 48
27.764999 -4.1279998 1.176 56
27.782 -4.0830002 1.151 49
27.822001 -4.04 1.128 47
27.841999 -3.994 1.103 43
27.874001 -3.95 1.079 39
27.924999 -3.908 1.056 35
27.979 -3.865 1.033 30
28.046 -3.825 1.01 23
28.198999 -3.7939999 0.991 11
0 0 0 0
0 0 0 4
35.797001 -4.6240001 1.164 64
35.771999 -4.5549998 1.131 99
35.77 -4.4899998 1.1 99
35.764 -4.4239998 1.069 103
35.756001 -4.3569999 1.038 94
35.747002 -4.2909999 1.008 99
35.737 -4.224 0.977 91
35.712002 -4.1550002 0.94599998 101
35.722 -4.0900002 0.91600001 99
35.730999 -4.0250001 0.88700002 99
35.713001 -3.9560001 0.85600001 91
35.709999 -3.8889999 0.82599998 91
35.712002 -3.823 0.79699999 82
35.716 -3.7550001 0.76700002 76
35.714001 -3.687 0.73799998 61
35.691002 -3.618 0.70899999 58
35.695 -3.55 0.68000001 73
35.699001 -3.483 0.65200001 81
35.694 -3.414 0.62300003 94
35.695 -3.345 0.59500003 95
35.688999 -3.277 0.56699997 48
36.165001 -3.2509999 0.546 8
36.673 -3.2260001 0.52499998 9
37.113998 -3.194 0.50300002 8
37.652 -3.1670001 0.48199999 9
39.583 -3.2520001 0.47600001 87
39.564999 -3.175 0.447 85
39.554001 -3.095 0.41600001 85
39.665001 -3.027 0.38800001 9
40.337002 -3.0009999 0.366 5
41.108002 -2.9760001 0.34200001 21
41.175999 -2.901 0.31299999 26
43.567001 -2.983 0.29899999 73
43.514 -2.8929999 0.26800001 82
43.521999 -2.8080001 0.236 47
44.212002 -2.7639999 0.20900001 23
44.266998 -2.681 0.17900001 38
44.382999 -2.599 0.148 54
43.986 -2.4879999 0.116 3
0 0 0 61
47.957001 -2.5209999 0.061999999 59
48.071999 -2.4300001 0.028999999 25
48.845001 -2.372 -0.001 20
51.696999 -2.405 -0.035999998 94
51.870998 -2.3069999 -0.07 134
0 0 0 5
0 0 0 0
0 0 0 70
59.418999 -2.1670001 -0.23100001 73
59.778 -2.0599999 -0.26899999 111
59.778 -1.938 -0.30599999 110
59.977001 -1.823 -0.34400001 63
60.729 -1.722 -0.38499999 33
0 0 0 96
67.843002 -1.646 -0.51099998 72
67.834 -1.507 -0.551 75
68.025002 -1.374 -0.59100002 78
0 0 0 0
0 0 0 104
74.260002 -1.043 -0.77100003 23
0 0 0 36
134.854 -1.336 -1.55 38
0 0 0 0
0 0 0 14
94.026001 -0.35100001 -1.2309999 17
94.105003 -0.16 -1.281 16
94.056 0.028000001 -1.327 25
0 0 0 0
0 0 0 0
0 0 0 0
0 0 0 0
0 0 0 0
0 0 0 0
0 0 0 0
0 0 0 42
0 0 0 0
0 0 0 0
0 0 0 0
0 0 0 0
0 0 0 0
0 0 0 34
0 0 0 0
0 0 0 35
0 0 0 4
40.780998 1.525 -0.90399998 150
40.620998 1.6 -0.91500002 150
40.445 1.678 -0.92699999 150
40.310001 1.756 -0.93900001 13
40.171001 1.8329999 -0.94999999 16
40.084 1.9119999 -0.96200001 19
40.023998 1.989 -0.97399998 33
39.973 2.0699999 -0.98699999 69
39.962002 2.154 -1.001 71
39.988998 2.2360001 -1.0140001 68
40 2.319 -1.027 63
39.997002 2.402 -1.04 60
40.029999 2.4860001 -1.053 52
40.098999 2.573 -1.067 35
40.136002 2.6600001 -1.08 22
40.16 2.744 -1.092 19
40.202999 2.829 -1.105 18
40.212002 2.9119999 -1.1160001 26
40.229 2.9960001 -1.127 44
40.268002 3.0799999 -1.1390001 51
40.292999 3.1659999 -1.15 51
40.34 3.2520001 -1.161 53
40.377998 3.336 -1.1720001 54
40.403 3.421 -1.182 54
40.438999 3.506 -1.192 51
40.473 3.5910001 -1.202 54
40.500999 3.675 -1.212 51
40.529999 3.7590001 -1.221 48
40.582001 3.846 -1.23 49
40.599998 3.928 -1.238 51
40.648998 4.0139999 -1.247 50
40.668999 4.0970001 -1.255 50
40.721001 4.184 -1.2640001 47
40.745998 4.2680001 -1.271 52
40.778 4.3520002 -1.279 49
40.824001 4.4390001 -1.2869999 48
40.855 4.5229998 -1.293 50
40.893002 4.6090002 -1.3 49
40.919998 4.6939998 -1.307 40
40.944 4.776 -1.313 49
0 0 0 13
37.792999 4.5570002 -1.221 44
37.707001 4.6220002 -1.221 13
37.566002 4.678 -1.221 10
0 0 0 76
33.116001 4.2529998 -1.082 7
0 0 0 0
0 0 0 0
0 0 0 8
32.625999 4.4429998 -1.075 28
32.566002 4.4980001 -1.075 34
32.523998 4.5549998 -1.075 8
32.425999 4.6040001 -1.073 9
32.398998 4.6609998 -1.074 25
32.456001 4.7319999 -1.077 23
32.414001 4.7880001 -1.076 4
32.375 4.8429999 -1.075 35
32.375 4.9060001 -1.076 63
32.417 4.973 -1.0779999 17
32.438 5.0380001 -1.0779999 8
32.379002 5.0890002 -1.076 14
32.391998 5.152 -1.076 14
32.492001 5.2280002 -1.079 18
32.369999 5.2680001 -1.074 36
32.367001 5.3270001 -1.073 23
32.464001 5.4029999 -1.075 4
32.462002 5.4619999 -1.074 8
32.352001 5.5019999 -1.069 7
32.369999 5.5650001 -1.068 8
32.362 5.6220002 -1.066 5
32.351002 5.6789999 -1.063 4
32.382999 5.744 -1.062 6
32.373001 5.8000002 -1.059 7
32.372002 5.8569999 -1.057 6
32.380001 5.9169998 -1.054 7
32.356998 5.9699998 -1.05 6
32.361 6.0279999 -1.048 7
32.372002 6.0869999 -1.045 7
32.356998 6.1399999 -1.041 7
32.348999 6.1960001 -1.0369999 6
32.353001 6.2540002 -1.033 6
32.382999 6.3150001 -1.03 6
32.335999 6.362 -1.025 5
32.367001 6.4239998 -1.022 5
32.338001 6.474 -1.016 4
32.334 6.5289998 -1.012 4
32.299 6.5770001 -1.006 5
32.316002 6.6350002 -1.001 6
32.360001 6.698 -0.99699998 6
32.359001 6.7509999 -0.99199998 5
32.348 6.803 -0.98699999 6
32.321999 6.8509998 -0.98000002 6
32.334999 6.9070001 -0.97500002 6
32.317001 6.9559999 -0.96899998 6
32.326 7.0100002 -0.963 6
32.327999 7.0619998 -0.95700002 8
0 0 0 1
13.131 2.911 -0.38299999 12
13.015 2.9059999 -0.377 8
12.967 2.9159999 -0.373 150
12.887 2.918 -0.368 3
12.734 2.9030001 -0.361 1
12.667 2.908 -0.35600001 1
12.591 2.9100001 -0.35100001 1
12.546 2.9189999 -0.347 3
12.528 2.934 -0.34400001 4
12.495 2.9449999 -0.34 4
12.474 2.9590001 -0.336 4
12.439 2.9690001 -0.33199999 5
12.397 2.977 -0.32800001 5
12.376 2.9909999 -0.324 6
0 0 0 5
10.843 2.652 -0.278 123
10.727 2.6389999 -0.273 150
10.616 2.6270001 -0.26699999 150
10.541 2.6240001 -0.26199999 150
10.477 2.6229999 -0.257 150
10.43 2.625 -0.25299999 132
10.421 2.638 -0.25 1
10.365 2.638 -0.24600001 1
10.325 2.642 -0.242 1
10.27 2.642 -0.23800001 1
10.239 2.648 -0.234 1
10.216 2.6559999 -0.23 1
10.199 2.665 -0.227 1
10.174 2.6719999 -0.223 1
10.153 2.6800001 -0.22 1
10.151 2.6930001 -0.21600001 1
10.129 2.7 -0.212 2
10.098 2.7049999 -0.20900001 2
10.09 2.7149999 -0.205 2
10.072 2.723 -0.20200001 2
10.061 2.733 -0.198 2
10.061 2.7449999 -0.19499999 2
10.033 2.75 -0.191 3
10.013 2.757 -0.18700001 3
9.9960003 2.7639999 -0.183 2
9.9860001 2.773 -0.18000001 2
9.9630003 2.7780001 -0.176 2
9.9630003 2.79 -0.17200001 2
9.9530001 2.799 -0.169 3
9.9300003 2.8039999 -0.16500001 3
9.9309998 2.8150001 -0.161 4
9.9169998 2.823 -0.15700001 4
9.9110003 2.832 -0.154 3
9.8900003 2.8369999 -0.15000001 4
9.8789997 2.8440001 -0.146 4
9.8769999 2.8540001 -0.142 4
9.8649998 2.8610001 -0.139 5
9.8640003 2.8710001 -0.13500001 5
9.8500004 2.8770001 -0.131 6
9.8430004 2.885 -0.12800001 7
9.8149996 2.8870001 -0.123 8
9.8079996 2.895 -0.119 11
9.8070002 2.904 -0.116 13
9.7969999 2.9100001 -0.112 17
9.79 2.918 -0.108 14
9.7740002 2.9219999 -0.104 17
9.7720003 2.9300001 -0.1 28
9.7700005 2.9389999 -0.096000001 34
9.7650003 2.9460001 -0.093000002 42
9.7580004 2.9530001 -0.089000002 52
9.7530003 2.96 -0.085000001 59
9.7650003 2.9719999 -0.081 67
9.7620001 2.9790001 -0.077 72
9.7620001 2.9879999 -0.072999999 77
9.7629995 2.9960001 -0.068999998 81
9.7550001 3.0009999 -0.064999998 81
9.7480001 3.007 -0.061000001 83
9.7390003 3.0120001 -0.057 86
9.75 3.023 -0.052999999 87
9.7480001 3.03 -0.048999999 88
9.7379999 3.0339999 -0.045000002 85
9.7349997 3.04 -0.041000001 87
9.7349997 3.0469999 -0.037 85
9.7360001 3.0550001 -0.033 85
9.7320004 3.0599999 -0.028999999 83
9.7449999 3.0710001 -0.025 80
9.7299995 3.073 -0.021 79
9.7220001 3.0769999 -0.017000001 77
9.7220001 3.0829999 -0.013 76
9.7309999 3.092 -0.0089999996 73
9.7390003 3.0999999 -0.0049999999 72
9.7329998 3.1040001 -0.001 70
9.7279997 3.108 0.0020000001 67
9.7229996 3.112 0.0060000001 66
9.7200003 3.1170001 0.0099999998 63
9.7299995 3.125 0.014 61
9.7259998 3.1289999 0.017999999 59
9.7200003 3.132 0.022 58
9.7119999 3.1340001 0.026000001 55
9.7150002 3.1400001 0.030999999 52
9.717 3.145 0.034000002 51
9.724 3.152 0.039000001 46
9.7089996 3.151 0.043000001 42
9.7139997 3.1570001 0.046999998 38
9.7060003 3.1589999 0.050999999 35
9.7189999 3.1670001 0.055 33
9.7159996 3.1689999 0.059 31
9.7159996 3.1730001 0.063000001 30
9.7040005 3.1730001 0.067000002 28
9.7130003 3.1789999 0.071999997 27
9.717 3.1830001 0.075000003 25
9.7069998 3.1830001 0.079999998 15
9.7089996 3.187 0.083999999 17
9.7130003 3.191 0.088 16
9.7069998 3.1919999 0.092 23
9.7119999 3.1960001 0.096000001 23
9.7189999 3.201 0.1 22
9.7119999 3.2 0.104 20
9.7159996 3.204 0.108 16
9.7229996 3.2079999 0.112 16
9.7220001 3.2090001 0.117 13
9.7370005 3.2160001 0.121 11
9.7309999 3.2160001 0.125 10
9.7320004 3.2179999 0.12899999 8
9.7460003 3.224 0.133 8
9.7600002 3.2290001 0.13699999 7
9.7530003 3.2279999 0.141 6
9.7679996 3.234 0.145 6
9.7589998 3.2309999 0.149 5
9.7700005 3.2360001 0.153 5
9.7740002 3.237 0.15800001 5
9.7740002 3.2379999 0.162 4
9.7670002 3.2349999 0.16599999 4
9.7799997 3.24 0.17 4
9.7679996 3.2360001 0.17299999 3
9.7749996 3.237 0.177 3
9.7889996 3.2420001 0.182 3
9.7889996 3.2409999 0.186 3
9.7869997 3.24 0.189 3
9.8129997 3.2479999 0.19400001 3
9.8100004 3.2449999 0.198 3
9.8190002 3.247 0.20200001 3
9.8249998 3.2479999 0.206 3
9.8190002 3.2449999 0.20900001 3
9.8199997 3.244 0.213 3
9.8240004 3.243 0.21699999 4
9.8330002 3.244 0.221 5
9.8380003 3.244 0.22499999 5
9.8330002 3.24 0.229 5
9.8310003 3.237 0.233 5
9.8450003 3.2390001 0.237 6
9.8500004 3.2379999 0.241 6
9.8409996 3.233 0.244 6
9.8470001 3.2320001 0.248 6
9.8719997 3.237 0.252 5
9.8629999 3.2309999 0.25600001 5
9.8690004 3.23 0.25999999 5
9.8660002 3.2249999 0.26300001 4
9.8769999 3.2249999 0.26699999 3
9.8870001 3.2249999 0.271 3
9.8909998 3.2219999 0.27399999 2
9.8999996 3.221 0.278 1
9.9099998 3.22 0.28200001 1
9.9359999 3.2249999 0.287 1
9.9890003 3.237 0.29100001 1
10.021 3.243 0.296 1
10.043 3.2449999 0.30000001 1
10.148 3.2739999 0.30700001 1
10.173 3.277 0.31099999 1
10.288 3.309 0.31799999 1
10.32 3.3139999 0.32300001 1
10.339 3.3150001 0.32699999 1
0 0 0 0
0 0 0 1
0 0 0 45
34.115002 10.859 1.124 59
34.102001 10.833 1.135 63
34.091 10.808 1.146 73
34.091 10.787 1.1569999 75
34.099998 10.768 1.168 79
34.134998 10.756 1.179 66
34.139999 10.734 1.1900001 54
34.174 10.722 1.202 48
34.206001 10.708 1.214 19
0 0 0 33
49.823002 15.523 1.7970001 38
49.884998 15.505 1.814 38
49.923 15.479 1.83 39
49.688 15.368 1.836 31
49.438999 15.252 1.84 32
49.465 15.221 1.855 32
49.373001 15.152 1.8660001 32
49.057999 15.015 1.868 31
49.021999 14.963 1.88 32
49.061001 14.932 1.895 32
49.054001 14.887 1.906 32
49.126999 14.866 1.9220001 32
49.094002 14.812 1.934 32
49.034 14.75 1.944 32
49.004002 14.696 1.956 31
48.800999 14.589 1.96 39
48.810001 14.547 1.971 40
48.841 14.51 1.985 35
48.785 14.447 1.994 37
48.671001 14.365 2 31
0 0 0 2
38.506001 11.287 1.6 4
38.728001 11.313 1.618 11
38.747002 11.279 1.627 12
0 0 0 21
36.373001 10.512 1.5420001 80
36.369999 10.471 1.551 90
36.415001 10.445 1.5599999 40
0 0 0 15
38.715 11.019 1.674 30
38.362 10.876 1.665 37
38.333 10.825 1.671 55
38.335999 10.782 1.677 55
38.333 10.737 1.684 35
38.354 10.699 1.692 26
37.556 10.432 1.663 3
0 0 0 32
51.587002 14.207 2.3010001 28
51.445999 14.106 2.302 26
51.455002 14.045 2.312 20
51.674999 14.042 2.3280001 19
0 0 0 0
0 0 0 0
0 0 0 16
38.414001 10.245 1.752 18
38.236 10.149 1.748 21
38.360001 10.132 1.758 19
38.634998 10.154 1.775 13
0 0 0 0
0 0 0 21
37.77 9.776 1.747 13
37.557999 9.6709995 1.7410001 9
37.514999 9.6079998 1.742 19
37.669998 9.5970001 1.751 13
38.217999 9.684 1.78 25
37.695 9.4989996 1.758 43
37.716999 9.4510002 1.762 41
37.755001 9.408 1.766 44
37.765999 9.3579998 1.768 31
37.744999 9.2980003 1.7690001 43
37.716 9.2370005 1.77 38
37.714001 9.1820002 1.772 60
37.810001 9.1499996 1.777 2
38.740002 9.3179998 1.822 3
0 0 0 6
47.452999 11.274 2.234 27
47.094002 11.119 2.2179999 14
0 0 0 9
39.047001 9.1009998 1.84 7
39.096001 9.0530005 1.842 6
39.112999 8.9969997 1.8430001 10
0 0 0 19
0 0 0 0
0 0 0 19
39.063 8.743 1.837 27
39.104 8.6920004 1.837 32
38.841 8.5710001 1.823 32
38.685001 8.4750004 1.812 32
38.595001 8.3929996 1.806 37
38.525002 8.3149996 1.801 43
38.487 8.2440004 1.7970001 41
38.298 8.1409998 1.785 35
38.446999 8.1090002 1.788 30
38.341999 8.0240002 1.78 37
38.307999 7.954 1.775 32
38.158001 7.8600001 1.7640001 30
37.978001 7.7589998 1.753 33
37.796001 7.658 1.74 29
37.877998 7.6110001 1.74 31
37.915001 7.5539999 1.737 29
37.923 7.4910002 1.7309999 33
37.847 7.4109998 1.723 36
37.896999 7.3569999 1.719 23
37.807999 7.2740002 1.71 17
0 0 0 23
45.013 8.5050001 2.0220001 17
44.938 8.4130001 2.0109999 43
0 0 0 15
37.16 6.8280001 1.649 17
37.215 6.7719998 1.645 9
37.292 6.7220001 1.642 2
37.512001 6.6950002 1.6440001 5
37.48 6.6230001 1.635 14
37.473 6.5560002 1.626 40
37.370998 6.4710002 1.614 29
37.176998 6.3709998 1.597 29
37.289001 6.322 1.5930001 17
37.096001 6.2220001 1.575 11
0 0 0 41
44.546001 7.3099999 1.869 41
44.573002 7.2329998 1.859 40
44.806 7.1890001 1.857 31
44.700001 7.0900002 1.84 32
44.617001 6.994 1.824 33
44.584 6.9070001 1.8099999 25
44.800999 6.8590002 1.8049999 13
0 0 0 19
0 0 0 11
44.564999 6.5739999 1.755 8
0 0 0 20
47.793999 6.8720002 1.851 12
47.831001 6.7880001 1.836 11
0 0 0 13
0 0 0 0
0 0 0 8
44.507 5.9809999 1.645 14
0 0 0 0
0 0 0 11
0 0 0 0
0 0 0 8
44.479 5.5560002 1.559 24
44.485001 5.4710002 1.541 18
0 0 0 9
48.491001 5.777 1.6390001 9
48.516998 5.6880002 1.619 9
0 0 0 17
0 0 0 13
48.355999 5.3899999 1.549 15
0 0 0 21
0 0 0 16
0 0 0 28
75.571999 7.835 2.279 24
76.140999 7.7449999 2.2590001 30
0 0 0 0
0 0 0 19
0 0 0 0
0 0 0 30
76.209999 7.0139999 2.069 33
77.115997 6.9460001 2.052 35
77.586998 6.836 2.023 10
0 0 0 0
0 0 0 0
0 0 0 0
0 0 0 0
0 0 0 0
0 0 0 13
0 0 0 0
0 0 0 0
0 0 0 0
0 0 0 0
0 0 0 0
0 0 0 0
0 0 0 0
0 0 0 0
0 0 0 15
0 0 0 23
118.209 6.441 1.865 29
118.153 6.2059999 1.786 24
0 0 0 16
89.278999 4.335 1.228 21
89.058998 4.1469998 1.163 15
0 0 0 0
0 0 0 0
0 0 0 0
0 0 0 0
0 0 0 0
0 0 0 0
0 0 0 28
0 0 0 0
0 0 0 0
0 0 0 0
0 0 0 0
0 0 0 13
89.587997 1.87 0.308 18
0 0 0 0
0 0 0 0
0 0 0 0
0 0 0 0
0 0 0 0
0 0 0 0
0 0 0 0
0 0 0 0
0 0 0 0
0 0 0 0
0 0 0 52
134.65199 -0.35600001 -0.87099999 68
134.69501 -0.61900002 -0.98900002 73
0 0 0 35
74.141998 -0.63 -0.67500001 24
0 0 0 0
0 0 0 52
0 0 0 22
73.200996 -1.189 -0.92900002 48
0 0 0 16
67.835999 -1.362 -0.98500001 49
67.822998 -1.493 -1.048 73
67.810997 -1.624 -1.1109999 129
67.797997 -1.7539999 -1.175 124
67.862 -1.886 -1.24 27
0 0 0 4
45.158001 -1.426 -0.91100001 4
45.344002 -1.5190001 -0.95899999 3
45.342999 -1.607 -1.003 24
45.132999 -1.6849999 -1.043 34
44.654999 -1.751 -1.075 35
44.341999 -1.823 -1.112 40
0 0 0 14
41.259998 -1.852 -1.117 24
0 0 0 39
31.983 -1.556 -0.93000001 153
32 -1.617 -0.963 44
0 0 0 8
39.722 -2.154 -1.277 5
39.957001 -2.2409999 -1.325 16
0 0 0 0
0 0 0 2
27.469 -1.693 -0.99699998 17
27.393999 -1.74 -1.023 153
27.318001 -1.785 -1.049 190
27.360001 -1.837 -1.08 158
27.396 -1.8890001 -1.11 162
27.393999 -1.9400001 -1.14 28
0 0 0 6
39.491001 -2.9400001 -1.729 20
0 0 0 3
23.055 -1.799 -1.059 4
22.700001 -1.812 -1.068 4
22.666 -1.85 -1.091 3
22.673 -1.892 -1.117 4
22.704 -1.9349999 -1.1440001 3
22.726999 -1.977 -1.17 2
22.743 -2.0179999 -1.196 1
0 0 0 25
0 0 0 2
20.141001 -1.893 -1.128 3
20.077 -1.9220001 -1.146 4
19.892 -1.939 -1.159 6
19.68 -1.952 -1.169 6
19.395 -1.9579999 -1.174 4
0 0 0 0
0 0 0 0
0 0 0 0
0 0 0 2
16.056 -1.757 -1.064 2
15.524 -1.725 -1.0470001 2
15.112 -1.705 -1.0369999 2
14.692 -1.682 -1.026 3
14.248 -1.654 -1.011 3
13.86 -1.632 -1 3
13.424 -1.603 -0.98400003 3
13.043 -1.579 -0.972 3
12.706 -1.559 -0.96100003 3
12.347 -1.535 -0.949 3
12.023 -1.5140001 -0.93900001 3
11.733 -1.497 -0.93000001 2
11.435 -1.477 -0.92000002 2
11.125 -1.455 -0.90799999 2
10.789 -1.428 -0.89399999 2
10.476 -1.404 -0.88099998 3
10.236 -1.388 -0.87300003 4
10.007 -1.372 -0.86500001 4
9.7770004 -1.3559999 -0.85699999 6
9.6090002 -1.348 -0.85399997 8
9.4390001 -1.3380001 -0.85000002 7
9.2729998 -1.329 -0.847 5
8.9919996 -1.302 -0.83200002 4
8.7360001 -1.279 -0.81900001 3
8.5220003 -1.26 -0.80900002 3
8.3459997 -1.247 -0.80299997 3
8.1759996 -1.234 -0.79699999 5
8.0010004 -1.219 -0.78899997 4
7.8410001 -1.207 -0.78299999 5
7.684 -1.194 -0.77700001 4
7.5580001 -1.186 -0.773 5
7.4099998 -1.174 -0.76800001 4
7.277 -1.163 -0.76300001 4
7.1430001 -1.152 -0.75700003 4
7.0120001 -1.141 -0.75199997 4
6.9130001 -1.1339999 -0.75 4
6.7729998 -1.1210001 -0.74299997 3
6.651 -1.1109999 -0.73799998 3
6.5609999 -1.105 -0.736 3
6.46 -1.097 -0.73299998 3
6.3540001 -1.0880001 -0.72899997 3
6.2480001 -1.0779999 -0.72399998 3
6.1589999 -1.071 -0.722 3
6.0560002 -1.062 -0.71700001 3
5.9320002 -1.048 -0.70999998 6
5.8369999 -1.039 -0.70499998 8
5.7859998 -1.0369999 -0.70599997 6
5.7049999 -1.03 -0.70300001 3
5.6149998 -1.022 -0.699 3
5.5430002 -1.016 -0.69700003 3
5.4650002 -1.0089999 -0.69400001 3
5.3920002 -1.002 -0.69199997 2
5.3280001 -0.99699998 -0.69 2
5.2550001 -0.99000001 -0.68699998 2
5.1820002 -0.98299998 -0.68400002 2
5.1129999 -0.97600001 -0.68099999 3
5.0479999 -0.97100002 -0.67900002 2
4.9720001 -0.96200001 -0.67500001 3
4.9239998 -0.95899999 -0.67400002 2
4.8660002 -0.954 -0.67199999 2
4.803 -0.94700003 -0.66900003 2
4.7449999 -0.94099998 -0.667 2
4.6939998 -0.93699998 -0.66500002 2
4.6409998 -0.93099999 -0.66299999 2
4.5770001 -0.92400002 -0.66000003 2
4.5040002 -0.91399997 -0.65499997 3
4.4689999 -0.91299999 -0.65499997 2
4.415 -0.90700001 -0.653 3
4.3860002 -0.90600002 -0.65399998 2
4.342 -0.90100002 -0.65200001 2
4.2979999 -0.89700001 -0.65100002 3
4.2379999 -0.889 -0.64700001 2
4.1849999 -0.88300002 -0.64399999 2
4.119 -0.87300003 -0.639 2
4.1129999 -0.87599999 -0.64300001 3
4.0869999 -0.875 -0.64399999 2
4.1129999 -0.88499999 -0.65200001 3
4.0040002 -0.866 -0.63999999 3
3.971 -0.86299998 -0.639 3
3.911 -0.85399997 -0.634 3
3.9419999 -0.86500001 -0.64399999 3
3.9330001 -0.86699998 -0.64700001 2
3.8150001 -0.84500003 -0.63200003 2
3.7620001 -0.83600003 -0.62800002 2
3.727 -0.83200002 -0.62599999 2
3.737 -0.838 -0.63200003 2
3.7060001 -0.83499998 -0.63099998 2
3.6930001 -0.83499998 -0.63300002 2
3.6140001 -0.82099998 -0.62400001 2
3.6289999 -0.82800001 -0.63 2
3.6029999 -0.82499999 -0.63 2
3.5680001 -0.81999999 -0.62800002 2
3.507 -0.80900002 -0.62099999 1
3.464 -0.80199999 -0.61699998 1
3.427 -0.79699999 -0.61500001 2
3.388 -0.79100001 -0.611 2
3.3599999 -0.787 -0.61000001 1
3.3310001 -0.78299999 -0.60900003 1
3.3559999 -0.79100001 -0.61699998 2
3.352 -0.79299998 -0.62 2
3.3399999 -0.79299998 -0.62099999 1
3.2690001 -0.77899998 -0.611 1
3.2880001 -0.78600001 -0.61799997 1
3.266 -0.78299999 -0.61799997 2
3.181 -0.76499999 -0.60500002 1
3.1719999 -0.76599997 -0.60699999 1
3.2360001 -0.78399998 -0.62300003 2
3.161 -0.76800001 -0.61199999 2
3.161 -0.76999998 -0.61500001 2
3.1570001 -0.77100003 -0.61699998 1
3.148 -0.77100003 -0.61900002 1
3.086 -0.75800002 -0.61000001 1
3.1059999 -0.76499999 -0.61699998 1
3.1860001 -0.787 -0.63599998 1
3.1110001 -0.77100003 -0.62400001 1
3.027 -0.75199997 -0.61000001 2
3.056 -0.76099998 -0.61900002 2
2.9400001 -0.73400003 -0.59899998 2
2.9300001 -0.73299998 -0.60000002 2
2.9089999 -0.73000002 -0.59799999 2
2.891 -0.727 -0.597 2
2.868 -0.72299999 -0.59500003 2
2.8540001 -0.72100002 -0.59500003 2
2.8410001 -0.71899998 -0.59500003 2
2.8199999 -0.71499997 -0.59299999 2
2.8010001 -0.71200001 -0.59200001 2
2.7839999 -0.70899999 -0.59100002 2
2.7720001 -0.708 -0.59100002 2
2.7550001 -0.70499998 -0.58999997 2
2.7409999 -0.70200002 -0.58999997 2
2.7279999 -0.69999999 -0.58899999 2
2.72 -0.699 -0.58999997 2
2.704 -0.69700003 -0.58899999 2
2.688 -0.69400001 -0.588 2
2.674 -0.69099998 -0.58700001 2
2.6570001 -0.68800002 -0.58600003 2
2.6489999 -0.68699998 -0.58600003 2
2.6370001 -0.685 -0.58600003 3
2.6300001 -0.68400002 -0.58600003 4
2.6259999 -0.68400002 -0.588 4
2.6229999 -0.68400002 -0.58899999 5
2.6110001 -0.68199998 -0.58899999 5
2.608 -0.68199998 -0.58999997 5
2.599 -0.68099999 -0.58999997 4
2.5929999 -0.68000001 -0.59100002 4
2.5710001 -0.67500001 -0.588 3
2.5480001 -0.67000002 -0.58499998 2
2.536 -0.667 -0.58399999 2
2.5250001 -0.66500002 -0.583 2
2.5079999 -0.66100001 -0.58099997 2
2.4990001 -0.66000003 -0.58099997 2
2.494 -0.65899998 -0.58200002 2
2.4879999 -0.65799999 -0.58200002 2
2.474 -0.65499997 -0.58099997 2
2.467 -0.653 -0.58099997 2
2.4579999 -0.65200001 -0.57999998 2
2.451 -0.64999998 -0.57999998 2
2.4389999 -0.648 -0.579 1
2.431 -0.64600003 -0.579 1
2.4230001 -0.64399999 -0.579 1
2.418 -0.64300001 -0.579 1
2.401 -0.639 -0.57599998 1
2.3929999 -0.63700002 -0.57599998 1
2.391 -0.63700002 -0.57700002 1
2.3770001 -0.63300002 -0.57499999 1
2.365 -0.63 -0.574 1
2.3640001 -0.63 -0.57499999 1
2.3529999 -0.62699997 -0.574 1
2.3499999 -0.62699997 -0.574 1
2.3410001 -0.625 -0.574 1
2.3369999 -0.62300003 -0.574 1
2.3280001 -0.62099999 -0.57300001 1
2.3210001 -0.61900002 -0.57200003 1
2.322 -0.61900002 -0.574 1
2.3180001 -0.61799997 -0.574 1
2.3039999 -0.61500001 -0.57200003 1
2.296 -0.61199999 -0.57099998 1
2.2950001 -0.61199999 -0.57200003 1
2.2880001 -0.61000001 -0.57099998 1
2.2780001 -0.60699999 -0.56999999 1
2.279 -0.60699999 -0.57099998 1
2.2709999 -0.60500002 -0.56999999 1
2.2609999 -0.602 -0.56900001 1
2.2590001 -0.60100001 -0.56900001 1
2.2520001 -0.59899998 -0.56800002 1
2.244 -0.597 -0.56699997 1
2.2479999 -0.597 -0.56900001 1
2.237 -0.59399998 -0.56800002 1
2.234 -0.59299999 -0.56800002 1
2.2290001 -0.59100002 -0.56699997 1
2.2279999 -0.59100002 -0.56800002 1
2.2219999 -0.588 -0.56699997 1
2.2219999 -0.588 -0.56800002 1
2.214 -0.58499998 -0.56599998 1
2.2119999 -0.58399999 -0.56699997 1
2.2079999 -0.583 -0.56599998 1
2.2079999 -0.58200002 -0.56699997 1
2.2019999 -0.57999998 -0.56599998 1
2.2079999 -0.58099997 -0.56800002 1
2.2019999 -0.579 -0.56699997 1
2.198 -0.57700002 -0.56699997 1
2.1900001 -0.574 -0.565 1
2.191 -0.574 -0.56599998 1
2.1949999 -0.574 -0.56800002 1
2.1949999 -0.57300001 -0.56800002 1
2.188 -0.57099998 -0.56699997 1
2.1830001 -0.56900001 -0.56599998 1
2.1860001 -0.56900001 -0.56699997 1
2.1849999 -0.56699997 -0.56699997 1
2.184 -0.56599998 -0.56699997 2
2.1830001 -0.565 -0.56699997 2
2.1889999 -0.56599998 -0.56900001 2
2.181 -0.56300002 -0.56800002 2
2.178 -0.56099999 -0.56699997 1
2.175 -0.55900002 -0.56699997 2
2.1719999 -0.55800003 -0.56599998 1
2.1719999 -0.55699998 -0.56599998 2
2.178 -0.55699998 -0.56800002 2
2.171 -0.55400002 -0.56599998 1
2.1700001 -0.55299997 -0.56599998 1
2.1730001 -0.55299997 -0.56699997 2
2.171 -0.551 -0.56699997 1
2.177 -0.551 -0.56800002 1
2.174 -0.55000001 -0.56699997 1
2.174 -0.54799998 -0.56699997 1
2.1719999 -0.54699999 -0.56699997 1
2.168 -0.54400003 -0.56599998 2
2.1760001 -0.54500002 -0.56800002 1
2.165 -0.54100001 -0.565 2
2.168 -0.54100001 -0.56599998 2
2.1800001 -0.542 -0.56900001 1
2.1760001 -0.54000002 -0.56699997 1
2.1789999 -0.53899997 -0.56800002 1
2.1819999 -0.53899997 -0.56800002 1
2.177 -0.53600001 -0.56699997 1
2.1860001 -0.537 -0.56900001 1
2.1849999 -0.53500003 -0.56800002 1
2.1830001 -0.53299999 -0.56800002 1
2.1800001 -0.53100002 -0.56699997 1
2.1860001 -0.53100002 -0.56800002 1
2.184 -0.52899998 -0.56699997 1
2.191 -0.52899998 -0.56800002 1
2.1919999 -0.528 -0.56800002 1
2.1960001 -0.52700001 -0.56900001 2
2.1949999 -0.52499998 -0.56800002 1
2.197 -0.52399999 -0.56800002 1
2.2019999 -0.52399999 -0.56900001 2
2.2060001 -0.523 -0.56900001 1
2.2090001 -0.52200001 -0.56900001 1
2.211 -0.52100003 -0.56900001 1
