# .PCD v0.7 - Point Cloud Data file format
VERSION 0.7
FIELDS x y z intensity
SIZE 4 4 4 4
TYPE F F F F
COUNT 1 1 1 1
WIDTH 1738
HEIGHT 1
VIEWPOINT 0 0 0 1 0 0 0
POINTS 1738
DATA ascii
118.626 16.500999 20.774 62
118.695 16.364 20.665001 72
118.695 16.216 20.546 71
118.69 16.066999 20.424999 72
118.685 15.918 20.302999 71
118.723 15.775 20.187 58
118.734 15.627 20.066 53
118.81 15.487 19.954 47
118.863 15.345 19.833 45
118.858 15.194 19.705 38
118.92 15.051 19.587 28
118.957 14.905 19.464001 32
118.97 14.755 19.334999 28
118.875 14.595 19.193001 29
118.945 14.452 19.070999 31
119.063 14.315 18.952 36
118.955 14.153 18.805 29
118.854 13.989 18.649 31
118.962 13.849 18.528999 29
119.033 13.704 18.400999 30
118.991 13.547 18.254999 31
119.092 13.405 18.129999 26
119.037 13.249 17.983999 27
119.077 13.1 17.844 27
119.12 12.951 17.707001 28
119.024 12.786 17.547001 26
119.047 12.635 17.405001 26
119.088 12.485 17.263 25
118.978 12.32 17.099001 29
118.954 12.166 16.948 39
118.971 12.014 16.799999 51
118.959 11.862 16.648001 63
118.975 11.706 16.497 76
119.006 11.558 16.349001 65
118.99 11.402 16.191999 62
118.988 11.25 16.038 78
119.011 11.098 15.885 55
118.997 10.942 15.729 61
119.174 10.807 15.595 43
119.441 10.676 15.47 25
119.362 10.518 15.3 25
0 0 0 0
0 0 0 28
119.445 10.063 14.822 35
0 0 0 0
0 0 0 0
0 0 0 0
0 0 0 0
0 0 0 0
0 0 0 0
0 0 0 0
0 0 0 0
0 0 0 22
119.25 8.5080004 13.107 27
119.145 8.3479996 12.921 38
119.198 8.2010002 12.753 48
119.19 8.0480003 12.576 68
119.172 7.8940001 12.396 87
119.216 7.7480001 12.228 76
119.164 7.592 12.044 76
119.173 7.4400001 11.861 73
119.181 7.2919998 11.686 91
119.216 7.1420002 11.508 86
119.245 6.9920001 11.328 71
119.192 6.8379998 11.139 32
120.065 6.7360001 11.035 25
119.783 6.5710001 10.821 36
119.577 6.4099998 10.619 48
119.656 6.263 10.439 45
119.638 6.112 10.248 39
119.651 5.9650002 10.062 41
119.666 5.816 9.8730001 35
119.597 5.6659999 9.6780005 41
0 0 0 0
0 0 0 0
0 0 0 0
0 0 0 0
0 0 0 50
121.967 4.875 8.6850004 32
121.987 4.7259998 8.4860001 33
122.024 4.5780001 8.2869997 31
0 0 0 0
0 0 0 25
0 0 0 0
0 0 0 23
0 0 0 34
0 0 0 27
0 0 0 0
0 0 0 43
121.885 3.257 6.4380002 66
121.911 3.1129999 6.2309999 73
121.901 2.971 6.0229998 75
121.887 2.8269999 5.8119998 78
121.898 2.684 5.6009998 78
121.918 2.543 5.3940001 74
121.962 2.404 5.1859999 97
122.07 2.2650001 4.9770002 73
122.374 2.1289999 4.7750001 36
0 0 0 0
0 0 0 0
0 0 0 0
0 0 0 0
0 0 0 14
87.030998 0.921 2.474 31
86.922997 0.82200003 2.3150001 24
87.398003 0.72899997 2.171 18
88.086998 0.63599998 2.029 23
88.113998 0.54000002 1.873 19
0 0 0 0
0 0 0 0
0 0 0 23
86.066002 0.154 1.21 32
85.719002 0.059999999 1.049 27
87.407997 -0.032000002 0.90899998 12
87.720001 -0.125 0.75300002 25
87.777 -0.21699999 0.59399998 22
0 0 0 0
0 0 0 0
0 0 0 9
74.959999 -0.50099999 -0.046999998 53
74.966003 -0.57700002 -0.182 67
74.972 -0.65600002 -0.324 71
74.974998 -0.73299998 -0.46399999 40
0 0 0 0
0 0 0 57
0 0 0 25
75.121002 -1.039 -1.03 33
74.071999 -1.098 -1.155 98
74.083 -1.171 -1.293 30
71.828003 -1.206 -1.39 102
71.834 -1.277 -1.526 19
0 0 0 0
0 0 0 39
68.626999 -1.419 -1.85 56
68.637001 -1.485 -1.9809999 56
0 0 0 7
59.569 -1.401 -1.9450001 6
59.533001 -1.456 -2.0580001 6
0 0 0 7
46.112999 -1.212 -1.768 37
45.859001 -1.247 -1.847 43
45.733002 -1.286 -1.9299999 21
45.750999 -1.3279999 -2.0190001 4
0 0 0 0
0 0 0 2
0 0 0 0
0 0 0 1
0 0 0 1
19.641001 -0.67299998 -1.0930001 3
19.093 -0.67000002 -1.099 4
0 0 0 3
16.781 -0.61799997 -1.0319999 4
0 0 0 2
14.796 -0.56900001 -0.96700001 2
14.063 -0.55299997 -0.94599998 2
13.405 -0.53799999 -0.92799997 2
12.746 -0.52200001 -0.90700001 3
12.19 -0.50800002 -0.89099997 3
11.669 -0.49599999 -0.875 2
11.181 -0.484 -0.861 3
10.83 -0.477 -0.85500002 4
10.263 -0.46000001 -0.82999998 2
9.823 -0.44800001 -0.81300002 3
9.4169998 -0.43700001 -0.79799998 3
9.0290003 -0.426 -0.78299999 4
8.6899996 -0.41600001 -0.77100003 3
8.3739996 -0.40700001 -0.759 4
8.0790005 -0.39899999 -0.74800003 6
7.8590002 -0.39399999 -0.74299997 6
7.6170001 -0.38699999 -0.73500001 4
7.3470001 -0.37900001 -0.72299999 3
7.1350002 -0.373 -0.71600002 3
6.9520001 -0.368 -0.71100003 4
6.7550001 -0.36199999 -0.704 3
6.552 -0.35600001 -0.69599998 4
6.355 -0.34900001 -0.68699998 7
6.2519999 -0.34799999 -0.68800002 5
6.132 -0.345 -0.68599999 3
5.9489999 -0.33899999 -0.67799997 3
5.8140001 -0.33500001 -0.67299998 3
5.6789999 -0.331 -0.66900003 3
5.5370002 -0.32600001 -0.66299999 3
5.4219999 -0.322 -0.65899998 3
5.3080001 -0.31900001 -0.65600002 2
5.1849999 -0.315 -0.65100002 2
5.0939999 -0.31200001 -0.64899999 2
4.9829998 -0.308 -0.64399999 2
4.8969998 -0.30599999 -0.64300001 2
4.8010001 -0.303 -0.639 2
4.704 -0.29899999 -0.63499999 4
4.6300001 -0.29699999 -0.634 2
4.5510001 -0.29499999 -0.63200003 2
4.4660001 -0.292 -0.62900001 2
4.3860002 -0.289 -0.62599999 2
4.2950001 -0.285 -0.62099999 2
4.2329998 -0.28299999 -0.62 2
4.1849999 -0.28200001 -0.62099999 2
4.086 -0.278 -0.61400002 2
4.0110002 -0.27500001 -0.61000001 2
3.9760001 -0.27399999 -0.61299998 2
3.921 -0.27200001 -0.611 2
3.8900001 -0.27200001 -0.61400002 3
3.8789999 -0.273 -0.62 3
3.733 -0.26499999 -0.60299999 2
3.717 -0.26499999 -0.60799998 3
3.6440001 -0.26199999 -0.602 3
3.562 -0.25799999 -0.59600002 1
3.5220001 -0.25600001 -0.59600002 2
3.467 -0.25400001 -0.59299999 3
3.4260001 -0.252 -0.59200001 3
3.401 -0.252 -0.59399998 3
3.3440001 -0.249 -0.58999997 3
3.302 -0.24699999 -0.58899999 3
3.2550001 -0.245 -0.58600003 3
3.223 -0.244 -0.58700001 3
3.181 -0.242 -0.58499998 2
3.135 -0.23999999 -0.58200002 2
3.0999999 -0.23800001 -0.58099997 2
3.066 -0.237 -0.57999998 2
3.029 -0.235 -0.579 2
2.9960001 -0.233 -0.57800001 2
2.9619999 -0.23199999 -0.57700002 2
2.931 -0.23 -0.57599998 2
2.904 -0.229 -0.57599998 2
2.8670001 -0.227 -0.57300001 2
2.845 -0.226 -0.574 2
2.8180001 -0.22499999 -0.574 2
2.79 -0.22400001 -0.57300001 2
2.7520001 -0.222 -0.56999999 2
2.7219999 -0.22 -0.56800002 1
2.691 -0.21799999 -0.56699997 2
2.674 -0.21799999 -0.56800002 2
2.648 -0.21600001 -0.56699997 2
2.625 -0.215 -0.56599998 2
2.5969999 -0.213 -0.565 2
2.576 -0.212 -0.565 2
2.5580001 -0.212 -0.565 1
2.5350001 -0.20999999 -0.56400001 1
2.5190001 -0.20999999 -0.565 1
2.4920001 -0.208 -0.56300002 1
2.4760001 -0.207 -0.56400001 1
2.4530001 -0.206 -0.56300002 1
2.431 -0.204 -0.56099999 1
2.4100001 -0.20299999 -0.56099999 1
2.3870001 -0.20200001 -0.55900002 1
2.4030001 -0.20299999 -0.56699997 1
2.421 -0.205 -0.57499999 1
2.358 -0.2 -0.56400001 1
2.332 -0.199 -0.56199998 1
2.392 -0.204 -0.57999998 1
2.263 -0.193 -0.55199999 1
2.2490001 -0.193 -0.55299997 1
2.2309999 -0.191 -0.55199999 1
2.2160001 -0.19 -0.551 1
2.201 -0.189 -0.551 1
2.188 -0.189 -0.551 1
2.174 -0.18799999 -0.551 1
2.1570001 -0.186 -0.55000001 1
2.141 -0.185 -0.54900002 1
2.1289999 -0.184 -0.54900002 1
2.1159999 -0.183 -0.54900002 1
2.0929999 -0.182 -0.546 1
2.0829999 -0.18099999 -0.54699999 1
2.0610001 -0.17900001 -0.54400003 1
2.059 -0.17900001 -0.54699999 1
2.03 -0.177 -0.542 1
2.0250001 -0.177 -0.54400003 1
2.0150001 -0.176 -0.54400003 1
2.0109999 -0.176 -0.546 1
1.984 -0.17299999 -0.542 1
1.975 -0.17299999 -0.542 1
1.964 -0.17200001 -0.54100001 1
1.954 -0.171 -0.542 1
1.948 -0.17 -0.54299998 1
1.926 -0.169 -0.53899997 1
1.926 -0.169 -0.542 1
1.901 -0.16599999 -0.537 1
1.899 -0.16599999 -0.53899997 1
1.89 -0.16500001 -0.53899997 1
1.885 -0.16500001 -0.54100001 1
1.869 -0.163 -0.53799999 1
1.864 -0.163 -0.53899997 1
1.858 -0.162 -0.54000002 1
1.849 -0.162 -0.54000002 1
1.834 -0.16 -0.53799999 1
1.826 -0.15899999 -0.53799999 1
1.8200001 -0.15899999 -0.53799999 1
1.806 -0.15700001 -0.53600001 1
1.8049999 -0.15700001 -0.53799999 1
1.7920001 -0.156 -0.537 1
1.785 -0.155 -0.537 1
1.775 -0.154 -0.53600001 1
1.772 -0.154 -0.537 1
1.7589999 -0.153 -0.53500003 1
1.761 -0.153 -0.53799999 1
1.745 -0.15099999 -0.53500003 1
1.7410001 -0.15099999 -0.53600001 1
1.733 -0.15000001 -0.53500003 1
1.732 -0.149 -0.537 1
1.72 -0.148 -0.53500003 1
1.698 -0.146 -0.52999997 1
1.707 -0.147 -0.53500003 1
1.694 -0.145 -0.53200001 1
1.687 -0.14399999 -0.53200001 1
1.678 -0.14399999 -0.53100002 1
1.676 -0.14300001 -0.53200001 1
1.675 -0.14300001 -0.53399998 1
1.668 -0.142 -0.53299999 1
1.661 -0.141 -0.53299999 1
1.66 -0.141 -0.53399998 1
1.646 -0.139 -0.53100002 1
1.636 -0.138 -0.52899998 1
1.632 -0.138 -0.52999997 1
1.6210001 -0.13600001 -0.528 1
1.615 -0.13500001 -0.52700001 1
1.617 -0.13500001 -0.52899998 1
1.614 -0.13500001 -0.52999997 1
1.599 -0.133 -0.52600002 1
1.598 -0.133 -0.52700001 1
1.598 -0.132 -0.52899998 1
1.591 -0.132 -0.528 1
1.586 -0.131 -0.52700001 1
1.586 -0.13 -0.52899998 1
1.582 -0.13 -0.52899998 1
1.572 -0.12899999 -0.52700001 1
1.573 -0.12800001 -0.528 1
1.573 -0.12800001 -0.52899998 1
1.564 -0.127 -0.528 1
1.566 -0.127 -0.52999997 1
1.554 -0.125 -0.52700001 1
1.5599999 -0.125 -0.52999997 1
1.544 -0.124 -0.52499998 1
1.544 -0.123 -0.52700001 1
1.539 -0.123 -0.52600002 1
1.54 -0.122 -0.52700001 1
1.535 -0.121 -0.52600002 1
1.536 -0.121 -0.528 1
1.526 -0.12 -0.52499998 1
1.526 -0.119 -0.52600002 1
1.525 -0.119 -0.52700001 1
1.524 -0.118 -0.52700001 1
1.523 -0.118 -0.528 1
1.511 -0.116 -0.52399999 1
1.51 -0.116 -0.52499998 1
1.511 -0.116 -0.52600002 1
1.502 -0.114 -0.52399999 1
1.502 -0.114 -0.52499998 1
1.503 -0.114 -0.52600002 1
1.503 -0.113 -0.52600002 1
1.499 -0.112 -0.52600002 1
1.494 -0.111 -0.52499998 1
1.492 -0.111 -0.52399999 1
1.493 -0.11 -0.52499998 1
1.498 -0.11 -0.528 1
1.4960001 -0.11 -0.528 1
1.484 -0.108 -0.52399999 1
1.487 -0.108 -0.52499998 1
1.484 -0.107 -0.52499998 1
1.479 -0.106 -0.52399999 1
1.489 -0.107 -0.528 1
1.472 -0.105 -0.52200001 1
1.48 -0.105 -0.52600002 1
1.47 -0.104 -0.52200001 1
1.476 -0.104 -0.52499998 1
1.471 -0.103 -0.523 1
1.484 -0.103 -0.528 1
1.471 -0.102 -0.52399999 1
1.472 -0.101 -0.52499998 1
1.46 -0.1 -0.52100003 1
1.47 -0.1 -0.52499998 1
1.469 -0.098999999 -0.52399999 1
1.459 -0.097999997 -0.52100003 1
1.4630001 -0.097999997 -0.52200001 1
1.46 -0.097000003 -0.52200001 1
1.472 -0.097000003 -0.52600002 1
1.459 -0.096000001 -0.52100003 1
1.4579999 -0.094999999 -0.52100003 1
1.4579999 -0.094999999 -0.52100003 1
1.454 -0.093999997 -0.51999998 1
1.459 -0.093000002 -0.52200001 1
1.459 -0.093000002 -0.52200001 1
1.4529999 -0.092 -0.51999998 1
1.4529999 -0.090999998 -0.51899999 1
1.459 -0.090999998 -0.52200001 1
1.459 -0.090000004 -0.52200001 1
1.465 -0.090000004 -0.52399999 1
1.454 -0.089000002 -0.51899999 1
1.459 -0.089000002 -0.52100003 1
1.455 -0.088 -0.51999998 1
1.46 -0.086999997 -0.52100003 1
1.465 -0.086999997 -0.523 1
1.455 -0.086000003 -0.51899999 1
1.467 -0.086000003 -0.523 1
1.4630001 -0.085000001 -0.52100003 1
1.466 -0.085000001 -0.52200001 1
1.467 -0.083999999 -0.52200001 1
1.466 -0.082999997 -0.52100003 1
1.467 -0.082999997 -0.52100003 1
1.475 -0.082999997 -0.52399999 1
1.475 -0.082000002 -0.523 1
1.483 -0.082000002 -0.52600002 1
1.487 -0.081 -0.52700001 1
1.474 -0.079999998 -0.52200001 1
1.482 -0.079999998 -0.52399999 1
1.485 -0.079000004 -0.52499998 1
1.484 -0.079000004 -0.52399999 1
1.49 -0.078000002 -0.52499998 1
1.49 -0.078000002 -0.52499998 1
1.493 -0.077 -0.52499998 1
1.49 -0.075999998 -0.52399999 1
1.492 -0.075999998 -0.52399999 1
1.497 -0.075000003 -0.52499998 1
1.4960001 -0.075000003 -0.523 1
1.502 -0.074000001 -0.52499998 1
1.506 -0.074000001 -0.52499998 1
1.506 -0.072999999 -0.52499998 1
1.506 -0.071999997 -0.52399999 1
1.516 -0.071999997 -0.52700001 1
1.516 -0.071000002 -0.52600002 1
1.515 -0.071000002 -0.52499998 1
1.517 -0.07 -0.52399999 1
1.52 -0.07 -0.52499998 1
1.517 -0.068999998 -0.523 1
1.529 -0.068999998 -0.52600002 1
1.527 -0.068000004 -0.52399999 1
1.53 -0.067000002 -0.52399999 1
1.536 -0.067000002 -0.52499998 1
1.5420001 -0.066 -0.52600002 1
1.544 -0.066 -0.52600002 1
1.548 -0.064999998 -0.52600002 1
1.55 -0.064999998 -0.52600002 1
1.549 -0.064000003 -0.52399999 1
1.558 -0.063000001 -0.52600002 1
1.552 -0.063000001 -0.523 1
1.569 -0.061999999 -0.52700001 1
1.566 -0.061999999 -0.52499998 1
1.5700001 -0.061000001 -0.52499998 1
1.5700001 -0.059999999 -0.52399999 1
1.585 -0.059999999 -0.52700001 1
1.585 -0.059 -0.52600002 1
1.589 -0.059 -0.52600002 1
1.604 -0.059 -0.52999997 1
1.6059999 -0.057999998 -0.52899998 1
1.609 -0.057 -0.528 1
1.619 -0.057 -0.52999997 1
1.619 -0.056000002 -0.52899998 1
1.623 -0.056000002 -0.52899998 1
1.625 -0.055 -0.528 1
1.643 -0.055 -0.53200001 1
1.645 -0.054000001 -0.53100002 1
1.646 -0.054000001 -0.52999997 1
1.658 -0.052999999 -0.53200001 1
1.665 -0.052999999 -0.53200001 1
1.665 -0.052000001 -0.53100002 1
1.678 -0.052000001 -0.53299999 1
1.679 -0.050999999 -0.53200001 1
1.686 -0.050000001 -0.53200001 1
1.707 -0.050000001 -0.537 1
1.712 -0.050000001 -0.53600001 1
1.717 -0.048999999 -0.53600001 1
1.725 -0.048 -0.537 1
1.728 -0.048 -0.53600001 1
1.737 -0.046999998 -0.53600001 1
1.74 -0.046999998 -0.53600001 1
1.748 -0.046 -0.53600001 1
1.761 -0.046 -0.53799999 1
1.762 -0.045000002 -0.53600001 1
1.771 -0.044 -0.537 1
1.779 -0.044 -0.537 1
1.783 -0.043000001 -0.53600001 1
1.796 -0.043000001 -0.53799999 1
1.8049999 -0.041999999 -0.53799999 1
1.811 -0.041999999 -0.537 1
1.8200001 -0.041000001 -0.53799999 1
1.8279999 -0.039999999 -0.53799999 1
1.841 -0.039999999 -0.53899997 1
1.85 -0.039000001 -0.53899997 1
1.862 -0.039000001 -0.54100001 1
1.8710001 -0.037999999 -0.54100001 1
1.869 -0.037999999 -0.53799999 1
1.8890001 -0.037 -0.54100001 1
1.895 -0.037 -0.54000002 1
1.9069999 -0.035999998 -0.54100001 1
1.92 -0.035999998 -0.542 1
1.933 -0.035 -0.54299998 1
1.9400001 -0.034000002 -0.542 1
1.948 -0.034000002 -0.54100001 1
1.96 -0.033 -0.542 1
1.966 -0.033 -0.54100001 1
1.976 -0.032000002 -0.54100001 1
1.995 -0.032000002 -0.54299998 1
2.013 -0.030999999 -0.54500002 1
2.0220001 -0.029999999 -0.54400003 1
2.0409999 -0.029999999 -0.546 1
2.0539999 -0.029999999 -0.54699999 1
2.0639999 -0.028999999 -0.546 1
2.0799999 -0.028000001 -0.54699999 1
2.0899999 -0.028000001 -0.54699999 1
2.1099999 -0.027000001 -0.54900002 1
2.1229999 -0.027000001 -0.54900002 1
2.142 -0.026000001 -0.55000001 1
2.152 -0.026000001 -0.55000001 1
2.1670001 -0.025 -0.55000001 1
2.1919999 -0.025 -0.55299997 1
2.2079999 -0.024 -0.55299997 1
2.22 -0.024 -0.55299997 1
2.234 -0.023 -0.55299997 1
2.2509999 -0.023 -0.55299997 1
2.2709999 -0.022 -0.55400002 1
2.286 -0.021 -0.55400002 1
2.3010001 -0.021 -0.55400002 1
2.3199999 -0.02 -0.55500001 1
2.339 -0.02 -0.55500001 1
2.3629999 -0.018999999 -0.55699998 1
2.3889999 -0.018999999 -0.55900002 1
2.4059999 -0.017999999 -0.55900002 2
2.424 -0.017999999 -0.55900002 2
2.444 -0.017000001 -0.56 1
2.4619999 -0.017000001 -0.55900002 1
2.484 -0.016000001 -0.56 1
2.5050001 -0.016000001 -0.56099999 1
2.536 -0.015 -0.56300002 1
2.553 -0.015 -0.56199998 1
2.5739999 -0.014 -0.56199998 1
2.605 -0.014 -0.56400001 1
2.6719999 -0.014 -0.574 1
2.691 -0.013 -0.57300001 1
2.6760001 -0.012 -0.565 1
2.7119999 -0.012 -0.56800002 2
2.73 -0.011 -0.56699997 2
2.7709999 -0.011 -0.56999999 2
2.7969999 -0.011 -0.57099998 2
2.8239999 -0.0099999998 -0.57099998 2
2.8640001 -0.0099999998 -0.574 2
2.898 -0.0089999996 -0.57499999 2
2.9400001 -0.0089999996 -0.57800001 2
2.961 -0.0080000004 -0.57599998 2
2.993 -0.0080000004 -0.57700002 2
3.027 -0.0080000004 -0.57800001 2
3.066 -0.0070000002 -0.57999998 2
3.1010001 -0.0070000002 -0.57999998 2
3.1440001 -0.0060000001 -0.583 2
3.174 -0.0060000001 -0.58200002 2
3.2160001 -0.0060000001 -0.58399999 2
3.266 -0.0049999999 -0.58700001 2
3.3010001 -0.0049999999 -0.58600003 2
3.3469999 -0.0040000002 -0.588 2
3.4549999 -0.0040000002 -0.60000002 2
3.4549999 -0.0040000002 -0.59399998 2
3.4809999 -0.0040000002 -0.59100002 1
3.5610001 -0.003 -0.59799999 1
3.6029999 -0.003 -0.59799999 1
3.678 -0.003 -0.60299999 1
3.698 -0.0020000001 -0.59899998 1
3.7839999 -0.0020000001 -0.60600001 2
3.9100001 -0.0020000001 -0.61799997 2
3.9170001 -0.0020000001 -0.61199999 2
3.951 -0.001 -0.60900003 2
4.0500002 -0.001 -0.616 2
4.1199999 -0.001 -0.61900002 2
4.1659999 -0.001 -0.61699998 2
4.2449999 -0.001 -0.62099999 2
4.3140001 -0.001 -0.62199998 2
4.401 -0.001 -0.62599999 2
4.4840002 -0.001 -0.62800002 3
4.559 -0.001 -0.63 4
4.6570001 -0.001 -0.634 3
4.7470002 -0.001 -0.63700002 2
4.8340001 -0.001 -0.63800001 2
4.9450002 -0.001 -0.64300001 2
5.0489998 -0.001 -0.64600003 2
5.1539998 -0.001 -0.64899999 2
5.2800002 -0.001 -0.65399998 3
5.402 -0.0020000001 -0.65799999 3
5.5320001 -0.0020000001 -0.66299999 4
5.6680002 -0.0020000001 -0.667 4
5.8080001 -0.003 -0.67199999 4
5.9419999 -0.003 -0.67500001 3
6.1129999 -0.0040000002 -0.68199998 3
6.277 -0.0040000002 -0.68699998 3
6.4629998 -0.0049999999 -0.69400001 3
6.651 -0.0060000001 -0.69999999 3
6.8579998 -0.0070000002 -0.708 4
7.105 -0.0080000004 -0.71899998 6
7.3179998 -0.0089999996 -0.72500002 5
7.5640001 -0.0099999998 -0.73299998 8
7.7940001 -0.011 -0.73900002 9
8.0670004 -0.013 -0.74800003 6
8.3719997 -0.015 -0.759 7
8.7779999 -0.017000001 -0.77700001 4
9.2749996 -0.018999999 -0.80199999 9
9.6120005 -0.021 -0.81099999 19
9.8809996 -0.024 -0.81300002 5
10.362 -0.027000001 -0.83099997 3
0 0 0 2
11.587 -0.034000002 -0.88 5
12.037 -0.037999999 -0.889 3
12.668 -0.041999999 -0.90899998 3
13.381 -0.048 -0.93199998 3
14.081 -0.052999999 -0.94999999 3
14.89 -0.059999999 -0.97399998 3
15.69 -0.067000002 -0.99299997 3
0 0 0 3
0 0 0 2
0 0 0 1
0 0 0 1
0 0 0 1
0 0 0 0
0 0 0 0
0 0 0 0
0 0 0 0
0 0 0 6
50.761002 -0.37 -2.036 150
50.791 -0.38699999 -1.929 159
50.798 -0.403 -1.822 192
47.872002 -0.396 -1.615 3
0 0 0 187
50.832001 -0.45500001 -1.498 158
50.828999 -0.47299999 -1.39 82
0 0 0 23
118.961 -1.194 -2.7550001 34
0 0 0 0
0 0 0 0
0 0 0 0
0 0 0 37
135.75101 -1.626 -1.709 68
135.672 -1.6799999 -1.4220001 51
0 0 0 24
75.025002 -0.991 -0.472 75
75.027 -1.023 -0.31400001 100
75.064003 -1.057 -0.156 81
75.025002 -1.089 0.001 62
74.279999 -1.1109999 0.154 14
0 0 0 0
0 0 0 0
0 0 0 0
0 0 0 0
0 0 0 0
0 0 0 0
0 0 0 0
0 0 0 16
62.626999 -1.2079999 1.304 28
62.001999 -1.227 1.4170001 34
61.348999 -1.2460001 1.53 33
61.136002 -1.274 1.651 51
61.101002 -1.306 1.776 40
61.118 -1.34 1.903 7
64.033997 -1.439 2.1259999 14
63.858002 -1.469 2.2490001 33
62.814999 -1.48 2.342 62
62.674999 -1.513 2.4649999 85
62.535 -1.545 2.589 81
61.661999 -1.559 2.6789999 57
61.359001 -1.587 2.789 65
61.324001 -1.622 2.911 72
60.505001 -1.636 2.9949999 55
60.035999 -1.659 3.092 75
60.021 -1.6950001 3.2119999 78
59.632999 -1.72 3.3099999 57
58.752998 -1.7309999 3.3800001 72
58.675999 -1.766 3.493 78
58.610001 -1.8 3.6059999 71
57.734001 -1.8099999 3.6670001 52
57.341999 -1.834 3.7539999 57
57.339001 -1.8710001 3.868 59
56.868 -1.893 3.9489999 44
56.042 -1.902 4.0050001 65
55.994999 -1.939 4.1129999 71
55.950001 -1.974 4.2189999 65
54.999001 -1.979 4.257 48
54.660999 -2.003 4.3369999 66
54.651001 -2.04 4.4429998 67
54.305 -2.0639999 4.52 48
53.405998 -2.0669999 4.5489998 59
53.314999 -2.1010001 4.645 63
53.249001 -2.1359999 4.7420001 59
52.344002 -2.1370001 4.7620001 45
51.994999 -2.1600001 4.8299999 59
51.977001 -2.197 4.928 59
51.726002 -2.224 5.0029998 45
50.736 -2.217 5.0029998 54
50.622002 -2.25 5.0879998 51
50.372002 -2.276 5.158 21
49.382 -2.267 5.1490002 11
48.937 -2.2850001 5.1960001 29
48.925999 -2.3210001 5.2870002 47
48.931999 -2.359 5.3790002 53
48.926998 -2.3959999 5.4699998 58
48.938999 -2.4330001 5.5609999 62
48.933998 -2.471 5.651 58
48.944 -2.51 5.7420001 60
48.956001 -2.5480001 5.8330002 57
48.959 -2.586 5.9229999 56
48.921001 -2.622 6.006 40
0 0 0 5
45.464001 -2.5090001 5.7470002 9
45.146 -2.5280001 5.7880001 9
44.946999 -2.552 5.842 34
44.908001 -2.586 5.9180002 52
44.914001 -2.6240001 6 57
44.354 -2.6270001 6.0029998 41
43.933998 -2.638 6.0229998 49
43.935001 -2.674 6.1009998 50
43.937 -2.71 6.177 50
43.595001 -2.7249999 6.2049999 40
42.653 -2.701 6.1430001 36
42.592999 -2.733 6.21 50
42.606998 -2.7690001 6.2849998 48
42.596001 -2.8050001 6.3559999 47
42.089001 -2.8069999 6.3530002 23
41.240002 -2.7850001 6.2950001 39
41.216 -2.819 6.3610001 42
41.233002 -2.8540001 6.4320002 44
41.236 -2.8900001 6.5009999 40
40.604 -2.881 6.4689999 20
39.888 -2.8640001 6.421 44
39.896999 -2.898 6.4879999 48
39.915001 -2.9349999 6.5570002 48
39.901001 -2.9679999 6.619 45
39.396999 -2.9649999 6.5999999 27
38.562 -2.9360001 6.5219998 38
38.542999 -2.9679999 6.5809999 42
38.535999 -3.0009999 6.6409998 40
38.553001 -3.036 6.7049999 40
38.235001 -3.0450001 6.71 18
37.276001 -3.0009999 6.5999999 9
36.988998 -3.0109999 6.6069999 9
36.743 -3.0239999 6.6199999 9
36.533001 -3.0380001 6.638 9
36.257 -3.0469999 6.6440001 10
36.071999 -3.0639999 6.665 9
35.837002 -3.075 6.6750002 10
35.605 -3.086 6.6849999 11
35.402 -3.0999999 6.6999998 10
35.202999 -3.115 6.7150002 10
34.953999 -3.1240001 6.7189999 11
34.755001 -3.1370001 6.7319999 10
34.512001 -3.1470001 6.7350001 10
34.333 -3.161 6.75 9
34.105 -3.171 6.7540002 10
33.916 -3.1830001 6.7649999 9
33.726002 -3.1960001 6.7750001 9
33.541 -3.2090001 6.7849998 11
33.348999 -3.2190001 6.7930002 10
33.132999 -3.2290001 6.7950001 10
32.932999 -3.2390001 6.8000002 9
32.729 -3.2490001 6.802 9
32.563 -3.2609999 6.8119998 9
32.403 -3.2750001 6.822 10
32.192001 -3.2820001 6.8210001 10
32.011002 -3.2920001 6.8249998 9
31.826 -3.302 6.8280001 9
31.639999 -3.3110001 6.829 8
31.49 -3.323 6.8369999 9
31.309999 -3.3329999 6.8390002 9
31.143999 -3.3429999 6.842 9
30.968 -3.352 6.8429999 9
30.791 -3.3610001 6.842 9
30.625 -3.3699999 6.8449998 10
30.485001 -3.381 6.8499999 10
30.322001 -3.391 6.8509998 11
30.177999 -3.401 6.855 10
29.98 -3.4059999 6.8460002 8
29.820999 -3.415 6.8460002 10
29.697001 -3.427 6.8520002 9
29.524 -3.4330001 6.8470001 9
29.354 -3.4400001 6.842 10
29.201 -3.448 6.8390002 9
29.044001 -3.454 6.835 9
28.93 -3.467 6.8410001 9
28.768999 -3.473 6.835 11
28.632 -3.4820001 6.8340001 11
28.49 -3.49 6.8309999 9
28.353001 -3.4979999 6.829 10
28.212999 -3.5050001 6.8270001 10
28.106001 -3.516 6.829 10
27.966 -3.523 6.8249998 10
27.816 -3.5280001 6.8169999 10
27.695 -3.5369999 6.8150001 9
27.556999 -3.543 6.809 8
27.417999 -3.549 6.802 10
27.296 -3.556 6.7989998 9
27.146999 -3.559 6.7880001 8
27.039 -3.569 6.7880001 9
26.905001 -3.5739999 6.7800002 9
26.797001 -3.582 6.7779999 9
26.672001 -3.5880001 6.7709999 9
26.573999 -3.5969999 6.77 12
26.447001 -3.602 6.7620001 11
26.333 -3.609 6.756 10
26.237 -3.618 6.7550001 10
26.15 -3.628 6.7550001 12
26.062 -3.6359999 6.7550001 12
25.962 -3.6440001 6.7519999 13
25.888 -3.6559999 6.7540002 14
25.827 -3.668 6.7589998 18
25.731001 -3.675 6.7550001 17
25.629999 -3.6819999 6.7490001 19
25.582001 -3.6960001 6.757 19
25.499001 -3.704 6.7550001 20
25.431999 -3.714 6.757 24
25.375999 -3.727 6.7610002 25
25.311001 -3.737 6.7620001 25
25.233999 -3.7449999 6.7600002 27
25.18 -3.757 6.763 24
25.110001 -3.766 6.7610002 30
25.049 -3.776 6.7620001 27
24.992001 -3.786 6.7639999 27
24.944 -3.7980001 6.7670002 31
24.871 -3.806 6.763 33
24.827999 -3.819 6.7680001 31
24.778 -3.8299999 6.77 32
24.723 -3.839 6.77 33
24.671 -3.849 6.7709999 32
24.629 -3.8610001 6.7729998 32
24.575001 -3.8710001 6.7729998 27
24.539 -3.882 6.776 33
24.5 -3.8940001 6.7789998 27
24.454 -3.905 6.7800002 33
24.410999 -3.915 6.7810001 30
24.367001 -3.9260001 6.7810001 31
24.322001 -3.9349999 6.7800002 31
24.285999 -3.9460001 6.7820001 31
24.256001 -3.9579999 6.7849998 26
24.212 -3.9679999 6.7839999 26
24.165001 -3.977 6.7820001 31
24.143 -3.9890001 6.7870002 28
24.110001 -4 6.7880001 30
24.063999 -4.0079999 6.7849998 33
24.034 -4.0190001 6.7859998 29
24.004999 -4.0300002 6.7870002 29
23.986 -4.0430002 6.79 28
23.958 -4.0539999 6.7909999 28
23.922001 -4.0630002 6.789 29
23.899 -4.0739999 6.7909999 28
23.867001 -4.0830002 6.789 32
23.858 -4.0970001 6.7940001 29
23.832001 -4.1069999 6.7940001 33
23.809999 -4.118 6.7940001 34
23.794001 -4.1300001 6.796 34
23.771 -4.1399999 6.7950001 28
23.761 -4.152 6.7979999 28
23.736 -4.1609998 6.7969999 29
23.729 -4.1739998 6.8000002 29
23.702 -4.1830001 6.7969999 33
23.688 -4.1929998 6.7979999 31
23.681999 -4.2059999 6.8000002 32
23.656 -4.2140002 6.7969999 27
23.622999 -4.2210002 6.7909999 32
23.627001 -4.2340002 6.7950001 32
23.628 -4.2470002 6.7989998 27
23.613001 -4.256 6.7969999 28
23.605 -4.2670002 6.7979999 29
23.587999 -4.277 6.7950001 33
23.577 -4.2870002 6.7930002 33
23.577 -4.2979999 6.7950001 33
23.562 -4.3070002 6.7919998 27
23.577 -4.3210001 6.7969999 26
23.562 -4.3299999 6.7930002 28
23.556999 -4.3400002 6.7919998 32
23.549 -4.349 6.79 33
23.568001 -4.3639998 6.7950001 34
23.549999 -4.3709998 6.79 33
23.563999 -4.3839998 6.7919998 32
23.562 -4.3940001 6.7909999 31
23.569 -4.4060001 6.7909999 27
23.570999 -4.4159999 6.79 32
23.577999 -4.427 6.79 35
23.583 -4.4369998 6.789 33
23.584999 -4.447 6.7870002 34
23.597 -4.4590001 6.7880001 27
23.610001 -4.4699998 6.7880001 27
23.625 -4.4819999 6.789 28
23.636999 -4.493 6.7880001 27
23.652 -4.5040002 6.7880001 27
23.664 -4.5149999 6.7880001 28
23.673 -4.5250001 6.7849998 34
23.687 -4.5359998 6.7839999 34
23.712999 -4.5489998 6.7859998 28
23.725 -4.559 6.7839999 31
23.743 -4.5700002 6.783 32
23.777 -4.5830002 6.7870002 28
23.783001 -4.592 6.7820001 31
23.806 -4.6030002 6.7820001 31
23.837 -4.6160002 6.783 27
23.856001 -4.6269999 6.7810001 27
23.872 -4.6360002 6.7779999 33
23.899 -4.6469998 6.777 33
23.903999 -4.6550002 6.77 31
23.943001 -4.6680002 6.7729998 27
23.966 -4.678 6.77 32
23.997999 -4.6900001 6.77 32
24.023001 -4.6999998 6.7670002 28
24.059 -4.7129998 6.7680001 30
24.073 -4.7199998 6.7610002 30
24.117001 -4.7340002 6.763 30
24.153 -4.7459998 6.7620001 25
24.195 -4.7579999 6.763 27
24.219999 -4.7670002 6.7589998 31
24.257999 -4.7789998 6.7579999 30
24.301001 -4.7909999 6.757 33
24.334999 -4.802 6.7540002 32
24.381001 -4.8140001 6.7540002 30
24.431999 -4.8270001 6.756 26
24.468 -4.8369999 6.7529998 30
24.521999 -4.8499999 6.7540002 26
24.556999 -4.8600001 6.75 26
24.594999 -4.8699999 6.7459998 30
24.645 -4.882 6.7449999 30
24.705999 -4.8959999 6.7470002 32
24.737 -4.9039998 6.7399998 31
24.780001 -4.915 6.737 30
24.839001 -4.928 6.737 30
24.889 -4.9380002 6.7350001 29
24.945 -4.9510002 6.7340002 26
25.003 -4.9629998 6.7319999 31
25.066 -4.9759998 6.7329998 27
25.107 -4.9850001 6.7259998 31
25.172001 -4.9980001 6.7259998 32
25.238001 -5.0110002 6.7249999 27
25.297001 -5.0219998 6.723 26
25.341 -5.0310001 6.7160001 26
25.396 -5.04 6.711 31
25.466999 -5.053 6.71 27
25.532 -5.066 6.7080002 30
25.594 -5.0770001 6.7049999 30
25.656 -5.0869999 6.7010002 25
25.745001 -5.1020002 6.7030001 26
25.811001 -5.1139998 6.6999998 30
25.875999 -5.125 6.6950002 29
25.966 -5.1399999 6.697 26
26.042 -5.152 6.6939998 25
26.108999 -5.1630001 6.6890001 30
26.205999 -5.178 6.6919999 26
26.271 -5.1880002 6.6849999 28
26.362 -5.2010002 6.6859999 29
26.452999 -5.2150002 6.6849999 26
26.514999 -5.223 6.677 32
26.594 -5.2340002 6.6729999 28
26.687 -5.2480001 6.671 31
26.77 -5.2589998 6.6669998 30
26.855 -5.2709999 6.6630001 25
26.952999 -5.2849998 6.6609998 25
27.030001 -5.2940001 6.6539998 24
27.136 -5.309 6.6539998 28
27.23 -5.3210001 6.6500001 28
27.333 -5.335 6.6490002 29
27.434 -5.348 6.6459999 29
27.538 -5.3610001 6.6430001 24
27.641001 -5.3740001 6.6389999 26
27.728001 -5.3829999 6.632 26
27.855 -5.3990002 6.6339998 24
27.955 -5.4099998 6.6290002 27
28.061001 -5.4219999 6.6240001 24
28.171 -5.4349999 6.6199999 24
28.291 -5.4489999 6.618 27
28.403 -5.461 6.6139998 25
28.507999 -5.4720001 6.6069999 24
28.636 -5.4860001 6.6059999 23
28.738001 -5.4959998 6.5970001 27
28.854 -5.5079999 6.5910001 25
28.997999 -5.5240002 6.592 23
29.127001 -5.5380001 6.5879998 23
29.268999 -5.553 6.586 25
29.379 -5.5619998 6.5770001 23
29.531 -5.5799999 6.5780001 24
29.663 -5.592 6.572 22
29.801001 -5.605 6.5679998 24
29.922001 -5.6149998 6.559 26
30.052 -5.6259999 6.552 23
30.208 -5.6409998 6.5489998 23
30.339001 -5.652 6.5419998 21
30.507 -5.6690001 6.5409999 20
30.652 -5.6810002 6.5349998 20
30.83 -5.6989999 6.5349998 21
30.966 -5.7080002 6.5250001 21
31.188999 -5.7340002 6.533 21
31.334 -5.744 6.5240002 20
31.48 -5.7540002 6.5149999 21
31.601999 -5.7600002 6.5009999 24
31.808001 -5.7800002 6.5029998 25
31.987 -5.7950001 6.4980001 23
32.132 -5.803 6.487 23
32.285999 -5.8130002 6.4759998 22
32.484001 -5.829 6.474 23
32.673 -5.8439999 6.4689999 22
32.849998 -5.8559999 6.461 23
33.037998 -5.8699999 6.454 24
33.226002 -5.8829999 6.447 24
33.431 -5.8969998 6.4419999 24
33.630001 -5.9109998 6.4349999 25
33.827999 -5.9239998 6.427 25
34.015999 -5.9349999 6.4169998 25
34.220001 -5.948 6.4089999 25
34.452 -5.9650002 6.4060001 26
34.658001 -5.9770002 6.3969998 26
34.874001 -5.9910002 6.3889999 26
35.058998 -5.9980001 6.3740001 27
35.303001 -6.0149999 6.3709998 27
35.522999 -6.027 6.3610001 27
35.749001 -6.039 6.3509998 28
35.990002 -6.0539999 6.3439999 28
36.212002 -6.0650001 6.3319998 28
36.452 -6.0770001 6.322 29
0 0 0 3
29.017 -4.7940001 4.9510002 13
28.955999 -4.7610002 4.8990002 18
28.902 -4.73 4.849 20
28.874001 -4.7020001 4.803 24
28.841999 -4.6739998 4.757 28
28.819 -4.6469998 4.711 28
28.799999 -4.6199999 4.6659999 32
28.790001 -4.5949998 4.6240001 35
28.777 -4.5679998 4.5799999 38
28.757 -4.5409999 4.5339999 39
28.747 -4.5149999 4.4920001 42
28.737 -4.4879999 4.448 42
28.722 -4.461 4.4029999 43
28.715 -4.4349999 4.3600001 47
28.700001 -4.4070001 4.3150001 49
28.698 -4.381 4.2719998 45
28.711 -4.3569999 4.2309999 44
28.695 -4.3280001 4.1869998 51
28.698 -4.302 4.145 52
28.708 -4.277 4.1030002 54
28.691 -4.2470002 4.0570002 53
28.695999 -4.2210002 4.0149999 51
28.711 -4.1960001 3.9749999 54
28.707001 -4.1680002 3.931 49
28.723 -4.1420002 3.8900001 46
28.736 -4.1160002 3.848 46
28.763 -4.0910001 3.8080001 44
28.771999 -4.0630002 3.766 42
28.775999 -4.0349998 3.723 41
28.808001 -4.0100002 3.684 38
28.837999 -3.9849999 3.6429999 34
28.851 -3.957 3.6010001 33
28.868999 -3.9300001 3.5599999 32
28.907 -3.904 3.52 26
28.965 -3.882 3.484 22
29.021999 -3.858 3.4460001 14
29.101 -3.8380001 3.411 9
0 0 0 0
0 0 0 0
0 0 0 0
0 0 0 0
0 0 0 0
0 0 0 0
0 0 0 0
0 0 0 0
0 0 0 0
0 0 0 0
0 0 0 0
0 0 0 7
56.933998 -6.671 5.5349998 9
57.039001 -6.6149998 5.4569998 9
0 0 0 0
0 0 0 0
0 0 0 0
0 0 0 3
36.721001 -4.0370002 3.23 11
36.669998 -3.9860001 3.1689999 51
36.669998 -3.941 3.1129999 49
36.660999 -3.8940001 3.056 53
36.665001 -3.849 2.9990001 54
36.647999 -3.802 2.9430001 64
36.625999 -3.7520001 2.8840001 65
36.627998 -3.7060001 2.8280001 68
36.611 -3.6570001 2.77 86
36.611 -3.609 2.714 82
36.597 -3.5610001 2.6570001 89
36.613998 -3.5139999 2.6010001 87
36.592999 -3.464 2.5439999 92
36.592999 -3.4159999 2.4879999 93
36.589001 -3.3670001 2.4330001 83
36.580002 -3.3169999 2.375 60
36.578999 -3.2679999 2.3199999 91
36.568001 -3.2179999 2.263 78
36.563 -3.168 2.207 79
36.561001 -3.118 2.151 72
36.557999 -3.0669999 2.095 64
36.564999 -3.0179999 2.0409999 52
36.557999 -2.967 1.985 46
36.567001 -2.9170001 1.9299999 40
36.591999 -2.8670001 1.876 21
36.664001 -2.8210001 1.824 16
36.723 -2.7750001 1.772 11
36.709999 -2.7219999 1.716 13
36.698002 -2.668 1.66 13
36.699001 -2.6159999 1.605 13
36.669998 -2.562 1.55 6
0 0 0 2
0 0 0 0
0 0 0 14
44.141998 -2.825 1.6 5
44.777 -2.8 1.558 5
45.376999 -2.7709999 1.511 9
45.528999 -2.7130001 1.45 12
45.650002 -2.6530001 1.386 5
45.417999 -2.5710001 1.312 36
45.387001 -2.503 1.2460001 150
45.396 -2.4349999 1.179 80
45.403 -2.3670001 1.114 50
45.397999 -2.2980001 1.048 45
45.41 -2.2290001 0.98199999 34
45.41 -2.161 0.917 32
45.422001 -2.0910001 0.85100001 27
45.428001 -2.0220001 0.78600001 16
45.389 -1.95 0.72000003 7
0 0 0 9
53.231998 -2.122 0.69300002 41
53.262001 -2.04 0.61699998 9
0 0 0 0
0 0 0 41
60.634998 -2.036 0.44499999 82
60.687 -1.9400001 0.35800001 85
60.757999 -1.846 0.273 42
61.339001 -1.766 0.19 11
61.316002 -1.6670001 0.104 17
0 0 0 99
68.686996 -1.648 -0.071999997 125
68.692001 -1.538 -0.167 77
68.683998 -1.428 -0.25999999 70
68.874001 -1.3200001 -0.35499999 75
69.414001 -1.217 -0.45300001 17
0 0 0 85
75.093002 -1.073 -0.69300002 24
0 0 0 0
0 0 0 0
0 0 0 0
0 0 0 0
0 0 0 82
135.489 -0.597 -2.336 85
0 0 0 0
0 0 0 22
0 0 0 0
0 0 0 0
0 0 0 25
0 0 0 25
0 0 0 10
0 0 0 0
0 0 0 168
72.852997 0.89600003 -2.1930001 171
72.820999 1.022 -2.286 20
0 0 0 29
94.762001 1.655 -3.214 18
94.822998 1.816 -3.332 32
94.857002 1.975 -3.447 43
0 0 0 0
0 0 0 0
0 0 0 0
0 0 0 0
0 0 0 0
0 0 0 0
0 0 0 2
28.320999 0.97799999 -1.302 2
28.322001 1.028 -1.335 3
28.077 1.067 -1.3559999 2
0 0 0 0
0 0 0 0
0 0 0 2
20.601 0.92500001 -1.089 2
0 0 0 0
0 0 0 6
18.273001 0.91500002 -1.028 2
17.607 0.91299999 -1.01 2
17.059999 0.91399997 -0.99800003 2
16.462999 0.91100001 -0.98100001 2
15.947 0.91000003 -0.96799999 2
15.455 0.90899998 -0.95499998 2
15.029 0.91100001 -0.94499999 2
14.644 0.91299999 -0.93599999 2
14.235 0.91299999 -0.926 2
13.854 0.912 -0.91500002 2
13.436 0.90899998 -0.90200001 2
13.105 0.90899998 -0.89300001 2
12.79 0.90899998 -0.88499999 3
12.511 0.912 -0.87900001 3
12.192 0.91000003 -0.86900002 3
11.873 0.90700001 -0.85799998 2
11.61 0.90700001 -0.85100001 2
11.347 0.90700001 -0.84299999 3
11.137 0.90899998 -0.838 2
10.902 0.90899998 -0.83099997 3
10.646 0.90600002 -0.82200003 2
10.402 0.90399998 -0.81400001 2
10.188 0.903 -0.80699998 2
9.927 0.898 -0.796 2
9.7049999 0.89499998 -0.787 3
9.4899998 0.89200002 -0.77899998 3
9.29 0.889 -0.77100003 4
9.1309996 0.88999999 -0.76599997 3
8.9460001 0.88700002 -0.759 3
8.7410002 0.88200003 -0.75 4
8.599 0.88300002 -0.745 4
8.4350004 0.88099998 -0.73900002 4
8.3050003 0.88200003 -0.73500001 5
8.1949997 0.884 -0.73199999 4
8.066 0.884 -0.727 4
7.9289999 0.88300002 -0.722 4
7.8130002 0.884 -0.71799999 3
7.704 0.88499999 -0.71499997 3
7.6040001 0.88599998 -0.71200001 3
7.4990001 0.88700002 -0.708 3
7.3709998 0.88499999 -0.70200002 3
7.2880001 0.88700002 -0.69999999 3
7.2140002 0.89099997 -0.699 4
7.132 0.89300001 -0.69700003 4
7.0479999 0.89499998 -0.69400001 4
6.9980001 0.89999998 -0.69499999 4
6.914 0.90100002 -0.69199997 4
6.8429999 0.90399998 -0.69 4
6.7319999 0.90100002 -0.68400002 4
6.6630001 0.903 -0.68199998 3
6.579 0.903 -0.67900002 3
6.4899998 0.90100002 -0.67400002 3
6.4219999 0.903 -0.67199999 3
6.3600001 0.90499997 -0.67000002 3
6.3049998 0.90799999 -0.66900003 3
6.2360001 0.90799999 -0.66600001 3
6.1799998 0.91100001 -0.66399997 3
6.1350002 0.91399997 -0.66399997 3
6.0770001 0.91600001 -0.662 3
6.0159998 0.917 -0.65899998 3
5.961 0.91799998 -0.65700001 3
5.9250002 0.92299998 -0.65700001 3
5.8730001 0.92500001 -0.65499997 3
5.822 0.926 -0.653 3
5.7740002 0.92799997 -0.65200001 3
5.704 0.926 -0.648 4
5.6810002 0.93199998 -0.648 3
5.6329999 0.93300003 -0.64600003 3
5.5949998 0.93599999 -0.64499998 3
5.5500002 0.93800002 -0.64399999 3
5.527 0.94300002 -0.64399999 3
5.4749999 0.94300002 -0.64099997 3
5.4450002 0.94599998 -0.64099997 3
5.4039998 0.94800001 -0.639 3
5.3699999 0.94999999 -0.63800001 3
5.3309999 0.95200002 -0.63700002 2
5.2979999 0.95499998 -0.63599998 3
5.2620001 0.95700002 -0.634 2
5.2280002 0.95899999 -0.63300002 2
5.1999998 0.96200001 -0.63200003 2
5.1599998 0.96200001 -0.63 4
5.1300001 0.96499997 -0.62900001 3
5.098 0.96700001 -0.62800002 4
5.0689998 0.96899998 -0.62699997 2
5.0409999 0.972 -0.62599999 4
5.0250001 0.97600001 -0.62599999 2
5.0029998 0.98000002 -0.62599999 2
4.9689999 0.98100001 -0.62400001 2
4.9359999 0.98199999 -0.62199998 4
4.9250002 0.98699999 -0.62300003 2
4.9089999 0.991 -0.62300003 2
4.862 0.98900002 -0.61900002 4
4.8509998 0.99400002 -0.62 2
4.8270001 0.99599999 -0.61900002 3
4.8099999 1 -0.61799997 3
4.7740002 1 -0.616 3
4.7519999 1.002 -0.61500001 3
4.7360001 1.006 -0.61500001 3
4.7259998 1.01 -0.61500001 2
4.6999998 1.012 -0.61299998 2
4.6820002 1.0140001 -0.61299998 2
4.6570001 1.016 -0.611 4
4.6469998 1.02 -0.61199999 4
4.619 1.02 -0.60900003 4
4.6139998 1.026 -0.61000001 2
4.6020002 1.03 -0.61000001 3
4.5869999 1.033 -0.61000001 2
4.572 1.036 -0.60900003 5
4.5650001 1.04 -0.61000001 2
4.552 1.044 -0.60900003 4
4.552 1.05 -0.611 2
4.5380001 1.053 -0.61000001 2
4.5110002 1.053 -0.60799998 4
4.4949999 1.0549999 -0.60699999 4
4.4899998 1.0599999 -0.60699999 4
4.4819999 1.064 -0.60699999 4
4.4650002 1.0650001 -0.60600001 4
4.4520001 1.068 -0.60500002 4
4.4380002 1.071 -0.60399997 4
4.4419999 1.077 -0.60600001 2
4.427 1.079 -0.60500002 4
4.4120002 1.081 -0.60399997 4
4.4120002 1.087 -0.60500002 4
4.4130001 1.092 -0.60600001 2
4.4029999 1.095 -0.60500002 2
4.401 1.1 -0.60600001 2
4.3930001 1.103 -0.60500002 3
4.3790002 1.105 -0.60399997 4
4.382 1.1109999 -0.60500002 2
4.3699999 1.113 -0.60399997 2
4.3759999 1.12 -0.60600001 2
4.355 1.12 -0.60299999 4
4.3499999 1.124 -0.60299999 4
4.348 1.128 -0.60299999 2
4.3540001 1.1339999 -0.60500002 2
4.3439999 1.137 -0.60399997 2
4.335 1.1390001 -0.60299999 2
4.3239999 1.141 -0.602 4
4.3210001 1.145 -0.602 2
4.329 1.152 -0.60299999 2
4.316 1.153 -0.602 2
4.3049998 1.155 -0.60100001 4
4.3070002 1.16 -0.60100001 4
4.3039999 1.163 -0.60100001 4
4.3130002 1.17 -0.602 4
4.302 1.1720001 -0.60100001 4
4.3049998 1.177 -0.602 4
4.309 1.182 -0.602 2
4.2969999 1.183 -0.60100001 4
4.3039999 1.189 -0.602 2
4.3070002 1.194 -0.602 4
4.2989998 1.196 -0.60100001 4
4.2989998 1.2 -0.60100001 2
4.2989998 1.204 -0.60100001 4
4.3080001 1.211 -0.602 4
4.3010001 1.2130001 -0.60100001 2
4.29 1.2130001 -0.59899998 4
4.309 1.223 -0.602 2
4.2989998 1.223 -0.60000002 4
4.2979999 1.227 -0.60000002 4
4.3080001 1.233 -0.60100001 4
4.3060002 1.2359999 -0.60100001 2
4.3200002 1.244 -0.602 2
4.3130002 1.2460001 -0.60100001 4
4.3239999 1.252 -0.602 2
4.3319998 1.258 -0.60299999 4
4.3270001 1.26 -0.60100001 3
4.329 1.2640001 -0.60100001 3
4.3200002 1.2640001 -0.60000002 4
4.3309999 1.271 -0.60100001 4
4.3390002 1.276 -0.60100001 4
4.3400002 1.28 -0.60100001 4
4.3439999 1.284 -0.60100001 4
4.3470001 1.288 -0.60100001 4
4.3509998 1.2920001 -0.60000002 4
4.369 1.3 -0.602 2
4.3740001 1.3049999 -0.602 2
4.381 1.3099999 -0.602 2
4.3720002 1.3099999 -0.60000002 4
4.3860002 1.316 -0.60100001 4
4.3959999 1.322 -0.602 4
4.3990002 1.326 -0.602 2
4.4050002 1.33 -0.602 2
4.4050002 1.332 -0.60100001 4
4.415 1.3380001 -0.60100001 4
4.4299998 1.345 -0.602 2
4.4310002 1.347 -0.60100001 4
4.4369998 1.352 -0.60100001 4
4.4549999 1.359 -0.602 2
4.467 1.365 -0.60299999 2
4.4629998 1.3660001 -0.60100001 4
4.4759998 1.372 -0.602 4
4.4860001 1.377 -0.602 4
4.5009999 1.3839999 -0.60299999 5
4.5100002 1.388 -0.60299999 4
4.5229998 1.3940001 -0.60399997 4
4.5279999 1.398 -0.60299999 4
4.5380001 1.402 -0.60299999 5
4.5539999 1.409 -0.60399997 3
4.5739999 1.4170001 -0.60500002 3
4.5700002 1.4170001 -0.60299999 5
4.5900002 1.425 -0.60500002 2
4.599 1.429 -0.60399997 3
4.6100001 1.434 -0.60399997 4
4.6290002 1.441 -0.60500002 3
4.6409998 1.446 -0.60500002 3
4.6630001 1.454 -0.60699999 2
4.6630001 1.455 -0.60500002 5
4.6950002 1.466 -0.60799998 3
4.7049999 1.47 -0.60699999 3
4.7319999 1.48 -0.60900003 3
4.7399998 1.483 -0.60799998 3
4.7610002 1.4910001 -0.60900003 2
4.7680001 1.494 -0.60799998 4
4.7930002 1.502 -0.61000001 2
4.8060002 1.507 -0.61000001 5
4.8330002 1.516 -0.611 3
4.848 1.521 -0.611 3
4.8639998 1.527 -0.611 2
4.869 1.528 -0.61000001 4
4.9029999 1.54 -0.61199999 3
4.9169998 1.544 -0.61199999 5
4.9419999 1.552 -0.61299998 5
4.967 1.5599999 -0.61400002 5
4.9920001 1.568 -0.61500001 5
5.02 1.577 -0.61699998 3
5.046 1.585 -0.61799997 3
5.0669999 1.592 -0.61799997 4
5.086 1.597 -0.61799997 5
5.1170001 1.607 -0.62 4
5.1440001 1.615 -0.62 3
5.1680002 1.622 -0.62099999 3
5.191 1.6289999 -0.62099999 3
5.2309999 1.64 -0.62400001 3
5.2620001 1.65 -0.625 3
5.2859998 1.656 -0.625 3
5.3099999 1.663 -0.62599999 3
5.3390002 1.671 -0.62599999 3
5.362 1.678 -0.62699997 2
5.3909998 1.686 -0.62699997 2
5.4310002 1.697 -0.62900001 2
5.4629998 1.706 -0.63 2
5.4879999 1.712 -0.63099998 2
5.533 1.725 -0.63300002 2
5.5619998 1.733 -0.63300002 3
5.5970001 1.742 -0.63499999 3
5.6399999 1.7539999 -0.63599998 3
5.6750002 1.763 -0.63700002 3
5.7160001 1.774 -0.639 3
5.7490001 1.7819999 -0.63999999 4
5.7969999 1.795 -0.64200002 3
5.829 1.803 -0.64200002 4
5.8699999 1.813 -0.64399999 4
5.8990002 1.8200001 -0.64399999 4
5.9239998 1.825 -0.64300001 4
5.9559999 1.832 -0.64399999 6
6.0120001 1.847 -0.64600003 4
6.052 1.857 -0.64700001 3
6.0910001 1.8660001 -0.648 3
6.1350002 1.877 -0.64899999 4
6.1900001 1.891 -0.65200001 3
6.2459998 1.904 -0.65399998 4
6.2839999 1.913 -0.65499997 4
6.3410001 1.927 -0.65700001 4
6.381 1.936 -0.65700001 4
6.415 1.942 -0.65700001 4
6.4699998 1.956 -0.65899998 4
6.5079999 1.9630001 -0.65899998 4
6.5669999 1.977 -0.66100001 4
6.6339998 1.993 -0.66399997 5
6.7220001 2.016 -0.66900003 5
6.8179998 2.04 -0.67400002 7
6.8759999 2.053 -0.676 10
6.9489999 2.0699999 -0.67900002 8
6.9959998 2.079 -0.68000001 11
7.0599999 2.0940001 -0.68199998 12
7.1100001 2.1040001 -0.68199998 12
7.1589999 2.1129999 -0.68300003 12
7.2160001 2.125 -0.68400002 12
7.2600002 2.132 -0.68300003 13
7.3130002 2.142 -0.68400002 13
7.3699999 2.1530001 -0.68400002 13
7.4429998 2.1689999 -0.68699998 13
7.4899998 2.177 -0.68699998 13
7.5539999 2.1889999 -0.68800002 14
7.618 2.201 -0.68900001 14
7.684 2.214 -0.69 14
7.7610002 2.23 -0.69199997 12
7.8460002 2.2479999 -0.69499999 10
7.941 2.2679999 -0.69800001 8
8.0410004 2.289 -0.70200002 7
8.1619997 2.316 -0.70700002 7
8.2690001 2.3399999 -0.71100003 4
8.3690004 2.3599999 -0.71499997 5
8.4860001 2.385 -0.71899998 4
8.5909996 2.4070001 -0.72299999 4
8.6859999 2.425 -0.72500002 6
8.7959995 2.447 -0.72899997 4
8.8839998 2.4630001 -0.73100001 6
9 2.4860001 -0.73400003 4
9.0780001 2.4990001 -0.73500001 5
9.2040005 2.5239999 -0.73900002 4
9.3409996 2.552 -0.74400002 3
9.5129995 2.589 -0.75199997 3
9.7259998 2.6370001 -0.76200002 3
9.908 2.6760001 -0.76999998 4
10.086 2.7130001 -0.778 11
10.221 2.7379999 -0.78200001 8
10.343 2.76 -0.78500003 6
10.475 2.783 -0.787 4
10.636 2.8139999 -0.79299998 5
10.807 2.8469999 -0.79900002 4
10.955 2.8729999 -0.80299997 4
11.125 2.905 -0.80800003 4
11.262 2.927 -0.81099999 3
11.402 2.95 -0.81300002 4
11.622 2.994 -0.82200003 3
11.789 3.023 -0.82599998 3
11.996 3.0610001 -0.83200002 4
12.145 3.0840001 -0.83499998 6
12.245 3.0940001 -0.83399999 7
12.364 3.109 -0.83499998 6
12.514 3.131 -0.83600003 5
12.664 3.152 -0.838 3
12.908 3.1960001 -0.84600002 3
13.132 3.2349999 -0.85299999 3
13.382 3.279 -0.86000001 3
13.6 3.3139999 -0.86500001 3
13.784 3.3410001 -0.86900002 3
14.006 3.3759999 -0.87400001 4
14.239 3.4130001 -0.87900001 4
14.45 3.444 -0.88300002 4
14.606 3.461 -0.88300002 4
14.86 3.5 -0.889 4
15.043 3.5220001 -0.89099997 4
15.236 3.546 -0.89300001 5
15.417 3.566 -0.89300001 5
14.999 3.448 -0.86000001 2
15.282 3.4909999 -0.86699998 3
15.78 3.582 -0.88499999 3
0 0 0 3
17.056 3.822 -0.935 3
17.391001 3.8699999 -0.94300002 3
17.150999 3.7920001 -0.92000002 3
17.292 3.7969999 -0.91600001 3
17.524 3.8210001 -0.91799998 2
17.708 3.835 -0.917 3
0 0 0 0
0 0 0 0
0 0 0 3
0 0 0 0
0 0 0 0
0 0 0 1
0 0 0 0
0 0 0 0
0 0 0 4
0 0 0 0
0 0 0 0
0 0 0 0
0 0 0 0
0 0 0 2
0 0 0 0
0 0 0 0
0 0 0 1
0 0 0 2
33.432999 6.2189999 -1.362 2
33.633999 6.1989999 -1.352 3
33.395 6.098 -1.324 2
33.286999 6.0209999 -1.301 2
33.262001 5.9590001 -1.2819999 2
33.331001 5.914 -1.267 2
33.277 5.8460002 -1.247 3
33.251999 5.783 -1.228 3
33.279999 5.73 -1.212 4
33.237 5.6659999 -1.193 4
33.238998 5.605 -1.176 6
33.224998 5.5440001 -1.158 6
33.372002 5.5089998 -1.147 7
33.259998 5.4310002 -1.126 4
33.195999 5.3600001 -1.107 32
33.251999 5.309 -1.092 24
33.310001 5.2579999 -1.0779999 16
33.23 5.1859999 -1.058 19
33.205002 5.1220002 -1.0420001 18
33.375999 5.086 -1.031 9
33.252998 5.006 -1.012 27
33.205002 4.9380002 -0.995 57
33.233002 4.8800001 -0.98000002 9
33.284 4.8249998 -0.96600002 18
33.219002 4.7529998 -0.949 39
33.243 4.6950002 -0.935 9
33.271 4.6360002 -0.921 8
33.365002 4.586 -0.90799999 10
33.438999 4.5320001 -0.89600003 16
33.494999 4.4759998 -0.88200003 12
33.550999 4.4190001 -0.87 8
0 0 0 0
0 0 0 0
0 0 0 11
0 0 0 3
0 0 0 63
41.377998 4.9699998 -0.97100002 67
41.362999 4.8860002 -0.954 63
41.349998 4.803 -0.93800002 62
41.359001 4.7220001 -0.92199999 58
41.346001 4.6409998 -0.90600002 64
41.345001 4.5609999 -0.89200002 66
41.333 4.4770002 -0.87599999 65
41.32 4.3930001 -0.861 61
41.314999 4.3099999 -0.84600002 59
41.299999 4.2249999 -0.83200002 62
41.294998 4.1430001 -0.81699997 57
41.289001 4.0580001 -0.80299997 52
41.278 3.973 -0.79000002 45
41.277 3.892 -0.77600002 44
41.289001 3.8069999 -0.76300001 43
41.279999 3.724 -0.75099999 36
41.284 3.6400001 -0.73799998 41
41.317001 3.5599999 -0.72600001 52
41.300999 3.474 -0.71399999 53
41.312 3.3889999 -0.70200002 48
41.316002 3.3050001 -0.69 45
41.341999 3.223 -0.68000001 29
41.320999 3.1359999 -0.66799998 27
41.330002 3.052 -0.65700001 21
41.342999 2.967 -0.64700001 16
41.342999 2.881 -0.63599998 13
41.443001 2.8039999 -0.62800002 9
41.597 2.727 -0.62099999 5
41.771 2.654 -0.61400002 2
0 0 0 150
87.5 5.1929998 -1.247 150
87.521004 5.0110002 -1.229 152
87.503998 4.8270001 -1.211 152
87.542999 4.645 -1.194 150
87.531998 4.461 -1.177 113
0 0 0 0
0 0 0 0
0 0 0 17
94.795998 4.0349998 -1.209 16
94.864998 3.8369999 -1.194 32
94.724998 3.631 -1.178 15
94.858002 3.4349999 -1.166 51
91.732002 3.1270001 -1.115 39
94.904999 3.0339999 -1.141 28
0 0 0 30
0 0 0 52
95.468002 2.448 -1.115 53
95.176003 2.2379999 -1.101 37
95 2.0309999 -1.09 29
94.898003 1.827 -1.08 20
94.928001 1.624 -1.073 23
0 0 0 0
0 0 0 0
0 0 0 0
0 0 0 40
0 0 0 0
0 0 0 0
0 0 0 0
0 0 0 0
0 0 0 0
0 0 0 110
0 0 0 0
0 0 0 34
0 0 0 0
0 0 0 34
74.065002 -1.101 -0.80599999 98
0 0 0 21
68.75 -1.317 -0.75199997 52
68.678001 -1.461 -0.75400001 74
68.642998 -1.608 -0.75700003 150
68.674004 -1.758 -0.76099998 120
0 0 0 10
60.610001 -1.812 -0.68000001 101
60.618999 -1.942 -0.685 123
0 0 0 12
46.571999 -1.691 -0.53399998 16
0 0 0 7
0 0 0 15
45.922001 -1.9630001 -0.54100001 34
45.821999 -2.0569999 -0.54500002 21
45.548 -2.1400001 -0.54799998 14
46.058998 -2.2639999 -0.56 19
45.217999 -2.3210001 -0.55599999 34
44.841999 -2.3959999 -0.55800003 41
44.480999 -2.471 -0.56 42
44.498001 -2.566 -0.56699997 41
44.651001 -2.668 -0.57700002 50
44.422001 -2.7490001 -0.58099997 105
44.446999 -2.846 -0.58899999 106
44.436001 -2.9400001 -0.59799999 85
42.129002 -2.8759999 -0.57499999 11
41.346001 -2.911 -0.57200003 10
40.703999 -2.951 -0.57200003 5
40.262001 -3.0039999 -0.574 2
0 0 0 0
0 0 0 0
0 0 0 0
0 0 0 0
0 0 0 0
0 0 0 0
0 0 0 1
0 0 0 0
0 0 0 0
0 0 0 0
0 0 0 0
0 0 0 0
0 0 0 1
20.452 -2.122 -0.366 1
0 0 0 25
0 0 0 25
0 0 0 25
0 0 0 25
0 0 0 25
0 0 0 25
0 0 0 1
20.296 -2.437 -0.41600001 1
20.236 -2.471 -0.42199999 1
20.323999 -2.523 -0.43200001 3
20.337999 -2.566 -0.43900001 9
20.277 -2.599 -0.44600001 16
20.323 -2.6459999 -0.454 7
20.323 -2.687 -0.46200001 8
20.285999 -2.723 -0.46900001 13
20.299 -2.7650001 -0.47799999 12
20.198999 -2.7909999 -0.48300001 46
20.163 -2.8269999 -0.491 83
20.187 -2.8699999 -0.5 150
20.207001 -2.9119999 -0.50800002 150
20.218 -2.954 -0.51800001 152
20.242001 -2.9979999 -0.52700001 153
20.202999 -3.0309999 -0.53399998 157
20.188999 -3.069 -0.54299998 157
20.384001 -3.1370001 -0.55699998 34
20.416 -3.1830001 -0.56699997 6
20.302 -3.204 -0.57300001 1
20.313999 -3.2449999 -0.583 2
20.261999 -3.276 -0.59100002 2
20.289 -3.319 -0.60100001 1
20.309999 -3.3610001 -0.61199999 1
20.309 -3.4000001 -0.62099999 1
20.382 -3.451 -0.63300002 1
20.410999 -3.4949999 -0.64399999 1
20.610001 -3.5669999 -0.66000003 2
20.664 -3.615 -0.67299998 62
20.673 -3.655 -0.68300003 33
20.606001 -3.6819999 -0.69099998 1
0 0 0 34
23.032 -4.1999998 -0.796 42
23.035 -4.244 -0.80900002 38
23.024 -4.2839999 -0.81999999 63
23.037001 -4.3280001 -0.83200002 43
23.044001 -4.3709998 -0.84500003 14
0 0 0 38
36.928001 -7.1389999 -1.3940001 21
36.715 -7.165 -1.406 40
36.674 -7.2220001 -1.424 44
0 0 0 5
20.822001 -4.1739998 -0.83200002 20
20.732 -4.1919999 -0.83899999 24
20.684 -4.2189999 -0.84899998 29
20.639 -4.2459998 -0.85900003 31
20.583 -4.27 -0.86799997 35
20.551001 -4.2989998 -0.87800002 37
20.539 -4.3319998 -0.88999999 29
20.523001 -4.3639998 -0.90100002 31
20.492001 -4.3920002 -0.91100001 45
20.483999 -4.4250002 -0.92299998 35
20.459999 -4.4549999 -0.93400002 53
20.445 -4.4860001 -0.94499999 50
20.445999 -4.5209999 -0.958 58
19.232 -4.2839999 -0.912 8
18.84 -4.2280002 -0.90499997 6
18.708 -4.2290001 -0.91000003 5
