# .PCD v0.7 - Point Cloud Data file format
VERSION 0.7
FIELDS x y z intensity
SIZE 4 4 4 4
TYPE F F F F
COUNT 1 1 1 1
WIDTH 1764
HEIGHT 1
VIEWPOINT 0 0 0 1 0 0 0
POINTS 1764
DATA ascii
1.605 0.16500001 -0.52499998 1
1.615 0.16599999 -0.52700001 1
1.623 0.167 -0.52899998 1
1.624 0.168 -0.528 1
1.633 0.169 -0.52999997 1
1.645 0.17 -0.53200001 1
1.6440001 0.171 -0.53100002 1
1.652 0.17200001 -0.53200001 1
1.649 0.171 -0.52899998 1
1.652 0.17200001 -0.52899998 1
1.655 0.17200001 -0.52899998 1
1.673 0.175 -0.53299999 1
1.6619999 0.17399999 -0.528 1
1.684 0.176 -0.53399998 1
1.687 0.177 -0.53299999 1
1.684 0.176 -0.53100002 1
1.697 0.178 -0.53299999 1
1.701 0.178 -0.53299999 1
1.704 0.17900001 -0.53299999 1
1.7079999 0.17900001 -0.53200001 1
1.717 0.18000001 -0.53399998 1
1.723 0.18099999 -0.53299999 1
1.729 0.182 -0.53399998 1
1.74 0.183 -0.53500003 1
1.7309999 0.182 -0.53100002 1
1.7460001 0.184 -0.53399998 1
1.753 0.184 -0.53399998 1
1.763 0.185 -0.53500003 1
1.763 0.186 -0.53399998 1
1.775 0.18700001 -0.53500003 1
1.7819999 0.18799999 -0.53600001 1
1.79 0.18799999 -0.53600001 1
1.799 0.189 -0.537 1
1.807 0.19 -0.537 1
1.8099999 0.19 -0.53600001 1
1.822 0.191 -0.53799999 1
1.834 0.193 -0.53899997 1
1.842 0.193 -0.53899997 1
1.844 0.193 -0.53799999 1
1.857 0.19499999 -0.53899997 1
1.8609999 0.19499999 -0.53899997 1
1.87 0.19599999 -0.53899997 1
1.8839999 0.197 -0.54100001 1
1.8890001 0.197 -0.54000002 1
1.901 0.198 -0.54100001 1
1.913 0.2 -0.542 1
1.929 0.20100001 -0.54400003 1
1.936 0.20100001 -0.54400003 1
1.948 0.20200001 -0.54500002 1
1.95 0.20200001 -0.54299998 1
1.967 0.204 -0.54500002 1
1.975 0.204 -0.54500002 1
1.98 0.205 -0.54400003 1
2 0.206 -0.546 1
2.0020001 0.206 -0.54400003 1
2.016 0.207 -0.54500002 1
2.0190001 0.207 -0.54400003 1
2.049 0.20999999 -0.54900002 1
2.0569999 0.20999999 -0.54799998 1
2.0669999 0.211 -0.54799998 1
2.076 0.211 -0.54799998 1
2.095 0.213 -0.55000001 1
2.108 0.214 -0.55000001 1
2.1210001 0.215 -0.551 1
2.1329999 0.215 -0.551 1
2.1470001 0.21600001 -0.55199999 1
2.1559999 0.21600001 -0.551 1
2.171 0.21699999 -0.551 1
2.1889999 0.219 -0.55299997 1
2.2030001 0.219 -0.55299997 1
2.2179999 0.22 -0.55400002 1
2.2349999 0.221 -0.55500001 1
2.243 0.221 -0.55400002 1
2.2650001 0.223 -0.55500001 1
2.279 0.22400001 -0.55599999 1
2.293 0.22400001 -0.55599999 1
2.2980001 0.22400001 -0.55299997 1
2.3310001 0.226 -0.55800003 1
2.3399999 0.226 -0.55599999 1
2.362 0.228 -0.55800003 1
2.372 0.228 -0.55699998 1
2.398 0.229 -0.55900002 1
2.404 0.229 -0.55699998 1
2.4330001 0.23100001 -0.56 1
2.448 0.23100001 -0.55900002 1
2.473 0.233 -0.56099999 1
2.497 0.234 -0.56300002 1
2.5239999 0.236 -0.565 2
2.543 0.236 -0.565 2
2.566 0.237 -0.56599998 2
2.5929999 0.23899999 -0.56800002 2
2.612 0.23899999 -0.56800002 2
2.6359999 0.23999999 -0.56900001 2
2.664 0.242 -0.57099998 2
2.6860001 0.242 -0.57099998 2
2.7119999 0.243 -0.57200003 2
2.7349999 0.244 -0.57200003 2
2.7590001 0.245 -0.57300001 2
2.7850001 0.24600001 -0.574 2
2.8150001 0.24699999 -0.57499999 2
2.842 0.248 -0.57599998 2
2.8699999 0.249 -0.57700002 2
2.8989999 0.25 -0.57800001 2
2.9319999 0.25099999 -0.57999998 2
2.957 0.252 -0.579 2
2.9879999 0.25299999 -0.57999998 2
3.02 0.25400001 -0.58200002 2
3.0510001 0.255 -0.58200002 2
3.0880001 0.25600001 -0.58399999 2
3.125 0.257 -0.58600003 2
3.263 0.26699999 -0.60600001 2
3.221 0.26100001 -0.59299999 2
3.323 0.26800001 -0.60600001 2
3.401 0.27200001 -0.61400002 2
3.335 0.26499999 -0.59600002 2
3.4289999 0.27000001 -0.60699999 2
3.431 0.26800001 -0.602 2
3.4389999 0.266 -0.597 2
3.4679999 0.266 -0.59600002 2
3.6059999 0.27500001 -0.61299998 2
3.566 0.26899999 -0.60000002 1
3.654 0.273 -0.60900003 3
3.7119999 0.27500001 -0.61199999 2
3.78 0.27700001 -0.616 2
3.7809999 0.27500001 -0.61000001 3
3.832 0.27599999 -0.611 4
3.8840001 0.27700001 -0.61199999 3
3.9979999 0.28200001 -0.62300003 3
4 0.27900001 -0.616 2
4.0970001 0.28299999 -0.62400001 3
4.151 0.28400001 -0.625 3
4.296 0.28999999 -0.639 3
4.2950001 0.287 -0.63099998 3
4.3569999 0.28799999 -0.63200003 3
4.4120002 0.28799999 -0.63200003 3
4.4749999 0.289 -0.63300002 3
4.5560002 0.28999999 -0.63700002 3
4.638 0.292 -0.63999999 3
4.7189999 0.29300001 -0.64200002 3
4.8080001 0.29499999 -0.64600003 3
4.8920002 0.296 -0.648 3
4.993 0.29800001 -0.65200001 3
5.0999999 0.30000001 -0.65700001 3
5.1900001 0.301 -0.66000003 4
5.3039999 0.303 -0.66399997 4
5.4180002 0.30500001 -0.66900003 4
5.5300002 0.30599999 -0.67299998 4
5.6659999 0.30899999 -0.67900002 4
5.796 0.31099999 -0.68400002 4
5.9229999 0.31200001 -0.68800002 4
6.052 0.31400001 -0.69199997 4
6.1929998 0.315 -0.69700003 4
6.348 0.317 -0.70300001 4
6.5370002 0.32100001 -0.71200001 4
6.7410002 0.324 -0.722 5
6.8790002 0.32499999 -0.72399998 5
7.053 0.32600001 -0.73000002 8
7.2519999 0.329 -0.73699999 7
7.4380002 0.33000001 -0.74199998 6
7.6589999 0.33199999 -0.75099999 6
7.8940001 0.33500001 -0.759 6
8.1890001 0.33899999 -0.773 4
8.4709997 0.34299999 -0.78399998 4
8.8050003 0.347 -0.79900002 3
9.1269999 0.35100001 -0.81099999 3
9.4580002 0.354 -0.824 3
9.8190002 0.35800001 -0.83700001 3
10.241 0.36300001 -0.85500002 2
10.719 0.368 -0.875 2
11.209 0.37400001 -0.89499998 2
11.63 0.37599999 -0.90700001 3
12.101 0.37799999 -0.92199999 2
12.603 0.38 -0.93699998 3
13.142 0.38299999 -0.954 3
13.803 0.38699999 -0.977 3
14.42 0.389 -0.99400002 4
15.057 0.389 -1.011 3
15.236 0.37799999 -0.99599999 3
16.108999 0.38100001 -1.024 5
16.870001 0.38100001 -1.0420001 5
17.504 0.37599999 -1.049 6
0 0 0 2
20.988001 0.403 -1.183 2
0 0 0 0
0 0 0 0
0 0 0 0
0 0 0 0
0 0 0 0
0 0 0 10
0 0 0 0
0 0 0 153
67.181999 0.58899999 -2.711 159
0 0 0 30
62.522999 0.39700001 -2.302 177
62.544998 0.322 -2.1919999 180
62.526001 0.24600001 -2.0810001 150
0 0 0 62
94.584 0.138 -2.813 59
94.612 0.021 -2.648 41
94.625 -0.096000001 -2.4820001 151
94.608002 -0.214 -2.316 28
94.651001 -0.333 -2.152 17
0 0 0 0
0 0 0 0
0 0 0 22
95.213997 -0.82099998 -1.502 37
0 0 0 0
0 0 0 0
0 0 0 50
73.852997 -1.017 -0.65899998 114
0 0 0 0
0 0 0 20
69.111 -1.224 -0.264 24
68.499001 -1.302 -0.147 57
68.505997 -1.392 -0.033 57
68.543999 -1.4859999 0.082999997 10
0 0 0 0
0 0 0 10
61.098 -1.569 0.37900001 20
0 0 0 0
0 0 0 6
60.407001 -1.798 0.676 125
0 0 0 0
0 0 0 0
0 0 0 5
0 0 0 0
0 0 0 4
0 0 0 0
0 0 0 35
45.154999 -1.842 1.092 150
45.151001 -1.905 1.164 59
45.146 -1.9680001 1.2359999 48
45.164001 -2.033 1.309 11
0 0 0 40
0 0 0 3
44.014999 -2.1659999 1.4809999 4
43.202 -2.188 1.522 7
42.646999 -2.221 1.569 25
42.060001 -2.2509999 1.613 24
41.519001 -2.2820001 1.6569999 31
41.198002 -2.323 1.707 6
40.668999 -2.352 1.748 8
40.159 -2.381 1.788 8
39.634998 -2.408 1.826 10
39.118 -2.4330001 1.8609999 10
38.653999 -2.461 1.898 13
38.203999 -2.4879999 1.933 10
37.751999 -2.5139999 1.967 10
37.125 -2.527 1.99 22
36.653 -2.549 2.0190001 34
36.486 -2.5899999 2.063 23
36.300999 -2.631 2.1059999 51
36.314999 -2.6860001 2.1600001 48
36.326 -2.7390001 2.2130001 49
36.318001 -2.793 2.266 47
36.330002 -2.848 2.319 43
36.319 -2.901 2.3699999 80
36.327 -2.9560001 2.4230001 88
36.326 -3.01 2.4749999 84
36.34 -3.066 2.527 81
36.345001 -3.1199999 2.5780001 88
36.360001 -3.1760001 2.6300001 74
36.373001 -3.2309999 2.681 84
36.376999 -3.286 2.7320001 62
36.362999 -3.3380001 2.7809999 79
36.395 -3.3959999 2.8329999 76
36.390999 -3.451 2.8829999 63
36.414001 -3.5079999 2.934 50
36.415001 -3.562 2.983 57
36.411999 -3.6170001 3.0309999 59
36.424999 -3.6719999 3.0799999 59
36.417 -3.727 3.1270001 60
36.435001 -3.7839999 3.177 63
36.443001 -3.8399999 3.227 62
36.437 -3.895 3.2739999 56
36.453999 -3.9519999 3.322 54
36.533001 -4.0159998 3.3770001 6
36.733002 -4.0929999 3.4419999 3
36.742001 -4.1500001 3.4890001 3
36.584999 -4.1880002 3.5209999 2
0 0 0 0
0 0 0 6
54.880001 -6.5310001 5.4850001 5
0 0 0 0
0 0 0 0
0 0 0 0
0 0 0 0
0 0 0 0
0 0 0 0
0 0 0 0
0 0 0 2
28.792 -3.819 3.188 18
28.709999 -3.852 3.2130001 27
28.642 -3.885 3.237 31
28.591 -3.9230001 3.2650001 35
28.559999 -3.961 3.2939999 38
28.537001 -4.0009999 3.323 39
28.5 -4.039 3.3510001 43
28.49 -4.0799999 3.381 47
28.455 -4.118 3.408 49
28.465 -4.1620002 3.4400001 42
28.438999 -4.2010002 3.4679999 52
28.438999 -4.243 3.4979999 55
28.431 -4.2839999 3.527 55
28.448999 -4.3299999 3.5599999 50
28.448999 -4.3720002 3.589 50
28.447001 -4.414 3.619 48
28.469 -4.46 3.651 41
28.499001 -4.5079999 3.684 39
28.521 -4.553 3.7149999 35
28.556 -4.6020002 3.7490001 34
28.620001 -4.6529999 3.7850001 27
28.695 -4.7080002 3.8239999 18
28.806 -4.7690001 3.8670001 2
0 0 0 0
0 0 0 3
36.708 -6.237 5.033 6
36.736 -6.296 5.0710001 4
36.738998 -6.349 5.1040001 6
36.719002 -6.3990002 5.1360002 4
36.714001 -6.4520001 5.1700001 3
36.755001 -6.5120001 5.2080002 2
36.818001 -6.5749998 5.2490001 2
36.709 -6.6090002 5.2659998 14
36.707001 -6.6620002 5.2989998 21
36.771999 -6.7259998 5.3410001 3
0 0 0 0
0 0 0 0
0 0 0 2
36.791 -6.9400001 5.4679999 2
0 0 0 0
0 0 0 0
0 0 0 0
0 0 0 0
0 0 0 0
0 0 0 0
0 0 0 0
0 0 0 0
0 0 0 0
0 0 0 0
0 0 0 1
20.775999 -4.2639999 3.2809999 16
20.707001 -4.2779999 3.2850001 19
20.657 -4.2950001 3.2909999 25
20.608 -4.3130002 3.2980001 29
20.563999 -4.3299999 3.3050001 31
20.535 -4.3520002 3.3139999 33
20.481001 -4.3670001 3.319 35
20.459999 -4.3899999 3.329 39
20.438 -4.4120002 3.339 40
20.429001 -4.4369998 3.3499999 43
20.415001 -4.46 3.3610001 45
20.392 -4.4819999 3.3699999 45
20.385 -4.506 3.381 52
20.388 -4.533 3.3940001 37
20.365 -4.5539999 3.402 49
20.351 -4.5760002 3.411 50
20.344999 -4.5999999 3.4219999 51
20.341999 -4.625 3.4330001 55
20.348 -4.651 3.4449999 52
20.354 -4.677 3.457 38
20.337999 -4.6989999 3.4660001 53
20.344 -4.7249999 3.477 53
20.334999 -4.7470002 3.487 49
20.33 -4.7709999 3.4960001 41
20.343 -4.7979999 3.5079999 41
20.348 -4.823 3.5190001 32
20.344999 -4.8470001 3.529 44
20.347 -4.8709998 3.5380001 44
20.351 -4.8959999 3.549 43
20.35 -4.9190001 3.5580001 42
20.371 -4.947 3.5699999 38
20.396 -4.9759998 3.5829999 36
20.424 -5.006 3.5969999 36
20.436001 -5.0320001 3.6070001 33
20.450001 -5.059 3.618 29
20.478001 -5.0879998 3.631 23
20.518 -5.1209998 3.6459999 22
20.549999 -5.151 3.6600001 18
20.608 -5.1869998 3.678 12
20.677999 -5.2280002 3.698 2
0 0 0 22
32.105999 -8.1850004 5.7639999 23
32.049 -8.2049999 5.7639999 24
32.005001 -8.2270002 5.7659998 23
31.982 -8.2539997 5.7719998 25
31.913 -8.2690001 5.77 24
31.872 -8.29 5.7709999 25
31.820999 -8.309 5.7709999 23
31.785 -8.3319998 5.7729998 25
31.742001 -8.3509998 5.7740002 23
31.697001 -8.3699999 5.7740002 27
31.659 -8.3909998 5.7750001 26
31.615 -8.4099998 5.7740002 24
31.577 -8.4300003 5.7750001 23
31.551001 -8.4519997 5.7779999 26
31.507999 -8.4700003 5.776 25
31.482 -8.4919996 5.7779999 24
31.447001 -8.5109997 5.777 25
31.424 -8.533 5.7779999 25
31.386999 -8.5509996 5.7779999 27
31.362 -8.5710001 5.7779999 25
31.337999 -8.592 5.7779999 26
31.327 -8.6160002 5.7820001 23
31.313999 -8.6389999 5.783 25
31.296 -8.6599998 5.7839999 21
31.263 -8.6759996 5.7820001 27
31.236 -8.6960001 5.7800002 24
31.238001 -8.7209997 5.783 22
31.205 -8.7360001 5.7800002 25
31.198999 -8.7589998 5.7820001 23
31.181999 -8.7779999 5.7810001 24
31.179001 -8.8009996 5.783 23
31.163 -8.8199997 5.7810001 24
31.145 -8.8380003 5.7789998 23
31.136999 -8.8590002 5.7789998 23
31.129 -8.8789997 5.7789998 22
31.146 -8.9060001 5.7820001 23
31.129999 -8.9230003 5.7800002 23
31.129999 -8.9449997 5.7800002 22
31.118 -8.9630003 5.777 21
31.128 -8.9860001 5.7789998 22
31.115 -9.0019999 5.776 22
31.129999 -9.0270004 5.776 22
31.125999 -9.0450001 5.7750001 25
31.15 -9.0710001 5.777 23
31.129999 -9.0839996 5.7729998 23
31.160999 -9.1120005 5.7750001 21
31.148001 -9.1260004 5.7709999 22
31.165001 -9.1490002 5.7709999 22
31.172001 -9.1689997 5.77 23
31.184999 -9.1899996 5.7690001 23
31.191 -9.2089996 5.7659998 25
31.221001 -9.2349997 5.7680001 22
31.226999 -9.2519999 5.7649999 22
31.239 -9.2709999 5.763 22
31.257999 -9.2930002 5.7620001 23
31.282 -9.3149996 5.7610002 21
31.294001 -9.3330002 5.7579999 22
31.334999 -9.3590002 5.7600002 21
31.336 -9.3730001 5.756 22
31.381001 -9.3999996 5.7579999 22
31.400999 -9.4189997 5.7550001 22
31.417 -9.4370003 5.7519999 21
31.441999 -9.4569998 5.75 21
31.469 -9.4770002 5.7470002 22
31.504 -9.4989996 5.7459998 24
31.554001 -9.526 5.7480001 23
31.577999 -9.5439997 5.7449999 22
31.607 -9.5629997 5.7420001 22
31.655001 -9.5880003 5.7420001 22
31.681999 -9.6059999 5.7379999 22
31.731001 -9.6309996 5.7379999 22
31.763 -9.6499996 5.7340002 22
31.820999 -9.6759996 5.7350001 22
31.841999 -9.6899996 5.7290001 23
31.900999 -9.7159996 5.73 23
31.945999 -9.7370005 5.7270002 22
31.99 -9.7580004 5.724 22
32.023998 -9.7749996 5.7189999 23
32.077 -9.7980003 5.7179999 22
32.127998 -9.8199997 5.7150002 23
32.166 -9.8360004 5.711 23
32.235001 -9.8629999 5.711 24
32.297001 -9.8870001 5.7090001 24
32.348999 -9.9069996 5.7059999 23
32.405998 -9.9289999 5.7030001 24
32.456001 -9.9469995 5.6989999 24
32.526001 -9.9720001 5.698 24
32.584 -9.9919996 5.6950002 24
32.658001 -10.017 5.6939998 24
32.748001 -10.047 5.6960001 25
32.779999 -10.059 5.6859999 25
32.851002 -10.081 5.6849999 25
32.932999 -10.107 5.684 25
32.987999 -10.124 5.678 25
33.069 -10.149 5.6760001 25
33.146999 -10.172 5.6739998 25
33.226002 -10.196 5.671 25
33.283001 -10.212 5.664 25
33.375 -10.238 5.6630001 25
33.466 -10.264 5.6620002 26
33.535 -10.282 5.6570001 26
33.617001 -10.304 5.6529999 26
33.688999 -10.323 5.6469998 26
33.791 -10.35 5.6469998 26
33.881001 -10.373 5.6430001 26
33.958 -10.393 5.6370001 26
34.042 -10.413 5.632 26
34.150002 -10.44 5.631 27
34.224998 -10.457 5.6240001 27
34.327 -10.482 5.6209998 27
34.410999 -10.5 5.6139998 27
34.529999 -10.529 5.6129999 27
34.654999 -10.559 5.6129999 27
34.761002 -10.583 5.6100001 23
34.868 -10.606 5.6059999 28
34.967999 -10.628 5.5999999 23
35.070999 -10.649 5.5939999 28
35.179001 -10.671 5.5900002 26
35.278 -10.69 5.5830002 23
35.396 -10.714 5.579 23
35.511002 -10.737 5.5739999 23
35.624001 -10.759 5.5679998 29
35.726002 -10.777 5.5599999 29
35.874001 -10.809 5.559 28
35.967999 -10.823 5.5489998 25
36.080002 -10.842 5.5430002 24
36.195 -10.862 5.5359998 24
36.285 -10.874 5.5240002 24
36.387001 -10.889 5.5139999 25
36.513 -10.91 5.5079999 24
36.576 -10.911 5.493 22
36.701 -10.931 5.4850001 18
36.736 -10.924 5.4650002 16
36.873001 -10.946 5.4590001 13
36.936001 -10.946 5.441 10
37.039001 -10.957 5.4289999 7
37.110001 -10.959 5.4109998 6
37.040001 -10.918 5.3730001 4
37.087002 -10.911 5.3520002 5
37.049 -10.879 5.3179998 7
37.005001 -10.844 5.2839999 8
36.998001 -10.819 5.2550001 8
37.004002 -10.798 5.2280002 6
37.022999 -10.781 5.2020001 4
36.958 -10.74 5.1630001 8
36.933998 -10.709 5.132 15
36.932999 -10.684 5.1020002 18
36.945 -10.663 5.0739999 15
36.963001 -10.643 5.0479999 9
36.957001 -10.616 5.0170002 4
36.935001 -10.583 4.9840002 4
36.993 -10.573 4.9619999 3
36.98 -10.543 4.9299998 3
36.943001 -10.505 4.8959999 4
36.951 -10.479 4.8660002 2
0 0 0 0
0 0 0 0
0 0 0 0
0 0 0 2
39.018002 -10.911 4.9749999 2
0 0 0 0
0 0 0 0
0 0 0 2
0 0 0 0
0 0 0 0
0 0 0 0
0 0 0 0
0 0 0 0
0 0 0 0
0 0 0 0
0 0 0 0
0 0 0 0
0 0 0 0
0 0 0 2
0 0 0 0
0 0 0 0
0 0 0 0
0 0 0 0
0 0 0 2
0 0 0 0
0 0 0 0
0 0 0 0
0 0 0 3
36.769001 -9.4359999 3.9089999 5
36.848 -9.4160004 3.8829999 9
36.875 -9.382 3.852 11
36.832001 -9.3290005 3.813 15
36.813 -9.283 3.777 19
0 0 0 3
20.547001 -5.1329999 2.0699999 14
20.481001 -5.0929999 2.0439999 20
20.445 -5.0599999 2.0209999 24
20.415001 -5.027 1.999 27
20.396999 -4.9990001 1.978 29
20.365999 -4.967 1.956 31
20.336 -4.934 1.934 35
20.33 -4.9089999 1.915 28
20.289 -4.8740001 1.892 36
20.292 -4.849 1.874 44
20.294001 -4.8239999 1.855 47
20.285 -4.796 1.835 46
20.281 -4.7690001 1.816 47
20.274 -4.7420001 1.796 40
20.263 -4.7129998 1.776 45
20.278 -4.6900001 1.758 52
20.264 -4.6589999 1.738 55
20.278999 -4.6360002 1.72 59
20.274 -4.6069999 1.701 60
20.280001 -4.5809999 1.682 55
20.278 -4.553 1.6619999 53
20.289 -4.5279999 1.6440001 56
20.302 -4.5029998 1.626 52
20.316999 -4.4780002 1.608 51
20.337 -4.4549999 1.591 38
20.349001 -4.428 1.572 49
20.363001 -4.402 1.5549999 45
20.384001 -4.3779998 1.5369999 33
20.408001 -4.3540001 1.5190001 41
20.424999 -4.3280001 1.501 43
20.454 -4.3049998 1.484 29
20.504 -4.2849998 1.469 25
20.547001 -4.263 1.452 29
20.59 -4.243 1.436 22
20.646 -4.223 1.42 21
20.724001 -4.2069998 1.406 14
0 0 0 53
36.605999 -7.3210001 2.415 52
36.608002 -7.2659998 2.381 53
36.589001 -7.2059999 2.346 53
36.596001 -7.151 2.313 55
36.597 -7.0939999 2.2780001 51
36.588001 -7.0359998 2.2449999 51
36.571999 -6.9749999 2.21 53
36.57 -6.9169998 2.175 53
36.582001 -6.8610001 2.142 45
36.576 -6.802 2.109 46
36.562 -6.7399998 2.0739999 53
36.568001 -6.6820002 2.0409999 52
36.555 -6.6199999 2.007 51
36.544998 -6.559 1.973 47
36.553001 -6.5009999 1.939 46
36.550999 -6.441 1.9069999 37
36.580002 -6.3850002 1.875 29
36.592999 -6.3270001 1.842 26
36.886002 -6.316 1.824 17
36.987 -6.2709999 1.795 17
37.035 -6.217 1.7640001 17
36.931999 -6.138 1.727 22
36.827999 -6.0580001 1.689 29
0 0 0 9
28.534 -4.5960002 1.258 22
28.476 -4.5380001 1.23 30
28.436001 -4.4819999 1.2029999 35
28.389999 -4.4260001 1.177 41
28.389 -4.3759999 1.152 48
28.353001 -4.3210001 1.125 47
28.351 -4.27 1.1 50
28.339001 -4.2189999 1.075 59
28.354 -4.1700001 1.052 63
28.361 -4.1199999 1.027 65
28.367001 -4.0700002 1.003 55
28.393 -4.0229998 0.98000002 50
28.424 -3.9760001 0.95700002 40
28.447001 -3.9289999 0.93400002 42
28.488001 -3.8829999 0.91100001 37
28.530001 -3.8369999 0.889 34
28.614 -3.796 0.86799997 27
28.690001 -3.7539999 0.847 17
0 0 0 0
0 0 0 2
36.410999 -4.5650001 0.98500001 49
36.368999 -4.4920001 0.95499998 91
36.361 -4.4229999 0.926 93
36.351002 -4.3540001 0.89600003 95
36.346001 -4.2849998 0.86699998 89
36.353001 -4.217 0.838 99
36.334999 -4.1479998 0.80900002 92
36.334 -4.079 0.78100002 99
36.319 -4.0079999 0.75199997 95
36.318001 -3.9389999 0.72399998 89
36.310001 -3.8699999 0.69599998 87
36.313 -3.8010001 0.66799998 94
36.313999 -3.7309999 0.64099997 87
36.310001 -3.661 0.61299998 48
36.299 -3.5910001 0.58600003 33
36.307999 -3.5209999 0.55900002 32
36.292 -3.45 0.53200001 48
36.289001 -3.3789999 0.505 56
36.289001 -3.309 0.479 70
36.285999 -3.2379999 0.45199999 87
36.558998 -3.1930001 0.43000001 8
37.056999 -3.164 0.40900001 8
37.612 -3.1359999 0.389 9
38.125 -3.1029999 0.366 7
40.172001 -3.191 0.35800001 85
40.152 -3.112 0.331 84
40.154999 -3.033 0.303 88
40.185001 -2.9560001 0.27700001 24
40.855999 -2.924 0.25400001 5
41.716 -2.9030001 0.23100001 19
41.772999 -2.823 0.20299999 28
44.153999 -2.8970001 0.186 80
44.073002 -2.803 0.15700001 77
44.139999 -2.7190001 0.12899999 40
44.764999 -2.6670001 0.102 31
44.876999 -2.5840001 0.072999999 39
44.999001 -2.5 0.045000002 50
0 0 0 22
48.472 -2.4949999 -0.011 84
48.563 -2.4030001 -0.039999999 77
48.854 -2.3180001 -0.07 20
0 0 0 72
52.285 -2.266 -0.138 77
52.477001 -2.1670001 -0.17 85
0 0 0 9
0 0 0 10
59.603001 -2.098 -0.29499999 73
60.388 -2.0020001 -0.333 108
60.373001 -1.877 -0.36700001 107
60.456001 -1.756 -0.40099999 60
60.689999 -1.638 -0.435 23
0 0 0 127
68.431 -1.567 -0.56300002 115
68.426003 -1.427 -0.59899998 73
68.530998 -1.29 -0.63499999 68
68.824997 -1.153 -0.67299998 26
0 0 0 91
74.806999 -0.94400001 -0.80599999 42
0 0 0 0
0 0 0 0
0 0 0 44
135.272 -0.59399998 -1.7180001 96
135.46899 -0.31400001 -1.783 43
0 0 0 0
0 0 0 17
94.762001 0.36700001 -1.375 15
94.634003 0.56400001 -1.415 14
94.634003 0.75999999 -1.456 15
94.656998 0.95499998 -1.4960001 19
94.603996 1.151 -1.535 19
94.693001 1.344 -1.574 29
94.611 1.5420001 -1.612 20
94.599998 1.739 -1.649 16
94.586998 1.936 -1.686 19
94.612999 2.1300001 -1.723 20
94.471001 2.3239999 -1.756 18
94.599998 2.5239999 -1.793 24
94.538002 2.7190001 -1.826 19
0 0 0 34
0 0 0 25
91.460999 3.1989999 -1.863 43
94.655998 3.507 -1.96 22
0 0 0 0
0 0 0 20
0 0 0 0
0 0 0 0
0 0 0 53
0 0 0 16
0 0 0 28
87.325996 4.6810002 -2.0209999 62
0 0 0 16
41.555 2.3989999 -0.98400003 83
41.337002 2.471 -0.98900002 15
41.144001 2.5439999 -0.995 9
40.994999 2.6199999 -1.002 17
40.903999 2.698 -1.0089999 24
40.856998 2.7780001 -1.018 67
40.841 2.8610001 -1.027 72
40.848 2.9460001 -1.036 62
40.853001 3.0320001 -1.045 68
40.834 3.1129999 -1.053 63
40.853001 3.2 -1.061 61
40.881001 3.2839999 -1.0700001 48
40.882 3.368 -1.0779999 44
40.919998 3.4549999 -1.086 38
40.904999 3.536 -1.0930001 43
40.931 3.6210001 -1.1 54
40.938999 3.7049999 -1.107 59
40.960999 3.7909999 -1.114 58
40.983002 3.8759999 -1.1210001 63
41.007999 3.961 -1.127 67
41.029999 4.046 -1.133 64
41.042 4.1300001 -1.1390001 65
41.062 4.2150002 -1.1440001 65
41.073002 4.2979999 -1.149 64
41.091 4.382 -1.154 65
41.104 4.4640002 -1.158 57
41.118999 4.5479999 -1.1619999 62
41.151001 4.6329999 -1.1670001 64
41.152 4.7150002 -1.17 63
41.174 4.7989998 -1.174 64
41.189999 4.881 -1.177 60
41.195999 4.9640002 -1.1799999 56
0 0 0 3
38.356998 4.7719998 -1.102 9
0 0 0 28
33.723999 4.3280001 -0.972 5
0 0 0 0
0 0 0 1
33.299999 4.467 -0.96200001 5
33.213001 4.52 -0.95999998 17
33.145 4.5749998 -0.958 25
33.087002 4.6300001 -0.95599997 13
33.035 4.6869998 -0.95499998 9
32.966 4.7399998 -0.95200002 7
32.963001 4.802 -0.95200002 49
33.023998 4.8740001 -0.95300001 15
33.078999 4.9450002 -0.95300001 7
32.983002 4.993 -0.949 18
33.063 5.0679998 -0.94999999 9
32.974998 5.1170001 -0.94599998 41
32.966999 5.178 -0.94300002 18
32.983002 5.2420001 -0.94199997 31
33.039001 5.3130002 -0.94199997 8
33.021 5.3720002 -0.93900001 7
33.000999 5.4289999 -0.93599999 8
32.945 5.4809999 -0.93199998 8
32.936001 5.54 -0.92799997 7
32.950001 5.6030002 -0.92500001 9
32.926998 5.6589999 -0.92199999 8
32.941002 5.7210002 -0.91900003 10
32.924999 5.7779999 -0.91500002 9
32.925999 5.8369999 -0.91100001 9
32.928001 5.8979998 -0.90700001 9
32.943001 5.9590001 -0.903 8
32.924999 6.0139999 -0.898 8
32.908001 6.0700002 -0.89300001 9
32.903999 6.1279998 -0.88800001 8
32.916 6.1880002 -0.884 8
32.917999 6.2459998 -0.87900001 7
32.903 6.3000002 -0.87300003 7
32.928001 6.3629999 -0.86900002 7
32.935001 6.421 -0.86299998 7
32.921001 6.4749999 -0.85699999 6
32.936001 6.5359998 -0.852 6
32.911999 6.5869999 -0.84500003 6
32.915001 6.6440001 -0.83899999 6
32.910999 6.6989999 -0.833 7
32.924999 6.7579999 -0.82599998 6
32.915001 6.8099999 -0.81999999 4
32.883999 6.8590002 -0.81199998 5
32.888 6.914 -0.80500001 5
0 0 0 0
0 0 0 8
13.488 2.902 -0.32100001 5
13.493 2.925 -0.31799999 1
13.432 2.934 -0.31400001 1
13.319 2.9300001 -0.308 1
13.264 2.9389999 -0.303 1
13.185 2.9419999 -0.29899999 1
13.126 2.95 -0.294 1
13.058 2.9560001 -0.289 4
13.062 2.977 -0.28600001 6
13.024 2.9879999 -0.28099999 6
13.004 3.0039999 -0.278 6
12.98 3.0190001 -0.27399999 5
0 0 0 1
11.258 2.652 -0.23100001 1
11.164 2.6470001 -0.226 1
11.079 2.6429999 -0.221 1
11.008 2.6429999 -0.21600001 1
10.98 2.652 -0.212 1
10.926 2.655 -0.208 1
10.9 2.665 -0.204 1
10.859 2.6700001 -0.20100001 1
10.833 2.6800001 -0.197 1
10.817 2.691 -0.193 1
10.768 2.694 -0.189 1
10.738 2.7019999 -0.185 1
10.721 2.7119999 -0.18099999 1
10.718 2.7260001 -0.178 2
10.697 2.7360001 -0.17399999 2
10.676 2.7449999 -0.17 1
10.645 2.7520001 -0.16599999 1
10.644 2.7650001 -0.162 1
10.634 2.777 -0.15800001 1
10.613 2.7850001 -0.155 1
10.603 2.7969999 -0.15099999 1
10.587 2.806 -0.147 1
10.56 2.813 -0.14300001 1
10.537 2.8199999 -0.139 1
10.536 2.8329999 -0.13500001 1
10.52 2.8410001 -0.131 1
10.501 2.849 -0.127 1
10.486 2.858 -0.123 1
10.48 2.8699999 -0.119 1
10.458 2.8759999 -0.115 2
10.44 2.8840001 -0.111 2
10.426 2.892 -0.107 2
10.432 2.9059999 -0.103 3
10.424 2.9159999 -0.098999999 6
10.419 2.9260001 -0.094999999 4
10.423 2.9400001 -0.090999998 8
10.396 2.944 -0.086999997 7
10.359 2.944 -0.082999997 9
10.351 2.954 -0.079000004 13
10.356 2.9660001 -0.074000001 20
10.343 2.974 -0.07 24
10.33 2.9809999 -0.066 19
10.335 2.993 -0.061999999 29
10.335 3.0039999 -0.057999998 32
10.329 3.013 -0.054000001 36
10.332 3.0239999 -0.050000001 42
10.325 3.0320001 -0.045000002 48
10.311 3.0380001 -0.041000001 48
10.316 3.05 -0.037 50
10.321 3.0610001 -0.032000002 54
10.304 3.066 -0.028000001 56
10.311 3.0780001 -0.024 56
10.294 3.082 -0.02 57
10.288 3.0899999 -0.016000001 57
10.308 3.105 -0.011 58
10.299 3.112 -0.0070000002 57
10.298 3.1199999 -0.003 54
10.295 3.128 0.001 52
10.303 3.1400001 0.0049999999 52
10.301 3.148 0.0099999998 51
10.298 3.155 0.014 50
10.304 3.1659999 0.017999999 44
10.293 3.1700001 0.022 41
10.29 3.177 0.027000001 37
10.288 3.184 0.030999999 35
10.298 3.1960001 0.035999998 33
10.29 3.201 0.039999999 31
10.288 3.207 0.044 30
10.292 3.2160001 0.048999999 27
10.288 3.2219999 0.052999999 20
10.285 3.2279999 0.057999998 18
10.281 3.234 0.061999999 26
10.289 3.243 0.066 26
10.282 3.2479999 0.071000002 16
10.286 3.2550001 0.075000003 26
10.295 3.2650001 0.079999998 26
10.29 3.2690001 0.083999999 26
10.299 3.2780001 0.089000002 25
10.294 3.283 0.093000002 14
10.291 3.2869999 0.097000003 22
10.287 3.2920001 0.102 19
10.279 3.2950001 0.106 16
10.295 3.3050001 0.111 15
10.301 3.312 0.116 13
10.285 3.312 0.12 12
10.292 3.319 0.125 10
10.306 3.329 0.12899999 10
10.31 3.3340001 0.134 8
10.321 3.3429999 0.138 7
10.325 3.348 0.14300001 7
10.317 3.3499999 0.147 7
10.321 3.355 0.15099999 6
10.332 3.3629999 0.156 6
10.319 3.362 0.16 6
10.323 3.3670001 0.16500001 6
10.325 3.3710001 0.169 6
10.326 3.375 0.17399999 6
10.332 3.3800001 0.178 5
10.336 3.3840001 0.183 5
10.336 3.3870001 0.18700001 5
10.349 3.395 0.192 5
10.345 3.3959999 0.19599999 5
10.348 3.3989999 0.20100001 5
10.351 3.402 0.205 5
10.339 3.401 0.20900001 4
10.364 3.411 0.214 4
10.349 3.408 0.21799999 4
10.352 3.411 0.223 4
10.362 3.415 0.227 4
10.366 3.418 0.23100001 4
10.359 3.4170001 0.236 4
10.369 3.421 0.241 4
10.373 3.424 0.245 4
10.397 3.4330001 0.25 5
10.382 3.428 0.25400001 5
10.393 3.4330001 0.25799999 5
10.393 3.4330001 0.26199999 5
10.386 3.431 0.266 5
10.375 3.427 0.27000001 5
10.394 3.4330001 0.27500001 5
10.399 3.4349999 0.28 5
10.413 3.4389999 0.28400001 5
10.41 3.437 0.28799999 4
10.405 3.4349999 0.292 3
10.396 3.431 0.296 3
10.417 3.437 0.301 3
10.425 3.4389999 0.30500001 2
10.468 3.4519999 0.31 2
10.518 3.467 0.31600001 2
10.553 3.477 0.32100001 2
10.61 3.494 0.32699999 1
10.682 3.5150001 0.333 1
10.77 3.5420001 0.34 1
10.887 3.579 0.34799999 1
10.956 3.599 0.354 1
11.058 3.6300001 0.36199999 1
11.117 3.6459999 0.368 1
11.141 3.651 0.373 1
11.207 3.6700001 0.37900001 1
0 0 0 0
0 0 0 0
0 0 0 0
0 0 0 20
46.105 15.024 1.646 25
46.140999 15.019 1.663 32
46.123001 14.995 1.679 38
46.034 14.948 1.692 37
45.907001 14.888 1.704 33
45.804001 14.836 1.715 35
45.666 14.771 1.726 39
45.583 14.724 1.739 47
45.530998 14.686 1.751 47
45.497002 14.653 1.766 47
45.473999 14.624 1.779 47
45.509998 14.613 1.796 47
45.476002 14.578 1.8099999 47
45.423 14.537 1.823 47
45.344002 14.486 1.834 45
45.368 14.469 1.849 45
45.389999 14.45 1.8660001 47
45.289001 14.391 1.875 44
0 0 0 6
34.721001 10.991 1.4579999 26
34.681 10.957 1.4680001 44
34.678001 10.933 1.479 54
34.667 10.907 1.488 64
34.672001 10.886 1.499 76
34.681 10.865 1.5089999 77
34.692001 10.844 1.5190001 73
34.709 10.824 1.53 69
34.714001 10.801 1.54 57
34.752998 10.788 1.551 40
34.785999 10.772 1.562 17
0 0 0 0
0 0 0 37
46.011002 14.141 2.1029999 33
46.144001 14.145 2.1210001 11
0 0 0 0
0 0 0 0
0 0 0 12
39.679001 12.03 1.864 18
39.698002 12.001 1.875 17
39.765999 11.987 1.887 24
39.741001 11.944 1.895 35
39.707001 11.898 1.903 35
39.699001 11.859 1.9119999 26
39.516998 11.768 1.911 20
39.168999 11.627 1.903 11
39.066002 11.56 1.9069999 7
39.103001 11.532 1.9170001 9
39.035999 11.474 1.9220001 14
38.949001 11.41 1.926 18
38.553001 11.256 1.913 19
38.277 11.137 1.9069999 24
38.345001 11.117 1.918 19
38.266998 11.055 1.921 19
38.382 11.048 1.934 14
37.354 10.712 1.8890001 12
36.959999 10.559 1.875 75
36.957001 10.518 1.881 92
37.011002 10.493 1.891 46
37.751999 10.661 1.9349999 18
38.478001 10.823 1.977 28
38.275002 10.722 1.973 32
38.230999 10.666 1.977 31
38.264 10.63 1.984 31
38.437 10.633 1.997 33
38.397999 10.577 2 33
38.451 10.545 2.007 33
39.106998 10.678 2.0480001 28
39.341999 10.695 2.0639999 28
39.203999 10.609 2.0610001 25
39.337002 10.597 2.073 23
39.43 10.572 2.082 27
39.455002 10.529 2.086 34
39.455002 10.48 2.0899999 34
39.611 10.47 2.102 34
39.638 10.426 2.1059999 34
39.702 10.391 2.1140001 35
39.606998 10.314 2.1099999 34
39.683998 10.282 2.1170001 35
38.925999 10.034 2.0799999 22
38.886002 9.9709997 2.0810001 27
38.886002 9.9189997 2.082 33
39.008999 9.8970003 2.0910001 27
39.771 10.035 2.132 28
39.575001 9.9300003 2.1240001 29
39.644001 9.8929996 2.1289999 34
39.862999 9.8909998 2.141 40
39.860001 9.8339996 2.142 35
39.855999 9.776 2.1429999 18
39.854 9.7180004 2.1429999 3
39.856998 9.6610003 2.1440001 11
39.904999 9.6140003 2.1459999 5
39.147999 9.3739996 2.1040001 3
39.080002 9.3000002 2.0999999 25
39.063999 9.2379999 2.099 35
39.145 9.1990004 2.102 43
39.192001 9.151 2.1040001 38
39.277 9.1110001 2.1070001 27
39.293999 9.0559998 2.1070001 33
39.316002 9.0010004 2.105 33
39.23 8.9209995 2.099 33
39.306 8.8769999 2.0999999 32
39.193001 8.7919998 2.0910001 31
39.18 8.7279997 2.0880001 33
38.972 8.6210003 2.0739999 31
38.845001 8.5299997 2.063 33
38.639 8.4230003 2.049 35
38.333 8.2959995 2.029 30
38.617001 8.2959995 2.04 37
38.652 8.2410002 2.0380001 33
38.497002 8.1450005 2.0250001 31
38.437 8.0699997 2.017 34
38.292999 7.9770002 2.0050001 40
38.261002 7.908 1.998 35
38.247002 7.842 1.992 30
38.313 7.7919998 1.99 31
38.23 7.7129998 1.98 39
38.285 7.6599998 1.977 30
38.284 7.5960002 1.971 27
38.210999 7.5159998 1.96 21
38.432999 7.4949999 1.964 7
38.502998 7.4429998 1.961 17
38.648998 7.4050002 1.961 20
38.512001 7.3130002 1.946 17
38.206001 7.1890001 1.923 25
38.397999 7.158 1.925 25
38.470001 7.105 1.92 34
37.818001 6.9180002 1.8789999 29
37.660999 6.8239999 1.863 34
37.655998 6.757 1.854 42
37.681 6.6939998 1.845 42
37.648998 6.6230001 1.834 47
37.681999 6.5609999 1.825 38
37.610001 6.4829998 1.813 39
37.424 6.3839998 1.794 50
37.396999 6.3109999 1.781 43
37.388 6.244 1.771 39
37.390999 6.177 1.7589999 38
37.374001 6.1059999 1.747 18
37.374001 6.0380001 1.7359999 24
37.383999 5.973 1.725 23
37.384998 5.9050002 1.7130001 12
0 0 0 34
45.365002 6.9990001 2.049 35
45.599998 6.9510002 2.0439999 44
45.368999 6.8340001 2.017 23
45.227001 6.7290001 1.995 30
45.185001 6.638 1.977 21
44.749001 6.493 1.941 21
0 0 0 0
0 0 0 10
44.972 6.2729998 1.899 38
45 6.1939998 1.882 42
44.846001 6.0879998 1.858 42
44.808998 6 1.837 40
44.853001 5.921 1.8200001 46
44.948002 5.8499999 1.806 40
44.971001 5.7659998 1.7869999 40
44.987999 5.6830001 1.767 33
45.035999 5.6030002 1.749 18
0 0 0 46
48.833 5.8889999 1.852 40
48.882999 5.803 1.831 29
48.889999 5.71 1.808 45
48.921001 5.6199999 1.785 28
48.853001 5.52 1.7589999 28
48.271999 5.3610001 1.714 43
48.280998 5.2690001 1.689 38
48.173 5.1659999 1.661 31
48.078999 5.0640001 1.633 23
48.201 4.9850001 1.612 18
48.452 4.9169998 1.595 14
48.351002 4.8119998 1.564 25
47.409 4.6269999 1.507 25
48.060001 4.5970001 1.501 18
48.130001 4.5100002 1.476 13
0 0 0 26
77.550003 6.9650002 2.29 12
0 0 0 0
0 0 0 0
0 0 0 0
0 0 0 17
91.018997 7.2880001 2.414 28
91.211998 7.125 2.362 16
92.144997 7.0149999 2.326 21
92.541 6.8639998 2.277 20
92.595001 6.6859999 2.2179999 21
0 0 0 0
0 0 0 24
0 0 0 0
0 0 0 0
0 0 0 0
0 0 0 0
0 0 0 0
0 0 0 16
0 0 0 0
0 0 0 12
91.010002 4.6030002 1.488 23
90.486 4.3990002 1.413 18
89.593002 4.1789999 1.3329999 17
89.567001 4.007 1.267 17
0 0 0 0
0 0 0 0
0 0 0 0
0 0 0 14
91.532997 3.198 0.94300002 41
0 0 0 0
0 0 0 0
0 0 0 0
0 0 0 0
0 0 0 0
0 0 0 0
0 0 0 15
89.978996 1.7359999 0.34 15
0 0 0 0
0 0 0 0
0 0 0 0
0 0 0 0
0 0 0 0
0 0 0 0
0 0 0 0
0 0 0 0
0 0 0 0
0 0 0 0
0 0 0 28
0 0 0 0
0 0 0 56
74.709 -0.58200002 -0.64499998 48
74.742996 -0.72399998 -0.71499997 40
74.82 -0.86900002 -0.787 54
73.814003 -0.99699998 -0.84500003 90
0 0 0 0
0 0 0 57
68.404999 -1.318 -0.98199999 66
68.418999 -1.447 -1.048 78
68.365997 -1.576 -1.115 80
68.416 -1.7029999 -1.182 105
0 0 0 0
0 0 0 88
60.346001 -1.845 -1.223 109
0 0 0 10
46.105 -1.585 -1.029 43
45.591999 -1.65 -1.063 35
45.172001 -1.72 -1.1 35
44.951 -1.7970001 -1.141 42
0 0 0 14
41.818001 -1.827 -1.149 11
0 0 0 33
32.570999 -1.543 -0.963 17
0 0 0 6
40.237 -2.0550001 -1.276 8
40.386002 -2.1359999 -1.324 14
40.511002 -2.217 -1.3710001 6
0 0 0 1
0 0 0 15
0 0 0 152
27.969 -1.734 -1.069 181
27.966999 -1.785 -1.099 162
28.031 -1.839 -1.133 163
27.959999 -1.885 -1.161 96
0 0 0 8
40.297001 -2.8610001 -1.7640001 6
0 0 0 3
23.687 -1.766 -1.09 4
23.281 -1.777 -1.098 4
23.254 -1.816 -1.123 3
23.273001 -1.86 -1.151 3
23.282 -1.901 -1.179 3
23.304001 -1.944 -1.207 2
0 0 0 25
0 0 0 25
0 0 0 3
20.705 -1.8710001 -1.168 3
20.618 -1.898 -1.188 5
20.469999 -1.92 -1.2029999 6
20.163 -1.925 -1.209 5
0 0 0 0
0 0 0 0
0 0 0 0
0 0 0 2
16.825001 -1.749 -1.109 2
16.1 -1.701 -1.081 2
15.664 -1.6799999 -1.0700001 3
15.237 -1.66 -1.059 2
14.695 -1.626 -1.04 2
14.25 -1.6 -1.026 2
13.812 -1.573 -1.011 3
13.383 -1.546 -0.99599999 3
12.961 -1.5190001 -0.98000002 3
12.629 -1.5 -0.97100002 2
12.273 -1.478 -0.958 3
11.895 -1.451 -0.94400001 3
11.568 -1.4299999 -0.93199998 2
11.176 -1.399 -0.91399997 2
10.873 -1.378 -0.903 2
10.61 -1.362 -0.89399999 4
10.381 -1.349 -0.88800001 6
10.181 -1.339 -0.88300002 6
9.9639997 -1.326 -0.87699997 7
9.7229996 -1.309 -0.86799997 4
9.3990002 -1.279 -0.85100001 3
9.1479998 -1.2589999 -0.83899999 3
8.8839998 -1.2359999 -0.82599998 4
8.7309999 -1.228 -0.82300001 3
8.5190001 -1.211 -0.81400001 3
8.342 -1.199 -0.80699998 4
8.1739998 -1.187 -0.801 5
8.0010004 -1.173 -0.79400003 4
7.8270001 -1.159 -0.787 4
7.6719999 -1.148 -0.78100002 4
7.5240002 -1.137 -0.77600002 4
7.388 -1.127 -0.77100003 4
7.2360001 -1.114 -0.764 3
7.0960002 -1.103 -0.75800002 3
6.9899998 -1.096 -0.75599998 4
6.869 -1.087 -0.75199997 4
6.7360001 -1.075 -0.745 4
6.5359998 -1.052 -0.73199999 10
6.4720001 -1.051 -0.73299998 8
6.3969998 -1.048 -0.73199999 3
6.2849998 -1.038 -0.72799999 3
6.1820002 -1.03 -0.72299999 3
6.073 -1.02 -0.71799999 3
5.9910002 -1.0140001 -0.71600002 3
5.8899999 -1.005 -0.71200001 3
5.8010001 -0.99800003 -0.708 2
5.71 -0.99000001 -0.70499998 2
5.6399999 -0.98500001 -0.70300001 2
5.5419998 -0.97500002 -0.69800001 2
5.4809999 -0.97100002 -0.69700003 2
5.402 -0.96399999 -0.69400001 4
5.3189998 -0.95599997 -0.69 2
5.2519999 -0.95099998 -0.68800002 3
5.1739998 -0.94300002 -0.68400002 4
5.1059999 -0.93699998 -0.68199998 2
5.0419998 -0.93199998 -0.68000001 4
4.9770002 -0.926 -0.67699999 2
4.9229999 -0.92199999 -0.676 2
4.8579998 -0.91600001 -0.67299998 2
4.7950001 -0.91000003 -0.67000002 2
4.7290001 -0.903 -0.667 2
4.6620002 -0.89600003 -0.66399997 4
4.6090002 -0.89099997 -0.662 2
4.5609999 -0.88700002 -0.66100001 3
4.5110002 -0.88300002 -0.65899998 3
4.4580002 -0.87699997 -0.65700001 2
4.4099998 -0.87300003 -0.65499997 4
4.3670001 -0.86900002 -0.65399998 2
4.342 -0.86900002 -0.65600002 2
4.2989998 -0.866 -0.65499997 2
4.296 -0.87 -0.66000003 4
4.1570001 -0.84600002 -0.64300001 4
4.1729999 -0.85399997 -0.65100002 2
4.086 -0.83999997 -0.64200002 2
4.0500002 -0.83700001 -0.64200002 3
3.997 -0.83099997 -0.63800001 2
3.947 -0.82499999 -0.63499999 2
3.901 -0.81900001 -0.63200003 1
3.8729999 -0.81699997 -0.63300002 1
3.8440001 -0.815 -0.63200003 1
3.8310001 -0.81599998 -0.63499999 1
3.7869999 -0.81 -0.63200003 2
3.7969999 -0.81599998 -0.639 2
3.717 -0.80299997 -0.62900001 3
3.6900001 -0.80000001 -0.62900001 3
3.6830001 -0.80199999 -0.63300002 3
3.6619999 -0.801 -0.63300002 2
3.595 -0.79000002 -0.62599999 2
3.6559999 -0.80699998 -0.64099997 3
3.5550001 -0.78799999 -0.62699997 2
3.526 -0.78500003 -0.62599999 2
3.471 -0.77600002 -0.62099999 1
3.454 -0.77499998 -0.62199998 2
3.3710001 -0.759 -0.611 1
3.3840001 -0.76499999 -0.61699998 2
3.3410001 -0.75800002 -0.61299998 1
3.4219999 -0.77999997 -0.63200003 2
3.349 -0.76599997 -0.62199998 2
3.263 -0.74900001 -0.61000001 3
3.2409999 -0.74599999 -0.60900003 5
3.2379999 -0.74800003 -0.61199999 6
3.224 -0.74699998 -0.61299998 6
3.2079999 -0.74599999 -0.61400002 6
3.1960001 -0.74599999 -0.61500001 5
3.1659999 -0.741 -0.61299998 3
3.118 -0.73299998 -0.60699999 2
3.2179999 -0.75800002 -0.63 2
3.277 -0.77499998 -0.64499998 2
3.1919999 -0.75700003 -0.63200003 2
3.1900001 -0.759 -0.63499999 2
3.118 -0.74400002 -0.62300003 1
3.0539999 -0.73100001 -0.61400002 2
3.062 -0.73500001 -0.61900002 1
3.0910001 -0.74400002 -0.62800002 1
3.0209999 -0.72899997 -0.61699998 1
3.017 -0.73000002 -0.61900002 1
2.9630001 -0.71899998 -0.611 1
2.8889999 -0.70300001 -0.59899998 1
2.8989999 -0.70700002 -0.60399997 1
2.8840001 -0.70499998 -0.60399997 1
2.937 -0.71899998 -0.61799997 1
2.9089999 -0.71399999 -0.61500001 1
2.7820001 -0.685 -0.59100002 2
2.7579999 -0.68000001 -0.588 2
2.7579999 -0.68199998 -0.59100002 2
2.7390001 -0.67900002 -0.58899999 2
2.7279999 -0.67699999 -0.58999997 2
2.714 -0.67500001 -0.58899999 2
2.691 -0.671 -0.58700001 2
2.6760001 -0.66900003 -0.58600003 2
2.6630001 -0.667 -0.58600003 2
2.6489999 -0.66399997 -0.58499998 2
2.635 -0.662 -0.58399999 2
2.6289999 -0.662 -0.58499998 2
2.6029999 -0.65600002 -0.58200002 2
2.599 -0.65600002 -0.583 2
2.5829999 -0.653 -0.58200002 1
2.5699999 -0.65100002 -0.58099997 1
2.5539999 -0.648 -0.57999998 1
2.549 -0.648 -0.58099997 1
2.536 -0.64499998 -0.57999998 1
2.5280001 -0.64399999 -0.58099997 2
2.517 -0.64200002 -0.57999998 2
2.507 -0.64099997 -0.57999998 2
2.4979999 -0.639 -0.57999998 2
2.487 -0.63700002 -0.57999998 2
2.473 -0.634 -0.57800001 1
2.4660001 -0.63300002 -0.579 1
2.4560001 -0.63200003 -0.57800001 1
2.4360001 -0.62699997 -0.57499999 1
2.4319999 -0.62699997 -0.57599998 1
2.4319999 -0.62699997 -0.57800001 1
2.4119999 -0.62300003 -0.57499999 1
2.405 -0.62099999 -0.57499999 1
2.4030001 -0.62099999 -0.57700002 1
2.3940001 -0.62 -0.57599998 1
2.385 -0.61799997 -0.57599998 1
2.3770001 -0.616 -0.57499999 1
2.3699999 -0.61500001 -0.57499999 1
2.3629999 -0.61299998 -0.57499999 1
2.3510001 -0.611 -0.574 1
2.346 -0.61000001 -0.57499999 1
2.329 -0.60500002 -0.57200003 1
2.3299999 -0.60600001 -0.574 1
2.3169999 -0.60299999 -0.57200003 1
2.3069999 -0.60100001 -0.57099998 1
2.3 -0.59899998 -0.57099998 1
2.2920001 -0.597 -0.56999999 1
2.29 -0.597 -0.57099998 1
2.29 -0.597 -0.57200003 1
2.28 -0.59399998 -0.57099998 2
2.276 -0.59299999 -0.57099998 2
2.267 -0.59100002 -0.57099998 2
2.2679999 -0.59100002 -0.57200003 1
2.2620001 -0.58999997 -0.57200003 2
2.2590001 -0.58899999 -0.57200003 2
2.2539999 -0.58700001 -0.57200003 2
2.2520001 -0.58700001 -0.57300001 2
2.2490001 -0.58600003 -0.57300001 2
2.2449999 -0.58499998 -0.57300001 2
2.237 -0.583 -0.57200003 2
2.227 -0.57999998 -0.57099998 2
2.221 -0.57800001 -0.57099998 2
2.217 -0.57700002 -0.56999999 1
2.2130001 -0.57599998 -0.56999999 2
2.2090001 -0.574 -0.56999999 2
2.207 -0.57300001 -0.57099998 2
2.1949999 -0.56999999 -0.56900001 2
2.2 -0.57099998 -0.57099998 1
2.1919999 -0.56900001 -0.56999999 2
2.1860001 -0.56699997 -0.56900001 1
2.1789999 -0.56400001 -0.56800002 2
2.1849999 -0.56599998 -0.56999999 1
2.178 -0.56300002 -0.56900001 1
2.1730001 -0.56199998 -0.56900001 1
2.174 -0.56099999 -0.56999999 1
2.1719999 -0.56 -0.56999999 1
2.1600001 -0.55699998 -0.56699997 1
2.1619999 -0.55599999 -0.56800002 1
2.1589999 -0.55500001 -0.56800002 1
2.158 -0.55400002 -0.56900001 1
2.154 -0.55299997 -0.56800002 1
2.151 -0.551 -0.56800002 1
2.148 -0.55000001 -0.56800002 2
2.141 -0.54699999 -0.56599998 1
2.138 -0.546 -0.56599998 1
2.1370001 -0.54500002 -0.56599998 1
2.138 -0.54500002 -0.56699997 1
2.1300001 -0.542 -0.565 1
2.131 -0.54100001 -0.56599998 1
2.1300001 -0.54000002 -0.56599998 1
2.1289999 -0.53899997 -0.56599998 1
2.128 -0.53799999 -0.56599998 1
2.1229999 -0.53600001 -0.565 1
2.1240001 -0.53500003 -0.56599998 1
2.119 -0.53299999 -0.56400001 1
2.1170001 -0.53100002 -0.56400001 1
2.115 -0.52999997 -0.56400001 1
2.1170001 -0.52999997 -0.565 1
2.1140001 -0.528 -0.56400001 1
2.112 -0.52600002 -0.56400001 1
2.115 -0.52600002 -0.56400001 1
2.115 -0.52499998 -0.565 1
2.115 -0.52399999 -0.565 1
2.1199999 -0.52399999 -0.56599998 1
2.109 -0.51999998 -0.56300002 1
2.1159999 -0.52100003 -0.565 1
2.1099999 -0.51800001 -0.56300002 1
2.115 -0.51800001 -0.56400001 1
2.118 -0.51800001 -0.565 1
2.112 -0.51499999 -0.56300002 1
2.1129999 -0.514 -0.56400001 1
2.112 -0.51200002 -0.56300002 1
2.1210001 -0.51300001 -0.565 1
2.1170001 -0.51099998 -0.56400001 1
2.1240001 -0.51099998 -0.56599998 1
2.1289999 -0.51099998 -0.56699997 1
2.1199999 -0.50800002 -0.56400001 1
2.1229999 -0.50700003 -0.565 1
2.1289999 -0.50700003 -0.56599998 1
2.1300001 -0.50599998 -0.56599998 1
2.1300001 -0.50400001 -0.565 1
2.132 -0.50300002 -0.56599998 1
2.1440001 -0.505 -0.56800002 1
2.138 -0.50199997 -0.56599998 1
2.1429999 -0.50099999 -0.56699997 1
2.1470001 -0.50099999 -0.56800002 1
2.142 -0.498 -0.56599998 1
2.1429999 -0.49700001 -0.56599998 1
2.148 -0.49599999 -0.56599998 1
2.155 -0.49599999 -0.56800002 1
2.1570001 -0.495 -0.56699997 1
2.168 -0.49599999 -0.56999999 1
2.1670001 -0.49399999 -0.56900001 1
2.168 -0.493 -0.56800002 1
2.171 -0.491 -0.56800002 1
2.177 -0.491 -0.56900001 1
2.184 -0.491 -0.56999999 1
2.1849999 -0.48899999 -0.56999999 1
2.187 -0.48800001 -0.56900001 1
2.188 -0.486 -0.56900001 1
2.187 -0.484 -0.56800002 1
2.194 -0.484 -0.56800002 1
2.1960001 -0.48300001 -0.56800002 1
2.198 -0.48100001 -0.56800002 1
2.21 -0.48199999 -0.56999999 1
2.2130001 -0.48100001 -0.56999999 2
2.2119999 -0.47799999 -0.56800002 1
2.221 -0.47799999 -0.56999999 1
2.2249999 -0.477 -0.56900001 2
2.234 -0.477 -0.57099998 1
2.233 -0.47499999 -0.56900001 1
2.247 -0.47600001 -0.57200003 1
2.2449999 -0.47299999 -0.56999999 1
2.253 -0.47299999 -0.57099998 2
2.253 -0.47099999 -0.56900001 1
2.263 -0.47 -0.57099998 1
2.267 -0.46900001 -0.56999999 1
2.276 -0.46900001 -0.57099998 1
2.2809999 -0.46799999 -0.57099998 1
2.2880001 -0.46700001 -0.57200003 1
2.302 -0.46700001 -0.574 1
2.3080001 -0.46599999 -0.574 1
2.3110001 -0.465 -0.57300001 1
2.322 -0.46399999 -0.574 1
2.323 -0.46200001 -0.57300001 1
2.3329999 -0.46200001 -0.57300001 1
2.3440001 -0.46200001 -0.57499999 1
2.348 -0.46000001 -0.574 1
2.358 -0.46000001 -0.57499999 1
2.3559999 -0.45699999 -0.57300001 1
2.3770001 -0.458 -0.57599998 1
2.3840001 -0.45699999 -0.57599998 1
2.3959999 -0.45699999 -0.57700002 1
2.404 -0.456 -0.57700002 1
2.415 -0.45500001 -0.57800001 1
2.4200001 -0.454 -0.57700002 1
2.4170001 -0.45100001 -0.574 1
2.438 -0.45199999 -0.57800001 1
2.447 -0.45100001 -0.57700002 1
2.4519999 -0.449 -0.57700002 1
2.4690001 -0.44999999 -0.579 1
2.4849999 -0.44999999 -0.57999998 2
2.4909999 -0.44800001 -0.579 2
2.5020001 -0.447 -0.57999998 1
2.503 -0.44499999 -0.57800001 1
2.5350001 -0.44800001 -0.583 2
2.5450001 -0.447 -0.583 2
2.549 -0.44400001 -0.58200002 2
2.553 -0.442 -0.57999998 2
2.569 -0.442 -0.58200002 2
2.5840001 -0.442 -0.58200002 2
2.5910001 -0.44 -0.58099997 2
2.608 -0.44 -0.583 2
2.6170001 -0.43799999 -0.58200002 2
2.6240001 -0.43599999 -0.58099997 2
2.651 -0.43799999 -0.58399999 2
2.6730001 -0.43799999 -0.58700001 2
2.6760001 -0.43599999 -0.58499998 2
2.694 -0.43599999 -0.58600003 2
2.7060001 -0.43399999 -0.58499998 2
2.7190001 -0.433 -0.58600003 2
2.743 -0.43399999 -0.588 2
2.753 -0.43200001 -0.58700001 2
2.776 -0.433 -0.58899999 2
2.79 -0.43200001 -0.58899999 2
2.812 -0.43099999 -0.58999997 2
2.8299999 -0.43099999 -0.59100002 2
2.848 -0.43000001 -0.59200001 2
2.865 -0.42899999 -0.59200001 2
2.8929999 -0.43000001 -0.59399998 2
2.9089999 -0.42899999 -0.59399998 2
2.928 -0.428 -0.59500003 2
2.95 -0.428 -0.59600002 2
2.964 -0.426 -0.59500003 2
2.993 -0.42699999 -0.597 2
3.0150001 -0.426 -0.59799999 2
3.0369999 -0.426 -0.59899998 3
3.0699999 -0.42699999 -0.602 3
3.102 -0.42699999 -0.60399997 4
3.131 -0.42699999 -0.60600001 6
3.1429999 -0.42500001 -0.60399997 6
3.1600001 -0.42399999 -0.60399997 6
3.1919999 -0.42399999 -0.60600001 6
3.2149999 -0.42300001 -0.60600001 7
3.2409999 -0.42300001 -0.60699999 8
3.2620001 -0.42199999 -0.60699999 8
3.2920001 -0.421 -0.60799998 9
3.322 -0.421 -0.60900003 9
3.358 -0.42199999 -0.611 9
3.3829999 -0.421 -0.611 10
3.4159999 -0.421 -0.61299998 10
3.454 -0.421 -0.61500001 10
3.484 -0.41999999 -0.61500001 10
3.5250001 -0.421 -0.61799997 10
3.5650001 -0.421 -0.62 11
3.598 -0.421 -0.62099999 11
3.635 -0.421 -0.62199998 11
3.6719999 -0.41999999 -0.62300003 10
3.711 -0.41999999 -0.625 10
3.7490001 -0.41999999 -0.62599999 10
3.793 -0.41999999 -0.62800002 10
3.829 -0.41999999 -0.62800002 10
3.878 -0.41999999 -0.63099998 10
3.9200001 -0.41999999 -0.63200003 9
3.9630001 -0.41999999 -0.63300002 9
4.013 -0.41999999 -0.63499999 10
4.052 -0.419 -0.63499999 10
4.098 -0.419 -0.63700002 11
4.1399999 -0.41800001 -0.63700002 9
4.1750002 -0.417 -0.63599998 6
4.2220001 -0.41600001 -0.63700002 3
4.2820001 -0.417 -0.63999999 2
4.382 -0.421 -0.648 2
4.4380002 -0.42199999 -0.64899999 2
4.5100002 -0.42300001 -0.653 2
4.5599999 -0.42199999 -0.653 3
4.638 -0.42399999 -0.65700001 2
4.691 -0.42300001 -0.65700001 3
4.7690001 -0.42399999 -0.66100001 2
4.8499999 -0.42500001 -0.66399997 2
4.9180002 -0.42500001 -0.66600001 2
5.0029998 -0.42699999 -0.66900003 2
5.0819998 -0.42699999 -0.67199999 2
5.1760001 -0.42899999 -0.676 2
5.2750001 -0.43099999 -0.68099999 2
5.3740001 -0.433 -0.68400002 3
5.4770002 -0.43399999 -0.68900001 3
5.5679998 -0.435 -0.69099998 2
5.6929998 -0.43799999 -0.69700003 2
5.7950001 -0.43900001 -0.69999999 2
5.9060001 -0.44100001 -0.704 2
6.0159998 -0.442 -0.70700002 2
6.1430001 -0.44400001 -0.71200001 3
6.289 -0.447 -0.71799999 3
6.421 -0.449 -0.72299999 3
6.586 -0.45300001 -0.73000002 3
6.717 -0.45500001 -0.73299998 3
6.8800001 -0.45699999 -0.73900002 3
7.0489998 -0.461 -0.745 3
7.283 -0.46799999 -0.75800002 3
7.4920001 -0.472 -0.76700002 5
7.6570001 -0.47400001 -0.76999998 7
7.8319998 -0.47600001 -0.77399999 11
8.0790005 -0.48199999 -0.78500003 5
8.342 -0.48800001 -0.796 5
8.6059999 -0.49399999 -0.80599999 3
8.9029999 -0.50099999 -0.81800002 3
9.2469997 -0.50999999 -0.83399999 2
9.5469999 -0.51599997 -0.84399998 4
9.9239998 -0.52499998 -0.86000001 2
10.332 -0.53600001 -0.87599999 3
10.731 -0.54400003 -0.89099997 3
11.159 -0.55400002 -0.90700001 2
11.643 -0.565 -0.92500001 2
12.047 -0.57200003 -0.93599999 2
12.569 -0.583 -0.954 3
13.162 -0.59600002 -0.97399998 3
13.762 -0.60900003 -0.99400002 3
14.34 -0.61900002 -1.0089999 3
15.14 -0.63700002 -1.038 2
15.917 -0.653 -1.062 3
16.737 -0.66900003 -1.086 2
0 0 0 2
0 0 0 2
19.978001 -0.736 -1.1849999 2
20.450001 -0.73199999 -1.175 1
0 0 0 4
0 0 0 1
0 0 0 0
0 0 0 2
0 0 0 7
45.172001 -1.342 -2.0869999 29
45.442001 -1.3049999 -2.0139999 44
45.535999 -1.262 -1.932 55
45.872002 -1.226 -1.859 36
46.188 -1.1900001 -1.784 16
0 0 0 0
0 0 0 0
0 0 0 8
0 0 0 0
0 0 0 5
0 0 0 36
68.357002 -1.303 -1.724 65
68.378998 -1.2410001 -1.596 17
0 0 0 0
0 0 0 134
71.635002 -1.102 -1.2539999 37
73.794998 -1.068 -1.148 105
73.962997 -1.0039999 -1.007 84
74.838997 -0.949 -0.87300003 31
74.764 -0.88099998 -0.727 56
74.696999 -0.815 -0.57999998 78
74.702003 -0.75 -0.43599999 84
74.700996 -0.685 -0.28999999 62
74.711998 -0.62199998 -0.145 29
78.403999 -0.58499998 0 11
78.153 -0.51700002 0.154 10
74.148003 -0.42899999 0.28999999 16
75.209 -0.37099999 0.44400001 30
0 0 0 0
0 0 0 22
85.690002 -0.213 1.011 37
85.544998 -0.14300001 1.179 20
88.542999 -0.078000002 1.392 16
88.139999 -0.0070000002 1.561 13
0 0 0 0
0 0 0 23
84.688004 0.192 2.0050001 37
84.252998 0.255 2.1619999 26
0 0 0 0
0 0 0 13
87.218002 0.46200001 2.7579999 16
87.289001 0.52600002 2.9319999 14
90.754997 0.61299998 3.2290001 13
85.434998 0.639 3.21 27
85.457001 0.70099998 3.381 24
88.857002 0.792 3.6919999 32
88.949997 0.85699999 3.875 35
89.023003 0.91900003 4.0560002 16
0 0 0 82
121.826 1.426 6.0359998 74
121.903 1.508 6.2789998 50
122.039 1.589 6.526 33
122 1.669 6.7639999 40
122.004 1.749 7.007 39
122.01 1.829 7.2529998 38
121.97 1.904 7.487 40
121.976 1.984 7.737 39
121.938 2.059 7.974 40
121.938 2.1340001 8.2159996 38
121.962 2.207 8.4580002 44
121.843 2.2780001 8.6879997 38
123.956 2.391 9.085 36
124.038 2.4649999 9.3339996 34
0 0 0 0
0 0 0 31
129.89799 2.803 10.541 28
127.867 2.8329999 10.632 39
127.791 2.901 10.879 35
121.877 2.8329999 10.613 59
121.844 2.898 10.85 96
121.829 2.9619999 11.09 90
