# .PCD v0.7 - Point Cloud Data file format
VERSION 0.7
FIELDS x y z intensity
SIZE 4 4 4 4
TYPE F F F F
COUNT 1 1 1 1
WIDTH 1760
HEIGHT 1
VIEWPOINT 0 0 0 1 0 0 0
POINTS 1760
DATA ascii
2.118 0.12 -0.55900002 1
2.1329999 0.121 -0.56 1
2.1440001 0.121 -0.56 1
2.155 0.122 -0.55900002 1
2.177 0.123 -0.56199998 1
2.1900001 0.124 -0.56199998 1
2.2060001 0.124 -0.56199998 1
2.2160001 0.125 -0.56099999 1
2.2379999 0.126 -0.56300002 1
2.2579999 0.127 -0.565 1
2.2679999 0.127 -0.56400001 1
2.283 0.12800001 -0.56400001 1
2.303 0.12899999 -0.565 1
2.3199999 0.12899999 -0.56599998 1
2.3340001 0.13 -0.565 1
2.3570001 0.131 -0.56699997 1
2.3789999 0.132 -0.56800002 1
2.402 0.132 -0.56999999 1
2.421 0.133 -0.56999999 1
2.4319999 0.133 -0.56900001 1
2.46 0.13500001 -0.57099998 1
2.474 0.13500001 -0.56999999 1
0 0 0 1
2.5510001 0.138 -0.57999998 1
2.556 0.138 -0.57599998 1
2.5769999 0.139 -0.57700002 1
2.5969999 0.139 -0.57700002 1
2.6159999 0.14 -0.57599998 1
2.638 0.14 -0.57700002 1
2.664 0.141 -0.57800001 1
2.6989999 0.142 -0.58099997 2
2.7249999 0.14300001 -0.58200002 2
2.753 0.14399999 -0.583 2
2.7839999 0.145 -0.58499998 2
2.8139999 0.146 -0.58600003 2
2.8429999 0.146 -0.58700001 2
2.865 0.147 -0.58600003 2
2.9000001 0.148 -0.588 2
3.0150001 0.153 -0.60600001 2
3.066 0.155 -0.611 2
3 0.15000001 -0.59200001 2
3.0320001 0.15099999 -0.59299999 2
3.0739999 0.152 -0.59600002 2
3.1110001 0.153 -0.597 2
3.217 0.15700001 -0.61199999 2
3.2320001 0.15700001 -0.60900003 2
3.309 0.15899999 -0.61699998 2
3.369 0.161 -0.62199998 2
3.3310001 0.15800001 -0.60900003 2
3.3440001 0.15800001 -0.60500002 2
3.382 0.15800001 -0.60600001 3
3.4260001 0.15899999 -0.60699999 3
3.473 0.16 -0.60900003 2
3.552 0.162 -0.61699998 2
3.596 0.163 -0.61799997 2
3.7119999 0.167 -0.63099998 2
3.7379999 0.16599999 -0.62800002 2
3.7780001 0.16599999 -0.62800002 2
3.802 0.16599999 -0.62400001 2
3.904 0.169 -0.634 2
3.9579999 0.169 -0.63499999 2
4.007 0.17 -0.63499999 2
4.0349998 0.169 -0.63200003 2
4.072 0.169 -0.63 2
4.1630001 0.171 -0.63700002 2
4.2709999 0.17299999 -0.64499998 2
4.381 0.175 -0.653 3
4.4260001 0.175 -0.65100002 3
4.4499998 0.17399999 -0.64600003 3
4.5409999 0.175 -0.65100002 3
4.6300001 0.176 -0.65499997 3
4.7119999 0.177 -0.65700001 3
4.7930002 0.177 -0.65899998 5
4.9050002 0.17900001 -0.66500002 3
5.0089998 0.18000001 -0.66900003 3
5.1059999 0.18099999 -0.67199999 3
5.2080002 0.18099999 -0.676 3
5.3410001 0.183 -0.68300003 3
5.4460001 0.184 -0.68599999 3
5.5739999 0.185 -0.69099998 3
5.7199998 0.186 -0.69800001 3
5.8720002 0.18799999 -0.70499998 4
6.0159998 0.189 -0.70999998 4
6.1490002 0.189 -0.71399999 4
6.2909999 0.19 -0.71799999 5
6.4549999 0.191 -0.72399998 5
6.6259999 0.192 -0.73000002 5
6.8270001 0.193 -0.73900002 5
7.0110002 0.19400001 -0.74599999 5
7.2220001 0.19499999 -0.75400001 4
7.4759998 0.197 -0.76599997 4
7.7249999 0.198 -0.77600002 4
8.0100002 0.2 -0.78899997 4
8.2880001 0.20200001 -0.80000001 4
8.5979996 0.20299999 -0.81300002 3
8.9329996 0.205 -0.82700002 3
9.3290005 0.208 -0.84500003 3
9.6850004 0.20900001 -0.85900003 3
10.089 0.20999999 -0.875 3
10.504 0.211 -0.88999999 3
10.894 0.211 -0.90100002 3
11.401 0.213 -0.921 3
11.871 0.213 -0.935 3
12.558 0.21600001 -0.96499997 3
13.242 0.21799999 -0.991 7
13.689 0.214 -0.99800003 9
14.109 0.20999999 -1.001 3
14.109 0.199 -0.97299999 3
0 0 0 3
16.818001 0.211 -1.0930001 3
17.819 0.20900001 -1.124 2
0 0 0 1
0 0 0 1
0 0 0 0
0 0 0 0
0 0 0 1
0 0 0 0
0 0 0 0
0 0 0 0
0 0 0 18
61.615002 0.208 -2.6789999 152
61.645 0.154 -2.5599999 164
61.654999 0.098999999 -2.4400001 153
61.694 0.044 -2.3210001 13
0 0 0 69
98.230003 -0.105 -3.3139999 32
0 0 0 25
0 0 0 25
0 0 0 27
117.874 -0.56300002 -3.059 38
0 0 0 59
134.577 -0.89399999 -2.9760001 104
0 0 0 0
0 0 0 28
134.86 -1.284 -2.204 31
134.599 -1.408 -1.948 52
0 0 0 20
73.907997 -0.917 -0.78899997 50
73.902 -0.99000001 -0.64700001 71
73.985001 -1.062 -0.51099998 102
73.924004 -1.135 -0.37 66
73.001999 -1.1950001 -0.227 60
0 0 0 31
68.406998 -1.258 0.044 33
69.002998 -1.339 0.17399999 19
68.113998 -1.391 0.29899999 15
67.626999 -1.451 0.42399999 150
67.601997 -1.521 0.55000001 47
0 0 0 0
0 0 0 0
0 0 0 0
0 0 0 22
56.965 -1.5829999 0.99299997 29
56.73 -1.636 1.0930001 11
55.459999 -1.66 1.171 9
54.248001 -1.682 1.244 17
53.558998 -1.719 1.326 20
52.719002 -1.75 1.402 33
52.009998 -1.783 1.478 53
51.851002 -1.835 1.568 76
51.830002 -1.892 1.6619999 44
0 0 0 0
0 0 0 0
0 0 0 0
0 0 0 0
0 0 0 0
0 0 0 0
0 0 0 20
47.729 -2.1760001 2.214 99
47.738998 -2.2309999 2.299 67
0 0 0 22
43.904999 -2.1530001 2.2679999 32
43.771999 -2.198 2.3380001 28
43.587002 -2.24 2.404 8
42.882 -2.2539999 2.4400001 5
0 0 0 8
0 0 0 0
0 0 0 5
43.763 -2.5079999 2.7920001 24
43.731998 -2.559 2.865 40
42.799999 -2.556 2.8770001 49
42.776001 -2.6059999 2.948 60
42.757999 -2.6570001 3.0190001 66
41.484001 -2.628 2.9990001 37
41.431999 -2.675 3.0650001 62
41.443001 -2.7260001 3.1340001 62
40.618 -2.721 3.138 34
40.077999 -2.733 3.1619999 54
40.080002 -2.783 3.2279999 55
39.969002 -2.825 3.286 51
38.757999 -2.7869999 3.2490001 49
38.737 -2.8329999 3.3110001 62
38.742001 -2.881 3.3740001 62
38.297001 -2.8959999 3.3970001 30
37.394001 -2.8729999 3.3759999 56
37.396 -2.9200001 3.4360001 63
37.359001 -2.964 3.4920001 51
36.141998 -2.9130001 3.4349999 12
35.683998 -2.921 3.448 15
35.581001 -2.957 3.494 54
35.583 -3.0020001 3.55 59
35.594002 -3.0480001 3.6059999 57
35.577999 -3.092 3.661 59
35.582001 -3.1370001 3.7160001 57
35.598999 -3.184 3.773 61
35.594002 -3.2279999 3.825 57
35.611 -3.2750001 3.881 58
35.615002 -3.3210001 3.9360001 59
35.598999 -3.365 3.987 57
35.617001 -3.4119999 4.0419998 59
35.633999 -3.4590001 4.0970001 56
35.638 -3.5050001 4.1500001 58
35.632 -3.5510001 4.2020001 58
35.636002 -3.5969999 4.2540002 57
35.657001 -3.645 4.309 61
35.639999 -3.688 4.3579998 61
35.655998 -3.7360001 4.4109998 59
35.66 -3.783 4.4640002 62
35.660999 -3.829 4.5149999 60
35.672001 -3.875 4.5650001 58
35.681999 -3.9219999 4.6160002 59
35.686001 -3.9690001 4.6669998 61
35.673 -4.0139999 4.7160001 56
35.675999 -4.0609999 4.7639999 36
35.846001 -4.125 4.836 4
35.896 -4.178 4.8909998 3
35.859001 -4.2199998 4.9349999 3
35.974998 -4.2789998 4.9990001 2
0 0 0 2
0 0 0 0
0 0 0 0
0 0 0 0
0 0 0 0
0 0 0 2
35.924999 -4.598 5.322 2
0 0 0 0
0 0 0 0
0 0 0 2
35.938999 -4.7849998 5.5050001 2
36.028999 -4.842 5.5619998 2
0 0 0 2
0 0 0 1
28.056999 -3.8789999 4.4349999 12
27.944 -3.9000001 4.4499998 23
27.903999 -3.9300001 4.4770002 27
27.858999 -3.9579999 4.5019999 32
27.822001 -3.9890001 4.5289998 35
27.784 -4.0190001 4.5560002 38
27.76 -4.0500002 4.5830002 40
27.746 -4.0840001 4.6139998 42
27.719999 -4.1149998 4.6399999 45
27.711 -4.1490002 4.6700001 47
27.698999 -4.1820002 4.6989999 49
27.688999 -4.2160001 4.7280002 42
27.671 -4.2490001 4.756 53
27.656 -4.2820001 4.783 52
27.657 -4.316 4.8130002 48
27.673 -4.3530002 4.8449998 48
27.671 -4.3870001 4.8740001 43
27.672001 -4.4219999 4.9039998 46
27.683001 -4.4590001 4.934 47
27.698999 -4.4959998 4.9660001 43
27.705 -4.5300002 4.9949999 40
27.738001 -4.5700002 5.0300002 38
27.738001 -4.6040001 5.0560002 36
27.774 -4.6440001 5.0910001 33
27.804001 -4.6830001 5.1230001 28
27.855 -4.7259998 5.1599998 24
27.893999 -4.7649999 5.1939998 18
28.007 -4.8189998 5.2410002 6
0 0 0 24
33.286999 -5.8080001 6.2930002 23
33.143002 -5.823 6.2950001 25
33.014 -5.8400002 6.3010001 24
32.867001 -5.8540001 6.302 24
32.769001 -5.875 6.3119998 24
32.636002 -5.8899999 6.316 24
32.502998 -5.9050002 6.3189998 24
32.391998 -5.9219999 6.3239999 23
32.278999 -5.9390001 6.3299999 24
32.153 -5.954 6.3330002 23
32.027 -5.9679999 6.3340001 25
31.927 -5.9860001 6.3410001 25
31.797001 -5.9990001 6.3410001 25
31.697001 -6.0159998 6.3449998 24
31.601999 -6.033 6.3509998 27
31.475 -6.0450001 6.3499999 26
31.388 -6.0640001 6.3559999 26
31.278 -6.0780001 6.3579998 24
31.181999 -6.0949998 6.3610001 27
31.094999 -6.112 6.3660002 29
31.011999 -6.131 6.3720002 28
30.927 -6.1469998 6.3769999 29
30.841999 -6.164 6.381 24
30.746 -6.1789999 6.382 27
30.656 -6.1950002 6.3839998 29
30.563999 -6.2080002 6.3860002 27
30.489 -6.2259998 6.3899999 23
30.419001 -6.244 6.3959999 24
30.325001 -6.257 6.3959999 29
30.256001 -6.2750001 6.401 29
30.184 -6.2919998 6.4039998 25
30.105 -6.3070002 6.4050002 24
30.016001 -6.3200002 6.4039998 24
29.945999 -6.336 6.4070001 24
29.879 -6.3530002 6.4099998 23
0 0 0 1
20.017 -4.296 4.3169999 11
19.950001 -4.3010001 4.3130002 17
19.905001 -4.3119998 4.3130002 20
19.872999 -4.3249998 4.3169999 24
19.834 -4.336 4.3189998 25
19.809999 -4.349 4.323 29
19.771999 -4.3610001 4.3249998 30
19.731001 -4.3709998 4.3260002 32
19.732 -4.3889999 4.335 31
19.728001 -4.4070001 4.3429999 32
19.687 -4.4169998 4.3429999 37
19.676001 -4.4320002 4.349 39
19.659 -4.447 4.3540001 38
19.643999 -4.461 4.3590002 36
19.643 -4.4790001 4.3660002 40
19.615 -4.4899998 4.368 42
19.629 -4.5110002 4.3790002 45
19.622 -4.526 4.3850002 31
19.608999 -4.54 4.3889999 48
19.605 -4.5570002 4.395 47
19.579 -4.5679998 4.395 50
19.577 -4.5840001 4.401 50
19.577 -4.6009998 4.408 51
19.577 -4.6170001 4.414 36
19.562 -4.6290002 4.4159999 51
19.558001 -4.645 4.421 53
19.558001 -4.6609998 4.4260001 54
19.555 -4.6760001 4.4310002 56
19.549 -4.6900001 4.4349999 36
19.559999 -4.7069998 4.4419999 39
19.544001 -4.7189999 4.4429998 37
19.549 -4.7350001 4.448 56
19.545 -4.7490001 4.4510002 51
19.542999 -4.763 4.4549999 52
19.546 -4.7779999 4.46 47
19.549999 -4.7930002 4.4640002 45
19.552 -4.8080001 4.4679999 29
19.541 -4.8189998 4.4679999 41
19.541 -4.8330002 4.4710002 44
19.552999 -4.8499999 4.4770002 46
19.547001 -4.862 4.4780002 42
19.576 -4.882 4.487 33
19.556 -4.8899999 4.4840002 32
19.563999 -4.9050002 4.4879999 43
19.563999 -4.9169998 4.4899998 45
19.577 -4.9330001 4.494 40
19.582001 -4.947 4.4959998 40
19.572001 -4.9569998 4.4949999 39
19.58 -4.9699998 4.4980001 37
19.584 -4.9829998 4.4990001 39
19.589001 -4.9959998 4.5009999 36
19.601 -5.0100002 4.5029998 35
19.624001 -5.027 4.5089998 33
19.636999 -5.0419998 4.5110002 32
19.645 -5.0549998 4.513 31
19.643999 -5.0650001 4.5120001 29
19.662001 -5.0799999 4.5159998 29
19.664 -5.0910001 4.5149999 26
19.68 -5.105 4.5180001 25
19.688999 -5.1170001 4.5180001 23
19.718 -5.1339998 4.5229998 22
19.724001 -5.145 4.5219998 21
19.752001 -5.1620002 4.527 19
19.754999 -5.1719999 4.5250001 18
19.785 -5.1880002 4.5300002 17
19.783001 -5.197 4.527 15
19.832001 -5.2179999 4.5349998 14
19.853001 -5.2319999 4.5370002 7
19.872 -5.2449999 4.5380001 3
19.823 -5.2399998 4.5229998 1
0 0 0 23
28.233999 -7.4850001 6.4310002 27
28.261 -7.5019999 6.4320002 25
28.278 -7.5159998 6.4289999 28
28.285 -7.5279999 6.4239998 27
28.332001 -7.5500002 6.428 27
28.351 -7.5640001 6.4250002 26
28.367001 -7.5770001 6.421 27
28.41 -7.5970001 6.4229999 24
28.445 -7.6149998 6.4229999 24
28.485001 -7.6329999 6.4239998 25
28.487 -7.6420002 6.4159999 27
28.504 -7.6539998 6.4109998 27
28.542 -7.671 6.4109998 28
28.594999 -7.6919999 6.4130001 28
28.618999 -7.7049999 6.4089999 27
28.65 -7.7189999 6.4060001 28
28.694 -7.737 6.4050002 24
28.753 -7.7579999 6.408 23
28.771999 -7.7690001 6.401 23
28.830999 -7.79 6.4029999 24
28.875999 -7.8060002 6.401 23
28.916 -7.8210001 6.3979998 26
28.974001 -7.8410001 6.3990002 25
29.031 -7.8600001 6.3990002 24
29.062 -7.8720002 6.3930001 27
29.122999 -7.8909998 6.3940001 27
29.18 -7.9089999 6.3930001 24
29.218 -7.921 6.388 23
29.263 -7.9359999 6.3839998 23
29.323999 -7.954 6.3839998 24
29.363001 -7.9650002 6.3769999 24
29.43 -7.9850001 6.3769999 26
29.511 -8.007 6.3790002 24
29.565001 -8.0220003 6.3759999 21
29.625 -8.0389996 6.3730001 23
29.671 -8.0500002 6.3670001 22
29.752001 -8.0719995 6.368 24
29.811001 -8.0869999 6.3639998 22
29.867001 -8.1009998 6.3590002 25
29.937 -8.118 6.3569999 23
30.007999 -8.1359997 6.3540001 22
30.07 -8.1499996 6.3499999 24
30.153 -8.1700001 6.348 21
30.221001 -8.1850004 6.3439999 23
30.295 -8.2019997 6.3410001 22
30.355 -8.2139997 6.335 24
30.444 -8.2340002 6.3340001 24
30.525999 -8.2519999 6.3309999 24
30.596001 -8.2659998 6.3260002 22
30.665001 -8.2790003 6.3200002 27
30.742001 -8.2939997 6.3150001 26
30.799 -8.3039999 6.3060002 27
30.857 -8.3129997 6.2969999 27
30.908001 -8.3199997 6.2859998 26
30.938 -8.3219995 6.27 26
30.972 -8.323 6.256 25
31.007999 -8.3249998 6.2399998 26
31.041 -8.3260002 6.224 26
31.062 -8.323 6.2049999 25
31.075001 -8.3170004 6.1849999 24
31.104 -8.3170004 6.1669998 25
31.122 -8.3120003 6.1469998 23
31.146999 -8.3079996 6.1290002 22
31.132999 -8.2939997 6.1009998 22
31.098 -8.2740002 6.0700002 22
31.042 -8.2480001 6.0349998 22
30.987 -8.2220001 6 22
30.948 -8.1999998 5.967 22
30.913 -8.1789999 5.9349999 21
30.891001 -8.1610003 5.9070001 21
0 0 0 1
19.825001 -5.2210002 3.757 3
19.816 -5.21 3.7390001 7
19.781 -5.1919999 3.7149999 12
19.766001 -5.1789999 3.6960001 15
19.740999 -5.1630001 3.675 17
19.712999 -5.1459999 3.652 19
19.702999 -5.1339998 3.6329999 21
19.681 -5.119 3.612 23
19.666 -5.105 3.5910001 23
19.667 -5.0949998 3.5739999 25
19.653 -5.0809999 3.553 26
19.635 -5.0650001 3.5320001 22
19.608 -5.0479999 3.5090001 29
19.608 -5.0359998 3.4909999 32
19.589001 -5.02 3.47 31
19.568001 -5.0029998 3.448 34
19.573999 -4.993 3.4300001 35
19.555 -4.9759998 3.4089999 36
19.545 -4.961 3.388 38
19.531 -4.9450002 3.368 38
19.539 -4.9349999 3.3499999 39
19.533001 -4.921 3.3299999 40
19.511999 -4.902 3.3069999 41
19.535 -4.895 3.2920001 33
19.518 -4.8769999 3.27 43
19.517 -4.8629999 3.2509999 46
19.52 -4.8499999 3.2320001 33
19.5 -4.8309999 3.2090001 46
19.509001 -4.8189998 3.191 46
19.504999 -4.803 3.1700001 44
19.492001 -4.7849998 3.1489999 40
19.492001 -4.77 3.1289999 40
19.502001 -4.7579999 3.1110001 48
19.492001 -4.7399998 3.089 50
19.5 -4.7270002 3.0699999 52
19.497 -4.71 3.049 55
19.496 -4.6939998 3.029 53
19.495001 -4.678 3.0079999 56
19.493999 -4.6609998 2.987 54
19.503 -4.6469998 2.9679999 56
19.504999 -4.6300001 2.947 55
19.504999 -4.6129999 2.9260001 55
19.516001 -4.599 2.9070001 57
19.509001 -4.5799999 2.885 49
19.521 -4.5640001 2.8659999 55
19.528 -4.5489998 2.846 57
19.525 -4.5300002 2.8239999 44
19.533001 -4.5139999 2.8039999 48
19.558001 -4.5009999 2.7869999 45
19.542999 -4.4790001 2.763 44
19.565001 -4.4650002 2.744 45
19.575001 -4.448 2.724 40
19.582001 -4.4310002 2.704 40
19.591 -4.4130001 2.6830001 42
19.601 -4.3959999 2.6619999 42
19.628 -4.382 2.645 39
19.641001 -4.3649998 2.6240001 38
19.656 -4.348 2.6040001 36
19.677999 -4.3319998 2.585 36
19.721001 -4.3210001 2.5680001 32
19.739 -4.3039999 2.5480001 31
19.773001 -4.29 2.53 29
19.798 -4.2740002 2.5109999 25
19.856001 -4.2639999 2.4960001 22
19.910999 -4.2540002 2.48 18
19.966999 -4.244 2.464 4
0 0 0 0
0 0 0 0
0 0 0 0
0 0 0 0
0 0 0 0
0 0 0 0
0 0 0 0
0 0 0 0
0 0 0 0
0 0 0 0
0 0 0 0
0 0 0 0
0 0 0 0
0 0 0 0
0 0 0 0
0 0 0 0
0 0 0 0
0 0 0 0
0 0 0 0
0 0 0 0
0 0 0 5
35.800999 -6.6430001 3.5 28
35.827 -6.5999999 3.46 19
0 0 0 0
0 0 0 0
0 0 0 0
0 0 0 0
0 0 0 0
0 0 0 0
0 0 0 0
0 0 0 0
0 0 0 0
0 0 0 1
27.833 -4.7020001 2.3280001 13
27.743 -4.6479998 2.2880001 23
27.686001 -4.598 2.25 29
27.650999 -4.552 2.2149999 33
27.622999 -4.507 2.1800001 35
27.606001 -4.4640002 2.1470001 40
27.586 -4.4190001 2.1129999 46
27.577999 -4.3779998 2.0799999 48
27.558001 -4.3330002 2.046 51
27.562 -4.2930002 2.0150001 50
27.556999 -4.2490001 1.982 58
27.545 -4.2059999 1.949 63
27.563999 -4.1669998 1.918 62
27.582001 -4.1269999 1.887 56
27.591999 -4.086 1.8559999 50
27.614 -4.046 1.825 45
27.638 -4.0079999 1.796 42
27.666 -3.967 1.765 39
27.695999 -3.928 1.735 36
27.74 -3.891 1.706 31
27.799 -3.855 1.678 25
27.879999 -3.8210001 1.65 20
28.025 -3.796 1.627 7
0 0 0 45
35.619999 -4.71 1.9859999 46
35.599998 -4.6490002 1.944 40
35.587002 -4.5900002 1.903 68
35.562 -4.5279999 1.862 68
35.568001 -4.4699998 1.822 68
35.561001 -4.4099998 1.781 70
35.547001 -4.348 1.74 71
35.551998 -4.2909999 1.702 76
35.555 -4.2319999 1.6619999 80
35.555 -4.1719999 1.622 69
35.533001 -4.1100001 1.581 80
35.542999 -4.0510001 1.543 83
35.526001 -3.9879999 1.503 88
35.522999 -3.928 1.464 89
35.526001 -3.8670001 1.425 94
35.518002 -3.806 1.386 99
35.5 -3.743 1.347 101
35.504002 -3.6800001 1.308 96
35.483002 -3.6159999 1.2690001 90
35.501999 -3.556 1.2309999 74
35.493999 -3.493 1.192 96
35.479 -3.4289999 1.154 90
35.459999 -3.365 1.115 98
35.487 -3.3050001 1.0779999 94
35.709 -3.2620001 1.0470001 9
36.179001 -3.2409999 1.023 6
36.632 -3.217 0.99699998 7
37.087002 -3.1900001 0.97100002 7
37.563 -3.165 0.94499999 7
39.374001 -3.247 0.949 86
39.361 -3.175 0.90899998 85
39.366001 -3.1040001 0.86799997 69
39.376999 -3.0339999 0.829 17
39.944 -3.0050001 0.80000001 5
40.778999 -2.993 0.77499998 8
40.894001 -2.927 0.736 17
0 0 0 102
43.41 -2.9489999 0.69499999 101
43.398998 -2.8670001 0.65100002 98
43.601002 -2.799 0.611 6
44.259998 -2.7590001 0.57599998 5
46.021 -2.783 0.55400002 17
46.084 -2.7030001 0.51099998 38
47.624001 -2.7060001 0.48199999 15
47.647999 -2.618 0.43599999 54
47.839001 -2.5380001 0.39199999 8
48.523998 -2.484 0.352 3
48.240002 -2.3789999 0.30399999 20
0 0 0 88
51.476002 -2.3429999 0.227 43
51.847 -2.2609999 0.18000001 17
52.146 -2.175 0.133 15
0 0 0 67
59.183998 -2.244 0.041999999 72
59.569 -2.1440001 -0.011 133
59.571999 -2.03 -0.064999998 107
59.562 -1.915 -0.118 100
59.877998 -1.8099999 -0.17299999 28
60.16 -1.702 -0.227 7
0 0 0 97
67.624001 -1.652 -0.37400001 75
67.599998 -1.518 -0.43399999 77
67.813004 -1.391 -0.49399999 41
70.780998 -1.318 -0.57499999 55
73 -1.217 -0.65499997 105
73.994003 -1.089 -0.72600001 63
73.917 -0.94599998 -0.787 39
73.889 -0.801 -0.84799999 30
0 0 0 0
0 0 0 89
134.532 -0.671 -1.875 121
134.843 -0.40700001 -1.989 30
0 0 0 0
0 0 0 0
0 0 0 0
0 0 0 0
0 0 0 0
0 0 0 0
0 0 0 0
0 0 0 0
0 0 0 0
0 0 0 37
0 0 0 0
0 0 0 0
0 0 0 0
0 0 0 0
0 0 0 25
0 0 0 5
40.487 1.2359999 -1.1109999 27
40.306 1.309 -1.133 150
40.139999 1.3839999 -1.156 150
40.012001 1.459 -1.179 61
39.830002 1.5319999 -1.201 26
39.726002 1.607 -1.224 33
39.625 1.682 -1.247 47
39.594002 1.76 -1.271 77
39.577 1.837 -1.296 98
39.598999 1.9170001 -1.322 75
39.595001 1.995 -1.346 63
39.609001 2.075 -1.372 61
39.631001 2.154 -1.396 55
39.701 2.237 -1.423 7
39.687 2.316 -1.446 8
39.856998 2.405 -1.476 7
39.803001 2.48 -1.497 9
39.852001 2.562 -1.522 8
39.882999 2.6440001 -1.546 6
39.874001 2.723 -1.568 12
40.018002 2.8110001 -1.596 9
40.007999 2.8900001 -1.617 34
40.060001 2.973 -1.641 24
40.085999 3.052 -1.663 21
40.129002 3.135 -1.686 19
40.214001 3.223 -1.711 15
40.258999 3.306 -1.734 10
40.299 3.388 -1.755 7
40.323002 3.471 -1.777 3
0 0 0 25
0 0 0 25
0 0 0 0
0 0 0 0
0 0 0 0
0 0 0 0
0 0 0 0
0 0 0 0
0 0 0 0
0 0 0 0
0 0 0 0
0 0 0 0
0 0 0 1
0 0 0 0
0 0 0 0
0 0 0 1
0 0 0 3
0 0 0 0
0 0 0 3
26.964001 3.372 -1.418 2
26.555 3.372 -1.405 2
0 0 0 1
23.775999 3.1099999 -1.274 2
23.528999 3.122 -1.2690001 2
0 0 0 0
0 0 0 1
21.938 3.036 -1.204 2
20.834 2.9230001 -1.15 3
21.356001 3.036 -1.1849999 3
21.103001 3.04 -1.177 2
0 0 0 2
19.818001 2.9289999 -1.117 2
19.525999 2.9230001 -1.1059999 4
18.632 2.8239999 -1.0599999 4
18.761999 2.878 -1.072 4
18.639999 2.8940001 -1.0700001 4
19.164 3.0109999 -1.105 3
18.211 2.895 -1.054 2
17.697001 2.845 -1.028 1
17.594 2.8610001 -1.026 1
17.568001 2.8889999 -1.028 1
0 0 0 0
0 0 0 0
0 0 0 0
0 0 0 0
0 0 0 0
0 0 0 2
16.697001 2.9560001 -1 4
16.767 2.9990001 -1.007 3
16.628 3.003 -1.001 3
16.805 3.0650001 -1.0140001 3
16.766001 3.0880001 -1.0140001 3
16.693001 3.1029999 -1.012 3
17.152 3.2179999 -1.0420001 3
17.004999 3.221 -1.035 3
16.971001 3.243 -1.036 4
16.896 3.2579999 -1.033 5
16.921 3.2920001 -1.036 6
16.785 3.2950001 -1.03 5
16.672001 3.3010001 -1.024 5
16.437 3.2820001 -1.011 5
16.351 3.2920001 -1.007 5
16.289 3.3069999 -1.005 5
16.267 3.3299999 -1.005 5
16.219 3.348 -1.003 5
16.249001 3.381 -1.006 5
16.531 3.467 -1.024 5
16.284 3.4419999 -1.01 4
16.24 3.4590001 -1.007 4
16.184 3.473 -1.005 4
16.143 3.4909999 -1.002 5
16.097 3.507 -1 4
16.040001 3.52 -0.99699998 4
16.082001 3.5550001 -1 4
16.058001 3.575 -0.99800003 4
16.045 3.5969999 -0.99800003 4
16.070999 3.6289999 -1 4
16.049999 3.6489999 -0.99800003 4
16.035999 3.671 -0.99699998 4
16.01 3.6889999 -0.995 4
16.041 3.721 -0.99599999 3
16.011999 3.7390001 -0.99400002 4
15.948 3.7479999 -0.98900002 3
16.016001 3.7880001 -0.99299997 4
16.021 3.813 -0.99299997 3
16.052999 3.845 -0.99400002 4
16.079 3.8759999 -0.995 4
16.093 3.902 -0.99400002 4
16.072001 3.9200001 -0.99199998 4
16.134001 3.9590001 -0.995 4
16.153 3.987 -0.995 4
16.198 4.0209999 -0.99599999 4
16.187 4.0419998 -0.99400002 4
16.228001 4.0749998 -0.995 4
16.226999 4.0970001 -0.99299997 5
16.226 4.1199999 -0.99199998 5
16.238001 4.145 -0.991 4
0 0 0 1
10.439 2.6930001 -0.63499999 1
10.5 2.723 -0.63700002 1
10.454 2.7249999 -0.63300002 1
10.375 2.7179999 -0.62699997 1
10.237 2.6960001 -0.61699998 1
10.204 2.701 -0.61400002 1
10.129 2.694 -0.60799998 1
10.083 2.6949999 -0.60299999 1
10.038 2.6949999 -0.59899998 2
10.016 2.7019999 -0.59600002 2
9.9820004 2.7060001 -0.59299999 2
9.9499998 2.7090001 -0.58899999 2
9.9370003 2.7179999 -0.58700001 2
9.9029999 2.721 -0.583 2
9.8929996 2.73 -0.58099997 2
9.8769999 2.737 -0.57800001 2
9.8640003 2.7460001 -0.57499999 2
9.8459997 2.7520001 -0.57200003 2
9.8369999 2.7609999 -0.56999999 2
9.8030005 2.7620001 -0.56599998 2
9.8109999 2.776 -0.56400001 2
9.79 2.7809999 -0.56099999 2
9.7840004 2.79 -0.55900002 2
9.7740002 2.7980001 -0.55599999 3
9.7670002 2.8069999 -0.55400002 3
9.7440004 2.8110001 -0.55000001 3
9.7270002 2.816 -0.54699999 3
9.7360001 2.829 -0.54500002 3
9.7290001 2.8369999 -0.54299998 3
9.7089996 2.8410001 -0.53899997 3
9.71 2.852 -0.537 3
9.7010002 2.859 -0.53399998 3
9.6960001 2.8670001 -0.53100002 3
9.6920004 2.8759999 -0.52899998 3
9.6730003 2.8789999 -0.52499998 3
9.6730003 2.888 -0.523 3
9.6730003 2.898 -0.51999998 3
9.651 2.9000001 -0.51599997 3
9.6499996 2.908 -0.514 3
9.6490002 2.9170001 -0.51099998 3
9.6420002 2.924 -0.50800002 3
9.6350002 2.9300001 -0.505 3
9.6470003 2.9419999 -0.50300002 3
9.625 2.9430001 -0.49900001 3
9.6120005 2.948 -0.49599999 3
9.6059999 2.954 -0.493 3
9.5860004 2.9549999 -0.48899999 3
9.5799999 2.961 -0.48500001 5
9.5749998 2.967 -0.48300001 7
9.5530005 2.9679999 -0.47799999 15
9.5410004 2.9719999 -0.47499999 18
9.5430002 2.9790001 -0.472 60
9.5740004 2.9960001 -0.47099999 152
9.5439997 2.994 -0.46599999 152
9.5860004 3.0139999 -0.465 152
9.5489998 3.0090001 -0.46000001 138
9.5340004 3.01 -0.45699999 99
9.5270004 3.0139999 -0.45300001 80
9.5139999 3.017 -0.44999999 73
9.5200005 3.0250001 -0.447 88
9.5299997 3.0339999 -0.44400001 103
9.5200005 3.0369999 -0.44 110
9.5170002 3.0409999 -0.43700001 117
9.5170002 3.0469999 -0.43399999 118
9.5240002 3.0550001 -0.43099999 119
9.5179996 3.0580001 -0.42699999 120
9.5209999 3.0650001 -0.42399999 122
9.5080004 3.0650001 -0.41999999 123
9.507 3.0699999 -0.41600001 123
9.4980001 3.072 -0.41299999 123
9.5089998 3.0799999 -0.41 123
9.4989996 3.082 -0.40599999 124
9.4969997 3.085 -0.40200001 123
9.5010004 3.0910001 -0.39899999 124
9.5030003 3.096 -0.396 123
9.4989996 3.099 -0.39199999 123
9.4919996 3.0999999 -0.38800001 124
9.493 3.1040001 -0.38499999 126
9.5100002 3.1129999 -0.382 134
9.4989996 3.1129999 -0.37799999 141
9.4980001 3.1159999 -0.37400001 134
9.5010004 3.1199999 -0.37099999 144
9.4980001 3.122 -0.36700001 146
9.4870005 3.122 -0.36300001 146
9.4910002 3.1259999 -0.36000001 148
9.493 3.1289999 -0.35600001 146
9.4960003 3.1329999 -0.35299999 148
9.4980001 3.1359999 -0.34900001 150
9.4940004 3.1370001 -0.345 150
9.493 3.1389999 -0.34099999 150
9.4969997 3.142 -0.338 150
9.4910002 3.142 -0.33399999 150
9.5019999 3.1470001 -0.331 150
9.4949999 3.1459999 -0.32699999 150
9.4980001 3.1489999 -0.32300001 150
9.5050001 3.152 -0.31900001 150
9.5019999 3.1530001 -0.31600001 150
9.5050001 3.154 -0.31200001 150
9.4960003 3.152 -0.308 150
9.5120001 3.158 -0.30500001 150
9.4949999 3.1530001 -0.30000001 150
9.5089998 3.1589999 -0.29699999 150
9.5080004 3.1589999 -0.29300001 150
9.5019999 3.1570001 -0.289 150
9.5010004 3.1559999 -0.285 150
9.4980001 3.155 -0.28099999 150
9.5039997 3.1570001 -0.27700001 150
9.4989996 3.155 -0.273 150
9.4940004 3.1530001 -0.26899999 150
9.5089998 3.1570001 -0.266 150
9.4940004 3.151 -0.26100001 150
9.5010004 3.1530001 -0.25799999 150
9.4940004 3.1500001 -0.25400001 150
9.5059996 3.152 -0.25 150
9.4849997 3.1440001 -0.24600001 150
9.4960003 3.1459999 -0.242 150
9.4989996 3.1459999 -0.23800001 150
9.4960003 3.1429999 -0.234 150
9.5039997 3.1440001 -0.23 150
9.5010004 3.141 -0.226 150
9.5050001 3.1400001 -0.222 150
9.5080004 3.1389999 -0.219 150
9.5089998 3.1370001 -0.215 150
9.5030003 3.132 -0.20999999 150
9.5039997 3.1300001 -0.207 150
9.5089998 3.128 -0.20299999 150
9.4980001 3.122 -0.199 150
9.4989996 3.119 -0.19499999 150
9.5010004 3.1170001 -0.191 150
9.5179996 3.119 -0.18700001 150
9.5080004 3.112 -0.183 150
9.5170002 3.1110001 -0.17900001 150
9.5089998 3.105 -0.175 150
9.5129995 3.102 -0.171 150
9.5139999 3.098 -0.167 150
9.5209999 3.0969999 -0.163 150
9.507 3.0880001 -0.15899999 150
9.5179996 3.0869999 -0.156 150
9.5279999 3.085 -0.152 150
9.5249996 3.0799999 -0.148 150
9.5129995 3.0710001 -0.14399999 142
9.5200005 3.0680001 -0.14 139
9.5229998 3.0639999 -0.13600001 139
9.5270004 3.0599999 -0.132 134
9.526 3.0539999 -0.12899999 132
9.5220003 3.0469999 -0.125 129
9.5080004 3.0369999 -0.12 118
9.5170002 3.0339999 -0.117 114
9.5209999 3.03 -0.113 107
9.5290003 3.026 -0.109 101
9.5150003 3.016 -0.105 97
9.5249996 3.0120001 -0.101 88
9.526 3.006 -0.097000003 79
9.5240002 2.9990001 -0.093999997 71
9.5310001 2.994 -0.090000004 63
9.5310001 2.987 -0.086000003 51
9.5229998 2.9779999 -0.082999997 37
9.5349998 2.9749999 -0.079000004 26
9.5439997 2.97 -0.075000003 13
9.54 2.9619999 -0.071000002 10
9.5889997 2.9690001 -0.068000004 5
9.6000004 2.9649999 -0.064000003 2
9.6339998 2.9679999 -0.061000001 1
9.6630001 2.9679999 -0.057 1
9.6400003 2.9530001 -0.054000001 14
9.6499996 2.948 -0.050000001 29
9.6400003 2.937 -0.046 35
9.6820002 2.941 -0.043000001 155
9.6850004 2.9330001 -0.039000001 155
9.724 2.9360001 -0.035 154
9.6330004 2.9000001 -0.032000002 23
9.6820002 2.9059999 -0.028000001 16
9.7010002 2.9030001 -0.025 90
9.6719999 2.885 -0.021 30
9.7489996 2.898 -0.017999999 4
9.7880001 2.9000001 -0.014 10
9.823 2.9000001 -0.011 8
9.8450003 2.8970001 -0.0070000002 1
9.9119997 2.9059999 -0.0040000002 1
9.9309998 2.902 0 1
9.9379997 2.8929999 0.0020000001 1
9.915 2.8759999 0.0060000001 1
9.8470001 2.846 0.0089999996 1
9.835 2.832 0.012 2
9.8459997 2.8239999 0.016000001 4
9.8509998 2.8150001 0.018999999 3
9.8649998 2.8069999 0.023 2
9.8929996 2.8039999 0.026000001 1
9.9119997 2.7980001 0.028999999 3
9.9189997 2.789 0.032000002 3
9.9790001 2.7939999 0.035999998 1
9.9840002 2.7839999 0.039000001 1
9.9960003 2.7750001 0.041999999 2
10.027 2.7720001 0.046 2
10.069 2.7709999 0.048999999 3
10.114 2.7709999 0.052999999 5
10.186 2.7780001 0.056000002 52
10.216 2.7739999 0.059 104
10.218 2.7609999 0.063000001 33
10.274 2.7639999 0.066 142
10.315 2.7609999 0.068999998 152
10.264 2.734 0.071999997 33
10.347 2.743 0.075000003 1
10.309 2.7190001 0.078000002 1
0 0 0 8
37.271999 9.7329998 0.30399999 19
37.391998 9.7130003 0.315 9
37.271999 9.6309996 0.324 14
37.273998 9.5799999 0.33399999 18
37.349998 9.5480003 0.345 3
0 0 0 24
74.059998 18.725 0.722 33
74.241997 18.664 0.741 35
74.554001 18.636 0.76300001 29
0 0 0 16
46.339001 11.45 0.49700001 54
46.334 11.381 0.50800002 80
46.390999 11.326 0.51899999 55
46.518002 11.289 0.53100002 10
0 0 0 15
74.918999 17.957001 0.889 10
0 0 0 0
0 0 0 11
0 0 0 0
0 0 0 11
64.434998 14.953 0.83099997 8
0 0 0 41
50.973 11.67 0.67699999 12
0 0 0 19
66.707001 15.058 0.91000003 11
67.986 15.24 0.93800002 34
68.211998 15.182 0.95300001 33
0 0 0 7
54.681999 11.993 0.78200001 44
54.716 11.914 0.79100001 30
0 0 0 25
47.446999 10.174 0.699 5
47.363998 10.079 0.70599997 21
47.540001 10.039 0.71399999 9
47.532001 9.9569998 0.72000003 49
47.534 9.8780003 0.72600001 72
47.541 9.8000002 0.73100001 55
47.542999 9.7189999 0.73799998 59
0 0 0 10
37.551998 7.5489998 0.58999997 20
37.632999 7.5 0.59500003 24
37.581001 7.4250002 0.59799999 24
37.330002 7.3099999 0.597 29
37.419998 7.263 0.602 30
37.402 7.1929998 0.60399997 28
37.314999 7.1110001 0.60500002 43
37.306999 7.0430002 0.60699999 43
37.237999 6.9640002 0.60900003 33
37.269001 6.9029999 0.611 11
0 0 0 21
51.485001 9.3540001 0.85000002 29
51.596001 9.283 0.85299999 20
51.518002 9.1759996 0.85299999 21
51.443001 9.0690002 0.85299999 21
51.457001 8.9759998 0.85399997 16
0 0 0 0
0 0 0 15
53.712002 9.0719995 0.89300001 33
53.832001 8.9940004 0.89499998 33
54.027 8.927 0.89700001 33
0 0 0 9
47.626999 7.6939998 0.79000002 17
47.509998 7.586 0.78600001 27
46.921001 7.4039998 0.77499998 26
46.863998 7.3060002 0.77200001 27
46.962002 7.2329998 0.77200001 27
46.866001 7.1300001 0.76700002 11
47.397999 7.1209998 0.773 10
47.316002 7.0180001 0.76899999 21
47.318001 6.9299998 0.76499999 4
47.313 6.8379998 0.76099998 8
47.126999 6.7199998 0.75400001 13
47.018002 6.6139998 0.74800003 16
46.981998 6.5180001 0.74299997 4
0 0 0 18
68.225998 9.2030001 1.064 10
0 0 0 0
0 0 0 12
71.268997 9.1960001 1.085 9
71.597 9.0970001 1.08 25
71.946999 9 1.075 27
71.727997 8.8299999 1.0599999 22
0 0 0 0
0 0 0 35
0 0 0 0
0 0 0 0
0 0 0 36
78.653 8.7489996 1.081 45
78.485001 8.5740004 1.063 48
78.386002 8.4060001 1.046 35
77.275002 8.1339998 1.0140001 16
0 0 0 0
0 0 0 21
74.446999 7.3889999 0.926 34
74.379997 7.2319999 0.90700001 46
73.980003 7.0450001 0.88499999 45
74.115997 6.9099998 0.86799997 46
74.214996 6.7690001 0.85000002 29
0 0 0 0
0 0 0 0
0 0 0 0
0 0 0 0
0 0 0 0
0 0 0 0
0 0 0 0
0 0 0 0
0 0 0 0
0 0 0 0
0 0 0 0
0 0 0 0
0 0 0 18
88.625999 5.5580001 0.62599999 15
88.655998 5.3779998 0.59399998 16
88.606003 5.1919999 0.56 14
0 0 0 0
0 0 0 18
88.633003 4.645 0.45699999 14
0 0 0 0
0 0 0 0
0 0 0 14
0 0 0 0
0 0 0 0
0 0 0 14
89.398003 3.391 0.19400001 15
89.402 3.2060001 0.154 22
89.230003 3.016 0.112 20
89.110001 2.8299999 0.071000002 25
89.177002 2.645 0.028000001 25
89.467003 2.471 -0.013 23
89.287003 2.283 -0.056000002 14
89.558998 2.102 -0.102 15
0 0 0 0
0 0 0 0
0 0 0 0
0 0 0 0
0 0 0 0
0 0 0 0
0 0 0 0
0 0 0 0
0 0 0 0
0 0 0 0
0 0 0 0
0 0 0 0
0 0 0 31
134.53101 -0.71499997 -1.182 47
0 0 0 58
73.892998 -0.69700003 -0.73799998 60
73.902 -0.84799999 -0.78399998 46
73.959999 -1.001 -0.82999998 52
73.025002 -1.136 -0.86500001 95
0 0 0 0
0 0 0 79
67.588997 -1.47 -0.93199998 70
67.599998 -1.608 -0.97600001 94
67.578003 -1.745 -1.02 97
67.620003 -1.8839999 -1.066 40
0 0 0 6
59.526001 -1.903 -1.02 115
59.534 -2.0220001 -1.0599999 105
0 0 0 35
45.412998 -1.725 -0.87099999 52
45.168999 -1.807 -0.89899999 30
44.598999 -1.874 -0.91900003 24
44.464001 -1.9579999 -0.94800001 41
44.567001 -2.052 -0.98299998 41
44.462002 -2.1370001 -1.013 41
43.998001 -2.2030001 -1.035 42
44.033001 -2.2939999 -1.069 40
43.596001 -2.3570001 -1.091 37
43.442001 -2.437 -1.12 23
0 0 0 2
0 0 0 36
43.311001 -2.6849999 -1.215 22
43.339001 -2.773 -1.25 99
0 0 0 3
27.245001 -1.85 -0.82800001 2
0 0 0 52
0 0 0 6
39.962002 -2.951 -1.312 7
39.289001 -2.977 -1.321 41
0 0 0 6
22.782 -1.8150001 -0.80299997 5
22.316999 -1.821 -0.80500001 1
21.941999 -1.832 -0.81 1
21.568001 -1.8430001 -0.81400001 1
21.336 -1.864 -0.82300001 1
21.069 -1.881 -0.83099997 1
20.764999 -1.8940001 -0.83700001 1
19.818001 -1.845 -0.815 3
19.763 -1.877 -0.82999998 3
19.778999 -1.916 -0.84799999 3
19.747 -1.951 -0.86400002 4
19.652 -1.979 -0.87699997 1
19.542 -2.0050001 -0.88999999 1
19.462 -2.033 -0.903 1
19.532 -2.0769999 -0.92400002 2
19.537001 -2.1129999 -0.94099998 3
19.531 -2.1500001 -0.95899999 4
19.573 -2.191 -0.97899997 3
19.660999 -2.237 -1.001 4
19.709 -2.279 -1.022 3
19.790001 -2.325 -1.044 3
19.906 -2.375 -1.069 3
0 0 0 0
0 0 0 1
27.979 -3.4909999 -1.581 1
28.118 -3.559 -1.615 1
0 0 0 3
0 0 0 0
0 0 0 0
0 0 0 1
20.583 -2.789 -1.28 1
0 0 0 1
0 0 0 1
17.785999 -2.5039999 -1.1569999 2
17.198 -2.451 -1.136 1
17.466 -2.52 -1.17 1
16.979 -2.4779999 -1.154 2
0 0 0 0
0 0 0 3
14.801 -2.237 -1.05 4
15.011 -2.2939999 -1.08 4
14.585 -2.2539999 -1.064 4
14.333 -2.24 -1.0599999 4
14.077 -2.223 -1.0549999 4
13.842 -2.2090001 -1.051 5
13.618 -2.1949999 -1.0470001 4
13.32 -2.1700001 -1.038 4
12.912 -2.1240001 -1.0190001 3
12.598 -2.0929999 -1.007 3
12.208 -2.049 -0.98799998 3
11.955 -2.026 -0.98000002 2
11.718 -2.0039999 -0.972 2
11.455 -1.978 -0.96200001 2
11.178 -1.948 -0.94999999 2
10.944 -1.925 -0.94199997 2
10.686 -1.896 -0.93000001 2
10.476 -1.875 -0.92299998 2
10.252 -1.851 -0.91399997 2
10.034 -1.8279999 -0.90499997 3
9.8559999 -1.811 -0.89899999 3
9.6759996 -1.793 -0.89200002 4
9.4989996 -1.774 -0.88599998 3
9.2849998 -1.748 -0.875 4
9.092 -1.726 -0.86699998 4
8.9420004 -1.711 -0.86199999 3
8.7679996 -1.691 -0.85399997 3
8.6140003 -1.674 -0.84799999 3
8.4560003 -1.656 -0.84100002 3
8.2860003 -1.635 -0.833 3
8.1169996 -1.613 -0.824 4
7.9829998 -1.598 -0.81900001 4
7.8460002 -1.582 -0.81300002 4
7.73 -1.5700001 -0.80900002 4
7.5970001 -1.554 -0.80299997 4
7.4889998 -1.543 -0.80000001 5
7.3720002 -1.529 -0.79500002 5
7.2589998 -1.515 -0.79000002 4
7.152 -1.503 -0.78600001 4
7.053 -1.492 -0.78200001 4
6.934 -1.476 -0.77600002 4
6.8629999 -1.471 -0.77600002 4
6.7420001 -1.454 -0.76899999 3
6.6550002 -1.444 -0.76599997 3
6.5570002 -1.431 -0.76200002 3
6.4629998 -1.42 -0.75700003 3
6.3800001 -1.41 -0.75400001 3
6.2950001 -1.399 -0.75099999 3
6.211 -1.388 -0.74699998 3
6.1409998 -1.381 -0.745 4
6.0599999 -1.37 -0.74199998 4
5.993 -1.362 -0.73900002 4
5.902 -1.349 -0.73400003 3
5.8299999 -1.34 -0.73100001 3
5.7610002 -1.331 -0.72899997 3
5.6880002 -1.321 -0.72500002 3
5.6149998 -1.311 -0.722 3
5.5440001 -1.301 -0.71799999 3
5.4749999 -1.2920001 -0.71499997 3
5.4169998 -1.284 -0.713 3
5.3579998 -1.277 -0.71100003 3
5.2880001 -1.266 -0.70700002 4
5.2329998 -1.2589999 -0.70499998 3
5.1900001 -1.2539999 -0.704 2
5.1360002 -1.247 -0.70200002 3
5.0910001 -1.242 -0.70099998 3
5.026 -1.232 -0.69700003 4
4.9770002 -1.225 -0.69499999 2
4.9289999 -1.219 -0.69400001 2
4.8569999 -1.206 -0.68800002 3
4.8270001 -1.204 -0.68900001 2
4.7680001 -1.194 -0.68599999 2
4.7319999 -1.1900001 -0.685 2
4.6820002 -1.183 -0.68199998 2
4.6370001 -1.176 -0.68000001 4
4.599 -1.171 -0.67900002 2
4.5469999 -1.1619999 -0.676 3
4.5229998 -1.161 -0.67699999 2
4.4829998 -1.155 -0.67500001 2
4.4390001 -1.148 -0.67299998 2
4.3920002 -1.14 -0.67000002 2
4.3540001 -1.1339999 -0.66900003 2
4.3260002 -1.131 -0.66799998 2
4.283 -1.123 -0.66600001 2
4.2540002 -1.12 -0.66500002 2
4.1950002 -1.108 -0.66000003 2
4.1609998 -1.102 -0.65899998 2
4.1269999 -1.097 -0.65700001 2
4.1389999 -1.104 -0.66299999 4
4.1090002 -1.1 -0.662 2
4.039 -1.084 -0.65499997 4
4.0380001 -1.087 -0.65799999 2
3.9790001 -1.075 -0.65200001 2
3.99 -1.081 -0.65799999 2
4.0079999 -1.089 -0.66399997 2
3.9389999 -1.073 -0.65600002 2
3.8740001 -1.059 -0.64899999 2
3.881 -1.064 -0.65399998 2
3.8629999 -1.061 -0.65399998 2
3.8169999 -1.052 -0.64999998 2
3.8540001 -1.0650001 -0.65899998 2
3.7869999 -1.049 -0.65100002 2
3.7130001 -1.031 -0.64200002 2
3.8080001 -1.0599999 -0.662 3
3.7119999 -1.036 -0.648 3
3.6689999 -1.026 -0.64399999 2
3.674 -1.03 -0.648 2
3.6240001 -1.018 -0.64200002 2
3.641 -1.025 -0.648 2
3.632 -1.025 -0.64999998 2
3.5829999 -1.013 -0.64399999 2
3.5710001 -1.012 -0.64499998 2
3.527 -1.002 -0.63999999 2
3.444 -0.98000002 -0.62699997 2
3.437 -0.98000002 -0.62900001 2
3.487 -0.99599999 -0.64099997 2
3.4860001 -0.99800003 -0.64300001 2
3.457 -0.991 -0.64099997 3
3.388 -0.97299999 -0.63099998 1
3.368 -0.96899998 -0.62900001 2
3.3629999 -0.96899998 -0.63099998 2
3.3299999 -0.96100003 -0.62800002 2
3.3670001 -0.97299999 -0.63700002 2
3.26 -0.94400001 -0.61900002 1
3.276 -0.94999999 -0.625 1
3.256 -0.94599998 -0.62300003 1
3.2909999 -0.95700002 -0.63200003 1
3.2520001 -0.94700003 -0.62699997 1
3.2509999 -0.94800001 -0.62900001 1
3.217 -0.93900001 -0.625 1
3.2290001 -0.94400001 -0.63 2
3.2620001 -0.95499998 -0.639 2
3.1789999 -0.93199998 -0.62400001 1
3.2219999 -0.94499999 -0.63499999 1
3.1849999 -0.935 -0.63 1
3.1500001 -0.926 -0.625 2
3.164 -0.93099999 -0.63 2
3.098 -0.912 -0.61900002 1
3.135 -0.92400002 -0.62800002 1
3.119 -0.92000002 -0.62699997 2
3.1689999 -0.93599999 -0.639 2
3.168 -0.93599999 -0.64099997 2
3.1630001 -0.935 -0.64200002 1
3.089 -0.91399997 -0.62900001 1
3.122 -0.92500001 -0.63800001 1
3.0940001 -0.917 -0.634 1
3.0739999 -0.91100001 -0.63099998 1
2.9779999 -0.88300002 -0.61299998 1
3.0539999 -0.90600002 -0.63099998 1
2.9909999 -0.88800001 -0.62 1
3.108 -0.92299998 -0.64499998 1
2.9960001 -0.88999999 -0.62400001 1
3.0539999 -0.90799999 -0.63800001 1
3.006 -0.89300001 -0.62900001 1
2.9200001 -0.86799997 -0.61299998 1
2.937 -0.87300003 -0.61799997 1
2.948 -0.87699997 -0.62199998 1
2.9200001 -0.86799997 -0.61699998 1
2.9200001 -0.86799997 -0.61900002 1
2.96 -0.88 -0.62800002 1
2.8740001 -0.85500002 -0.61199999 1
2.9300001 -0.87099999 -0.625 1
2.8510001 -0.84799999 -0.60900003 1
2.9820001 -0.88700002 -0.639 2
2.9579999 -0.87900001 -0.63499999 2
2.9000001 -0.86199999 -0.62400001 1
2.7969999 -0.83099997 -0.60299999 2
2.7920001 -0.829 -0.60299999 2
2.7980001 -0.83099997 -0.60500002 2
2.7869999 -0.82700002 -0.60399997 2
2.786 -0.82599998 -0.60500002 2
2.7809999 -0.82499999 -0.60500002 2
2.7780001 -0.82300001 -0.60500002 3
2.776 -0.82200003 -0.60600001 3
2.7650001 -0.81800002 -0.60399997 3
2.7650001 -0.81800002 -0.60500002 3
2.756 -0.81400001 -0.60399997 2
2.763 -0.81599998 -0.60699999 2
2.747 -0.81099999 -0.60399997 2
2.7520001 -0.81099999 -0.60600001 2
2.7379999 -0.80699998 -0.60399997 2
2.7309999 -0.80400002 -0.60299999 2
2.7179999 -0.79900002 -0.60100001 2
2.7179999 -0.79799998 -0.602 2
2.7119999 -0.796 -0.60100001 2
2.7030001 -0.792 -0.60000002 2
2.701 -0.79100001 -0.60000002 2
2.6949999 -0.78799999 -0.60000002 2
2.6960001 -0.78799999 -0.60000002 2
2.691 -0.78500003 -0.60000002 2
2.6860001 -0.78299999 -0.59899998 2
2.691 -0.78299999 -0.60100001 2
2.6830001 -0.77999997 -0.60000002 2
2.6830001 -0.77899998 -0.60000002 2
2.6719999 -0.77399999 -0.59799999 2
2.674 -0.77399999 -0.59899998 2
2.6689999 -0.77100003 -0.59899998 2
2.6719999 -0.76999998 -0.59899998 2
2.6630001 -0.76700002 -0.59799999 2
2.665 -0.76599997 -0.59899998 2
2.6619999 -0.764 -0.59799999 2
2.6600001 -0.76200002 -0.59799999 2
2.6630001 -0.76099998 -0.59899998 2
2.648 -0.75599998 -0.59600002 2
2.658 -0.75700003 -0.59899998 2
2.6489999 -0.75300002 -0.597 2
2.6500001 -0.75199997 -0.597 2
2.654 -0.75199997 -0.59799999 2
2.648 -0.74800003 -0.597 2
2.651 -0.74800003 -0.59799999 2
2.6459999 -0.745 -0.59600002 2
2.6500001 -0.74400002 -0.597 2
2.6489999 -0.74199998 -0.597 2
2.648 -0.74000001 -0.597 2
2.642 -0.73699999 -0.59600002 2
2.645 -0.736 -0.59600002 2
2.6500001 -0.736 -0.597 2
2.652 -0.73500001 -0.59799999 2
2.6500001 -0.73199999 -0.597 2
2.6530001 -0.73100001 -0.59799999 2
2.6470001 -0.72799999 -0.59600002 2
2.6530001 -0.727 -0.597 2
2.652 -0.72500002 -0.597 2
2.6570001 -0.72399998 -0.59799999 2
2.652 -0.72100002 -0.59600002 2
2.6559999 -0.72000003 -0.597 2
2.658 -0.71899998 -0.597 2
2.661 -0.71700001 -0.597 2
2.664 -0.71600002 -0.597 2
2.665 -0.71399999 -0.597 2
2.668 -0.713 -0.597 2
2.6819999 -0.71399999 -0.60000002 2
2.6689999 -0.70899999 -0.597 2
2.6800001 -0.70899999 -0.59899998 2
2.6830001 -0.708 -0.59899998 2
2.6889999 -0.70700002 -0.59899998 2
2.6930001 -0.70599997 -0.60000002 2
2.6900001 -0.70300001 -0.59799999 2
2.6949999 -0.70099998 -0.59899998 2
2.7019999 -0.70099998 -0.60000002 2
2.707 -0.69999999 -0.60000002 2
2.707 -0.69700003 -0.59899998 2
2.7179999 -0.69800001 -0.60100001 2
2.714 -0.69400001 -0.59899998 2
2.724 -0.69400001 -0.60100001 2
2.7279999 -0.69300002 -0.60100001 2
2.7349999 -0.69199997 -0.60100001 2
2.734 -0.68900001 -0.60000002 2
2.7479999 -0.68900001 -0.602 2
2.7509999 -0.68699998 -0.602 2
2.7520001 -0.685 -0.60100001 2
2.763 -0.685 -0.60299999 2
2.7750001 -0.685 -0.60399997 2
2.777 -0.68300003 -0.60299999 2
2.7820001 -0.68099999 -0.60299999 2
2.7880001 -0.68000001 -0.60299999 2
2.7939999 -0.67799997 -0.60399997 2
2.799 -0.676 -0.60299999 2
2.7920001 -0.67199999 -0.60100001 2
2.8099999 -0.67299998 -0.60299999 2
2.9230001 -0.69700003 -0.62599999 1
2.9059999 -0.69 -0.62099999 1
2.881 -0.68099999 -0.61500001 1
2.868 -0.67400002 -0.61000001 1
2.8829999 -0.67500001 -0.61199999 1
2.9579999 -0.68900001 -0.62699997 1
2.8629999 -0.66399997 -0.60500002 1
2.9130001 -0.67199999 -0.61400002 1
3.033 -0.69599998 -0.63700002 1
2.95 -0.67400002 -0.61799997 1
3.0079999 -0.68300003 -0.62900001 1
3.0280001 -0.68400002 -0.63099998 1
2.98 -0.67000002 -0.61900002 1
2.9649999 -0.66299999 -0.61500001 1
2.96 -0.65899998 -0.61199999 1
2.997 -0.66299999 -0.61799997 1
3.036 -0.66799998 -0.62400001 1
3.03 -0.66299999 -0.62099999 1
3.075 -0.66900003 -0.62800002 1
3.082 -0.667 -0.62699997 2
3.1059999 -0.66799998 -0.63 1
3.132 -0.67000002 -0.63300002 2
3.05 -0.64899999 -0.61500001 1
3.0669999 -0.64899999 -0.616 1
3.211 -0.67500001 -0.64300001 2
3.092 -0.64600003 -0.61699998 1
3.23 -0.671 -0.64200002 1
3.2279999 -0.66600001 -0.639 2
3.2279999 -0.662 -0.63700002 2
3.2379999 -0.66000003 -0.63599998 1
3.1689999 -0.64200002 -0.62 1
3.2160001 -0.648 -0.62699997 2
3.1949999 -0.639 -0.62099999 1
3.2720001 -0.64999998 -0.63300002 1
3.3199999 -0.65600002 -0.63999999 1
3.286 -0.64399999 -0.63 2
3.3169999 -0.64600003 -0.634 2
3.346 -0.64700001 -0.63599998 2
3.2880001 -0.63200003 -0.62300003 2
3.4059999 -0.64999998 -0.64200002 2
3.3199999 -0.62900001 -0.62300003 2
3.3280001 -0.62599999 -0.62199998 3
3.3529999 -0.62599999 -0.62300003 3
3.368 -0.625 -0.62300003 3
3.3829999 -0.62300003 -0.62300003 3
3.3959999 -0.62099999 -0.62199998 3
3.4130001 -0.61900002 -0.62199998 3
3.4400001 -0.61900002 -0.62400001 2
3.4400001 -0.61400002 -0.62099999 2
3.5829999 -0.63499999 -0.64300001 2
3.598 -0.63300002 -0.64300001 2
3.575 -0.62400001 -0.63499999 2
3.6229999 -0.62699997 -0.63999999 2
3.615 -0.62099999 -0.63499999 2
3.7119999 -0.63200003 -0.64899999 2
3.6659999 -0.61900002 -0.63700002 2
3.723 -0.62400001 -0.64300001 2
3.7309999 -0.62 -0.64099997 2
3.868 -0.63700002 -0.66000003 3
3.7520001 -0.61299998 -0.63700002 2
3.816 -0.61799997 -0.64399999 2
3.9100001 -0.62800002 -0.65499997 3
3.8659999 -0.61500001 -0.64399999 2
3.9579999 -0.62400001 -0.65499997 3
3.891 -0.60799998 -0.63999999 2
3.9289999 -0.60799998 -0.64200002 2
4.0240002 -0.61799997 -0.653 2
4.0089998 -0.60900003 -0.64600003 2
4.0279999 -0.60699999 -0.64499998 2
4.073 -0.60799998 -0.64700001 2
4.0840001 -0.60299999 -0.64399999 2
4.197 -0.61400002 -0.65799999 2
4.198 -0.60799998 -0.653 2
4.2210002 -0.60500002 -0.65200001 3
4.263 -0.60500002 -0.653 2
4.336 -0.61000001 -0.66000003 2
4.382 -0.61000001 -0.66100001 2
4.4159999 -0.60799998 -0.66100001 3
4.4720001 -0.60900003 -0.66399997 4
4.5250001 -0.61000001 -0.667 4
4.5809999 -0.611 -0.66900003 2
4.6370001 -0.61199999 -0.67199999 4
4.7059999 -0.61400002 -0.676 2
4.7550001 -0.61400002 -0.67699999 2
4.8099999 -0.61400002 -0.67900002 2
4.8779998 -0.61500001 -0.68300003 3
4.9239998 -0.61400002 -0.68300003 3
5.013 -0.61799997 -0.68900001 2
5.0710001 -0.61799997 -0.69099998 2
5.1209998 -0.616 -0.69099998 3
5.1929998 -0.61799997 -0.69400001 3
5.2740002 -0.62 -0.69800001 3
5.3590002 -0.62199998 -0.70200002 2
5.4299998 -0.62199998 -0.704 2
5.4959998 -0.62199998 -0.70499998 2
5.5830002 -0.62300003 -0.70899999 2
5.6729999 -0.625 -0.713 2
5.7779999 -0.62800002 -0.71799999 2
5.862 -0.62900001 -0.72100002 2
5.973 -0.63200003 -0.72600001 2
6.0780001 -0.63499999 -0.73100001 3
6.1680002 -0.63499999 -0.73299998 4
6.2800002 -0.63800001 -0.73799998 3
6.395 -0.63999999 -0.74199998 3
6.513 -0.64300001 -0.74699998 3
6.6529999 -0.64700001 -0.75300002 4
6.7729998 -0.64899999 -0.75800002 4
6.8790002 -0.64899999 -0.75999999 6
7.0159998 -0.65200001 -0.76499999 6
7.1789999 -0.65700001 -0.77200001 5
7.3249998 -0.66000003 -0.77700001 4
7.4780002 -0.66299999 -0.78299999 4
7.6560001 -0.66799998 -0.79000002 4
7.8649998 -0.67500001 -0.80000001 4
8.0679998 -0.68099999 -0.80900002 4
8.2810001 -0.68699998 -0.81800002 3
8.5109997 -0.69400001 -0.82800001 4
8.7209997 -0.699 -0.83499998 4
8.9890003 -0.70700002 -0.847 3
9.2519999 -0.71499997 -0.85799998 3
9.566 -0.72600001 -0.87300003 3
9.8549995 -0.73400003 -0.884 3
10.148 -0.74199998 -0.89499998 2
10.462 -0.75 -0.90700001 2
10.793 -0.759 -0.91900003 2
11.148 -0.76800001 -0.93199998 2
11.489 -0.77499998 -0.94199997 2
11.929 -0.78899997 -0.95999998 2
12.334 -0.79799998 -0.97299999 3
12.812 -0.81199998 -0.991 3
13.374 -0.829 -1.013 3
13.817 -0.83700001 -1.025 4
14.384 -0.852 -1.043 2
15.052 -0.87099999 -1.068 2
15.709 -0.88700002 -1.089 3
16.285999 -0.898 -1.103 3
17.073 -0.91900003 -1.1289999 2
17.858 -0.93699998 -1.152 2
18.723 -0.95700002 -1.177 2
19.110001 -0.95099998 -1.171 1
0 0 0 3
0 0 0 0
0 0 0 0
0 0 0 0
0 0 0 4
30.688 -1.283 -1.576 2
0 0 0 16
43.18 -1.693 -2.0739999 24
43.370998 -1.6440001 -2.01 37
43.594002 -1.595 -1.947 50
43.694 -1.5420001 -1.877 60
43.868 -1.492 -1.8099999 40
44.259998 -1.448 -1.751 40
44.615002 -1.404 -1.6900001 43
44.841999 -1.353 -1.6210001 32
44.856998 -1.2970001 -1.545 20
44.847 -1.24 -1.467 28
44.863998 -1.184 -1.39 32
44.867001 -1.127 -1.313 16
0 0 0 36
67.558998 -1.53 -1.743 75
67.552002 -1.446 -1.625 65
0 0 0 0
0 0 0 121
70.821999 -1.255 -1.331 16
72.972 -1.205 -1.243 133
74.033997 -1.1339999 -1.132 29
0 0 0 0
0 0 0 34
73.887001 -0.866 -0.73799998 70
73.889999 -0.77899998 -0.60699999 82
73.894997 -0.69099998 -0.47499999 73
73.910004 -0.60399997 -0.34299999 42
0 0 0 0
0 0 0 0
0 0 0 0
0 0 0 26
86.674004 -0.205 0.37799999 20
0 0 0 0
0 0 0 38
84.975998 0.085000001 0.82999998 36
84.954002 0.17900001 0.98199999 15
0 0 0 0
0 0 0 0
0 0 0 0
0 0 0 0
0 0 0 0
0 0 0 37
85.975998 0.83700001 2.089 28
85.724998 0.926 2.24 13
0 0 0 0
0 0 0 0
0 0 0 0
0 0 0 33
121.19 1.946 4.2859998 64
120.947 2.063 4.494 124
120.863 2.1849999 4.7150002 117
120.863 2.3069999 4.9380002 125
120.876 2.431 5.165 97
120.873 2.552 5.3889999 90
120.863 2.6700001 5.6090002 84
120.967 2.7920001 5.842 65
120.938 2.9059999 6.059 46
120.959 3.023 6.2810001 34
121.093 3.1429999 6.513 40
121.044 3.257 6.7350001 41
0 0 0 0
0 0 0 31
121.146 3.6010001 7.4130001 29
121.054 3.711 7.6360002 23
120.975 3.822 7.8590002 34
120.99 3.9300001 8.0790005 46
120.896 4.0359998 8.2980003 48
120.9 4.1440001 8.5190001 41
120.796 4.2470002 8.7370005 29
0 0 0 0
0 0 0 27
0 0 0 0
0 0 0 0
0 0 0 32
120.972 4.8829999 10.102 62
0 0 0 0
0 0 0 31
118.345 5.0739999 10.548 56
118.337 5.1669998 10.761 94
118.335 5.2620001 10.981 93
118.361 5.3579998 11.203 76
118.334 5.4499998 11.419 79
118.318 5.5419998 11.637 81
118.323 5.6339998 11.856 77
118.31 5.724 12.07 61
118.37 5.816 12.291 44
118.523 5.9130001 12.526 36
118.623 6.006 12.755 32
118.564 6.0879998 12.961 27
118.586 6.1750002 13.178 33
118.603 6.2620001 13.398 36
118.545 6.3439999 13.609 26
118.588 6.4289999 13.828 25
0 0 0 0
0 0 0 0
0 0 0 0
0 0 0 27
118.516 6.8309999 14.897 44
118.413 6.9000001 15.094 52
118.384 6.9759998 15.305 76
118.317 7.0479999 15.511 73
118.369 7.1269999 15.732 72
118.33 7.1989999 15.937 77
118.409 7.2779999 16.160999 54
118.429 7.3520002 16.375999 34
118.507 7.4289999 16.6 28
118.59 7.5050001 16.823999 27
118.576 7.5739999 17.034 29
118.57 7.6430001 17.240999 28
118.541 7.7090001 17.452 29
118.511 7.7750001 17.658001 32
118.592 7.8470001 17.877001 28
118.586 7.9120002 18.084999 32
118.43 7.9689999 18.275999 31
118.521 8.0389996 18.495001 28
118.505 8.1009998 18.700001 34
118.521 8.1639996 18.91 48
118.496 8.2229996 19.113001 50
118.398 8.2770004 19.299999 67
118.381 8.335 19.503 76
118.37 8.3929996 19.705999 61
118.387 8.4510002 19.913 64
118.413 8.5100002 20.122 52
118.478 8.5699997 20.336 53
118.518 8.6280003 20.546 42
118.59 8.6870003 20.757 36
118.529 8.7360001 20.948 35
118.539 8.79 21.146999 30
118.556 8.8389997 21.349001 30
118.543 8.8879995 21.546 30
0 0 0 0
0 0 0 24
118.585 9.0380001 22.145 27
118.698 9.0939999 22.363001 27
118.669 9.1370001 22.554001 29
118.649 9.1820002 22.742001 24
118.516 9.2159996 22.910999 40
118.446 9.2539997 23.091 43
118.474 9.2980003 23.290001 45
118.46 9.3389997 23.479 69
118.456 9.3800001 23.666 70
118.436 9.4160004 23.848 62
