# .PCD v0.7 - Point Cloud Data file format
VERSION 0.7
FIELDS x y z intensity
SIZE 4 4 4 4
TYPE F F F F
COUNT 1 1 1 1
WIDTH 1778
HEIGHT 1
VIEWPOINT 0 0 0 1 0 0 0
POINTS 1778
DATA ascii
10.26 1 -0.79100001 3
10.597 1.015 -0.80400002 5
10.865 1.024 -0.81099999 5
11.074 1.025 -0.81400001 4
11.31 1.028 -0.81699997 3
11.637 1.039 -0.82700002 2
11.983 1.051 -0.838 3
12.358 1.063 -0.84899998 3
12.695 1.071 -0.85699999 3
12.992 1.074 -0.86199999 3
13.4 1.085 -0.87300003 3
13.855 1.099 -0.88700002 2
14.276 1.108 -0.89700001 2
14.655 1.113 -0.903 2
15.162 1.125 -0.917 2
15.676 1.136 -0.93000001 3
16.176001 1.145 -0.94099998 2
16.681 1.152 -0.95099998 2
17.334 1.1670001 -0.96899998 2
17.863001 1.1720001 -0.97799999 2
17.693001 1.13 -0.94800001 6
17.993999 1.119 -0.94400001 2
0 0 0 2
19.752001 1.159 -0.99199998 4
0 0 0 1
0 0 0 1
23.416 1.249 -1.097 4
0 0 0 0
0 0 0 0
0 0 0 0
0 0 0 0
0 0 0 0
0 0 0 3
0 0 0 0
0 0 0 0
0 0 0 0
0 0 0 0
0 0 0 57
0 0 0 32
0 0 0 24
94.738998 2.654 -3.013 109
0 0 0 0
0 0 0 0
0 0 0 40
94.725998 1.949 -2.6210001 19
94.835999 1.773 -2.527 79
95.017998 1.598 -2.4349999 82
94.863998 1.416 -2.335 44
94.786003 1.2359999 -2.2379999 154
0 0 0 25
0 0 0 0
0 0 0 0
0 0 0 0
0 0 0 0
0 0 0 0
0 0 0 0
0 0 0 101
135.59801 -0.54400003 -2.0179999 113
0 0 0 0
0 0 0 0
0 0 0 34
0 0 0 38
74.018997 -1.0089999 -0.75700003 108
0 0 0 11
68.853996 -1.206 -0.57800001 60
68.633003 -1.336 -0.51499999 80
68.624001 -1.47 -0.45300001 97
68.586998 -1.605 -0.391 102
0 0 0 21
60.789001 -1.661 -0.23899999 56
60.577999 -1.774 -0.185 120
60.59 -1.8940001 -0.133 121
60.412998 -2.0050001 -0.082000002 75
59.641998 -2.0969999 -0.029999999 70
0 0 0 0
0 0 0 7
0 0 0 127
52.493999 -2.2590001 0.148 99
49.720001 -2.2379999 0.18000001 13
48.904999 -2.2980001 0.21699999 25
48.783001 -2.3900001 0.25600001 80
48.688 -2.4820001 0.294 74
48.632999 -2.5739999 0.33199999 17
0 0 0 51
45.188999 -2.5699999 0.37799999 40
45.187 -2.6600001 0.41299999 21
44.386002 -2.701 0.43900001 51
44.379002 -2.789 0.47299999 94
44.414001 -2.8800001 0.50599998 83
41.969002 -2.8050001 0.50999999 37
41.834 -2.8789999 0.53899997 11
41.013 -2.9030001 0.55800003 5
40.365002 -2.9389999 0.57800001 43
40.366001 -3.02 0.60699999 92
40.376999 -3.1029999 0.63599998 75
40.376999 -3.1830001 0.66399997 59
38.205002 -3.0880001 0.65499997 8
37.709 -3.1229999 0.67199999 8
37.166 -3.1530001 0.68800002 8
36.618 -3.1789999 0.70200002 9
36.487999 -3.24 0.72299999 105
36.491001 -3.313 0.74699998 103
36.504002 -3.3870001 0.77100003 94
36.504002 -3.46 0.79500002 68
36.523998 -3.5350001 0.81900001 59
36.52 -3.608 0.84100002 67
36.515999 -3.6800001 0.86400002 98
36.519001 -3.7520001 0.88599998 97
36.518002 -3.825 0.90799999 88
36.522999 -3.898 0.93000001 95
36.528999 -3.97 0.95099998 100
36.541 -4.0440001 0.97299999 100
36.546001 -4.1170001 0.99400002 100
36.549 -4.1890001 1.0140001 107
36.557999 -4.2620001 1.035 97
36.541 -4.3330002 1.0549999 84
36.567001 -4.408 1.076 99
36.576 -4.4819999 1.095 106
36.750999 -4.5760002 1.12 13
0 0 0 0
0 0 0 9
28.834999 -3.76 0.92299998 26
28.753 -3.806 0.935 34
28.693001 -3.8529999 0.94700003 39
28.652 -3.904 0.95999998 44
28.621 -3.9560001 0.97299999 48
28.601 -4.0089998 0.986 50
28.559999 -4.059 0.99699998 55
28.556 -4.1139998 1.01 60
28.549 -4.1680002 1.023 59
28.551001 -4.224 1.036 44
28.57 -4.2820001 1.049 48
28.569 -4.3369999 1.061 45
28.597 -4.3969998 1.074 38
28.631001 -4.4569998 1.087 35
28.676001 -4.52 1.101 31
28.757 -4.5879998 1.115 21
28.846001 -4.658 1.131 2
0 0 0 11
37.009998 -6.119 1.479 12
37.023998 -6.191 1.494 14
37.023998 -6.2589998 1.507 15
37.019001 -6.329 1.52 20
37.008999 -6.3969998 1.5319999 18
37.027 -6.4699998 1.546 21
37.018002 -6.5370002 1.558 21
37.001999 -6.6040001 1.5700001 28
37.000999 -6.6729999 1.582 17
36.976002 -6.7379999 1.592 17
37.009998 -6.8130002 1.605 18
36.990002 -6.8790002 1.615 16
37.004002 -6.9499998 1.627 16
37.014 -7.02 1.638 20
37.027 -7.0910001 1.649 20
36.986 -7.1500001 1.658 15
36.911999 -7.2030001 1.663 20
36.779999 -7.244 1.6670001 53
0 0 0 1
20.871 -4.1859999 0.95700002 19
20.791 -4.2069998 0.958 21
20.723 -4.2309999 0.95999998 30
20.674999 -4.2589998 0.96200001 34
20.625 -4.2849998 0.96499997 38
20.584 -4.3130002 0.96700001 40
20.566999 -4.3449998 0.97000003 43
20.547001 -4.3779998 0.97399998 48
20.511999 -4.4070001 0.97600001 47
20.503 -4.441 0.97899997 51
20.490999 -4.4749999 0.98299998 53
20.475 -4.507 0.986 59
20.458 -4.539 0.98799998 62
20.466 -4.5760002 0.99199998 47
20.451 -4.6079998 0.995 59
20.445 -4.6420002 0.99699998 57
20.451 -4.6789999 1.001 48
20.455999 -4.7150002 1.0039999 52
20.455999 -4.7490001 1.006 49
20.476 -4.7880001 1.01 50
20.485001 -4.8249998 1.013 47
20.497999 -4.862 1.016 45
20.503 -4.8969998 1.018 40
20.549 -4.9419999 1.023 35
20.580999 -4.9840002 1.026 30
20.622999 -5.0279999 1.03 26
20.688 -5.0780001 1.035 18
20.792999 -5.1370001 1.0420001 3
0 0 0 3
36.973 -9.2530003 1.858 4
36.980999 -9.3149996 1.86 3
36.984001 -9.3739996 1.863 3
36.993 -9.4350004 1.865 3
36.931999 -9.4770002 1.864 3
36.963001 -9.5419998 1.8660001 3
36.985001 -9.6049995 1.869 3
36.938 -9.6499996 1.868 3
36.943001 -9.71 1.868 3
36.959999 -9.7700005 1.87 4
36.952999 -9.8249998 1.87 3
36.926998 -9.8730001 1.869 5
36.987999 -9.9460001 1.872 4
37.002998 -10.004 1.873 5
36.955002 -10.046 1.87 4
36.955002 -10.101 1.869 4
36.977001 -10.161 1.869 3
36.918999 -10.198 1.865 4
37.02 -10.28 1.869 5
37.013 -10.331 1.867 5
36.972 -10.372 1.863 4
36.979 -10.427 1.862 3
36.981998 -10.48 1.859 3
36.956001 -10.523 1.857 4
37.041 -10.599 1.858 4
37.054001 -10.653 1.8559999 5
37.060001 -10.706 1.853 4
37.087002 -10.764 1.852 4
37.012001 -10.792 1.846 4
36.985001 -10.833 1.84 3
37.073002 -10.908 1.841 3
37.139 -10.976 1.841 3
37.07 -11.004 1.834 6
37.064999 -11.05 1.83 5
37.062 -11.097 1.825 4
37.127998 -11.163 1.824 7
37.106998 -11.204 1.818 15
37.055 -11.233 1.811 27
36.987999 -11.259 1.802 18
36.955002 -11.294 1.796 67
36.967999 -11.342 1.791 73
36.963001 -11.385 1.785 63
36.962002 -11.428 1.78 65
36.973999 -11.476 1.774 64
36.956001 -11.513 1.767 79
36.967999 -11.56 1.761 78
36.964001 -11.6 1.756 81
36.984001 -11.648 1.75 77
36.978001 -11.687 1.743 78
36.978001 -11.727 1.737 79
36.979 -11.768 1.729 77
36.992001 -11.813 1.723 67
36.983002 -11.848 1.716 67
36.976002 -11.885 1.709 80
36.994999 -11.93 1.702 76
36.993 -11.967 1.694 75
36.992001 -12.004 1.686 79
36.999001 -12.043 1.679 67
36.987 -12.076 1.67 78
37.002998 -12.117 1.661 75
36.994999 -12.149 1.653 75
36.999001 -12.186 1.645 80
36.999001 -12.22 1.636 75
37.001999 -12.256 1.628 77
37.012001 -12.293 1.62 82
37.02 -12.329 1.6109999 80
36.998001 -12.353 1.601 75
37.015999 -12.392 1.5930001 68
37.007 -12.42 1.5829999 81
37.016998 -12.455 1.573 79
37.008999 -12.483 1.563 78
37.015999 -12.516 1.553 78
37.018002 -12.546 1.544 81
37.02 -12.576 1.534 82
37.026001 -12.606 1.525 79
37.026001 -12.634 1.5140001 80
37.028999 -12.663 1.5039999 44
37.067001 -12.704 1.495 55
37.070999 -12.731 1.485 90
37.070999 -12.757 1.473 94
37.063999 -12.78 1.462 90
0 0 0 6
33.757999 -11.686 1.312 14
33.707001 -11.691 1.299 18
33.664001 -11.697 1.288 18
33.602001 -11.696 1.275 18
33.580002 -11.709 1.263 18
33.519001 -11.708 1.25 16
33.450001 -11.703 1.238 16
33.43 -11.715 1.226 17
33.387001 -11.718 1.2130001 17
33.332001 -11.717 1.2 15
33.293999 -11.721 1.188 18
33.259998 -11.726 1.176 29
33.254002 -11.74 1.165 37
33.261002 -11.759 1.154 40
33.257 -11.773 1.142 44
33.257 -11.788 1.131 48
33.258999 -11.804 1.119 45
33.256001 -11.817 1.108 46
33.254002 -11.829 1.096 38
33.236 -11.836 1.084 35
33.222 -11.844 1.071 30
33.233002 -11.86 1.061 26
33.228001 -11.87 1.0470001 20
33.214001 -11.876 1.036 19
33.221001 -11.889 1.024 17
33.223 -11.9 1.012 14
33.242001 -11.916 1.001 13
0 0 0 1
12.929 -4.6420002 0.37900001 1
12.905 -4.6360002 0.37400001 2
12.914 -4.6420002 0.36899999 4
12.889 -4.6360002 0.36399999 6
12.879 -4.6350002 0.35800001 8
12.886 -4.6399999 0.354 10
12.861 -4.6329999 0.34799999 12
12.87 -4.638 0.34299999 13
12.863 -4.638 0.338 14
12.857 -4.6370001 0.333 14
12.841 -4.6329999 0.32800001 15
12.834 -4.632 0.322 16
12.811 -4.625 0.317 16
12.798 -4.6209998 0.31200001 16
12.794 -4.6199999 0.30599999 16
12.809 -4.6259999 0.30199999 16
12.811 -4.6269999 0.29699999 16
12.807 -4.6259999 0.292 17
12.806 -4.625 0.28600001 16
12.792 -4.6199999 0.28099999 16
12.799 -4.6220002 0.27599999 16
12.791 -4.619 0.271 16
12.808 -4.6240001 0.266 16
12.827 -4.6300001 0.26100001 15
12.834 -4.631 0.25600001 14
12.856 -4.638 0.25099999 11
12.842 -4.631 0.24600001 14
12.853 -4.6329999 0.241 13
12.865 -4.6350002 0.235 12
12.866 -4.6339998 0.23 11
12.872 -4.6339998 0.22499999 10
12.884 -4.6350002 0.22 8
12.884 -4.6329999 0.214 6
12.885 -4.6300001 0.20900001 4
12.905 -4.6339998 0.204 2
12.915 -4.6339998 0.199 1
12.947 -4.6430001 0.19400001 1
0 0 0 6
33.264 -11.909 0.47299999 6
33.243 -11.891 0.458 7
33.271 -11.89 0.44499999 6
33.286999 -11.884 0.43099999 6
33.284 -11.871 0.417 7
33.27 -11.854 0.40200001 7
33.266998 -11.84 0.389 6
33.291 -11.836 0.375 6
33.256001 -11.809 0.361 8
33.276001 -11.802 0.347 6
33.252998 -11.779 0.33199999 7
33.238998 -11.759 0.31900001 7
33.247002 -11.746 0.30500001 6
33.251999 -11.732 0.29100001 6
33.292999 -11.729 0.27700001 6
33.271 -11.704 0.26300001 4
33.313 -11.701 0.249 3
33.355 -11.698 0.235 3
33.441002 -11.709 0.222 3
33.471001 -11.7 0.207 3
33.476002 -11.683 0.193 3
33.521999 -11.678 0.17900001 3
33.575001 -11.676 0.16599999 3
33.57 -11.653 0.152 2
33.691002 -11.673 0.138 2
33.752998 -11.673 0.124 2
0 0 0 0
0 0 0 0
0 0 0 0
0 0 0 0
0 0 0 2
0 0 0 0
0 0 0 7
0 0 0 4
30.336 -10.293 0 6
30.306999 -10.259 -0.013 2
0 0 0 8
37.018002 -12.472 -0.046999998 9
37.015999 -12.44 -0.061999999 9
36.991001 -12.4 -0.077 9
36.981998 -12.364 -0.092 10
36.980999 -12.332 -0.107 10
36.987999 -12.301 -0.122 10
36.973999 -12.263 -0.13600001 11
36.988998 -12.233 -0.152 11
36.964001 -12.191 -0.167 10
36.973999 -12.16 -0.18099999 11
36.986 -12.128 -0.19599999 10
36.973999 -12.088 -0.211 9
36.965 -12.049 -0.226 10
36.923 -11.999 -0.23999999 10
36.948002 -11.97 -0.255 9
36.966 -11.939 -0.26899999 9
36.952 -11.895 -0.28299999 11
36.952999 -11.857 -0.29699999 10
36.957001 -11.819 -0.31099999 8
36.922001 -11.768 -0.32600001 8
36.967999 -11.742 -0.34099999 7
36.965 -11.701 -0.354 7
36.924 -11.647 -0.368 7
36.91 -11.601 -0.382 7
36.923 -11.563 -0.396 7
36.481998 -11.383 -0.405 10
0 0 0 1
15.695 -4.8600001 -0.186 3
15.614 -4.8169999 -0.19 11
15.485 -4.7589998 -0.19400001 19
15.538 -4.756 -0.20100001 20
15.548 -4.7399998 -0.206 28
15.533 -4.7160001 -0.212 37
15.519 -4.6929998 -0.21699999 35
15.513 -4.671 -0.222 43
15.536 -4.6589999 -0.228 41
15.502 -4.6290002 -0.233 43
15.537 -4.619 -0.23899999 51
15.595 -4.6160002 -0.245 55
15.615 -4.6009998 -0.25099999 43
15.595 -4.5749998 -0.25600001 55
15.602 -4.5560002 -0.26100001 60
15.577 -4.5279999 -0.266 59
0 0 0 1
9.8599997 -2.839 -0.17399999 3
9.8719997 -2.829 -0.178 5
9.8640003 -2.813 -0.18099999 6
9.8599997 -2.7980001 -0.184 5
9.8789997 -2.789 -0.18700001 4
9.8610001 -2.77 -0.19 4
9.8710003 -2.7590001 -0.193 3
9.9160004 -2.756 -0.197 1
9.9320002 -2.7460001 -0.2 1
0 0 0 40
16.047001 -4.3899999 -0.333 46
16.091999 -4.3790002 -0.33899999 42
16.1 -4.3569999 -0.34400001 36
16.202 -4.3600001 -0.34999999 29
16.228001 -4.3429999 -0.35499999 25
16.27 -4.3299999 -0.361 8
0 0 0 3
0 0 0 6
18.051001 -4.7199998 -0.41499999 39
18.055 -4.6929998 -0.419 65
18.105 -4.677 -0.42500001 43
18.077999 -4.6420002 -0.42899999 44
18.122 -4.6240001 -0.43399999 49
18.15 -4.6020002 -0.44 76
18.243999 -4.5970001 -0.44600001 46
18.308001 -4.5830002 -0.45199999 40
18.167 -4.5180001 -0.45300001 56
18.26 -4.5120001 -0.45899999 47
18.267 -4.4829998 -0.463 34
18.254 -4.4499998 -0.46700001 25
18.129999 -4.3889999 -0.46700001 49
18.073999 -4.3460002 -0.46900001 40
18.136 -4.3309999 -0.47499999 52
18.239 -4.3239999 -0.48100001 33
18.186001 -4.2810001 -0.48300001 36
18.167 -4.2449999 -0.486 39
18.242001 -4.2319999 -0.491 43
18.438 -4.2459998 -0.5 19
18.752001 -4.2849998 -0.51200002 22
18.613001 -4.2220001 -0.51099998 7
18.716 -4.2129998 -0.51700002 7
18.822001 -4.204 -0.523 17
0 0 0 43
20.417999 -4.4889998 -0.574 67
20.438 -4.4569998 -0.57700002 40
20.441 -4.421 -0.57999998 50
20.454 -4.3870001 -0.583 42
20.48 -4.3559999 -0.58700001 45
20.509001 -4.3260002 -0.58999997 43
20.523001 -4.2909999 -0.59299999 40
20.556 -4.2610002 -0.59600002 38
20.613001 -4.2350001 -0.60000002 33
20.664 -4.2069998 -0.60399997 27
20.719999 -4.1810002 -0.60799998 26
20.799 -4.158 -0.611 18
20.926001 -4.1440001 -0.61699998 2
0 0 0 27
36.664001 -7.1240001 -1.0880001 28
36.525002 -7.0289998 -1.086 14
36.985001 -7.0469999 -1.102 10
0 0 0 25
23.006001 -4.2969999 -0.68800002 45
23.007 -4.2540002 -0.68900001 39
23.016001 -4.2119999 -0.69099998 34
23.007999 -4.1659999 -0.69099998 43
23.014999 -4.1240001 -0.69199997 14
0 0 0 10
20.639 -3.619 -0.62199998 21
20.627001 -3.5769999 -0.62099999 40
20.371 -3.493 -0.61400002 1
0 0 0 0
0 0 0 0
0 0 0 1
20.236 -3.3110001 -0.60900003 1
20.216 -3.2690001 -0.60799998 1
20.257 -3.2360001 -0.60900003 1
20.219999 -3.1889999 -0.60699999 1
20.150999 -3.1389999 -0.60399997 1
20.167999 -3.102 -0.60399997 17
20.193001 -3.0669999 -0.60299999 175
20.188999 -3.026 -0.602 200
20.200001 -2.9879999 -0.60100001 200
20.198999 -2.947 -0.59899998 200
20.218 -2.9089999 -0.59799999 200
20.215 -2.869 -0.59600002 200
20.159 -2.8199999 -0.59299999 200
20.209999 -2.7869999 -0.59299999 200
20.208 -2.7460001 -0.58999997 200
20.174999 -2.7 -0.58700001 200
20.202999 -2.664 -0.58600003 200
20.125 -2.6129999 -0.58099997 85
20.150999 -2.575 -0.579 94
20.188999 -2.539 -0.57700002 6
20.194 -2.4990001 -0.57499999 3
20.16 -2.4530001 -0.57099998 4
20.174 -2.414 -0.56800002 5
20.195 -2.375 -0.565 4
20.202999 -2.335 -0.56199998 3
20.24 -2.2969999 -0.56 3
20.254999 -2.257 -0.55599999 2
20.290001 -2.22 -0.55299997 2
20.325001 -2.1819999 -0.55000001 1
20.398001 -2.1470001 -0.54799998 1
20.514999 -2.1170001 -0.54699999 10
20.558001 -2.079 -0.54400003 54
20.555 -2.036 -0.53899997 88
0 0 0 0
0 0 0 0
0 0 0 2
20.92 -1.899 -0.528 3
21.042 -1.867 -0.52600002 4
21.511 -1.864 -0.53200001 1
22.093 -1.868 -0.54100001 1
0 0 0 0
0 0 0 0
0 0 0 0
0 0 0 1
24.094 -1.7869999 -0.55400002 8
0 0 0 0
0 0 0 6
42.067001 -2.858 -0.92799997 11
44.381001 -2.9219999 -0.96499997 59
0 0 0 2
0 0 0 87
44.408001 -2.648 -0.91900003 17
43.914001 -2.527 -0.89300001 38
0 0 0 5
0 0 0 20
44.824001 -2.3 -0.86199999 33
44.856998 -2.2079999 -0.84500003 33
44.895 -2.1159999 -0.82800001 42
45.229 -2.0369999 -0.81599998 42
45.488998 -1.954 -0.80199999 43
45.382999 -1.8559999 -0.78200001 42
45.605 -1.7690001 -0.76599997 43
45.990002 -1.688 -0.75300002 44
46.411999 -1.608 -0.74000001 49
46.456001 -1.513 -0.72000003 6
0 0 0 109
60.610001 -1.722 -0.88499999 23
0 0 0 21
68.603996 -1.665 -0.93900001 115
68.616997 -1.523 -0.90600002 112
68.608002 -1.382 -0.87400001 78
68.781998 -1.243 -0.84200001 13
71.811996 -1.148 -0.84399998 94
74.033997 -1.03 -0.833 105
75.071999 -0.889 -0.80599999 27
0 0 0 0
0 0 0 0
0 0 0 0
0 0 0 104
135.62399 -0.20999999 -1.101 33
135.59599 0.068000004 -1.026 41
135.399 0.34599999 -0.94999999 48
135.341 0.62400001 -0.87300003 57
135.37601 0.898 -0.79799998 73
135.379 1.176 -0.72100002 92
135.353 1.4529999 -0.64200002 103
135.291 1.725 -0.56400001 97
135.258 2 -0.484 94
135.269 2.276 -0.403 82
135.243 2.5510001 -0.32100001 73
135.23399 2.825 -0.23899999 69
135.187 3.098 -0.155 53
135.16499 3.368 -0.072999999 41
0 0 0 0
0 0 0 32
88.019997 2.7309999 0.121 30
0 0 0 0
0 0 0 26
0 0 0 0
0 0 0 16
89.585999 3.674 0.417 24
0 0 0 0
0 0 0 20
89.002998 4.184 0.597 19
88.962997 4.3579998 0.65799999 25
0 0 0 0
0 0 0 19
88.767998 4.8709998 0.84299999 13
0 0 0 0
0 0 0 0
0 0 0 16
90.288002 5.652 1.115 16
89.686996 5.789 1.174 15
90.059998 5.987 1.2460001 18
0 0 0 0
0 0 0 0
0 0 0 0
0 0 0 0
0 0 0 0
0 0 0 0
0 0 0 0
0 0 0 0
0 0 0 0
0 0 0 0
0 0 0 0
0 0 0 0
0 0 0 10
79.167 7.3559999 1.951 20
0 0 0 0
0 0 0 0
0 0 0 0
0 0 0 22
76.120003 7.7729998 2.1889999 29
76.001999 7.8979998 2.2479999 33
75.817001 8.0170002 2.306 31
75.328003 8.1009998 2.3540001 29
75.321999 8.2320004 2.4159999 34
0 0 0 0
0 0 0 25
66.343002 7.6090002 2.2980001 24
0 0 0 4
49.282001 5.8260002 1.791 6
49.333 5.9190001 1.836 7
0 0 0 11
45.162998 5.5760002 1.76 32
45.153 5.6529999 1.798 34
45.247002 5.743 1.842 32
45.386002 5.8390002 1.888 35
45.084999 5.8779998 1.915 41
44.969002 5.9390001 1.95 37
45.008999 6.0209999 1.992 40
45.147999 6.1160002 2.039 40
45.207001 6.1999998 2.0810001 42
45.132999 6.2659998 2.119 36
45.155998 6.3439999 2.161 22
45.195999 6.4250002 2.204 23
45.007999 6.4720001 2.234 31
45.285 6.586 2.29 35
45.396 6.677 2.3369999 29
46.001999 6.8429999 2.4100001 5
46.096001 6.9310002 2.4579999 13
45.933998 6.9809999 2.4909999 25
45.682999 7.0170002 2.52 18
0 0 0 2
37.165001 5.8270001 2.119 7
37.203999 5.8909998 2.155 20
37.167 5.9439998 2.188 19
0 0 0 0
0 0 0 11
34.318001 5.6479998 2.115 21
34.358002 5.7069998 2.1500001 21
34.330002 5.7550001 2.181 20
34.410999 5.8210001 2.2179999 24
34.266998 5.848 2.2420001 28
34.279999 5.902 2.2750001 24
33.958 5.8979998 2.2850001 35
32.952999 5.7709999 2.2479999 23
32.932999 5.816 2.2780001 34
33.097 5.8940001 2.3210001 40
33.108002 5.9450002 2.3529999 38
33.106998 5.993 2.385 39
33.265999 6.0689998 2.428 22
32.895 6.0479999 2.431 23
32.391998 6.0019999 2.425 22
32.847 6.132 2.49 23
32.958 6.1989999 2.53 23
32.923 6.2389998 2.559 22
32.875 6.2740002 2.586 23
32.407001 6.23 2.5799999 21
32.162998 6.2259998 2.5910001 22
31.826 6.204 2.5940001 18
32.004002 6.2820001 2.6400001 21
31.812 6.2870002 2.654 34
31.806 6.3280001 2.684 40
31.877001 6.3829999 2.72 42
31.940001 6.4390001 2.756 39
32.012001 6.494 2.793 28
32.035 6.54 2.825 23
32.158001 6.6059999 2.8659999 21
32.394001 6.6950002 2.918 22
32.421001 6.7410002 2.95 21
32.285999 6.7529998 2.9690001 29
32.472 6.8309999 3.017 23
32.498001 6.8769999 3.05 22
32.487999 6.914 3.0799999 22
32.488998 6.954 3.1110001 22
32.592999 7.0149999 3.152 22
32.821999 7.1030002 3.2049999 22
32.432999 7.0560002 3.197 21
32.365002 7.079 3.22 23
32.650002 7.178 3.279 22
32.382999 7.1560001 3.283 23
33.105999 7.3530002 3.3859999 20
32.516998 7.2589998 3.3570001 18
32.471001 7.2839999 3.381 23
33.061001 7.4530001 3.474 24
32.931 7.4590001 3.4909999 23
33.122002 7.5380001 3.5420001 24
32.77 7.4920001 3.5339999 20
33.508999 7.6960001 3.645 21
32.798 7.5669999 3.5969999 20
33.32 7.7220001 3.6849999 24
32.894001 7.6560001 3.668 20
33.514 7.8340001 3.7679999 24
33.580002 7.8829999 3.806 25
33.485001 7.8930001 3.826 21
33.369999 7.9000001 3.842 24
33.389999 7.9359999 3.875 24
33.139 7.9070001 3.875 24
33.154999 7.9419999 3.9070001 24
0 0 0 1
27.309999 6.592 3.266 1
27.316999 6.618 3.2909999 1
26.304001 6.3959999 3.1919999 6
26.243 6.4050002 3.2079999 24
26.257999 6.4320002 3.233 30
26.226999 6.4460001 3.2520001 27
26.209999 6.4650002 3.2720001 14
26.108999 6.461 3.283 14
26.482 6.5749998 3.352 14
26.306999 6.553 3.352 17
26.410999 6.5999999 3.388 17
26.458 6.6329999 3.4159999 15
26.688 6.711 3.4690001 15
26.243999 6.619 3.4330001 14
26.240999 6.638 3.454 14
26.402 6.6989999 3.4979999 25
26.283001 6.6869998 3.5039999 26
26.73 6.8200002 3.585 15
26.468 6.7719998 3.5710001 15
26.472 6.7909999 3.5940001 15
26.555 6.8299999 3.6259999 15
26.524 6.8400002 3.6429999 15
26.649 6.8889999 3.6819999 15
26.240999 6.8010001 3.6459999 14
26.245001 6.8189998 3.6670001 14
26.24 6.8340001 3.688 14
26.228001 6.8470001 3.707 14
26.766001 7.0029998 3.8039999 15
26.316 6.901 3.76 14
26.844999 7.0549998 3.8559999 15
26.737 7.0409999 3.8610001 15
26.584 7.0149999 3.859 15
26.542 7.0180001 3.8729999 15
26.528999 7.0289998 3.891 15
26.398001 7.007 3.892 20
26.381001 7.0159998 3.908 31
26.42 7.039 3.934 22
26.601 7.0999999 3.98 16
26.726 7.1459999 4.0180001 24
26.766001 7.1690001 4.0430002 26
26.747999 7.1750002 4.059 21
26.688 7.171 4.0689998 21
26.597 7.158 4.0739999 22
26.594 7.1669998 4.092 30
26.591 7.1760001 4.1100001 35
26.613001 7.1919999 4.1300001 33
26.635 7.2080002 4.152 31
26.652 7.2220001 4.1729999 35
26.665001 7.2350001 4.1919999 36
26.683001 7.2480001 4.2129998 44
26.695999 7.2600002 4.2319999 41
26.705999 7.2709999 4.2509999 34
26.733999 7.2870002 4.2719998 26
26.757 7.3010001 4.2930002 17
26.785999 7.316 4.3150001 12
26.795 7.3249998 4.3330002 7
26.839001 7.3439999 4.3559999 4
26.844999 7.3509998 4.3740001 3
26.806 7.3470001 4.3839998 3
26.844 7.362 4.4060001 3
0 0 0 0
0 0 0 0
0 0 0 0
0 0 0 3
43.273998 11.905 7.2259998 4
43.203999 11.891 7.2399998 6
43.245998 11.908 7.27 7
43.200001 11.9 7.2859998 8
0 0 0 0
0 0 0 0
0 0 0 5
28.179001 7.7709999 4.8109999 8
28.129999 7.7579999 4.8169999 10
28.139999 7.7620001 4.8330002 15
28.128 7.7589998 4.8449998 20
28.108 7.7540002 4.855 26
28.112 7.7550001 4.869 30
28.108 7.7529998 4.882 34
28.118999 7.7550001 4.8969998 33
28.1 7.7490001 4.9060001 41
28.097 7.7459998 4.9180002 43
28.082001 7.7410002 4.928 36
28.106001 7.7449999 4.9439998 37
28.087999 7.737 4.9530001 37
28.082001 7.7329998 4.9640002 37
28.047001 7.7199998 4.9679999 45
28.041 7.7150002 4.9790001 40
28.037001 7.7090001 4.9889998 41
28.018 7.6999998 4.9959998 49
28.018 7.6960001 5.007 40
28.037001 7.6960001 5.02 39
28.058001 7.697 5.0339999 41
28.084999 7.698 5.0489998 42
28.072001 7.6890001 5.0560002 38
28.082001 7.6859999 5.0669999 37
28.056 7.6719999 5.072 37
28.002001 7.6490002 5.072 36
27.93 7.6230001 5.0669999 40
27.834 7.5890002 5.059 45
27.743999 7.5570002 5.0510001 50
27.639999 7.52 5.04 48
27.559 7.4899998 5.0320001 33
27.487 7.461 5.027 21
27.455999 7.4439998 5.0279999 17
27.391001 7.4169998 5.0229998 16
27.232 7.3639998 5.0009999 16
27.146999 7.3319998 4.9910002 16
27.171 7.3270001 5.0019999 16
27.271 7.3439999 5.027 16
27.209999 7.316 5.0209999 16
27.129999 7.2839999 5.0120001 16
26.412001 7.0799999 4.8839998 15
26.454 7.0799999 4.8969998 16
26.329 7.0339999 4.8790002 10
26.551001 7.0819998 4.9239998 26
26.683001 7.1040001 4.954 28
27.355 7.27 5.0819998 31
27.284 7.237 5.073 31
27.211 7.204 5.0630002 27
27.103001 7.1620002 5.046 16
26.827999 7.0739999 4.9990001 15
26.577 6.994 4.9549999 15
26.347 6.9190001 4.915 22
26.278999 6.8860002 4.9039998 38
26.243 6.862 4.9000001 37
26.197001 6.8340001 4.8940001 42
26.202999 6.8210001 4.8959999 47
26.382999 6.8509998 4.9310002 16
26.653999 6.9050002 4.9829998 15
26.789 6.9229999 5.0100002 26
26.885 6.9310002 5.0279999 29
26.997 6.9429998 5.0500002 45
27.142 6.9619999 5.0770001 36
27.246 6.9699998 5.0970001 41
27.297001 6.9640002 5.1069999 44
27.299 6.9460001 5.1059999 45
27.290001 6.9250002 5.1040001 42
27.295 6.9070001 5.1040001 39
27.306 6.8889999 5.105 40
27.337 6.8779998 5.1090002 45
27.393 6.8709998 5.118 48
27.419001 6.8569999 5.1209998 43
27.42 6.836 5.1199999 44
27.407 6.8109999 5.1149998 43
27.438 6.7969999 5.118 34
27.465 6.7820001 5.1199999 19
27.5 6.7690001 5.1230001 17
27.504 6.7470002 5.1209998 28
27.48 6.7189999 5.1129999 40
27.530001 6.7080002 5.119 35
27.544001 6.6880002 5.1170001 32
27.546 6.665 5.112 36
27.577999 6.6490002 5.1129999 37
27.594999 6.6290002 5.1129999 33
27.611 6.6090002 5.1100001 37
27.593 6.5799999 5.1009998 37
27.624001 6.5619998 5.1009998 42
27.648001 6.5430002 5.0999999 37
27.634001 6.5139999 5.0910001 28
27.622 6.4860001 5.0819998 19
27.653 6.467 5.0819998 8
27.589001 6.4260001 5.0630002 6
27.58 6.3969998 5.0539999 10
27.584 6.3720002 5.0469999 13
27.621 6.3530002 5.046 10
0 0 0 0
0 0 0 16
36.337002 8.2489996 6.6069999 12
36.334999 8.2130003 6.5939999 11
36.380001 8.1850004 6.5910001 11
0 0 0 0
0 0 0 0
0 0 0 21
43.310001 9.5649996 7.7859998 21
43.304001 9.5170002 7.7670002 24
43.351002 9.4820004 7.7600002 28
43.414001 9.4490004 7.7550001 28
43.182999 9.3520002 7.6950002 41
43.112 9.2880001 7.6659999 41
43.210999 9.2620001 7.664 34
43.230999 9.2189999 7.6500001 33
43.186001 9.1610003 7.6230001 35
43.085999 9.0909996 7.585 35
43.081001 9.0410004 7.5640001 41
43.021 8.9790001 7.5339999 40
43.164001 8.9589996 7.539 24
43.304001 8.9379997 7.5419998 15
43.085999 8.8430004 7.4829998 11
43.049 8.7849998 7.4549999 11
43.028 8.7290001 7.4289999 10
43.016998 8.6759996 7.4029999 13
43.035 8.6280003 7.3839998 4
0 0 0 27
46.355999 9.1829996 7.9029999 28
46.223 9.1009998 7.8540001 21
45.693001 8.9399996 7.7379999 33
45.752998 8.8959999 7.7220001 32
45.735001 8.8369999 7.6919999 32
45.758999 8.7849998 7.6700001 25
0 0 0 0
0 0 0 12
0 0 0 0
0 0 0 14
49.870998 9.2609997 8.2010002 11
0 0 0 32
0 0 0 12
49.816002 9.0579996 8.0930004 22
49.811001 8.9919996 8.059 21
49.807999 8.927 8.0240002 17
49.769001 8.8559999 7.9829998 20
49.723 8.783 7.9400001 17
49.722 8.717 7.9039998 14
49.915001 8.684 7.8979998 7
0 0 0 32
60.587002 10.38 9.4969997 38
60.634998 10.308 9.4589996 39
60.715 10.24 9.4250002 45
61.064999 10.217 9.4320002 35
61.212002 10.158 9.4049997 33
0 0 0 0
0 0 0 0
0 0 0 0
0 0 0 17
64.912003 10.33 9.71 18
0 0 0 0
0 0 0 0
0 0 0 46
118.304 18.17 17.292999 55
118.351 18.011 17.193001 56
118.367 17.848 17.091 54
118.371 17.684999 16.986 55
118.4 17.523001 16.882999 49
118.384 17.353001 16.773001 58
118.383 17.184999 16.663 67
118.368 17.014999 16.551001 57
118.384 16.851999 16.443001 56
0 0 0 0
0 0 0 10
47.705002 6.586 6.4889998 20
47.858002 6.54 6.4629998 27
47.851002 6.4710002 6.4159999 37
48.023998 6.4260001 6.3920002 33
48.033001 6.3579998 6.3449998 27
48.127998 6.3010001 6.309 12
0 0 0 0
0 0 0 0
0 0 0 0
0 0 0 28
118.882 14.709 14.97 34
118.909 14.539 14.847 30
118.888 14.362 14.717 36
118.925 14.193 14.593 29
0 0 0 0
0 0 0 0
0 0 0 0
0 0 0 0
0 0 0 0
0 0 0 24
118.808 12.961 13.652 25
0 0 0 0
0 0 0 0
0 0 0 34
118.647 12.25 13.084 46
118.79 12.09 12.959 62
118.715 11.907 12.81 64
118.743 11.737 12.671 70
118.76 11.563 12.53 74
118.809 11.396 12.392 79
118.761 11.216 12.241 91
118.768 11.041 12.096 78
118.783 10.866 11.95 97
118.786 10.691 11.802 137
118.818 10.518 11.656 91
118.817 10.342 11.505 78
118.833 10.168 11.356 46
0 0 0 0
0 0 0 0
0 0 0 38
129.33 10.304 11.688 48
0 0 0 0
0 0 0 33
0 0 0 0
0 0 0 0
0 0 0 23
119.319 8.4540005 9.8310003 33
119.31 8.2779999 9.6680002 39
119.212 8.0959997 9.4969997 45
119.198 7.9229999 9.3339996 45
119.178 7.7470002 9.1680002 33
119.261 7.5780001 9.0089998 31
119.304 7.4089999 8.8470001 34
0 0 0 0
0 0 0 0
0 0 0 0
0 0 0 25
0 0 0 0
0 0 0 26
91.846001 4.77 5.8959999 32
91.494003 4.619 5.7399998 25
92.069 4.5190001 5.645 21
92.523003 4.4099998 5.539 24
90.721001 4.1929998 5.2969999 15
0 0 0 0
0 0 0 17
91.182999 3.8239999 4.9190001 26
91.261002 3.6989999 4.7870002 21
91.703003 3.5880001 4.6750002 21
91.860001 3.4649999 4.5450001 27
92.060997 3.342 4.415 20
92.473 3.2279999 4.2950001 27
91.830002 3.076 4.1240001 37
0 0 0 0
0 0 0 0
0 0 0 14
0 0 0 0
0 0 0 0
0 0 0 0
0 0 0 0
0 0 0 24
89.045998 1.868 2.7490001 21
86.774002 1.702 2.543 21
86.776001 1.585 2.4059999 22
89.288002 1.508 2.332 16
0 0 0 0
0 0 0 0
0 0 0 12
0 0 0 0
0 0 0 0
0 0 0 0
0 0 0 21
0 0 0 0
0 0 0 35
87.844002 0.30000001 0.85399997 22
87.660004 0.182 0.704 26
87.694 0.067000002 0.55800003 33
0 0 0 0
0 0 0 0
0 0 0 0
0 0 0 49
74.889 -0.426 -0.149 64
74.905998 -0.523 -0.27700001 43
74.904999 -0.61900002 -0.405 23
0 0 0 44
0 0 0 11
75.058998 -0.90499997 -0.79000002 29
74.007004 -0.986 -0.90600002 112
71.890999 -1.0470001 -1.003 19
71.780998 -1.1339999 -1.124 84
0 0 0 0
0 0 0 56
68.620003 -1.34 -1.434 34
0 0 0 0
0 0 0 18
45.912998 -1.064 -1.199 16
45.925999 -1.12 -1.281 5
45.888 -1.176 -1.3609999 4
45.769001 -1.227 -1.439 35
45.685001 -1.28 -1.517 72
45.519001 -1.3279999 -1.591 63
45.122002 -1.37 -1.6569999 40
44.862 -1.415 -1.727 39
44.526001 -1.456 -1.794 20
0 0 0 1
32.585999 -1.141 -1.429 2
0 0 0 0
0 0 0 3
25.709 -0.98900002 -1.266 1
0 0 0 1
20.386999 -0.82999998 -1.077 1
19.183001 -0.80299997 -1.048 1
18.224001 -0.78200001 -1.028 2
17.419001 -0.76700002 -1.0140001 2
0 0 0 2
15.403 -0.71200001 -0.95200002 2
14.646 -0.69199997 -0.93199998 3
14.065 -0.68000001 -0.92000002 2
13.392 -0.662 -0.90100002 2
12.825 -0.64700001 -0.88499999 2
12.321 -0.63499999 -0.87300003 2
11.799 -0.62099999 -0.85799998 2
11.306 -0.60699999 -0.84299999 2
10.887 -0.59500003 -0.83099997 2
10.439 -0.58099997 -0.815 2
10.041 -0.56900001 -0.80299997 2
9.6669998 -0.55800003 -0.79100001 3
9.3059998 -0.546 -0.778 2
8.9320002 -0.53299999 -0.76300001 2
8.6160002 -0.523 -0.75199997 4
8.3100004 -0.51300001 -0.74000001 6
8.0620003 -0.505 -0.73299998 6
7.8410001 -0.49900001 -0.727 5
7.631 -0.493 -0.722 4
7.4109998 -0.486 -0.71399999 3
7.198 -0.479 -0.70700002 2
6.9759998 -0.47099999 -0.69800001 3
6.7810001 -0.46399999 -0.69099998 3
6.612 -0.45899999 -0.68599999 2
6.4530001 -0.454 -0.68099999 2
6.302 -0.449 -0.67699999 2
6.1500001 -0.44299999 -0.67199999 2
6.0320001 -0.44 -0.67000002 3
5.9039998 -0.43599999 -0.66600001 2
5.7729998 -0.43200001 -0.662 2
5.658 -0.428 -0.65899998 3
5.5250001 -0.42300001 -0.65399998 3
5.4120002 -0.419 -0.64999998 2
5.2919998 -0.414 -0.64499998 2
5.1830001 -0.41 -0.64099997 3
5.0819998 -0.40599999 -0.63800001 3
4.987 -0.403 -0.63499999 3
4.902 -0.40000001 -0.63300002 2
4.8060002 -0.396 -0.63 4
4.7329998 -0.39399999 -0.62900001 2
4.6469998 -0.38999999 -0.62599999 4
4.5679998 -0.38699999 -0.62300003 2
4.4510002 -0.38100001 -0.61500001 4
4.3759999 -0.37799999 -0.61299998 8
4.336 -0.37799999 -0.61500001 10
4.2719998 -0.37599999 -0.61400002 11
4.204 -0.373 -0.61199999 10
4.1389999 -0.37 -0.61000001 11
4.0760002 -0.368 -0.60799998 11
4.02 -0.366 -0.60699999 11
3.9690001 -0.36399999 -0.60600001 11
3.9159999 -0.36199999 -0.60500002 11
3.849 -0.35800001 -0.60100001 10
3.803 -0.35699999 -0.60100001 9
3.753 -0.35499999 -0.60000002 8
3.7 -0.352 -0.59799999 7
3.6589999 -0.35100001 -0.59799999 6
3.6070001 -0.34799999 -0.59600002 5
3.543 -0.34400001 -0.59200001 3
3.4909999 -0.34200001 -0.58899999 3
3.431 -0.338 -0.58499998 3
3.3989999 -0.33700001 -0.58499998 4
3.368 -0.336 -0.58600003 3
3.3299999 -0.33500001 -0.58499998 3
3.2780001 -0.331 -0.58200002 2
3.2420001 -0.33000001 -0.58099997 2
3.1900001 -0.32600001 -0.57700002 2
3.161 -0.32499999 -0.57800001 2
3.1270001 -0.324 -0.57700002 2
3.0899999 -0.322 -0.57499999 2
3.0550001 -0.31999999 -0.574 2
3.0190001 -0.31799999 -0.57200003 2
2.9909999 -0.31600001 -0.57200003 2
2.9619999 -0.315 -0.57200003 2
2.9330001 -0.31400001 -0.57099998 2
2.908 -0.31200001 -0.57099998 2
2.875 -0.31 -0.56999999 2
2.8410001 -0.308 -0.56800002 2
2.8110001 -0.30599999 -0.56599998 2
2.79 -0.30599999 -0.56699997 2
2.7639999 -0.30399999 -0.56599998 2
2.747 -0.30399999 -0.56699997 2
2.714 -0.301 -0.565 2
2.687 -0.30000001 -0.56400001 2
2.6589999 -0.29800001 -0.56199998 2
2.642 -0.29699999 -0.56300002 2
2.618 -0.296 -0.56199998 2
2.586 -0.29300001 -0.56 2
2.569 -0.292 -0.56 2
2.5539999 -0.292 -0.56099999 2
2.53 -0.28999999 -0.56 2
2.5090001 -0.289 -0.55900002 2
2.494 -0.28799999 -0.56 2
2.47 -0.28600001 -0.55800003 1
2.4530001 -0.285 -0.55900002 1
2.431 -0.28400001 -0.55699998 1
2.411 -0.28200001 -0.55599999 1
2.3959999 -0.28200001 -0.55699998 1
2.3729999 -0.28 -0.55500001 1
2.3570001 -0.27900001 -0.55500001 1
2.3380001 -0.27700001 -0.55400002 1
2.322 -0.27599999 -0.55400002 1
2.2969999 -0.27399999 -0.551 1
2.2850001 -0.273 -0.55199999 1
2.2650001 -0.27200001 -0.551 1
2.25 -0.271 -0.55000001 1
2.2309999 -0.26899999 -0.54900002 1
2.223 -0.26899999 -0.55000001 1
2.2049999 -0.26699999 -0.54900002 1
2.187 -0.266 -0.54799998 1
2.1719999 -0.264 -0.54699999 1
2.1630001 -0.264 -0.54799998 1
2.1459999 -0.26199999 -0.54699999 1
2.1370001 -0.26199999 -0.54799998 1
2.1229999 -0.26100001 -0.54699999 1
2.108 -0.259 -0.54699999 1
2.102 -0.259 -0.54799998 1
2.0810001 -0.257 -0.54500002 1
2.063 -0.255 -0.54299998 1
2.0439999 -0.25299999 -0.54100001 1
2.0409999 -0.25400001 -0.54299998 1
2.0220001 -0.252 -0.54100001 1
2.016 -0.25099999 -0.542 1
2.007 -0.25099999 -0.54299998 1
1.997 -0.25 -0.542 1
1.983 -0.248 -0.54100001 1
1.976 -0.248 -0.542 1
1.965 -0.24699999 -0.542 1
1.956 -0.24600001 -0.542 1
1.932 -0.243 -0.53799999 1
1.928 -0.243 -0.53899997 1
1.919 -0.242 -0.53899997 1
1.91 -0.241 -0.53899997 1
1.902 -0.23999999 -0.53899997 1
1.8890001 -0.23899999 -0.53799999 1
1.885 -0.23899999 -0.53899997 1
1.873 -0.237 -0.53799999 1
1.868 -0.237 -0.53799999 1
1.857 -0.236 -0.537 1
1.842 -0.234 -0.53500003 1
1.832 -0.233 -0.53500003 1
1.8279999 -0.23199999 -0.53600001 1
1.823 -0.23199999 -0.53600001 1
1.8150001 -0.23100001 -0.53600001 1
1.809 -0.23 -0.53600001 1
1.793 -0.228 -0.53299999 1
1.784 -0.227 -0.53299999 1
1.778 -0.227 -0.53299999 1
1.777 -0.226 -0.53500003 1
1.767 -0.22499999 -0.53399998 1
1.749 -0.223 -0.52999997 1
1.752 -0.223 -0.53299999 1
1.739 -0.222 -0.53100002 1
1.733 -0.221 -0.53100002 1
1.732 -0.221 -0.53200001 1
1.726 -0.22 -0.53200001 1
1.721 -0.219 -0.53200001 1
1.716 -0.219 -0.53200001 1
1.709 -0.21799999 -0.53200001 1
1.7029999 -0.21699999 -0.53200001 1
1.691 -0.215 -0.52999997 1
1.6849999 -0.214 -0.52899998 1
1.679 -0.214 -0.52899998 1
1.6720001 -0.213 -0.528 1
1.666 -0.212 -0.528 1
1.666 -0.211 -0.52899998 1
1.655 -0.20999999 -0.52700001 1
1.648 -0.20900001 -0.52600002 1
1.6440001 -0.208 -0.52700001 1
1.641 -0.208 -0.52700001 1
1.635 -0.207 -0.52700001 1
1.633 -0.206 -0.52700001 1
1.624 -0.205 -0.52600002 1
1.613 -0.204 -0.523 1
1.613 -0.20299999 -0.52499998 1
1.613 -0.20299999 -0.52600002 1
1.6 -0.20100001 -0.523 1
1.599 -0.20100001 -0.52399999 1
1.6 -0.20100001 -0.52499998 1
1.591 -0.199 -0.523 1
1.59 -0.199 -0.52399999 1
1.589 -0.199 -0.52499998 1
1.585 -0.198 -0.52499998 1
1.589 -0.198 -0.52700001 1
1.58 -0.19599999 -0.52499998 1
1.577 -0.19599999 -0.52499998 1
1.576 -0.19499999 -0.52600002 1
1.569 -0.19400001 -0.52399999 1
1.563 -0.193 -0.523 1
1.559 -0.192 -0.523 1
1.551 -0.191 -0.52100003 1
1.551 -0.191 -0.52200001 1
1.551 -0.19 -0.523 1
1.548 -0.189 -0.52200001 1
1.5470001 -0.189 -0.523 1
1.5470001 -0.189 -0.52399999 1
1.539 -0.18700001 -0.52200001 1
1.5470001 -0.18799999 -0.52499998 1
1.535 -0.186 -0.52200001 1
1.5319999 -0.185 -0.52200001 1
1.531 -0.185 -0.52200001 1
1.5319999 -0.184 -0.523 1
1.534 -0.184 -0.52399999 1
1.531 -0.183 -0.52399999 1
1.53 -0.183 -0.52399999 1
1.5319999 -0.183 -0.52499998 1
1.527 -0.18099999 -0.52399999 1
1.525 -0.18099999 -0.52399999 1
1.52 -0.18000001 -0.523 1
1.52 -0.17900001 -0.523 1
1.524 -0.17900001 -0.52499998 1
1.517 -0.178 -0.523 1
1.521 -0.178 -0.52499998 1
1.517 -0.177 -0.52399999 1
1.5089999 -0.176 -0.52100003 1
1.511 -0.175 -0.52200001 1
1.508 -0.17399999 -0.52200001 1
1.511 -0.17399999 -0.523 1
1.5089999 -0.17299999 -0.523 1
1.51 -0.17299999 -0.523 1
1.503 -0.17200001 -0.52100003 1
1.506 -0.171 -0.52200001 1
1.499 -0.17 -0.51999998 1
1.507 -0.17 -0.523 1
1.51 -0.17 -0.52399999 1
1.507 -0.169 -0.523 1
1.498 -0.167 -0.51999998 1
1.506 -0.168 -0.523 1
1.507 -0.167 -0.52399999 1
1.507 -0.167 -0.52399999 1
1.5 -0.16500001 -0.52100003 1
1.498 -0.164 -0.51999998 1
1.507 -0.16500001 -0.52399999 1
1.498 -0.163 -0.51999998 1
1.5089999 -0.164 -0.52399999 1
1.498 -0.162 -0.51999998 1
1.5089999 -0.162 -0.52399999 1
1.507 -0.162 -0.523 1
1.499 -0.16 -0.51999998 1
1.508 -0.16 -0.523 1
1.5 -0.15899999 -0.51999998 1
1.501 -0.15800001 -0.51999998 1
1.5089999 -0.15800001 -0.523 1
1.51 -0.15800001 -0.523 1
1.521 -0.15800001 -0.52600002 1
1.512 -0.15700001 -0.523 1
1.512 -0.156 -0.523 1
1.512 -0.155 -0.52200001 1
1.513 -0.155 -0.52200001 1
1.513 -0.154 -0.52200001 1
1.515 -0.153 -0.52200001 1
1.521 -0.153 -0.52399999 1
1.523 -0.153 -0.52399999 1
1.529 -0.153 -0.52600002 1
1.528 -0.152 -0.52499998 1
1.529 -0.15099999 -0.52399999 1
1.5319999 -0.15099999 -0.52499998 1
1.525 -0.149 -0.52200001 1
1.53 -0.149 -0.523 1
1.535 -0.149 -0.52399999 1
1.5319999 -0.147 -0.523 1
1.534 -0.147 -0.523 1
1.536 -0.146 -0.523 1
1.543 -0.146 -0.52399999 1
1.54 -0.145 -0.52200001 1
1.545 -0.145 -0.523 1
1.543 -0.14399999 -0.52200001 1
1.551 -0.14300001 -0.52399999 1
1.551 -0.14300001 -0.523 1
1.553 -0.142 -0.523 1
1.553 -0.141 -0.52200001 1
1.553 -0.14 -0.52100003 1
1.554 -0.14 -0.51999998 1
1.564 -0.14 -0.523 1
1.568 -0.139 -0.523 1
1.576 -0.139 -0.52499998 1
1.5779999 -0.138 -0.52399999 1
1.576 -0.13699999 -0.523 1
1.586 -0.13699999 -0.52499998 1
1.595 -0.13699999 -0.52700001 1
1.596 -0.13600001 -0.52600002 1
1.6 -0.13600001 -0.52600002 1
1.615 -0.13600001 -0.52999997 1
1.624 -0.13600001 -0.53200001 1
1.603 -0.133 -0.52399999 1
1.614 -0.133 -0.52600002 1
1.6160001 -0.132 -0.52600002 1
1.62 -0.132 -0.52600002 1
1.622 -0.131 -0.52499998 1
1.632 -0.131 -0.52700001 1
1.627 -0.13 -0.52399999 1
1.643 -0.13 -0.528 1
1.643 -0.12899999 -0.52600002 1
1.654 -0.12899999 -0.528 1
1.661 -0.12899999 -0.52899998 1
1.66 -0.127 -0.52700001 1
1.67 -0.127 -0.52899998 1
1.675 -0.127 -0.52899998 1
1.681 -0.126 -0.52899998 1
1.687 -0.126 -0.52899998 1
1.691 -0.125 -0.52899998 1
1.702 -0.125 -0.53100002 1
1.71 -0.124 -0.53200001 1
1.707 -0.123 -0.52899998 1
1.727 -0.123 -0.53299999 1
1.732 -0.123 -0.53299999 1
1.726 -0.121 -0.52999997 1
1.745 -0.122 -0.53299999 1
1.7539999 -0.121 -0.53399998 1
1.745 -0.12 -0.52999997 1
1.7539999 -0.119 -0.53100002 1
1.7640001 -0.119 -0.53200001 1
1.767 -0.118 -0.53100002 1
1.774 -0.117 -0.53100002 1
1.791 -0.117 -0.53399998 1
1.801 -0.117 -0.53500003 1
1.804 -0.116 -0.53299999 1
1.812 -0.116 -0.53399998 1
1.822 -0.115 -0.53500003 1
1.83 -0.115 -0.53500003 1
1.84 -0.114 -0.53500003 1
1.848 -0.113 -0.53500003 1
1.858 -0.113 -0.53600001 1
1.864 -0.112 -0.53500003 1
1.878 -0.112 -0.537 1
1.883 -0.111 -0.53600001 1
1.893 -0.111 -0.53600001 1
1.904 -0.11 -0.537 1
1.916 -0.11 -0.53799999 1
1.9119999 -0.108 -0.53399998 1
1.932 -0.108 -0.537 1
1.946 -0.108 -0.53899997 1
1.954 -0.107 -0.53799999 1
1.967 -0.107 -0.53899997 1
1.989 -0.107 -0.542 1
1.9809999 -0.105 -0.53799999 1
2.0020001 -0.105 -0.54100001 1
2.0139999 -0.105 -0.54100001 1
2.026 -0.104 -0.54100001 1
2.033 -0.104 -0.54000002 1
2.04 -0.103 -0.53899997 1
2.0599999 -0.103 -0.54100001 1
2.0780001 -0.102 -0.54299998 1
2.0880001 -0.102 -0.54299998 1
2.109 -0.102 -0.54500002 1
2.1199999 -0.101 -0.54500002 1
2.1329999 -0.1 -0.54500002 1
2.1459999 -0.1 -0.54500002 1
2.1600001 -0.098999999 -0.54500002 1
2.1659999 -0.097999997 -0.54299998 1
2.184 -0.097999997 -0.54500002 1
2.201 -0.097000003 -0.54500002 1
2.2160001 -0.097000003 -0.546 1
2.2320001 -0.096000001 -0.546 1
2.2490001 -0.096000001 -0.54699999 1
2.263 -0.094999999 -0.54699999 1
2.2939999 -0.094999999 -0.55000001 1
2.3 -0.093999997 -0.54799998 1
2.325 -0.093999997 -0.55000001 1
2.342 -0.093999997 -0.551 1
2.368 -0.093999997 -0.55299997 1
2.3840001 -0.093000002 -0.55299997 1
2.398 -0.092 -0.55199999 1
2.425 -0.092 -0.55400002 1
2.447 -0.092 -0.55500001 1
2.4660001 -0.090999998 -0.55500001 1
2.4860001 -0.090999998 -0.55599999 1
2.5039999 -0.090000004 -0.55500001 1
2.529 -0.090000004 -0.55699998 1
2.543 -0.089000002 -0.55500001 1
2.5769999 -0.089000002 -0.55800003 1
2.5999999 -0.088 -0.55900002 1
2.6259999 -0.088 -0.56 1
2.6440001 -0.086999997 -0.55900002 1
2.6689999 -0.086999997 -0.56 2
2.697 -0.086999997 -0.56099999 2
2.7279999 -0.086000003 -0.56199998 2
2.7539999 -0.086000003 -0.56300002 2
2.7880001 -0.086000003 -0.565 2
2.8139999 -0.085000001 -0.565 2
2.8440001 -0.085000001 -0.56599998 2
2.8770001 -0.085000001 -0.56699997 2
2.904 -0.083999999 -0.56800002 2
2.944 -0.083999999 -0.56999999 2
2.9719999 -0.082999997 -0.56999999 2
3.0120001 -0.082999997 -0.57200003 2
3.04 -0.082999997 -0.57200003 2
3.075 -0.082000002 -0.57300001 2
3.1159999 -0.082000002 -0.57499999 2
3.168 -0.082000002 -0.57800001 3
3.2090001 -0.082000002 -0.57999998 4
3.2309999 -0.081 -0.57800001 4
3.2850001 -0.081 -0.58099997 3
3.348 -0.082000002 -0.58600003 4
3.385 -0.081 -0.58600003 6
3.4070001 -0.079999998 -0.583 5
3.441 -0.079999998 -0.58200002 3
3.4920001 -0.079999998 -0.58399999 3
3.5420001 -0.079999998 -0.58600003 3
3.635 -0.081 -0.59399998 2
3.747 -0.082000002 -0.60500002 3
3.7809999 -0.081 -0.60299999 2
3.8180001 -0.081 -0.602 2
3.8800001 -0.081 -0.60399997 2
3.9319999 -0.079999998 -0.60399997 2
3.9630001 -0.079999998 -0.60100001 2
4.0359998 -0.079999998 -0.60399997 2
4.099 -0.079999998 -0.60600001 2
4.21 -0.081 -0.61400002 2
4.2210002 -0.079000004 -0.60699999 2
4.3060002 -0.079999998 -0.611 2
4.3940001 -0.079999998 -0.61400002 4
4.4809999 -0.079999998 -0.61799997 3
4.5609999 -0.081 -0.61900002 3
4.652 -0.081 -0.62300003 2
4.7309999 -0.081 -0.62400001 2
4.8379998 -0.082000002 -0.62800002 3
4.941 -0.082000002 -0.63099998 2
5.04 -0.082000002 -0.634 3
5.138 -0.082999997 -0.63599998 5
5.2579999 -0.082999997 -0.63999999 3
5.3959999 -0.083999999 -0.64499998 3
5.5139999 -0.085000001 -0.648 4
5.6550002 -0.086000003 -0.653 3
5.7989998 -0.086999997 -0.65799999 3
5.9359999 -0.086999997 -0.66100001 3
6.0970001 -0.089000002 -0.667 3
6.2519999 -0.090000004 -0.671 4
6.4289999 -0.090999998 -0.676 4
6.6129999 -0.092 -0.68199998 4
6.8590002 -0.093999997 -0.69300002 5
7.0669999 -0.096000001 -0.69999999 7
7.2529998 -0.097000003 -0.70300001 7
7.5 -0.1 -0.71100003 7
7.7309999 -0.101 -0.71700001 7
8.0030003 -0.104 -0.72600001 5
8.3769999 -0.107 -0.74199998 5
8.8129997 -0.112 -0.76200002 9
9.1110001 -0.115 -0.76899999 19
9.3900003 -0.117 -0.77200001 19
9.7779999 -0.121 -0.78399998 7
10.316 -0.126 -0.80500001 3
10.865 -0.132 -0.82499999 2
11.423 -0.13699999 -0.84299999 2
11.963 -0.14300001 -0.85799998 3
12.546 -0.149 -0.87300003 3
13.199 -0.156 -0.88999999 3
13.914 -0.163 -0.90899998 3
14.73 -0.17200001 -0.93099999 3
15.523 -0.18000001 -0.949 3
16.433001 -0.19 -0.96899998 3
0 0 0 2
0 0 0 1
0 0 0 1
0 0 0 0
0 0 0 0
0 0 0 0
0 0 0 0
0 0 0 0
0 0 0 97
47.807999 -0.54799998 -1.798 164
47.848 -0.55000001 -1.7 211
47.845001 -0.551 -1.597 255
47.849998 -0.55299997 -1.495 255
47.842999 -0.55599999 -1.392 208
47.888 -0.55900002 -1.2920001 168
47.826 -0.56099999 -1.189 150
0 0 0 41
75.002998 -0.89099997 -1.543 50
75.046997 -0.898 -1.383 49
75.054001 -0.90399998 -1.222 52
75.055 -0.912 -1.061 45
75.085999 -0.92000002 -0.89999998 41
75.091003 -0.92799997 -0.73900002 40
75.079002 -0.93699998 -0.57800001 32
74.973999 -0.94499999 -0.414 36
74.990997 -0.95499998 -0.25799999 57
74.961998 -0.96499997 -0.094999999 90
74.983002 -0.97600001 0.064000003 83
74.949997 -0.98699999 0.22 64
75.028999 -1 0.38100001 9
72.982002 -0.98500001 0.52700001 8
0 0 0 0
0 0 0 0
0 0 0 0
0 0 0 30
66.063004 -0.95200002 1.178 66
65.858002 -0.963 1.314 66
65.475998 -0.97100002 1.444 38
64.632004 -0.97299999 1.563 23
64.434998 -0.98500001 1.6950001 19
64.165001 -0.99599999 1.824 11
66.018997 -1.04 2.0139999 16
68.074997 -1.089 2.2190001 21
67.992996 -1.105 2.358 55
67.905998 -1.1210001 2.4990001 75
67.556999 -1.1339999 2.6289999 55
67.209 -1.146 2.757 55
66.795998 -1.158 2.8800001 71
66.696999 -1.176 3.0179999 68
66.669998 -1.1950001 3.1570001 62
66.689003 -1.215 3.296 65
66.485001 -1.2309999 3.425 63
66.018997 -1.244 3.5380001 53
65.569 -1.256 3.651 70
65.390999 -1.274 3.777 76
65.355003 -1.295 3.9089999 72
65.335999 -1.316 4.0440001 84
64.950996 -1.331 4.1550002 51
64.420998 -1.342 4.2519999 60
64.088997 -1.358 4.3629999 82
64.023003 -1.38 4.4899998 69
64.037003 -1.405 4.6230001 66
63.82 -1.424 4.7379999 62
63.256001 -1.436 4.8260002 48
62.749001 -1.449 4.9159999 66
62.695999 -1.471 5.0380001 59
62.706001 -1.497 5.1659999 63
62.528999 -1.518 5.2789998 60
61.905998 -1.528 5.3499999 45
61.417999 -1.5420001 5.4299998 60
61.375 -1.567 5.552 54
61.363998 -1.5930001 5.6750002 48
61.025002 -1.6109999 5.7659998 40
60.192001 -1.615 5.8060002 42
60.011002 -1.637 5.9089999 29
59.754002 -1.6569999 6.0019999 14
59.023998 -1.664 6.046 11
58.741001 -1.683 6.1339998 9
58.471001 -1.702 6.2199998 9
58.210999 -1.722 6.3070002 9
57.869999 -1.74 6.3839998 9
57.566002 -1.7589999 6.4629998 10
57.245998 -1.777 6.539 9
56.941002 -1.796 6.6160002 9
56.660999 -1.816 6.6929998 7
56.374001 -1.836 6.7680001 5
56.062 -1.853 6.8379998 5
0 0 0 0
0 0 0 0
0 0 0 25
119.943 -4.2160001 15.547 35
119.908 -4.277 15.767 27
119.994 -4.3449998 16.006001 30
119.948 -4.4089999 16.226 41
120.042 -4.4790001 16.465 24
0 0 0 7
53.057999 -2.039 7.4759998 18
52.953999 -2.0650001 7.5599999 36
52.962002 -2.095 7.6589999 46
52.882 -2.122 7.744 59
52.387001 -2.1329999 7.7709999 44
52.02 -2.148 7.8109999 41
52.014 -2.178 7.9029999 45
52.005001 -2.2079999 7.9959998 44
51.766998 -2.2290001 8.0530005 42
50.853001 -2.2190001 8.0030003 39
50.652 -2.2409999 8.0620003 41
50.650002 -2.2720001 8.151 40
50.664001 -2.302 8.2419996 40
50.173 -2.3110001 8.2519999 31
49.366001 -2.3039999 8.2069998 41
49.319 -2.3329999 8.2849998 39
49.317001 -2.3629999 8.3719997 38
49.292999 -2.3929999 8.4519997 36
48.637001 -2.3900001 8.4219999 29
47.979 -2.3889999 8.3909998 35
47.978001 -2.4189999 8.4729996 37
47.981998 -2.45 8.5559998 38
47.967999 -2.4809999 8.6350002 36
47.314999 -2.4779999 8.5979996 28
46.658001 -2.474 8.5570002 36
46.640999 -2.503 8.6330004 36
46.639999 -2.5339999 8.7110004 35
46.641998 -2.5639999 8.7869997 39
45.998001 -2.559 8.7410002 26
45.324001 -2.552 8.6870003 38
45.27 -2.579 8.7519999 34
45.289001 -2.6099999 8.8290005 35
45.313 -2.641 8.9060001 34
45.060001 -2.6570001 8.9280005 32
44.113998 -2.631 8.8109999 33
43.950001 -2.652 8.8479996 32
43.944 -2.681 8.9160004 31
43.953999 -2.7119999 8.9870005 34
43.938999 -2.7409999 9.052 35
43.160999 -2.723 8.9589996 23
42.618999 -2.7179999 8.9119997 32
42.624001 -2.747 8.9790001 32
42.616001 -2.776 9.04 37
42.618 -2.806 9.1049995 37
42.59 -2.8329999 9.1619997 39
41.717999 -2.8039999 9.0360003 22
41.245998 -2.802 8.9949999 26
41.230999 -2.8299999 9.052 29
41.242001 -2.859 9.1140003 30
41.263 -2.8889999 9.1789999 27
41.216 -2.915 9.2270002 37
40.310001 -2.8800001 9.0819998 23
39.922001 -2.8800001 9.0509996 29
39.912998 -2.9070001 9.1049995 35
39.903 -2.9349999 9.158 33
39.903 -2.964 9.2139997 33
39.917999 -2.993 9.2720003 28
39.300999 -2.9749999 9.1829996 19
38.612 -2.951 9.0740004 26
38.563999 -2.974 9.1140003 25
38.570999 -3.0020001 9.1669998 25
38.543999 -3.0280001 9.2110004 31
38.577 -3.0569999 9.2690001 26
38.535999 -3.0810001 9.3100004 30
37.764 -3.0469999 9.1719999 18
37.234001 -3.03 9.0900002 25
37.186001 -3.053 9.125 30
37.212002 -3.082 9.1789999 30
37.200001 -3.1070001 9.2209997 31
37.200001 -3.135 9.2679996 30
37.195999 -3.1600001 9.3120003 29
36.609001 -3.1370001 9.2089996 17
35.904999 -3.102 9.0749998 27
35.848999 -3.1229999 9.1040001 32
35.851002 -3.1489999 9.1459999 31
35.858002 -3.175 9.1890001 31
35.856998 -3.2 9.2309999 31
35.872002 -3.2260001 9.2749996 31
35.834 -3.2490001 9.3059998 29
35.194 -3.2160001 9.1789999 16
34.544998 -3.181 9.0480003 26
34.512001 -3.2030001 9.0760002 31
34.5 -3.2249999 9.1099997 30
34.507999 -3.2509999 9.1490002 31
34.514999 -3.276 9.1870003 28
34.519001 -3.3010001 9.224 28
34.525002 -3.326 9.2620001 27
34.150002 -3.3139999 9.1969995 21
33.328999 -3.2579999 9.0089998 24
33.153999 -3.2639999 8.9940004 28
33.151001 -3.286 9.026 30
33.139999 -3.3080001 9.0550003 29
33.151001 -3.3310001 9.0900002 30
33.157001 -3.355 9.1230001 29
33.158001 -3.3789999 9.1540003 29
33.157001 -3.402 9.1850004 29
33.119999 -3.421 9.2049999 24
32.375 -3.3659999 9.026 17
31.839001 -3.332 8.9049997 24
31.802999 -3.3499999 8.9230003 27
31.802999 -3.372 8.9499998 27
31.801001 -3.3940001 8.9770002 27
31.825001 -3.4170001 9.0100002 27
31.802999 -3.4360001 9.0299997 26
31.818001 -3.46 9.0600004 26
31.802 -3.4790001 9.0810003 27
31.799999 -3.5009999 9.1049995 24
31.216 -3.457 8.9619999 13
30.528 -3.402 8.7880001 21
30.433001 -3.4100001 8.783 25
30.461 -3.4349999 8.8140001 26
30.448 -3.4530001 8.8319998 26
30.454 -3.473 8.8549995 25
30.462 -3.494 8.8780003 26
30.461 -3.5139999 8.8990002 26
30.447001 -3.5309999 8.9160004 25
30.461 -3.553 8.9399996 24
30.458 -3.5710001 8.9580002 25
30.438999 -3.589 8.9709997 20
29.750999 -3.526 8.7869997 14
29.193001 -3.4790001 8.6400003 18
29.1 -3.4860001 8.6289997 21
29.084 -3.5020001 8.6409998 24
29.075001 -3.5190001 8.6549997 24
29.087 -3.5380001 8.6739998 25
29.084 -3.556 8.6890001 24
29.089001 -3.573 8.7060003 24
29.108999 -3.5940001 8.7259998 23
29.106001 -3.6110001 8.7399998 24
29.091 -3.6270001 8.75 23
29.108 -3.6459999 8.7679996 23
29.094999 -3.661 8.7779999 23
28.743999 -3.6340001 8.6850004 19
28.115999 -3.5710001 8.507 18
27.791 -3.546 8.4200001 20
27.733999 -3.5550001 8.4139996 24
27.742001 -3.572 8.427 25
27.739 -3.5869999 8.4359999 26
