# .PCD v0.7 - Point Cloud Data file format
VERSION 0.7
FIELDS x y z intensity
SIZE 4 4 4 4
TYPE F F F F
COUNT 1 1 1 1
WIDTH 1811
HEIGHT 1
VIEWPOINT 0 0 0 1 0 0 0
POINTS 1811
DATA ascii
119.201 9.526 27.705999 60
119.211 9.427 27.565001 70
119.21 9.3290005 27.416 71
119.192 9.2279997 27.266001 59
119.293 9.1389999 27.142 52
119.373 9.0450001 27.011 44
119.474 8.9519997 26.884001 26
119.602 8.8620005 26.761 23
0 0 0 0
0 0 0 0
0 0 0 0
0 0 0 0
0 0 0 0
0 0 0 0
0 0 0 0
0 0 0 0
0 0 0 0
0 0 0 0
0 0 0 0
0 0 0 0
0 0 0 0
0 0 0 0
0 0 0 31
119.257 7.2399998 24.087 41
119.288 7.1459999 23.922001 62
119.268 7.0419998 23.743 53
119.239 6.9450002 23.565001 65
119.305 6.8499999 23.403 62
119.249 6.7480001 23.215 61
119.33 6.6529999 23.052999 43
119.53 6.566 22.912001 31
119.503 6.4699998 22.725 27
119.546 6.3740001 22.552 27
119.596 6.277 22.382 25
119.558 6.178 22.188 27
119.532 6.079 21.997999 29
119.648 5.987 21.833 28
119.563 5.8889999 21.632999 32
119.536 5.79 21.440001 31
119.562 5.6950002 21.256001 31
119.664 5.6030002 21.083 27
119.672 5.507 20.893 35
119.659 5.4099998 20.698999 39
119.418 5.303 20.464001 27
119.264 5.2010002 20.243999 26
119.299 5.1100001 20.056999 45
119.334 5.0170002 19.867001 65
119.306 4.9219999 19.662001 55
121.794 4.9289999 19.870001 51
121.801 4.8330002 19.667999 75
121.838 4.7389998 19.469999 74
121.839 4.6469998 19.267 70
121.873 4.5500002 19.063999 59
121.897 4.4590001 18.863001 49
121.947 4.3670001 18.663 32
121.982 4.2740002 18.459 35
122.018 4.1820002 18.254 31
122.077 4.0939999 18.054001 32
122.07 4.0009999 17.841 27
122.032 3.9089999 17.629 37
122.037 3.8180001 17.412001 33
122.066 3.727 17.201 30
122.12 3.638 16.993 31
122.019 3.5439999 16.761999 32
122.005 3.454 16.542999 33
122.009 3.3640001 16.325001 32
121.849 3.2709999 16.084999 47
121.866 3.1849999 15.87 56
121.859 3.0969999 15.648 69
121.847 3.0090001 15.425 78
121.87 2.9219999 15.206 78
121.909 2.836 14.987 58
121.994 2.7539999 14.777 47
122.274 2.675 14.585 30
0 0 0 0
0 0 0 0
0 0 0 0
0 0 0 0
0 0 0 0
0 0 0 31
122.271 2.0899999 12.987 41
122.139 2.0090001 12.745 25
122.099 1.927 12.509 23
0 0 0 0
0 0 0 33
121.86 1.687 11.788 62
121.845 1.608 11.552 77
121.857 1.5319999 11.322 74
121.799 1.455 11.081 77
121.81 1.378 10.845 84
121.828 1.302 10.61 71
121.87 1.228 10.376 70
121.98 1.154 10.147 36
121.911 1.079 9.9020004 35
121.963 1.008 9.6700001 38
121.978 0.935 9.4309998 35
121.929 0.86299998 9.1859999 35
0 0 0 0
0 0 0 0
0 0 0 47
121.926 0.58499998 8.2270002 56
121.997 0.51599997 7.9879999 42
122.07 0.44999999 7.7519999 43
122.042 0.382 7.5050001 48
122.015 0.317 7.2610002 42
122.099 0.25 7.0170002 38
0 0 0 0
0 0 0 29
122.034 0.057 6.276 32
121.864 -0.0060000001 6.013 39
121.81 -0.067000002 5.7690001 64
121.786 -0.127 5.5229998 84
121.818 -0.18799999 5.276 58
0 0 0 22
85.68 -0.21600001 3.3570001 31
85.587997 -0.257 3.178 35
87.088997 -0.303 3.0550001 22
87.322998 -0.345 2.8829999 34
87.528 -0.38600001 2.71 36
87.75 -0.426 2.5380001 30
86.984001 -0.46200001 2.336 18
0 0 0 0
0 0 0 29
0 0 0 0
0 0 0 26
72.371002 -0.53799999 1.199 63
72.075996 -0.56599998 1.044 42
71.605003 -0.59100002 0.88599998 61
71.417 -0.61799997 0.73400003 105
71.303001 -0.64499998 0.58399999 103
71.280998 -0.67199999 0.43700001 36
71.162003 -0.69800001 0.287 8
0 0 0 0
0 0 0 0
0 0 0 11
74.553001 -0.83899999 -0.31900001 45
74.556 -0.86400002 -0.47600001 72
74.564003 -0.889 -0.63099998 77
74.622002 -0.91500002 -0.78799999 69
74.723 -0.94 -0.94400001 38
74.658997 -0.963 -1.101 24
74.524002 -0.98500001 -1.256 37
73.871002 -0.99900001 -1.401 66
73.646004 -1.018 -1.552 106
73.603996 -1.039 -1.706 127
73.609001 -1.0599999 -1.862 95
73.586998 -1.08 -2.017 45
73.629997 -1.1 -2.171 9
71.399002 -1.086 -2.256 30
71.328003 -1.103 -2.405 15
0 0 0 0
0 0 0 12
58.962002 -0.95499998 -2.3599999 54
58.981998 -0.96899998 -2.484 52
59.012001 -0.98299998 -2.6099999 8
0 0 0 0
0 0 0 0
0 0 0 0
0 0 0 0
0 0 0 0
0 0 0 2
0 0 0 1
19.372 -0.352 -1.183 1
0 0 0 2
16.733 -0.31 -1.092 5
0 0 0 4
15.043 -0.28299999 -1.045 3
14.239 -0.26899999 -1.0190001 3
13.533 -0.25799999 -0.99599999 3
12.796 -0.245 -0.96899998 3
12.199 -0.235 -0.949 3
11.665 -0.226 -0.93199998 2
11.179 -0.21799999 -0.91600001 2
10.652 -0.20900001 -0.89499998 2
10.191 -0.2 -0.87800002 2
9.6990004 -0.192 -0.85500002 3
9.3050003 -0.184 -0.83999997 3
8.8780003 -0.177 -0.81999999 5
8.6009998 -0.17200001 -0.81199998 6
8.3290005 -0.167 -0.80400002 7
7.9619999 -0.16 -0.78500003 4
7.677 -0.154 -0.773 7
7.4229999 -0.149 -0.76300001 6
7.1919999 -0.145 -0.75400001 5
6.954 -0.14 -0.74299997 8
6.7680001 -0.13699999 -0.73699999 7
6.6290002 -0.134 -0.736 6
6.434 -0.13 -0.727 4
6.2179999 -0.126 -0.71600002 3
6.0679998 -0.123 -0.71100003 3
5.9060001 -0.119 -0.704 3
5.7670002 -0.116 -0.699 2
5.6279998 -0.113 -0.69300002 3
5.5110002 -0.111 -0.69 3
5.3870001 -0.108 -0.68599999 3
5.2610002 -0.105 -0.68000001 3
5.1339998 -0.102 -0.67400002 3
5.0180001 -0.1 -0.66900003 2
4.921 -0.097999997 -0.66600001 3
4.8119998 -0.094999999 -0.66100001 2
4.7160001 -0.093000002 -0.65700001 2
4.6350002 -0.090999998 -0.65499997 2
4.553 -0.089000002 -0.653 2
4.4790001 -0.086999997 -0.65100002 2
4.3709998 -0.083999999 -0.64399999 2
4.3829999 -0.083999999 -0.65499997 4
4.2020001 -0.079999998 -0.63599998 2
4.2059999 -0.079999998 -0.64499998 2
4.0710001 -0.077 -0.63200003 2
4.0310001 -0.075000003 -0.634 2
3.9760001 -0.074000001 -0.63300002 2
3.895 -0.071999997 -0.62699997 2
3.8239999 -0.07 -0.62400001 3
3.777 -0.068000004 -0.62300003 2
3.734 -0.067000002 -0.62300003 2
3.7460001 -0.067000002 -0.63300002 2
3.6300001 -0.064000003 -0.62 1
3.586 -0.063000001 -0.61900002 1
3.5190001 -0.061000001 -0.61400002 1
3.4890001 -0.059999999 -0.616 2
3.4809999 -0.059 -0.62099999 2
3.3699999 -0.056000002 -0.60799998 3
3.332 -0.055 -0.60699999 3
3.368 -0.055 -0.62 2
3.2839999 -0.052999999 -0.611 2
3.2809999 -0.052000001 -0.616 2
3.1500001 -0.048999999 -0.59799999 1
3.109 -0.048 -0.59600002 2
3.073 -0.046999998 -0.59500003 3
3.0420001 -0.045000002 -0.59399998 3
3.0179999 -0.044 -0.59500003 3
2.9909999 -0.043000001 -0.59500003 3
2.954 -0.041999999 -0.59299999 2
2.9059999 -0.039999999 -0.58899999 2
2.8859999 -0.039000001 -0.58999997 2
2.8410001 -0.037999999 -0.58600003 2
2.8169999 -0.037 -0.58600003 2
2.7920001 -0.035999998 -0.58600003 2
2.756 -0.035 -0.583 2
2.724 -0.033 -0.58099997 2
2.7030001 -0.032000002 -0.58200002 2
2.677 -0.030999999 -0.58099997 2
2.645 -0.029999999 -0.57800001 2
2.628 -0.028999999 -0.579 2
2.5940001 -0.028000001 -0.57599998 2
2.5710001 -0.027000001 -0.57599998 2
2.5450001 -0.026000001 -0.574 2
2.5250001 -0.025 -0.574 2
2.4979999 -0.024 -0.57200003 2
2.4849999 -0.023 -0.57300001 2
2.461 -0.022 -0.57200003 2
2.437 -0.021 -0.57099998 2
2.425 -0.02 -0.57200003 2
2.404 -0.018999999 -0.57099998 2
2.3840001 -0.017999999 -0.56999999 2
2.3529999 -0.017000001 -0.56599998 1
2.342 -0.016000001 -0.56699997 1
2.3210001 -0.015 -0.56599998 1
2.3069999 -0.014 -0.56599998 1
2.2880001 -0.013 -0.565 1
2.2709999 -0.012 -0.565 1
2.253 -0.011 -0.56400001 1
2.234 -0.0099999998 -0.56300002 1
2.207 -0.0089999996 -0.55900002 1
2.2019999 -0.0080000004 -0.56199998 1
2.177 -0.0070000002 -0.55900002 1
2.1689999 -0.0060000001 -0.56 1
2.1630001 -0.0060000001 -0.56199998 1
2.138 -0.0049999999 -0.55800003 1
2.1289999 -0.0040000002 -0.55900002 1
2.1159999 -0.003 -0.55900002 1
2.108 -0.0020000001 -0.56 1
2.089 -0.001 -0.55800003 1
2.075 0 -0.55699998 1
2.0650001 0 -0.55800003 1
2.0420001 0 -0.55500001 1
2.0320001 0.001 -0.55500001 1
2.0250001 0.0020000001 -0.55599999 1
2.0150001 0.003 -0.55599999 1
2.006 0.0040000002 -0.55599999 1
1.988 0.0049999999 -0.55400002 1
1.979 0.0049999999 -0.55400002 1
1.969 0.0060000001 -0.55400002 1
1.962 0.0070000002 -0.55500001 1
1.959 0.0080000004 -0.55599999 1
1.941 0.0089999996 -0.55400002 1
1.932 0.0089999996 -0.55400002 1
1.905 0.0099999998 -0.54900002 1
1.902 0.011 -0.55000001 1
1.893 0.012 -0.55000001 1
1.88 0.012 -0.54900002 1
1.873 0.013 -0.54900002 1
1.863 0.014 -0.54900002 1
1.857 0.015 -0.54900002 1
1.859 0.016000001 -0.55199999 1
1.837 0.016000001 -0.54799998 1
1.829 0.017000001 -0.54799998 1
1.816 0.017999999 -0.546 1
1.803 0.018999999 -0.54400003 1
1.808 0.018999999 -0.54799998 1
1.801 0.02 -0.54799998 1
1.79 0.021 -0.546 1
1.786 0.022 -0.54699999 1
1.774 0.022 -0.546 1
1.7640001 0.023 -0.54500002 1
1.755 0.024 -0.54400003 1
1.748 0.024 -0.54299998 1
1.745 0.025 -0.54400003 1
1.732 0.026000001 -0.542 1
1.729 0.027000001 -0.54299998 1
1.725 0.027000001 -0.54299998 1
1.721 0.028000001 -0.54400003 1
1.709 0.028999999 -0.542 1
1.7029999 0.028999999 -0.542 1
1.696 0.029999999 -0.54100001 1
1.698 0.030999999 -0.54400003 1
1.682 0.032000002 -0.54000002 1
1.668 0.032000002 -0.537 1
1.668 0.033 -0.53899997 1
1.669 0.034000002 -0.54100001 1
1.6569999 0.034000002 -0.53799999 1
1.656 0.035 -0.54000002 1
1.646 0.035999998 -0.53799999 1
1.6339999 0.035999998 -0.53500003 1
1.6390001 0.037 -0.53799999 1
1.637 0.037999999 -0.53899997 1
1.633 0.037999999 -0.53899997 1
1.624 0.039000001 -0.53799999 1
1.612 0.039000001 -0.53500003 1
1.609 0.039999999 -0.53500003 1
1.609 0.041000001 -0.53600001 1
1.598 0.041000001 -0.53399998 1
1.599 0.041999999 -0.53500003 1
1.597 0.043000001 -0.53600001 1
1.595 0.044 -0.53600001 1
1.587 0.044 -0.53500003 1
1.586 0.045000002 -0.53600001 1
1.5779999 0.045000002 -0.53399998 1
1.574 0.046 -0.53399998 1
1.5700001 0.046999998 -0.53299999 1
1.566 0.046999998 -0.53299999 1
1.566 0.048 -0.53399998 1
1.557 0.048999999 -0.53200001 1
1.563 0.050000001 -0.53500003 1
1.5549999 0.050000001 -0.53299999 1
1.5549999 0.050999999 -0.53399998 1
1.551 0.050999999 -0.53399998 1
1.545 0.052000001 -0.53200001 1
1.54 0.052000001 -0.53200001 1
1.5420001 0.052999999 -0.53299999 1
1.543 0.054000001 -0.53399998 1
1.54 0.055 -0.53399998 1
1.5319999 0.055 -0.53200001 1
1.5369999 0.056000002 -0.53399998 1
1.528 0.056000002 -0.53200001 1
1.526 0.057 -0.53200001 1
1.527 0.057999998 -0.53299999 1
1.525 0.057999998 -0.53299999 1
1.523 0.059 -0.53200001 1
1.521 0.059999999 -0.53200001 1
1.521 0.059999999 -0.53299999 1
1.512 0.061000001 -0.52999997 1
1.521 0.061999999 -0.53399998 1
1.5089999 0.061999999 -0.52999997 1
1.512 0.063000001 -0.53200001 1
1.512 0.063000001 -0.53200001 1
1.511 0.064000003 -0.53200001 1
1.502 0.064000003 -0.52999997 1
1.502 0.064999998 -0.52999997 1
1.502 0.066 -0.52999997 1
1.502 0.066 -0.52999997 1
1.51 0.067000002 -0.53399998 1
1.502 0.067000002 -0.53100002 1
1.503 0.068000004 -0.53200001 1
1.498 0.068999998 -0.52999997 1
1.5 0.068999998 -0.53100002 1
1.5 0.07 -0.53100002 1
1.501 0.071000002 -0.53200001 1
1.501 0.071000002 -0.53200001 1
1.492 0.071000002 -0.52899998 1
1.501 0.072999999 -0.53200001 1
1.5 0.072999999 -0.53200001 1
1.501 0.074000001 -0.53200001 1
1.501 0.074000001 -0.53200001 1
1.501 0.075000003 -0.53200001 1
1.5 0.075999998 -0.53200001 1
1.501 0.075999998 -0.53200001 1
1.501 0.077 -0.53200001 1
1.498 0.077 -0.53100002 1
1.497 0.078000002 -0.53100002 1
1.497 0.078000002 -0.53100002 1
1.501 0.079000004 -0.53200001 1
1.5 0.079999998 -0.53100002 1
1.501 0.079999998 -0.53200001 1
1.499 0.081 -0.53100002 1
1.5 0.081 -0.53100002 1
1.501 0.082000002 -0.53100002 1
1.501 0.082999997 -0.53100002 1
1.501 0.082999997 -0.52999997 1
1.511 0.083999999 -0.53299999 1
1.511 0.085000001 -0.53299999 1
1.501 0.085000001 -0.52899998 1
1.502 0.085000001 -0.52899998 1
1.502 0.086000003 -0.52899998 1
1.508 0.086999997 -0.53100002 1
1.5 0.086999997 -0.52700001 1
1.523 0.089000002 -0.53500003 1
1.524 0.089000002 -0.53500003 1
1.5140001 0.089000002 -0.53100002 1
1.517 0.090000004 -0.53100002 1
1.529 0.090999998 -0.53500003 1
1.523 0.090999998 -0.53200001 1
1.52 0.092 -0.53100002 1
1.528 0.093000002 -0.53299999 1
1.52 0.093000002 -0.52899998 1
1.521 0.093000002 -0.52899998 1
1.535 0.093999997 -0.53299999 1
1.535 0.094999999 -0.53200001 1
1.5319999 0.094999999 -0.53100002 1
1.535 0.096000001 -0.53100002 1
1.54 0.097000003 -0.53200001 1
1.543 0.097000003 -0.53200001 1
1.5420001 0.097999997 -0.53100002 1
1.553 0.098999999 -0.53399998 1
1.5599999 0.1 -0.53500003 1
1.562 0.1 -0.53500003 1
1.5549999 0.1 -0.53200001 1
1.552 0.1 -0.52999997 1
1.562 0.101 -0.53200001 1
1.568 0.102 -0.53299999 1
1.573 0.103 -0.53399998 1
1.572 0.103 -0.53299999 1
1.58 0.104 -0.53399998 1
1.58 0.104 -0.53299999 1
1.5829999 0.105 -0.53299999 1
1.591 0.106 -0.53500003 1
1.584 0.106 -0.53100002 1
1.595 0.107 -0.53399998 1
1.597 0.108 -0.53299999 1
1.605 0.108 -0.53500003 1
1.604 0.109 -0.53299999 1
1.6160001 0.11 -0.53600001 1
1.619 0.11 -0.53500003 1
1.625 0.111 -0.53600001 1
1.626 0.111 -0.53500003 1
1.631 0.112 -0.53500003 1
1.6339999 0.113 -0.53500003 1
1.635 0.113 -0.53399998 1
1.651 0.114 -0.53799999 1
1.656 0.115 -0.53799999 1
1.6569999 0.115 -0.537 1
1.663 0.116 -0.537 1
1.661 0.116 -0.53500003 1
1.682 0.118 -0.54000002 1
1.6849999 0.118 -0.53899997 1
1.694 0.119 -0.54100001 1
1.698 0.12 -0.54000002 1
1.7029999 0.12 -0.54000002 1
1.711 0.121 -0.54100001 1
1.714 0.122 -0.54000002 1
1.719 0.122 -0.54000002 1
1.729 0.123 -0.54100001 1
1.7359999 0.124 -0.54100001 1
1.744 0.124 -0.542 1
1.751 0.125 -0.542 1
1.758 0.126 -0.54299998 1
1.772 0.127 -0.54500002 1
1.775 0.127 -0.54400003 1
1.7819999 0.12800001 -0.54400003 1
1.783 0.12800001 -0.542 1
1.7970001 0.12899999 -0.54500002 1
1.804 0.13 -0.54500002 1
1.807 0.13 -0.54299998 1
1.822 0.131 -0.546 1
1.8279999 0.132 -0.54500002 1
1.8380001 0.133 -0.546 1
1.851 0.134 -0.54799998 1
1.855 0.134 -0.54699999 1
1.863 0.13500001 -0.54699999 1
1.877 0.13600001 -0.54799998 1
1.881 0.13600001 -0.54699999 1
1.893 0.13699999 -0.54799998 1
1.904 0.138 -0.54900002 1
1.914 0.138 -0.55000001 1
1.934 0.14 -0.55299997 1
1.947 0.141 -0.55400002 1
1.951 0.141 -0.55199999 1
1.96 0.142 -0.55199999 1
1.969 0.142 -0.55199999 1
1.9859999 0.14300001 -0.55400002 1
1.994 0.14399999 -0.55400002 1
2.007 0.145 -0.55500001 1
2.013 0.145 -0.55299997 1
2.0239999 0.146 -0.55400002 1
2.033 0.146 -0.55299997 1
2.0469999 0.147 -0.55400002 1
2.059 0.148 -0.55400002 1
2.0710001 0.148 -0.55500001 1
2.085 0.149 -0.55500001 1
2.096 0.15000001 -0.55500001 1
2.108 0.15000001 -0.55500001 1
2.1289999 0.152 -0.55800003 1
2.1470001 0.153 -0.55900002 1
2.1600001 0.153 -0.55900002 1
2.1760001 0.154 -0.56 1
2.1949999 0.155 -0.56199998 1
2.21 0.156 -0.56199998 1
2.214 0.156 -0.56 1
2.234 0.15700001 -0.56199998 1
2.2490001 0.15800001 -0.56199998 1
2.2579999 0.15800001 -0.56099999 1
2.279 0.15899999 -0.56199998 1
2.2939999 0.15899999 -0.56199998 1
2.3099999 0.16 -0.56300002 1
2.3340001 0.161 -0.565 1
2.358 0.162 -0.56699997 2
2.381 0.164 -0.56900001 2
2.398 0.164 -0.56900001 2
2.4170001 0.16500001 -0.56900001 2
2.4400001 0.16599999 -0.57099998 2
2.457 0.167 -0.57099998 2
2.4749999 0.167 -0.57099998 2
2.4960001 0.168 -0.57200003 2
2.5209999 0.169 -0.57300001 2
2.5409999 0.17 -0.574 2
2.5639999 0.171 -0.57499999 2
2.5799999 0.171 -0.574 2
2.615 0.17200001 -0.57700002 2
2.6389999 0.17299999 -0.57800001 2
2.6589999 0.17399999 -0.57800001 2
2.677 0.17399999 -0.57700002 2
2.71 0.175 -0.57999998 2
2.737 0.176 -0.58099997 2
2.767 0.177 -0.58200002 2
2.7950001 0.178 -0.583 2
2.8199999 0.17900001 -0.58399999 2
2.848 0.18000001 -0.58499998 2
2.8859999 0.18099999 -0.58700001 2
2.904 0.18099999 -0.58600003 2
2.931 0.182 -0.58600003 2
3.086 0.19 -0.61199999 2
3.036 0.186 -0.597 1
3.115 0.19 -0.60699999 2
3.24 0.19599999 -0.625 2
3.148 0.189 -0.602 1
3.296 0.197 -0.62400001 2
3.2579999 0.193 -0.611 2
3.3139999 0.19499999 -0.616 2
3.4519999 0.20100001 -0.63499999 2
3.362 0.19499999 -0.61199999 2
3.5120001 0.20200001 -0.63300002 2
3.4059999 0.19400001 -0.60799998 2
3.441 0.19499999 -0.60799998 3
3.5050001 0.197 -0.61299998 2
3.5710001 0.199 -0.61799997 2
3.615 0.199 -0.61900002 2
3.651 0.199 -0.61900002 2
3.698 0.2 -0.62 2
3.7709999 0.20200001 -0.625 2
3.8329999 0.20299999 -0.62800002 2
3.8670001 0.20299999 -0.62599999 2
3.9749999 0.207 -0.63700002 2
3.983 0.205 -0.63 2
4.0419998 0.206 -0.63200003 2
4.0939999 0.206 -0.63300002 2
4.1890001 0.20900001 -0.63999999 2
4.256 0.20999999 -0.64200002 2
4.2940001 0.20900001 -0.63999999 2
4.4109998 0.212 -0.64899999 2
4.4619999 0.212 -0.648 2
4.5349998 0.213 -0.64999998 2
4.619 0.214 -0.653 2
4.6989999 0.215 -0.65600002 3
4.7909999 0.21600001 -0.65899998 3
4.8829999 0.21699999 -0.66299999 3
4.9840002 0.219 -0.667 3
5.0910001 0.22 -0.671 3
5.1830001 0.221 -0.67400002 3
5.3080001 0.222 -0.68000001 3
5.4359999 0.22400001 -0.68599999 3
5.5549998 0.22499999 -0.69 4
5.677 0.226 -0.69400001 3
5.8309999 0.229 -0.70200002 3
5.9580002 0.229 -0.70599997 3
6.098 0.23 -0.71100003 3
6.2789998 0.233 -0.72000003 4
6.4390001 0.234 -0.72600001 4
6.6389999 0.237 -0.736 5
6.7979999 0.237 -0.74000001 5
6.9650002 0.23800001 -0.745 6
7.1690001 0.23999999 -0.75300002 7
7.3800001 0.241 -0.76099998 5
7.6100001 0.243 -0.76999998 5
7.8610001 0.245 -0.77999997 4
8.1359997 0.24699999 -0.792 3
8.4499998 0.25 -0.80699998 3
8.776 0.25299999 -0.82099998 3
9.0880003 0.255 -0.83200002 4
9.5089998 0.259 -0.85299999 3
9.9399996 0.26300001 -0.87199998 3
10.318 0.264 -0.88599998 3
10.804 0.26800001 -0.90600002 3
11.255 0.26899999 -0.92299998 3
11.727 0.271 -0.93900001 2
12.239 0.27200001 -0.95599997 3
0 0 0 4
13.602 0.27900001 -1.011 11
14.109 0.278 -1.021 8
14.604 0.27399999 -1.029 4
14.622 0.26199999 -1.001 4
0 0 0 2
0 0 0 2
17.629999 0.26800001 -1.1059999 1
0 0 0 1
0 0 0 0
0 0 0 1
0 0 0 0
0 0 0 0
0 0 0 0
0 0 0 0
0 0 0 0
0 0 0 18
62.247002 0.361 -2.72 153
62.289001 0.30000001 -2.605 166
62.34 0.23999999 -2.4909999 174
62.351002 0.17900001 -2.3740001 26
0 0 0 150
94.379997 0.078000002 -3.2320001 152
94.392998 -0.016000001 -3.056 59
0 0 0 0
0 0 0 30
94.435997 -0.30599999 -2.526 24
94.426003 -0.403 -2.3510001 20
94.457001 -0.5 -2.177 14
94.445999 -0.60000002 -2 18
94.630997 -0.70099998 -1.827 38
94.684998 -0.80199999 -1.654 49
94.752998 -0.90399998 -1.478 33
0 0 0 0
0 0 0 49
74.609001 -0.954 -0.74900001 78
74.059998 -1.029 -0.60600001 84
73.643997 -1.105 -0.465 75
0 0 0 48
68.999001 -1.187 -0.185 39
69.092003 -1.266 -0.059 11
68.266998 -1.3279999 0.066 77
68.242996 -1.405 0.19 130
0 0 0 0
0 0 0 0
0 0 0 0
0 0 0 0
0 0 0 0
0 0 0 0
0 0 0 0
0 0 0 0
0 0 0 0
0 0 0 0
0 0 0 0
0 0 0 8
0 0 0 0
0 0 0 0
0 0 0 0
0 0 0 0
0 0 0 0
0 0 0 0
0 0 0 86
0 0 0 3
44.57 -2.029 1.7819999 34
44.504002 -2.082 1.855 53
44.452999 -2.135 1.929 44
43.855 -2.1600001 1.977 22
43.339001 -2.1889999 2.0280001 65
42.741001 -2.2130001 2.072 70
42.373001 -2.2479999 2.1259999 35
41.918999 -2.277 2.1730001 95
41.887001 -2.329 2.243 16
40.936001 -2.3269999 2.26 5
40.418999 -2.3510001 2.299 31
40.167999 -2.388 2.3510001 27
39.673 -2.4089999 2.388 26
39.118999 -2.425 2.418 16
38.792 -2.4549999 2.461 21
38.52 -2.487 2.506 14
37.984001 -2.5020001 2.533 10
37.709999 -2.5339999 2.576 11
37.285999 -2.553 2.605 8
36.841 -2.5710001 2.6340001 8
0 0 0 0
0 0 0 21
36.304001 -2.677 2.7690001 32
36.209999 -2.7179999 2.819 10
36.263 -2.77 2.8800001 2
36.859001 -2.8640001 2.984 14
36.41 -2.8770001 3.0039999 12
36.209 -2.9089999 3.043 53
36.214001 -2.9579999 3.0999999 59
36.215 -3.007 3.155 59
36.205002 -3.053 3.2090001 57
36.213001 -3.1029999 3.2650001 57
36.240002 -3.154 3.322 55
36.235001 -3.201 3.3740001 55
36.236 -3.25 3.4289999 59
36.244999 -3.3 3.4849999 63
36.249001 -3.3510001 3.539 60
36.245998 -3.3989999 3.592 60
36.257999 -3.4489999 3.6459999 60
36.264 -3.4979999 3.6989999 57
36.271999 -3.5480001 3.753 60
36.271999 -3.5969999 3.8039999 57
36.275002 -3.6459999 3.8559999 57
36.285999 -3.697 3.9089999 57
36.298 -3.7479999 3.9619999 58
36.286999 -3.796 4.0120001 56
36.305 -3.8469999 4.0640001 58
36.327 -3.8989999 4.1170001 58
36.314999 -3.947 4.1659999 59
36.327999 -3.9990001 4.2189999 57
36.402 -4.0570002 4.277 5
36.588001 -4.1279998 4.349 3
36.505001 -4.1680002 4.3889999 3
36.474998 -4.2140002 4.434 2
0 0 0 0
0 0 0 0
0 0 0 0
0 0 0 0
0 0 0 0
0 0 0 0
0 0 0 0
0 0 0 0
0 0 0 0
0 0 0 0
0 0 0 0
0 0 0 0
0 0 0 5
28.631001 -3.8540001 3.9920001 18
28.576 -3.885 4.0190001 25
28.507999 -3.914 4.0440001 28
28.466 -3.948 4.072 31
28.434 -3.9809999 4.1009998 37
28.4 -4.0149999 4.1290002 40
28.374001 -4.0500002 4.1589999 42
28.356001 -4.086 4.1890001 45
28.348 -4.1240001 4.2210002 47
28.336 -4.1599998 4.2509999 48
28.316 -4.1950002 4.2810001 53
28.313 -4.2319999 4.3119998 53
28.290001 -4.2670002 4.3400002 53
28.311001 -4.3080001 4.3740001 51
28.297001 -4.3439999 4.4029999 44
28.302 -4.3829999 4.4359999 47
28.32 -4.4239998 4.4689999 48
28.33 -4.4619999 4.5 46
28.349001 -4.5029998 4.5339999 43
28.357 -4.5419998 4.5650001 38
28.392 -4.586 4.5999999 34
28.419001 -4.6279998 4.6339998 31
28.452999 -4.671 4.6690001 28
28.51 -4.7179999 4.7069998 22
28.617001 -4.7740002 4.7529998 13
0 0 0 24
36.265999 -6.1440001 6.0960002 28
36.111 -6.165 6.105 28
35.937 -6.1820002 6.1100001 28
35.792 -6.2030001 6.119 28
35.648998 -6.224 6.1290002 27
35.494999 -6.243 6.1350002 27
35.360001 -6.2649999 6.145 27
35.188999 -6.2800002 6.1469998 27
35.049 -6.3000002 6.1550002 27
34.890999 -6.3150001 6.158 26
34.745998 -6.3340001 6.164 26
34.606998 -6.3520002 6.1690001 26
34.449001 -6.3660002 6.171 26
34.351002 -6.3909998 6.184 26
34.208 -6.4070001 6.1859999 25
34.077 -6.4250002 6.191 25
33.938999 -6.441 6.1939998 25
33.818001 -6.46 6.1999998 25
33.693001 -6.4770002 6.2049999 25
33.575001 -6.4959998 6.21 25
33.457001 -6.5139999 6.2150002 24
33.353001 -6.5339999 6.2210002 24
33.227001 -6.5500002 6.223 24
33.098 -6.5640001 6.224 24
32.986 -6.5809999 6.2280002 24
32.888 -6.6009998 6.2340002 24
32.747002 -6.612 6.2309999 23
32.653 -6.632 6.2360001 22
32.57 -6.6529999 6.243 23
32.453999 -6.6659999 6.243 23
0 0 0 1
20.631001 -4.2859998 3.997 14
20.577999 -4.2989998 4 19
20.521999 -4.3109999 4.0029998 22
20.486 -4.3270001 4.0100002 27
20.454 -4.3429999 4.0159998 30
20.419001 -4.3590002 4.0219998 27
20.408001 -4.3790002 4.033 29
20.341 -4.3870001 4.0320001 37
20.33 -4.4070001 4.0409999 29
20.326 -4.4289999 4.053 29
20.305 -4.447 4.0609999 43
20.281 -4.4640002 4.0669999 41
20.280001 -4.4850001 4.0780001 34
20.264 -4.5040002 4.086 50
20.250999 -4.5219998 4.0949998 49
20.23 -4.539 4.1009998 51
20.233999 -4.5609999 4.112 51
20.226999 -4.5799999 4.1199999 53
20.223 -4.6009998 4.1300001 57
20.209 -4.618 4.1370001 59
20.205999 -4.638 4.1459999 55
20.195999 -4.6560001 4.1539998 53
20.209999 -4.6799998 4.1659999 38
20.198999 -4.698 4.1719999 54
20.200001 -4.7179999 4.1810002 54
20.195999 -4.7360001 4.1890001 54
20.197001 -4.757 4.198 52
20.207001 -4.7789998 4.2080002 37
20.195 -4.7950001 4.2129998 46
20.191999 -4.8130002 4.2199998 43
20.187 -4.8309999 4.2270002 47
20.205999 -4.855 4.2379999 45
20.204 -4.8730001 4.2449999 45
20.205999 -4.8920002 4.2519999 48
20.204 -4.9099998 4.2579999 43
20.212999 -4.9310002 4.2670002 45
20.216 -4.9489999 4.2740002 39
20.238001 -4.973 4.2849998 29
20.254 -4.9949999 4.2940001 34
20.271999 -5.0170002 4.303 33
20.280001 -5.0359998 4.3099999 31
20.302999 -5.059 4.3200002 29
20.308001 -5.0770001 4.3270001 28
20.327999 -5.099 4.336 24
20.365 -5.125 4.348 23
20.370001 -5.1430001 4.3540001 21
20.399 -5.1669998 4.3639998 18
20.441999 -5.1939998 4.3779998 16
20.486 -5.2210002 4.3909998 9
20.551001 -5.2540002 4.408 2
0 0 0 25
29.447001 -7.573 6.3270001 24
29.444 -7.5939999 6.3309999 24
29.410999 -7.6079998 6.3280001 27
29.392 -7.6240001 6.3270001 22
29.378 -7.6420002 6.3270001 24
29.379999 -7.6630001 6.3309999 24
29.367001 -7.6799998 6.3309999 26
29.343 -7.6939998 6.3280001 24
29.326 -7.7090001 6.3270001 26
29.325001 -7.7290001 6.3280001 25
29.318001 -7.7459998 6.3280001 23
29.309 -7.7620001 6.3280001 27
29.299999 -7.7789998 6.3270001 26
29.299 -7.7969999 6.3270001 26
29.292999 -7.8140001 6.3260002 24
29.294001 -7.8309999 6.3270001 25
29.280001 -7.8449998 6.3239999 27
29.282 -7.8629999 6.323 24
29.280001 -7.8790002 6.322 24
29.299999 -7.9000001 6.3260002 23
29.295 -7.9159999 6.323 23
29.299999 -7.9330001 6.323 26
29.312 -7.9510002 6.3239999 22
29.318001 -7.9679999 6.323 22
29.320999 -7.9840002 6.3210001 24
29.344 -8.0050001 6.323 24
29.356001 -8.0229998 6.322 23
29.364 -8.0389996 6.3210001 23
29.367001 -8.0530005 6.3179998 24
29.372999 -8.0690002 6.3150001 24
29.403 -8.0900002 6.3179998 25
29.409 -8.1049995 6.3140001 22
29.438 -8.1260004 6.3150001 22
29.454 -8.1420002 6.3140001 23
29.462999 -8.1560001 6.3109999 24
29.517 -8.1820002 6.3169999 23
29.507 -8.191 6.3080001 22
29.548 -8.2130003 6.3109999 22
29.573999 -8.2309999 6.3099999 22
29.598 -8.2480001 6.3080001 22
29.645 -8.2709999 6.3109999 21
29.652 -8.283 6.3049998 22
29.686001 -8.302 6.3039999 23
29.709 -8.3170004 6.3010001 23
29.752001 -8.3380003 6.302 25
29.773001 -8.3520002 6.2979999 25
29.804001 -8.368 6.2950001 26
29.834999 -8.3850002 6.2930002 27
29.844999 -8.3950005 6.2849998 26
29.854 -8.4040003 6.2779999 28
29.846001 -8.408 6.2659998 26
29.844999 -8.415 6.2550001 27
29.844999 -8.4209995 6.2449999 28
29.84 -8.4250002 6.2319999 26
29.823 -8.4259996 6.2179999 28
29.802999 -8.4239998 6.2030001 29
29.796 -8.427 6.1900001 29
29.775999 -8.4250002 6.1739998 28
29.754 -8.4230003 6.1570001 27
29.743 -8.4239998 6.1420002 27
29.721001 -8.4200001 6.1259999 27
29.679001 -8.4119997 6.1030002 27
29.629999 -8.3999996 6.0799999 26
29.542 -8.3769999 6.0500002 25
29.462 -8.3559999 6.0190001 21
29.402 -8.3400002 5.993 19
29.33 -8.3210001 5.9640002 20
29.252001 -8.2989998 5.9349999 18
29.193001 -8.283 5.908 18
29.138 -8.2679996 5.882 18
29.096001 -8.2550001 5.8579998 22
29.096001 -8.2539997 5.8439999 24
29.111 -8.2580004 5.8309999 24
29.156 -8.2690001 5.8239999 24
29.214001 -8.2840004 5.8200002 23
29.296 -8.3050003 5.8200002 24
29.364 -8.3219995 5.816 24
29.431 -8.3389997 5.8130002 23
29.51 -8.3570004 5.8119998 25
29.563999 -8.3699999 5.8049998 24
29.639999 -8.3870001 5.803 25
29.725 -8.4069996 5.8010001 26
29.794001 -8.4219999 5.796 26
29.874001 -8.4399996 5.7930002 25
29.934999 -8.4510002 5.7859998 26
30.017 -8.4689999 5.7820001 26
30.09 -8.4840002 5.777 25
30.177999 -8.5019999 5.7750001 27
30.284 -8.5249996 5.7750001 23
30.357 -8.5380001 5.7680001 23
30.452 -8.5570002 5.7649999 25
30.542999 -8.5749998 5.7620001 24
30.646 -8.5950003 5.7600002 24
30.719 -8.6070004 5.7519999 23
30.815001 -8.625 5.7480001 22
30.929001 -8.6479998 5.7480001 23
31.000999 -8.658 5.7379999 23
31.108 -8.677 5.7360001 23
31.207001 -8.6940002 5.7309999 23
31.313 -8.7130003 5.7270002 23
31.414 -8.7290001 5.7220001 26
31.518 -8.7469997 5.717 25
31.632 -8.7659998 5.7129998 24
31.750999 -8.7849998 5.711 23
31.851 -8.8000002 5.7049999 22
31.969999 -8.8190002 5.7010002 24
32.073002 -8.8339996 5.6939998 23
32.222 -8.8599997 5.6939998 23
32.333 -8.8760004 5.6880002 24
32.456001 -8.8940001 5.684 24
32.577 -8.9119997 5.678 24
32.707001 -8.9309998 5.6750002 24
32.854 -8.9549999 5.6719999 24
32.972 -8.9689999 5.665 24
33.104 -8.9879999 5.6599998 25
33.220001 -9.0010004 5.652 25
33.353001 -9.0190001 5.6459999 25
33.480999 -9.0349998 5.6389999 25
33.646 -9.0600004 5.638 25
33.769001 -9.073 5.6279998 26
33.905998 -9.0900002 5.6209998 26
34.049999 -9.1070004 5.6149998 26
34.205002 -9.1280003 5.6100001 26
34.352001 -9.1450005 5.6030002 26
34.499001 -9.1619997 5.5960002 27
34.650002 -9.1789999 5.5900002 27
34.820999 -9.2010002 5.585 27
34.965 -9.2150002 5.5770001 27
35.119999 -9.2320004 5.5689998 27
35.299 -9.2539997 5.566 28
35.473 -9.2749996 5.559 28
35.643002 -9.2930002 5.553 28
35.806 -9.309 5.5440001 24
35.963001 -9.3240004 5.5349998 28
36.112999 -9.335 5.5240002 24
36.262001 -9.3459997 5.5120001 23
36.359001 -9.342 5.493 20
36.528 -9.3570004 5.4829998 19
36.632 -9.3540001 5.4619999 20
0 0 0 1
20.448999 -5.1880002 3.0090001 7
20.408001 -5.1609998 2.983 15
20.357 -5.131 2.9560001 18
20.329 -5.1059999 2.9319999 22
20.289 -5.079 2.905 25
20.27 -5.0560002 2.882 28
20.261999 -5.0359998 2.8610001 24
20.239 -5.0120001 2.8369999 30
20.218 -4.9879999 2.8139999 32
20.183001 -4.961 2.789 36
20.18 -4.9419999 2.7679999 36
20.173 -4.921 2.7460001 38
20.169001 -4.901 2.7249999 39
20.150999 -4.8769999 2.7019999 39
20.15 -4.8569999 2.681 42
20.143 -4.835 2.6589999 45
20.143 -4.8150001 2.638 45
20.121 -4.789 2.6140001 43
20.132999 -4.7719998 2.5940001 41
20.131001 -4.7509999 2.5739999 39
20.139 -4.7319999 2.553 49
20.127001 -4.7080002 2.53 50
20.132999 -4.6880002 2.51 50
20.135 -4.6669998 2.4890001 54
20.134001 -4.645 2.4679999 56
20.129999 -4.6220002 2.4460001 52
20.136 -4.6009998 2.425 55
20.134001 -4.5780001 2.4030001 52
20.152 -4.5599999 2.3840001 59
20.167 -4.54 2.3640001 37
20.174 -4.5190001 2.3429999 52
20.173 -4.4949999 2.322 49
20.177999 -4.474 2.3 47
20.201 -4.4549999 2.2820001 47
20.205 -4.4320002 2.26 43
20.212999 -4.4089999 2.2390001 43
20.247 -4.3920002 2.221 30
20.235001 -4.3660002 2.198 39
20.281 -4.3509998 2.1800001 30
20.298 -4.3299999 2.1600001 37
20.32 -4.3080001 2.1400001 27
20.361 -4.2919998 2.122 30
20.385 -4.2709999 2.1029999 26
20.444 -4.257 2.086 24
20.488001 -4.2399998 2.0680001 20
20.575001 -4.2319999 2.0539999 12
0 0 0 0
0 0 0 0
0 0 0 0
0 0 0 0
0 0 0 0
0 0 0 0
0 0 0 0
0 0 0 0
0 0 0 0
0 0 0 0
0 0 0 0
0 0 0 0
0 0 0 0
0 0 0 0
0 0 0 0
0 0 0 0
0 0 0 6
36.457001 -6.5970001 2.9200001 33
36.464001 -6.5440001 2.8800001 18
36.448002 -6.4879999 2.839 12
36.455002 -6.4349999 2.8 21
36.435001 -6.3779998 2.7579999 36
36.445 -6.3249998 2.7190001 44
36.423 -6.2659998 2.677 49
36.410999 -6.2090001 2.6359999 49
36.393002 -6.1500001 2.595 49
36.355 -6.0879998 2.553 50
36.358002 -6.033 2.513 53
0 0 0 13
28.398001 -4.6240001 1.901 23
28.327999 -4.5679998 1.8660001 29
28.292999 -4.5180001 1.8329999 36
28.263 -4.4679999 1.8 38
28.232 -4.4190001 1.768 44
28.223 -4.3730001 1.737 46
28.198999 -4.3239999 1.705 52
28.198999 -4.2779999 1.675 41
28.188 -4.2309999 1.6440001 55
28.191999 -4.1859999 1.614 55
28.198999 -4.1409998 1.584 56
28.221001 -4.098 1.556 50
28.224001 -4.052 1.526 47
28.257 -4.0100002 1.498 46
28.278 -3.9660001 1.469 43
28.316999 -3.924 1.441 39
28.362 -3.8829999 1.413 33
28.412001 -3.8410001 1.386 28
28.482 -3.802 1.359 22
28.614 -3.7720001 1.336 12
0 0 0 13
36.390999 -4.6729999 1.624 13
36.244999 -4.592 1.58 44
36.213001 -4.526 1.5420001 82
36.213001 -4.4640002 1.505 83
36.202 -4.3990002 1.466 82
36.202999 -4.336 1.4299999 85
36.201 -4.2729998 1.393 90
36.188 -4.2080002 1.3559999 94
36.192001 -4.145 1.3200001 88
36.174 -4.079 1.283 88
36.174 -4.0149999 1.247 90
36.16 -3.9489999 1.21 95
36.165001 -3.885 1.174 86
36.152 -3.819 1.138 92
36.145 -3.7539999 1.103 91
36.133999 -3.688 1.067 103
36.141998 -3.6229999 1.0319999 100
36.122002 -3.556 0.99699998 101
36.122002 -3.49 0.96200001 104
36.127998 -3.425 0.92699999 100
36.130001 -3.3599999 0.89300001 106
36.124001 -3.293 0.85799998 107
36.174 -3.23 0.824 19
36.673 -3.207 0.801 7
37.160999 -3.181 0.77700001 7
37.631001 -3.151 0.75099999 8
38.112 -3.1199999 0.72500002 8
40.005001 -3.2 0.72399998 80
40.000999 -3.1259999 0.68699998 86
39.987 -3.0510001 0.65100002 86
40.071999 -2.9820001 0.616 10
40.730999 -2.954 0.58899999 5
41.521999 -2.931 0.56199998 11
41.674 -2.8640001 0.52700001 34
44.054001 -2.944 0.51800001 88
44.047001 -2.859 0.47799999 105
44.043999 -2.7750001 0.43900001 95
44.553001 -2.723 0.40599999 5
46.626999 -2.76 0.384 8
46.709999 -2.6730001 0.34400001 32
48.183998 -2.665 0.31299999 15
48.299 -2.5780001 0.273 35
48.345001 -2.4879999 0.23199999 37
48.52 -2.4030001 0.192 20
0 0 0 81
52.131001 -2.3789999 0.119 94
52.113998 -2.276 0.075999998 56
52.398998 -2.1860001 0.033 33
52.787998 -2.099 -0.0080000004 4
0 0 0 100
60.158001 -2.1559999 -0.107 63
60.213001 -2.0409999 -0.154 135
60.215 -1.9220001 -0.20200001 114
60.256001 -1.801 -0.25099999 56
60.52 -1.6900001 -0.29899999 15
0 0 0 124
68.238998 -1.637 -0.442 150
68.255997 -1.501 -0.49399999 77
68.240997 -1.367 -0.54500002 71
68.525002 -1.24 -0.597 27
71.566002 -1.155 -0.676 10
74.144997 -1.048 -0.755 67
74.551003 -0.90499997 -0.81400001 36
74.537003 -0.75599998 -0.86799997 34
74.541 -0.60699999 -0.921 23
0 0 0 0
0 0 0 39
0 0 0 0
0 0 0 32
94.702003 0.176 -1.5 43
94.681999 0.37 -1.5650001 41
94.622002 0.56 -1.628 46
94.634003 0.75099999 -1.691 50
94.554001 0.93800002 -1.751 43
94.408997 1.128 -1.8099999 22
94.377998 1.318 -1.8710001 24
94.429001 1.5089999 -1.932 36
94.384003 1.7 -1.9910001 40
94.391998 1.891 -2.05 41
94.377998 2.079 -2.1070001 36
94.383003 2.27 -2.165 52
94.370003 2.4579999 -2.221 56
94.398003 2.6500001 -2.2780001 64
0 0 0 37
0 0 0 56
91.262001 3.1140001 -2.362 19
94.363998 3.411 -2.4960001 44
94.355003 3.602 -2.549 54
94.353996 3.7939999 -2.602 29
94.293999 3.98 -2.651 34
94.244003 4.1690001 -2.701 16
0 0 0 31
0 0 0 0
0 0 0 23
41.210999 2.1570001 -1.267 17
40.917999 2.223 -1.279 18
40.757 2.2969999 -1.294 27
40.646 2.3729999 -1.311 42
40.594002 2.4530001 -1.33 71
40.569 2.533 -1.348 100
40.554001 2.612 -1.3660001 116
40.573002 2.6949999 -1.386 91
40.569 2.776 -1.404 91
40.584999 2.859 -1.423 50
40.581001 2.9389999 -1.441 4
40.678001 3.0280001 -1.462 9
40.787998 3.118 -1.484 10
40.651001 3.1889999 -1.4960001 11
40.757999 3.279 -1.517 10
40.764999 3.3610001 -1.534 7
40.735001 3.4400001 -1.549 13
40.865002 3.533 -1.5700001 8
40.769001 3.6070001 -1.5829999 49
40.806 3.6900001 -1.6 46
40.827999 3.7739999 -1.6160001 46
40.862999 3.859 -1.632 43
40.895 3.9419999 -1.648 37
40.937 4.027 -1.664 27
40.926998 4.1079998 -1.678 24
40.951 4.191 -1.693 22
40.973 4.2740002 -1.7079999 19
41.016998 4.3590002 -1.723 16
41.050999 4.4439998 -1.738 14
41.088001 4.5289998 -1.752 13
41.124001 4.6139998 -1.766 9
41.102001 4.691 -1.778 6
0 0 0 0
0 0 0 0
0 0 0 6
38.151001 4.6539998 -1.694 3
37.917 4.6989999 -1.693 7
37.93 4.7750001 -1.704 17
37.897999 4.8439999 -1.712 13
37.839001 4.9099998 -1.7180001 9
37.794998 4.9759998 -1.725 6
37.759998 5.0440001 -1.732 5
0 0 0 0
0 0 0 0
0 0 0 0
0 0 0 0
0 0 0 0
0 0 0 2
0 0 0 0
0 0 0 2
31.796 4.7909999 -1.516 2
32.619999 4.9749999 -1.561 2
32.720001 5.052 -1.571 2
0 0 0 2
0 0 0 2
32.577999 5.211 -1.5779999 2
0 0 0 0
0 0 0 2
0 0 0 0
0 0 0 2
29.224001 4.9419999 -1.434 1
0 0 0 0
0 0 0 0
0 0 0 1
0 0 0 0
0 0 0 0
0 0 0 0
0 0 0 1
0 0 0 0
0 0 0 0
0 0 0 3
0 0 0 0
0 0 0 0
0 0 0 0
0 0 0 0
0 0 0 0
0 0 0 0
0 0 0 1
0 0 0 0
0 0 0 0
0 0 0 0
0 0 0 0
0 0 0 3
0 0 0 0
0 0 0 2
24.114 5.125 -1.2029999 3
0 0 0 1
13.43 2.898 -0.66900003 1
13.359 2.905 -0.66399997 2
13.285 2.9100001 -0.66000003 5
13.235 2.9200001 -0.65700001 3
13.182 2.9300001 -0.653 2
13.184 2.951 -0.65200001 2
13.091 2.951 -0.64700001 2
13.068 2.967 -0.64499998 2
13.021 2.977 -0.64099997 2
12.968 2.9849999 -0.63700002 2
12.893 2.987 -0.63200003 2
12.832 2.993 -0.62800002 2
12.819 3.01 -0.62599999 4
12.79 3.0220001 -0.62300003 5
12.735 3.029 -0.61900002 4
0 0 0 1
11.113 2.6760001 -0.53799999 1
11.076 2.684 -0.53399998 2
11.168 2.7219999 -0.537 3
11.05 2.71 -0.52999997 2
11.06 2.7279999 -0.52899998 2
11.033 2.737 -0.52600002 2
11.036 2.7539999 -0.52399999 2
10.874 2.7290001 -0.51499999 2
10.811 2.7279999 -0.50999999 2
10.812 2.744 -0.50800002 2
10.774 2.7490001 -0.505 2
10.686 2.7409999 -0.49900001 2
10.537 2.717 -0.49000001 12
10.539 2.7320001 -0.48800001 21
10.527 2.744 -0.48500001 9
10.522 2.756 -0.48300001 3
10.52 2.77 -0.48100001 4
10.529 2.786 -0.479 6
10.526 2.799 -0.477 5
10.527 2.813 -0.47499999 25
10.525 2.826 -0.47299999 37
10.522 2.839 -0.47 20
10.501 2.846 -0.46700001 27
10.512 2.8629999 -0.465 17
10.502 2.8729999 -0.46200001 7
10.467 2.8759999 -0.458 4
10.438 2.881 -0.454 4
10.407 2.885 -0.44999999 3
10.368 2.8859999 -0.44600001 3
10.343 2.891 -0.44299999 3
10.335 2.901 -0.44 2
10.316 2.908 -0.43700001 3
10.292 2.9130001 -0.433 3
10.28 2.921 -0.43000001 3
10.261 2.927 -0.426 3
10.245 2.934 -0.42300001 5
10.204 2.934 -0.41800001 6
10.188 2.9400001 -0.41499999 11
10.176 2.948 -0.41100001 18
10.162 2.954 -0.40799999 25
10.164 2.9649999 -0.405 35
10.152 2.9719999 -0.40200001 50
10.143 2.98 -0.39899999 72
10.158 2.9949999 -0.396 88
10.154 3.0039999 -0.39300001 98
10.157 3.0150001 -0.38999999 111
10.151 3.023 -0.38699999 115
10.147 3.0320001 -0.384 126
10.158 3.0450001 -0.38100001 135
10.143 3.05 -0.377 141
10.144 3.0599999 -0.37400001 141
10.143 3.069 -0.37099999 142
10.138 3.076 -0.36700001 143
10.141 3.086 -0.36399999 143
10.146 3.0969999 -0.361 144
10.14 3.1029999 -0.35800001 147
10.137 3.1110001 -0.35499999 143
10.139 3.1199999 -0.35100001 147
10.133 3.1270001 -0.34799999 150
10.12 3.131 -0.34400001 150
10.125 3.141 -0.34 150
10.122 3.148 -0.33700001 150
10.126 3.1570001 -0.333 150
10.124 3.164 -0.33000001 150
10.115 3.168 -0.32600001 150
10.107 3.1730001 -0.322 143
10.114 3.1830001 -0.31900001 104
10.103 3.1860001 -0.315 93
10.094 3.1900001 -0.31099999 84
10.079 3.1930001 -0.30700001 81
10.087 3.2019999 -0.30399999 81
10.092 3.21 -0.301 82
10.096 3.2179999 -0.29699999 78
10.081 3.2190001 -0.29300001 76
10.097 3.23 -0.28999999 71
10.11 3.24 -0.28600001 65
10.151 3.2590001 -0.28400001 53
10.166 3.27 -0.28 43
10.21 3.29 -0.278 33
10.247 3.3069999 -0.27500001 26
10.274 3.3210001 -0.27200001 26
10.307 3.3369999 -0.26899999 26
10.351 3.3559999 -0.266 26
10.378 3.3699999 -0.26300001 27
10.403 3.3829999 -0.25999999 18
10.413 3.391 -0.25600001 15
10.413 3.3959999 -0.252 13
10.427 3.405 -0.248 12
10.425 3.408 -0.245 12
10.409 3.4070001 -0.23999999 18
10.399 3.408 -0.236 18
10.415 3.4170001 -0.23199999 18
10.416 3.421 -0.228 12
10.399 3.4189999 -0.22400001 18
10.409 3.4260001 -0.22 12
10.399 3.4260001 -0.21600001 20
10.395 3.427 -0.211 20
10.404 3.434 -0.207 14
10.403 3.4360001 -0.20299999 16
10.393 3.4349999 -0.199 18
10.383 3.434 -0.19400001 23
10.366 3.431 -0.19 27
10.349 3.428 -0.186 27
10.311 3.4170001 -0.18099999 26
10.295 3.414 -0.176 26
10.275 3.4089999 -0.17200001 26
10.266 3.408 -0.168 26
10.248 3.4030001 -0.163 26
10.221 3.395 -0.15899999 26
10.216 3.395 -0.154 29
10.196 3.3889999 -0.15000001 31
10.176 3.3829999 -0.146 35
10.157 3.3770001 -0.142 38
10.155 3.3770001 -0.13699999 42
10.113 3.3640001 -0.133 45
10.105 3.3610001 -0.12899999 52
10.094 3.358 -0.124 56
10.075 3.3510001 -0.12 61
10.068 3.349 -0.116 62
10.057 3.345 -0.112 64
10.053 3.3429999 -0.107 65
10.065 3.346 -0.103 66
10.059 3.3429999 -0.098999999 66
10.058 3.342 -0.094999999 65
10.047 3.3369999 -0.090999998 65
10.062 3.3410001 -0.086999997 63
10.057 3.3380001 -0.082999997 61
10.069 3.3410001 -0.079000004 57
10.054 3.3340001 -0.075000003 56
10.054 3.332 -0.071000002 52
10.067 3.335 -0.067000002 49
10.062 3.3310001 -0.063000001 46
10.064 3.329 -0.059 44
10.062 3.326 -0.055 41
10.073 3.3269999 -0.050999999 42
10.066 3.322 -0.046999998 40
10.066 3.319 -0.043000001 40
10.086 3.323 -0.039000001 39
10.074 3.316 -0.035 38
10.077 3.313 -0.030999999 37
10.087 3.313 -0.027000001 36
10.075 3.306 -0.023 35
10.076 3.303 -0.018999999 35
10.082 3.3010001 -0.015 35
10.094 3.3010001 -0.011 34
10.085 3.2939999 -0.0070000002 34
10.083 3.2880001 -0.003 34
10.091 3.2869999 0 34
10.082 3.28 0.0040000002 32
10.101 3.2809999 0.0080000004 32
10.108 3.2780001 0.011 32
10.096 3.2690001 0.015 31
10.108 3.2679999 0.018999999 30
10.097 3.2590001 0.023 29
10.108 3.257 0.027000001 29
10.104 3.2509999 0.030999999 26
10.107 3.2460001 0.034000002 19
10.111 3.2409999 0.037999999 25
10.111 3.2349999 0.041999999 25
10.113 3.23 0.046 25
10.114 3.224 0.050000001 25
10.115 3.2179999 0.052999999 25
10.138 3.2179999 0.057 15
10.128 3.2090001 0.061000001 20
10.133 3.2030001 0.064999998 18
10.145 3.2 0.068000004 14
10.132 3.1889999 0.071999997 10
10.17 3.194 0.075999998 6
10.162 3.184 0.079000004 2
10.182 3.1819999 0.082999997 1
10.231 3.1900001 0.086999997 1
10.185 3.168 0.090000004 1
10.234 3.175 0.093999997 1
10.236 3.1670001 0.097999997 5
10.22 3.154 0.101 11
10.222 3.1459999 0.105 17
10.229 3.1400001 0.109 76
10.232 3.132 0.112 118
10.247 3.128 0.115 129
10.256 3.1210001 0.119 129
10.253 3.1110001 0.122 129
10.257 3.1040001 0.125 121
10.266 3.0969999 0.12899999 97
10.26 3.085 0.133 70
10.267 3.0780001 0.13600001 58
10.271 3.069 0.139 61
10.285 3.063 0.14300001 56
10.273 3.05 0.146 39
10.283 3.043 0.149 17
10.299 3.0369999 0.152 12
10.323 3.0339999 0.156 7
10.341 3.0280001 0.15899999 5
10.367 3.0250001 0.163 3
10.391 3.0209999 0.16599999 1
10.401 3.013 0.169 1
10.42 3.007 0.17299999 1
10.501 3.0190001 0.177 1
10.549 3.0220001 0.18099999 1
10.639 3.036 0.185 1
10.714 3.0450001 0.19 1
10.82 3.063 0.19400001 1
10.891 3.0699999 0.199 1
10.845 3.0450001 0.20100001 1
10.897 3.046 0.205 1
0 0 0 28
55.001999 15.247 1.063 36
55.058998 15.197 1.077 37
55.817001 15.338 1.1059999 24
54.682999 14.96 1.099 13
56.139 15.289 1.141 22
55.640999 15.083 1.1440001 29
56.036999 15.121 1.164 35
56.341999 15.131 1.184 40
56.453999 15.088 1.2 41
56.412998 15.004 1.212 40
56.361 14.917 1.222 34
0 0 0 30
43.005001 11.266 0.95099998 62
43.028 11.215 0.95999998 50
0 0 0 15
37.971001 9.7930002 0.86199999 16
37.987 9.7449999 0.87 5
37.876999 9.6639996 0.875 20
37.997002 9.6420002 0.88499999 14
38.098 9.6140003 0.89399999 6
38.074001 9.5539999 0.89999998 53
38.068001 9.4980001 0.90700001 63
38.081001 9.4469995 0.91399997 67
38.085999 9.3940001 0.92000002 62
38.104 9.342 0.92699999 67
38.112999 9.2889996 0.93199998 69
38.101002 9.2309999 0.93900001 64
38.113998 9.1780005 0.94400001 4
0 0 0 19
73.223999 17.412001 1.835 19
73.276001 17.315001 1.845 23
72.902 17.115 1.845 27
72.613998 16.938 1.846 19
72.630997 16.829 1.855 16
72.852997 16.767 1.87 11
0 0 0 44
51.671001 11.728 1.337 15
0 0 0 0
0 0 0 0
0 0 0 0
0 0 0 12
55.354 12.124 1.457 36
55.394001 12.042 1.462 19
0 0 0 27
0 0 0 21
48.066002 10.215 1.277 6
0 0 0 17
39.521999 8.2670002 1.054 35
39.516998 8.1990004 1.054 16
39.386002 8.1059999 1.053 3
39.284 8.0200005 1.051 16
39.305 7.9569998 1.053 17
39.224998 7.875 1.051 16
38.492001 7.6620002 1.0319999 16
38.252998 7.5479999 1.026 33
38.269001 7.4850001 1.026 30
38.217999 7.408 1.024 31
38.006001 7.3000002 1.018 37
37.924999 7.2179999 1.016 41
37.953999 7.1589999 1.016 29
37.958 7.092 1.015 7
0 0 0 0
0 0 0 11
52.888 9.6009998 1.408 29
52.856998 9.5019999 1.404 20
0 0 0 0
0 0 0 26
48.006001 8.3690004 1.266 17
47.973 8.2770004 1.261 33
45.140999 7.7059999 1.183 18
45.069 7.6110001 1.177 33
45.094002 7.5320001 1.173 29
47.370998 7.8249998 1.228 35
45.144001 7.3720002 1.164 24
45.172001 7.2930002 1.16 21
45.370998 7.2410002 1.16 14
47.405998 7.4770002 1.206 34
47.688 7.4330001 1.206 29
47.702999 7.3460002 1.2 24
47.574001 7.2360001 1.1900001 21
47.462002 7.1290002 1.1799999 16
47.540001 7.0510001 1.174 14
47.455002 6.947 1.163 9
0 0 0 32
68.528999 9.7700005 1.656 22
68.731003 9.6669998 1.649 11
0 0 0 0
0 0 0 9
71.726997 9.6759996 1.677 19
71.877998 9.5609999 1.666 28
72.080002 9.4499998 1.655 34
72.107002 9.3140001 1.6390001 38
72.258003 9.1920004 1.626 25
72.303001 9.059 1.609 20
72.193001 8.9040003 1.589 9
76.120003 9.2410002 1.655 21
78.998001 9.4370003 1.699 32
76.106003 8.9399996 1.615 12
79.249001 9.1569996 1.661 26
79.196999 8.9949999 1.638 22
79.203003 8.8409996 1.615 14
0 0 0 0
0 0 0 33
74.694 7.8930001 1.455 38
74.795998 7.7550001 1.433 33
74.820999 7.6100001 1.409 28
74.737 7.4520001 1.383 29
74.461998 7.276 1.353 23
74.417999 7.125 1.326 17
78.663002 7.3730001 1.374 17
0 0 0 0
0 0 0 0
0 0 0 0
0 0 0 0
0 0 0 0
0 0 0 0
0 0 0 18
0 0 0 0
0 0 0 0
0 0 0 18
91.573997 6.5549998 1.202 18
90.760002 6.3099999 1.15 15
90.560997 6.1170001 1.109 19
90.345001 5.9190001 1.0650001 18
90.407997 5.7389998 1.025 12
0 0 0 0
0 0 0 0
0 0 0 24
0 0 0 0
0 0 0 0
0 0 0 0
0 0 0 0
0 0 0 0
0 0 0 17
93.195 4.0120001 0.588 16
0 0 0 0
0 0 0 0
0 0 0 0
0 0 0 32
0 0 0 0
0 0 0 0
0 0 0 0
0 0 0 13
89.873001 2.22 0.109 17
89.939003 2.04 0.055 16
0 0 0 0
0 0 0 0
0 0 0 0
0 0 0 0
0 0 0 0
0 0 0 0
0 0 0 0
0 0 0 0
0 0 0 0
0 0 0 0
0 0 0 0
0 0 0 0
0 0 0 31
0 0 0 60
74.528 -0.579 -0.68900001 60
74.531998 -0.727 -0.741 56
74.57 -0.87599999 -0.79500002 56
73.724998 -1.013 -0.838 112
0 0 0 0
0 0 0 71
68.228996 -1.347 -0.926 71
68.233002 -1.484 -0.97799999 75
68.209999 -1.618 -1.028 97
68.240997 -1.756 -1.081 63
0 0 0 0
0 0 0 106
60.171001 -1.905 -1.092 119
0 0 0 31
46.043999 -1.642 -0.90899998 56
45.799 -1.723 -0.94099998 35
45.311001 -1.795 -0.96700001 31
45.014999 -1.872 -0.99800003 42
45.208 -1.9680001 -1.038 41
45.007999 -2.049 -1.072 42
44.584 -2.118 -1.099 41
44.542999 -2.2019999 -1.1339999 32
44.437 -2.2839999 -1.169 32
44.476002 -2.3729999 -1.2079999 13
0 0 0 5
41.582001 -2.381 -1.201 3
41.544998 -2.46 -1.2359999 7
41.59 -2.5420001 -1.273 10
0 0 0 40
27.813 -1.807 -0.89999998 53
27.832001 -1.862 -0.926 20
0 0 0 7
40.745998 -2.882 -1.428 8
39.946999 -2.9030001 -1.437 18
0 0 0 5
23.403999 -1.79 -0.884 4
22.955 -1.798 -0.88800001 2
22.547001 -1.809 -0.89300001 1
22.23 -1.825 -0.90100002 2
21.951 -1.844 -0.91000003 2
21.635 -1.858 -0.91799998 2
20.893999 -1.8329999 -0.90499997 3
20.43 -1.83 -0.90499997 3
20.402 -1.8660001 -0.92299998 4
20.386 -1.902 -0.94199997 3
20.389 -1.9400001 -0.96200001 3
20.374001 -1.976 -0.98100001 2
20.289 -2.006 -0.99599999 4
20.316 -2.0450001 -1.017 5
20.458 -2.096 -1.044 6
20.569 -2.145 -1.0700001 7
20.259001 -2.1489999 -1.074 1
0 0 0 0
0 0 0 1
0 0 0 3
0 0 0 0
0 0 0 0
0 0 0 1
21.863001 -2.595 -1.313 1
0 0 0 1
19.745001 -2.4130001 -1.227 1
19.023001 -2.359 -1.202 1
0 0 0 1
17.308001 -2.2060001 -1.1289999 1
0 0 0 0
0 0 0 3
0 0 0 4
16.129999 -2.1670001 -1.119 4
15.793 -2.1489999 -1.112 4
15.36 -2.1159999 -1.098 5
15.03 -2.096 -1.09 4
14.889 -2.102 -1.096 8
14.291 -2.0409999 -1.067 3
13.81 -1.9960001 -1.046 3
13.411 -1.96 -1.03 3
13.04 -1.928 -1.016 3
12.714 -1.901 -1.0039999 2
12.459 -1.883 -0.99800003 3
12.14 -1.855 -0.98500001 3
11.815 -1.824 -0.97100002 2
11.511 -1.796 -0.95899999 2
11.219 -1.768 -0.94599998 2
10.987 -1.749 -0.93900001 2
10.754 -1.729 -0.93099999 2
10.511 -1.707 -0.921 2
10.295 -1.689 -0.91399997 2
10.034 -1.661 -0.90100002 2
9.8369999 -1.6440001 -0.89399999 2
9.6339998 -1.625 -0.88700002 2
9.4209995 -1.604 -0.87699997 3
9.2150002 -1.5829999 -0.86799997 3
8.9969997 -1.5599999 -0.85799998 3
8.8100004 -1.541 -0.85000002 5
8.7189999 -1.538 -0.85100001 14
8.5979996 -1.53 -0.84799999 7
8.3299999 -1.494 -0.83099997 5
8.151 -1.475 -0.82200003 5
8.0030003 -1.459 -0.81599998 5
7.8629999 -1.446 -0.81099999 4
7.7290001 -1.432 -0.80500001 4
7.573 -1.415 -0.79799998 4
7.4520001 -1.403 -0.79299998 4
7.3330002 -1.391 -0.78899997 5
7.2189999 -1.3789999 -0.78399998 4
7.1100001 -1.369 -0.77999997 4
6.9829998 -1.354 -0.77399999 4
6.8699999 -1.342 -0.76999998 4
6.7719998 -1.332 -0.76599997 4
6.6820002 -1.324 -0.76300001 4
6.5780001 -1.312 -0.759 4
6.4790001 -1.301 -0.75400001 4
6.3850002 -1.291 -0.75 3
6.309 -1.284 -0.74900001 4
6.1929998 -1.2690001 -0.74199998 3
6.1209998 -1.262 -0.74000001 3
6.0289998 -1.251 -0.73500001 3
5.9580002 -1.244 -0.73299998 3
5.8639998 -1.232 -0.72799999 3
5.7859998 -1.223 -0.72500002 2
5.7140002 -1.215 -0.722 2
5.6440001 -1.207 -0.72000003 4
5.5700002 -1.199 -0.71600002 2
5.5029998 -1.191 -0.71399999 2
5.4180002 -1.1799999 -0.70899999 2
5.3569999 -1.173 -0.70700002 3
5.3010001 -1.1670001 -0.70499998 2
5.2410002 -1.16 -0.70300001 3
5.1760001 -1.152 -0.69999999 2
5.1160002 -1.145 -0.69700003 4
5.0580001 -1.138 -0.69499999 2
5.0029998 -1.131 -0.69300002 3
4.9310002 -1.1210001 -0.68800002 4
4.8959999 -1.118 -0.68900001 4
4.8499999 -1.113 -0.68699998 3
4.8080001 -1.109 -0.68699998 3
4.7449999 -1.1 -0.68300003 3
4.6890001 -1.092 -0.68000001 2
4.6420002 -1.086 -0.67799997 3
4.6040001 -1.082 -0.67699999 3
4.5619998 -1.077 -0.676 3
4.5320001 -1.075 -0.676 3
4.4660001 -1.064 -0.671 2
4.4289999 -1.0599999 -0.67000002 3
4.3850002 -1.054 -0.66799998 2
4.336 -1.0470001 -0.66500002 2
4.296 -1.0420001 -0.66399997 2
4.2729998 -1.04 -0.66500002 4
4.2350001 -1.035 -0.66299999 2
4.1479998 -1.018 -0.65399998 2
4.1020002 -1.011 -0.65100002 2
4.1329999 -1.022 -0.66000003 2
4.0780001 -1.012 -0.65499997 2
4.079 -1.017 -0.66000003 2
3.9990001 -1 -0.65100002 2
3.97 -0.99699998 -0.64999998 2
3.957 -0.99699998 -0.65200001 2
3.8959999 -0.98500001 -0.64600003 2
3.8670001 -0.98100001 -0.64499998 2
3.8380001 -0.977 -0.64399999 2
3.809 -0.97299999 -0.64300001 2
3.8670001 -0.991 -0.65700001 3
3.7909999 -0.97500002 -0.648 3
3.816 -0.98500001 -0.65600002 3
3.7190001 -0.963 -0.64300001 1
3.6900001 -0.958 -0.64099997 2
3.6889999 -0.96100003 -0.64499998 3
3.632 -0.949 -0.63800001 1
3.655 -0.958 -0.64600003 3
3.582 -0.94099998 -0.63599998 1
3.573 -0.94199997 -0.63800001 1
3.6110001 -0.954 -0.648 3
