# .PCD v0.7 - Point Cloud Data file format
VERSION 0.7
FIELDS x y z intensity
SIZE 4 4 4 4
TYPE F F F F
COUNT 1 1 1 1
WIDTH 1777
HEIGHT 1
VIEWPOINT 0 0 0 1 0 0 0
POINTS 1777
DATA ascii
10.657 0.447 -0.76899999 4
11.069 0.44999999 -0.78100002 4
11.429 0.44999999 -0.787 3
11.847 0.45100001 -0.79699999 3
12.331 0.45300001 -0.80900002 3
12.887 0.456 -0.824 3
13.46 0.45899999 -0.838 3
14.05 0.46000001 -0.852 3
14.686 0.461 -0.86699998 3
15.336 0.461 -0.88 4
15.578 0.447 -0.86799997 3
0 0 0 13
17.330999 0.45100001 -0.91000003 24
17.312 0.426 -0.88099998 30
17.285999 0.40200001 -0.85100001 29
17.278 0.377 -0.82300001 35
17.25 0.35299999 -0.79400003 38
17.226 0.32800001 -0.76499999 41
17.214001 0.30500001 -0.73699999 43
17.200001 0.28 -0.70899999 45
17.195 0.25600001 -0.68199998 52
17.187 0.23100001 -0.65399998 33
17.188 0.207 -0.62699997 33
17.156 0.182 -0.59899998 56
17.152 0.15700001 -0.57099998 59
17.152 0.132 -0.54400003 60
17.139999 0.107 -0.51700002 56
17.134001 0.082000002 -0.49000001 66
17.139 0.057999998 -0.463 62
17.16 0.032000002 -0.43700001 44
17.157 0.0070000002 -0.41 41
17.145 -0.017000001 -0.38299999 63
17.124001 -0.041999999 -0.35699999 63
0 0 0 0
0 0 0 17
15.498 -0.108 -0.25099999 4
15.504 -0.131 -0.228 12
15.337 -0.153 -0.20200001 53
15.345 -0.176 -0.17900001 53
15.183 -0.197 -0.154 46
15.142 -0.22 -0.13 52
15.191 -0.244 -0.108 52
15.129 -0.266 -0.085000001 52
15.089 -0.289 -0.061000001 51
15.067 -0.31200001 -0.039000001 51
15.108 -0.336 -0.017000001 57
15.188 -0.361 0.0049999999 52
15.306 -0.38800001 0.027000001 5
15.312 -0.412 0.050000001 17
15.292 -0.43599999 0.071999997 2
0 0 0 2
38.632999 -1.222 0.29499999 3
38.591999 -1.2819999 0.34999999 5
38.669998 -1.346 0.40700001 4
38.679001 -1.408 0.463 5
38.721001 -1.47 0.51800001 5
38.708 -1.5319999 0.57300001 5
38.702999 -1.5930001 0.62800002 5
0 0 0 30
34.917 -1.548 0.66299999 34
34.945 -1.6059999 0.713 20
0 0 0 0
0 0 0 0
0 0 0 0
0 0 0 0
0 0 0 0
0 0 0 0
0 0 0 5
35.183998 -2.0739999 1.103 21
35.119999 -2.128 1.148 47
34.949001 -2.175 1.1900001 19
34.852001 -2.2260001 1.233 16
34.859001 -2.2839999 1.279 78
34.875 -2.342 1.325 84
34.890999 -2.401 1.3710001 84
34.909 -2.46 1.4170001 83
34.925999 -2.5190001 1.464 80
34.956001 -2.5799999 1.51 83
34.972 -2.6389999 1.556 82
34.994999 -2.698 1.601 80
35.016998 -2.7579999 1.646 81
35.040001 -2.8180001 1.691 66
35.053001 -2.8759999 1.735 81
35.076 -2.937 1.78 81
35.099998 -2.9979999 1.825 82
35.125999 -3.059 1.869 88
35.141998 -3.119 1.913 89
35.152 -3.1789999 1.956 88
35.176998 -3.24 2 85
35.209999 -3.302 2.0439999 88
35.223 -3.362 2.0869999 85
35.237999 -3.4219999 2.1289999 67
35.269001 -3.484 2.1730001 78
35.258999 -3.543 2.2130001 67
35.115002 -3.5869999 2.2449999 24
34.918999 -3.6259999 2.273 24
34.405998 -3.631 2.279 21
33.983002 -3.6440001 2.29 20
32.263 -3.513 2.21 12
31.84 -3.52 2.217 22
31.747 -3.5639999 2.2460001 22
31.621 -3.6029999 2.273 23
31.48 -3.6389999 2.2969999 26
31.393999 -3.6819999 2.325 44
31.391001 -3.7349999 2.359 51
31.377001 -3.786 2.3929999 52
31.365 -3.839 2.4260001 53
31.389999 -3.895 2.461 51
31.399 -3.9489999 2.4949999 51
31.416 -4.0040002 2.529 50
31.431999 -4.059 2.5639999 50
31.452 -4.1149998 2.598 48
31.469999 -4.1690001 2.631 49
31.495001 -4.2249999 2.665 51
31.511 -4.2810001 2.6989999 48
31.517 -4.3340001 2.7309999 47
31.545 -4.3920002 2.7650001 49
31.555 -4.4460001 2.7969999 47
31.576 -4.5019999 2.8299999 48
31.598 -4.5580001 2.862 48
31.615999 -4.6129999 2.8940001 49
31.632 -4.6690001 2.9260001 46
31.658001 -4.724 2.9579999 47
31.677 -4.7800002 2.9890001 47
31.683001 -4.8330002 3.0190001 46
31.723 -4.8909998 3.0510001 45
31.818001 -4.9580002 3.089 33
31.872999 -5.02 3.1229999 26
32.000999 -5.092 3.165 21
32.130001 -5.1659999 3.207 15
32.181999 -5.2270002 3.2390001 13
32.195 -5.2810001 3.2679999 27
32.187 -5.3319998 3.2950001 22
32.254002 -5.395 3.3299999 12
32.262001 -5.4489999 3.358 15
0 0 0 2
27.867001 -4.7969999 2.947 19
27.775999 -4.8260002 2.9590001 26
27.724001 -4.862 2.9760001 32
27.665001 -4.8959999 2.9920001 33
27.636999 -4.9359999 3.0109999 33
27.598 -4.9720001 3.0280001 35
27.572001 -5.0120001 3.0469999 43
27.546 -5.0510001 3.0650001 46
27.525999 -5.0910001 3.0840001 51
27.523001 -5.1339998 3.1040001 53
27.507 -5.1750002 3.1229999 53
27.495001 -5.2160001 3.142 58
27.499001 -5.2610002 3.1619999 48
27.504 -5.3049998 3.1819999 46
27.509001 -5.348 3.2019999 46
27.521999 -5.3940001 3.223 41
27.542 -5.441 3.2460001 33
27.559 -5.4879999 3.266 37
27.586 -5.5359998 3.2880001 34
27.621 -5.585 3.3099999 28
27.68 -5.6389999 3.336 24
0 0 0 4
9.9320002 -2.0539999 1.21 15
9.8850002 -2.059 1.21 12
9.8380003 -2.0639999 1.21 23
9.8079996 -2.072 1.2130001 18
9.79 -2.0829999 1.216 16
9.7609997 -2.092 1.219 18
9.7410002 -2.102 1.222 20
9.717 -2.1110001 1.225 26
9.6899996 -2.1199999 1.227 27
9.6850004 -2.1329999 1.232 27
9.6639996 -2.142 1.235 27
9.6590004 -2.155 1.239 28
9.6450005 -2.1659999 1.243 31
9.6400003 -2.1789999 1.247 32
9.6280003 -2.191 1.251 31
9.6120005 -2.201 1.2539999 31
9.5979996 -2.211 1.257 33
9.5909996 -2.223 1.261 32
9.5839996 -2.2349999 1.265 36
9.5690002 -2.2449999 1.267 35
9.5629997 -2.257 1.271 35
9.5629997 -2.2709999 1.275 38
9.5539999 -2.2809999 1.279 36
9.5559998 -2.2950001 1.283 36
9.5349998 -2.303 1.285 37
9.5340004 -2.316 1.289 41
9.5179996 -2.325 1.291 39
9.5369997 -2.342 1.2970001 39
9.5170002 -2.3499999 1.298 39
9.5120001 -2.362 1.301 41
9.5019999 -2.372 1.304 42
9.5089998 -2.3859999 1.308 42
9.5059996 -2.398 1.312 42
9.4969997 -2.408 1.314 42
9.5 -2.4200001 1.317 42
9.4949999 -2.431 1.3200001 43
9.4890003 -2.4419999 1.323 41
9.4960003 -2.4560001 1.327 39
9.4969997 -2.4679999 1.33 39
9.493 -2.4790001 1.3329999 41
9.4890003 -2.49 1.335 41
9.4849997 -2.5 1.337 42
9.4879999 -2.513 1.34 40
9.4770002 -2.5209999 1.342 37
9.4860001 -2.5350001 1.346 37
9.4770002 -2.5439999 1.347 38
9.4799995 -2.556 1.35 36
9.4799995 -2.5669999 1.352 36
9.4849997 -2.579 1.355 36
9.4840002 -2.5899999 1.357 33
9.4809999 -2.5999999 1.359 34
9.5050001 -2.6170001 1.365 34
9.4949999 -2.625 1.365 32
9.5019999 -2.638 1.368 33
9.4960003 -2.6470001 1.369 35
9.5039997 -2.6589999 1.372 33
9.5019999 -2.6689999 1.373 30
9.5159998 -2.6830001 1.377 29
9.5080004 -2.691 1.378 31
9.5129995 -2.7019999 1.38 30
9.5249996 -2.7160001 1.383 30
9.5270004 -2.7260001 1.385 30
9.5349998 -2.7379999 1.387 29
9.5310001 -2.7460001 1.388 29
9.5349998 -2.757 1.3890001 29
9.5439997 -2.7690001 1.392 28
9.5469999 -2.779 1.393 27
9.5620003 -2.793 1.396 27
9.5699997 -2.8050001 1.398 27
9.5719995 -2.8139999 1.399 25
9.5860004 -2.8269999 1.402 18
9.5979996 -2.8399999 1.404 18
9.6099997 -2.852 1.4069999 15
9.6090002 -2.8610001 1.4069999 15
9.6339998 -2.8759999 1.411 15
9.6409998 -2.8870001 1.413 23
9.6739998 -2.905 1.418 13
9.6879997 -2.918 1.42 11
9.7130003 -2.9330001 1.423 10
9.7390003 -2.9489999 1.427 14
9.7550001 -2.9619999 1.4299999 9
9.802 -2.984 1.437 4
9.8109999 -2.9949999 1.437 1
0 0 0 0
0 0 0 0
0 0 0 0
0 0 0 0
0 0 0 0
0 0 0 0
0 0 0 0
0 0 0 6
38.240002 -11.928 5.5840001 8
38.227001 -11.95 5.5780001 8
38.25 -11.982 5.5780001 8
38.299 -12.023 5.5799999 3
0 0 0 0
0 0 0 0
0 0 0 0
0 0 0 0
0 0 0 0
0 0 0 0
0 0 0 0
0 0 0 0
0 0 0 0
0 0 0 0
0 0 0 0
0 0 0 0
0 0 0 0
0 0 0 0
0 0 0 0
0 0 0 0
0 0 0 0
0 0 0 0
0 0 0 0
0 0 0 0
0 0 0 0
0 0 0 0
0 0 0 0
0 0 0 0
0 0 0 0
0 0 0 0
0 0 0 0
0 0 0 0
0 0 0 0
0 0 0 0
0 0 0 0
0 0 0 0
0 0 0 0
0 0 0 0
0 0 0 0
0 0 0 0
0 0 0 0
0 0 0 0
0 0 0 0
0 0 0 0
0 0 0 0
0 0 0 0
0 0 0 0
0 0 0 0
0 0 0 0
0 0 0 0
0 0 0 0
0 0 0 0
0 0 0 0
0 0 0 0
0 0 0 0
0 0 0 0
0 0 0 0
0 0 0 0
0 0 0 0
0 0 0 0
0 0 0 0
0 0 0 0
0 0 0 0
0 0 0 0
0 0 0 0
0 0 0 0
0 0 0 0
0 0 0 0
0 0 0 0
0 0 0 0
0 0 0 0
0 0 0 0
0 0 0 0
0 0 0 4
0 0 0 0
0 0 0 0
0 0 0 0
0 0 0 0
0 0 0 0
0 0 0 0
0 0 0 0
0 0 0 0
0 0 0 0
0 0 0 0
0 0 0 2
0 0 0 0
0 0 0 0
0 0 0 0
0 0 0 0
0 0 0 0
0 0 0 0
0 0 0 3
34.021 -10.859 3.7550001 4
33.991001 -10.831 3.7309999 5
33.966999 -10.804 3.707 6
33.967999 -10.785 3.6849999 9
33.966999 -10.765 3.6630001 11
33.966 -10.745 3.6400001 10
33.965 -10.724 3.618 9
33.962002 -10.701 3.596 10
33.945 -10.674 3.572 10
33.945999 -10.653 3.549 8
33.862999 -10.604 3.5179999 6
33.462002 -10.456 3.4530001 7
33.345001 -10.397 3.4200001 6
33.533001 -10.431 3.4159999 5
33.854 -10.507 3.4260001 4
33.862 -10.485 3.404 5
33.879002 -10.465 3.382 6
33.889999 -10.443 3.3599999 8
33.941002 -10.433 3.342 7
33.933998 -10.405 3.3180001 5
0 0 0 0
0 0 0 0
0 0 0 1
9.7770004 -2.9660001 0.92799997 4
9.7419996 -2.947 0.91799998 10
9.6960001 -2.925 0.90700001 15
9.6960001 -2.9159999 0.89999998 12
9.6569996 -2.8959999 0.889 19
9.6409998 -2.8829999 0.88099998 13
9.6350002 -2.872 0.87300003 13
9.6199999 -2.859 0.86500001 14
9.5970001 -2.8429999 0.85600001 13
9.5740004 -2.8269999 0.847 14
9.5749998 -2.819 0.83999997 17
9.5600004 -2.8050001 0.83200002 18
9.5509996 -2.793 0.824 18
9.5559998 -2.7850001 0.81699997 25
9.5459995 -2.7720001 0.80900002 27
9.5380001 -2.76 0.80199999 27
9.5299997 -2.7479999 0.79400003 28
9.5279999 -2.7379999 0.787 28
9.5129995 -2.723 0.778 30
9.5150003 -2.714 0.77100003 30
9.5080004 -2.701 0.764 31
9.5059996 -2.691 0.75700003 31
9.4910002 -2.6760001 0.74800003 32
9.5 -2.668 0.74199998 32
9.4809999 -2.652 0.73299998 31
9.4919996 -2.645 0.727 30
9.4729996 -2.6289999 0.71799999 30
9.4700003 -2.6170001 0.71100003 30
9.4750004 -2.6070001 0.704 32
9.4750004 -2.596 0.69700003 33
9.4519997 -2.579 0.68800002 32
9.4720001 -2.573 0.68300003 32
9.4549999 -2.556 0.67400002 33
9.4650002 -2.5480001 0.66799998 34
9.4700003 -2.5369999 0.66100001 35
9.4580002 -2.5220001 0.653 36
9.4650002 -2.5120001 0.64600003 36
9.4580002 -2.4979999 0.639 36
9.4619999 -2.487 0.63200003 39
9.4750004 -2.4790001 0.625 41
9.4729996 -2.4660001 0.61799997 41
9.4680004 -2.4519999 0.61000001 41
9.4639997 -2.4389999 0.60299999 41
9.467 -2.427 0.59600002 41
9.4790001 -2.4170001 0.58999997 43
9.4680004 -2.402 0.58200002 45
9.4809999 -2.392 0.57499999 44
9.4729996 -2.3770001 0.56800002 44
9.4779997 -2.365 0.56099999 42
9.4840002 -2.3529999 0.55400002 43
9.493 -2.342 0.54699999 43
9.4899998 -2.3280001 0.54000002 41
9.5010004 -2.3169999 0.53299999 38
9.5039997 -2.3039999 0.52600002 40
9.5170002 -2.2939999 0.51999998 41
9.5170002 -2.28 0.51300001 38
9.5120001 -2.2650001 0.505 34
9.5299997 -2.2550001 0.49900001 35
9.5439997 -2.244 0.493 36
9.54 -2.2290001 0.48500001 35
9.552 -2.2179999 0.479 34
9.5609999 -2.2049999 0.472 31
9.5649996 -2.191 0.465 30
9.585 -2.181 0.45899999 30
9.5939999 -2.1689999 0.45300001 30
9.6120005 -2.158 0.44600001 29
9.6190004 -2.145 0.44 28
9.6350002 -2.1329999 0.433 27
9.6590004 -2.1229999 0.42699999 27
9.6700001 -2.1099999 0.421 26
9.6789999 -2.0969999 0.414 26
9.6999998 -2.086 0.40799999 23
9.7209997 -2.075 0.40200001 16
9.75 -2.0650001 0.396 16
9.7659998 -2.052 0.389 17
9.8070002 -2.0450001 0.384 14
9.8570004 -2.039 0.37900001 13
9.9219999 -2.036 0.37400001 9
9.9949999 -2.0339999 0.37 3
0 0 0 23
27.559 -5.5159998 0.98199999 28
27.528999 -5.4640002 0.96200001 34
27.503 -5.4130001 0.94199997 39
27.483 -5.362 0.92199999 41
27.459999 -5.3099999 0.90200001 47
27.436001 -5.2579999 0.88200003 54
27.433001 -5.21 0.86299998 59
27.424 -5.1609998 0.84399998 50
27.408001 -5.1100001 0.824 67
27.445 -5.0679998 0.80699998 62
27.462999 -5.0229998 0.78899997 57
27.487 -4.9790001 0.77200001 53
27.500999 -4.9330001 0.75400001 52
27.548 -4.8920002 0.73699999 46
27.6 -4.8530002 0.72000003 34
27.639999 -4.8099999 0.70300001 35
27.688 -4.7690001 0.68599999 30
27.782 -4.7350001 0.671 22
27.886999 -4.7020001 0.65499997 2
0 0 0 8
31.346001 -5.171 0.69599998 8
31.344 -5.1129999 0.67699999 12
31.306 -5.0489998 0.65600002 11
31.298 -4.9899998 0.63599998 11
31.292 -4.9310002 0.616 11
31.27 -4.8699999 0.597 12
31.257999 -4.809 0.57800001 12
31.221001 -4.7449999 0.55800003 13
31.202999 -4.684 0.53899997 13
31.188999 -4.6230001 0.51999998 14
31.177 -4.5619998 0.50099999 14
31.158001 -4.5 0.48300001 9
0 0 0 2
28.59 -4.02 0.41 2
0 0 0 14
31.07 -4.2490001 0.41 15
31.034 -4.1849999 0.39199999 15
31.007999 -4.1209998 0.37400001 14
30.996 -4.0599999 0.35699999 13
30.973 -3.9960001 0.33899999 12
30.948 -3.9319999 0.322 11
30.938 -3.8699999 0.30500001 11
30.913 -3.8069999 0.28799999 10
30.9 -3.7449999 0.27200001 9
30.923 -3.687 0.25600001 9
30.912001 -3.6240001 0.23899999 8
30.947001 -3.5669999 0.22400001 7
30.913 -3.5020001 0.208 5
30.929001 -3.4419999 0.192 4
30.896999 -3.3770001 0.177 2
0 0 0 1
12.605 -1.327 0.059999999 1
12.531 -1.294 0.052999999 1
12.477 -1.263 0.046999998 1
12.607 -1.251 0.041000001 6
12.529 -1.2180001 0.035 7
12.712 -1.21 0.029999999 3
12.75 -1.188 0.024 7
12.715 -1.159 0.018999999 8
12.532 -1.117 0.013 14
12.706 -1.1059999 0.0080000004 23
12.743 -1.084 0.0020000001 27
12.744 -1.058 -0.0020000001 24
12.883 -1.043 -0.0080000004 20
12.782 -1.008 -0.013 15
12.888 -0.991 -0.017999999 6
12.932 -0.96799999 -0.023 1
0 0 0 2
0 0 0 0
0 0 0 25
34.544998 -2.303 -0.116 107
34.641998 -2.2379999 -0.12899999 33
34.648998 -2.168 -0.142 20
35.077999 -2.122 -0.156 17
35.144001 -2.052 -0.169 20
35.318001 -1.99 -0.18099999 1
0 0 0 17
15.011 -0.78299999 -0.086999997 33
14.972 -0.75 -0.090999998 33
14.987 -0.71899998 -0.096000001 41
15.011 -0.68900001 -0.101 51
15.003 -0.65700001 -0.106 51
14.97 -0.625 -0.11 51
14.987 -0.59399998 -0.114 51
14.934 -0.56 -0.118 50
14.949 -0.52899998 -0.123 50
14.894 -0.49599999 -0.126 50
14.876 -0.46399999 -0.13 50
14.86 -0.43200001 -0.134 50
14.871 -0.40200001 -0.13699999 43
14.976 -0.373 -0.142 40
14.884 -0.33899999 -0.145 46
14.926 -0.308 -0.149 47
14.914 -0.27700001 -0.152 48
15.03 -0.24699999 -0.15700001 51
15.159 -0.21699999 -0.161 52
15.315 -0.18700001 -0.16599999 38
15.31 -0.155 -0.169 53
15.381 -0.123 -0.17299999 4
15.617 -0.092 -0.178 4
15.542 -0.059 -0.18000001 8
15.63 -0.027000001 -0.184 35
15.658 0.0049999999 -0.18700001 55
0 0 0 43
17.158001 0.078000002 -0.20999999 62
17.160999 0.115 -0.213 60
17.174 0.15099999 -0.215 36
17.174999 0.18799999 -0.21699999 52
17.195999 0.22400001 -0.22 52
17.214001 0.26100001 -0.222 46
17.232 0.29699999 -0.22400001 38
17.257999 0.33399999 -0.226 37
17.306999 0.37200001 -0.229 38
17.337999 0.40900001 -0.23100001 30
17.409 0.447 -0.233 24
17.499001 0.486 -0.236 17
0 0 0 51
33.785999 1.082 -0.46000001 50
33.757999 1.152 -0.46200001 50
33.733002 1.222 -0.463 51
33.709999 1.2920001 -0.46399999 53
33.617001 1.359 -0.46399999 42
0 0 0 15
19.694 0.87900001 -0.273 33
19.671 0.92000002 -0.273 38
19.669001 0.95999998 -0.273 42
0 0 0 1
17.143 0.90899998 -0.23800001 1
17.038 0.93900001 -0.236 1
17.035 0.97399998 -0.236 1
0 0 0 0
0 0 0 0
0 0 0 0
0 0 0 0
0 0 0 0
0 0 0 0
0 0 0 1
16.725 1.233 -0.226 1
16.705 1.266 -0.22400001 2
16.764 1.3049999 -0.22400001 8
16.784 1.341 -0.223 19
16.591999 1.36 -0.21799999 67
16.533001 1.388 -0.21600001 114
16.531 1.4220001 -0.214 102
16.558001 1.4579999 -0.213 37
16.500999 1.487 -0.20999999 80
16.488001 1.5190001 -0.208 55
16.493 1.553 -0.206 35
16.452999 1.582 -0.20299999 50
16.447001 1.615 -0.20100001 38
16.455999 1.649 -0.198 33
16.482 1.6849999 -0.19599999 24
16.471001 1.717 -0.193 27
16.462999 1.749 -0.19 19
16.568001 1.793 -0.189 9
16.580999 1.8279999 -0.186 11
16.549999 1.858 -0.182 10
16.563999 1.892 -0.17900001 9
16.518999 1.92 -0.176 2
16.444 1.943 -0.17200001 1
16.443001 1.975 -0.168 1
16.499001 2.0139999 -0.16500001 1
16.389 2.0320001 -0.161 1
0 0 0 0
0 0 0 0
0 0 0 0
0 0 0 0
0 0 0 0
0 0 0 0
0 0 0 0
0 0 0 0
0 0 0 1
16.621 2.381 -0.121 1
16.614 2.411 -0.117 1
16.625 2.444 -0.112 1
0 0 0 0
0 0 0 0
0 0 0 0
0 0 0 0
0 0 0 1
17.285999 2.7349999 -0.085000001 2
17.329 2.7739999 -0.079999998 2
17.351999 2.8080001 -0.074000001 1
0 0 0 0
0 0 0 1
18.108 3.029 -0.059 1
0 0 0 0
0 0 0 0
0 0 0 1
0 0 0 0
0 0 0 0
0 0 0 0
0 0 0 0
0 0 0 34
36.018002 6.6040001 -0.001 76
36.019001 6.6669998 0.013 59
36.384998 6.7979999 0.027000001 4
36.866001 6.9499998 0.041000001 6
37.542 7.1420002 0.057 12
37.773998 7.25 0.071000002 13
37.639999 7.289 0.086000003 4
0 0 0 110
39.887001 7.8569999 0.125 106
39.861 7.9190001 0.141 104
39.992001 8.0109997 0.15899999 50
40.049 8.0880003 0.175 45
40.132999 8.1709995 0.193 34
40.023998 8.2150002 0.20999999 51
40.150002 8.3059998 0.228 32
40.511002 8.448 0.24699999 29
40.445999 8.5 0.26499999 25
40.473999 8.5710001 0.28299999 9
0 0 0 12
34.860001 7.4910002 0.27500001 17
34.895 7.5539999 0.29100001 5
34.909 7.612 0.30700001 2
0 0 0 88
0 0 0 3
41.035 9.1400003 0.41800001 11
41.013 9.198 0.43700001 13
0 0 0 0
0 0 0 63
54.66 12.505 0.66000003 62
55.165001 12.703 0.69300002 105
55.335999 12.823 0.72100002 101
55.303001 12.897 0.74699998 104
55.292999 12.973 0.77399999 104
55.456001 13.092 0.80400002 27
55.612 13.209 0.83399999 17
55.861 13.349 0.86400002 19
55.865002 13.429 0.89099997 12
0 0 0 66
63.026001 15.327 1.069 41
63.063 15.424 1.102 33
63.027 15.502 1.133 49
63.014 15.584 1.163 19
64.081001 15.935 1.216 12
63.617001 15.905 1.24 18
0 0 0 0
0 0 0 0
0 0 0 0
0 0 0 0
0 0 0 0
0 0 0 12
65.848 17.059 1.521 14
67.095001 17.469 1.585 20
68.331001 17.875999 1.651 41
69.348 18.228001 1.712 14
0 0 0 0
0 0 0 17
80.259003 21.386 2.108 17
79.327003 21.232 2.1259999 21
79.088997 21.261999 2.1619999 31
79.005997 21.329 2.2019999 32
79.178001 21.468 2.2479999 31
79.142998 21.549 2.289 31
78.976997 21.593 2.3269999 21
79.254997 21.757999 2.378 13
0 0 0 0
0 0 0 0
0 0 0 0
0 0 0 0
0 0 0 12
81.207001 22.819 2.697 15
0 0 0 0
0 0 0 13
84.119003 23.895 2.9319999 14
0 0 0 0
0 0 0 0
0 0 0 15
81.542999 23.482 3.02 11
83.627998 24.163 3.141 12
0 0 0 0
0 0 0 0
0 0 0 0
0 0 0 0
0 0 0 13
82.287003 24.219 3.3570001 13
82.204002 24.264999 3.398 20
82.178001 24.326 3.4419999 22
82.003998 24.341999 3.477 28
81.903999 24.379 3.5150001 28
81.734001 24.393999 3.552 22
82.083 24.563 3.6110001 15
0 0 0 0
0 0 0 0
0 0 0 0
0 0 0 0
0 0 0 0
0 0 0 0
0 0 0 0
0 0 0 25
84.154999 25.729 4.1040001 39
83.943001 25.719 4.138 15
0 0 0 0
0 0 0 25
0 0 0 25
0 0 0 0
0 0 0 14
82.754997 25.658001 4.3390002 18
82.495003 25.625 4.3660002 23
82.264999 25.599001 4.3969998 24
82.252998 25.639 4.4390001 30
82.095001 25.632 4.473 32
82.047997 25.66 4.513 30
81.896004 25.652 4.5440001 29
81.713997 25.634001 4.5760002 30
81.547997 25.621 4.6079998 30
81.514999 25.646999 4.6479998 29
81.393997 25.645 4.6820002 28
81.325996 25.658001 4.717 18
81.275002 25.674999 4.7550001 17
81.196999 25.681999 4.7880001 12
81.004997 25.653 4.8169999 12
0 0 0 0
0 0 0 0
0 0 0 13
0 0 0 25
0 0 0 14
82.749001 26.370001 5.1620002 19
82.671997 26.368999 5.197 27
82.760002 26.42 5.2420001 24
82.559998 26.377001 5.2670002 30
82.512001 26.382 5.303 24
82.517998 26.403 5.342 24
82.424004 26.389999 5.3740001 24
82.575996 26.455999 5.4229999 16
0 0 0 0
0 0 0 17
82.442001 26.457001 5.526 15
82.292 26.42 5.553 13
82.344002 26.447001 5.5939999 11
0 0 0 25
0 0 0 25
0 0 0 13
83.139999 26.735001 5.7940001 12
83.245003 26.774 5.8369999 14
83.486 26.855 5.8899999 15
83.289001 26.795 5.9099998 19
83.195999 26.766001 5.9390001 23
82.997002 26.702 5.96 23
83.011002 26.707001 5.994 23
83.103996 26.733999 6.0349998 23
83.001999 26.698999 6.0599999 22
83.018997 26.698999 6.0970001 22
82.892998 26.653999 6.119 17
82.984001 26.676001 6.1599998 18
82.894997 26.639999 6.1859999 14
0 0 0 0
0 0 0 0
0 0 0 16
84.521004 27.118999 6.4380002 19
84.589996 27.127001 6.4749999 19
84.579002 27.108 6.506 18
84.367996 27.024 6.5219998 19
84.375 27.01 6.5510001 19
84.157997 26.922001 6.5650001 23
84.188004 26.910999 6.598 19
84.053001 26.847 6.618 19
83.667 26.702999 6.6149998 17
83.903999 26.754999 6.6630001 19
83.688004 26.663 6.6719999 21
83.639999 26.621 6.6999998 25
83.675003 26.607 6.7290001 26
83.686996 26.583 6.7579999 29
83.693001 26.556 6.7859998 26
83.621002 26.503 6.8049998 32
83.608002 26.466999 6.8330002 33
83.617996 26.438999 6.8579998 32
83.598 26.4 6.8800001 32
83.638 26.377001 6.9089999 38
83.649002 26.346001 6.9359999 32
83.630997 26.302999 6.96 36
83.684998 26.282 6.9889998 28
83.849998 26.294001 7.027 26
83.908997 26.271999 7.0560002 31
83.927002 26.238001 7.079 24
84.059998 26.236 7.1139998 19
0 0 0 0
0 0 0 13
0 0 0 0
0 0 0 0
0 0 0 0
0 0 0 26
113.011 34.830002 9.7629995 25
112.882 34.722 9.776 29
112.964 34.676998 9.809 27
112.945 34.599998 9.8339996 27
113.104 34.575001 9.8739996 22
112.969 34.459 9.8839998 29
113.017 34.395 9.915 29
113.058 34.331001 9.9399996 27
113.093 34.262001 9.9659996 33
113.142 34.196999 9.9899998 33
113.134 34.112 10.011 30
113.085 34.013 10.028 27
113.131 33.941002 10.053 33
113.215 33.877998 10.081 32
113.243 33.799999 10.1 33
113.264 33.716 10.121 37
113.307 33.637001 10.144 38
113.327 33.549999 10.163 33
113.313 33.452 10.179 38
113.34 33.362999 10.195 37
113.435 33.293999 10.219 43
113.444 33.198002 10.236 41
113.432 33.094002 10.249 38
113.499 33.012001 10.269 38
113.513 32.912998 10.284 39
113.532 32.813999 10.299 51
113.62 32.733002 10.316 32
113.627 32.630001 10.329 39
113.672 32.535 10.344 39
113.673 32.424999 10.354 42
113.746 32.337002 10.368 41
113.733 32.220001 10.376 38
113.783 32.119999 10.389 42
113.82 32.018002 10.398 51
113.818 31.898001 10.407 45
113.916 31.809999 10.42 47
113.907 31.688 10.425 45
113.91 31.57 10.428 44
114.008 31.475 10.441 42
114.026 31.358999 10.444 27
114.091 31.252001 10.453 36
114.122 31.134001 10.458 34
114.155 31.016001 10.463 40
114.234 30.909 10.471 34
114.193 30.77 10.465 37
114.324 30.674 10.477 34
114.322 30.541 10.475 41
114.378 30.422001 10.478 34
114.417 30.297001 10.479 38
114.437 30.166 10.478 36
114.526 30.054001 10.48 29
114.523 29.915001 10.475 37
114.636 29.804001 10.479 30
0 0 0 57
70.039001 18.035999 6.3940001 61
68.728996 17.612 6.27 55
67.481003 17.207001 6.151 50
66.203003 16.797001 6.0289998 53
64.939003 16.392 5.9070001 54
63.909 16.049 5.8070002 51
62.84 15.701 5.7030001 42
62.068001 15.425 5.6269999 48
61.011002 15.081 5.5240002 51
59.758999 14.692 5.4039998 61
58.671001 14.346 5.2979999 55
58.159 14.143 5.243 44
57.179001 13.827 5.1459999 52
55.945 13.452 5.027 50
55.203999 13.198 4.9520001 37
54.620998 12.984 4.8899999 50
53.331001 12.601 4.7649999 50
52.765999 12.394 4.7049999 36
52.018002 12.145 4.6279998 48
50.874001 11.806 4.5190001 57
50.768002 11.708 4.4980001 51
49.456001 11.335 4.3709998 56
49.208 11.207 4.3390002 53
48.172001 10.901 4.237 63
47.425999 10.662 4.1609998 38
46.905998 10.478 4.105 54
45.957001 10.196 4.0110002 46
45.554001 10.04 3.964 45
44.247002 9.6859999 3.8399999 10
43.955002 9.5550003 3.802 46
43.973 9.493 3.7920001 61
43.983002 9.4280005 3.7809999 58
44.009998 9.3669996 3.77 61
44.042999 9.3070002 3.7609999 43
0 0 0 3
0 0 0 2
37.633999 7.7779999 3.1789999 2
37.174999 7.625 3.1289999 2
36.292 7.3860002 3.043 22
36.036999 7.277 3.0090001 25
35.514 7.1149998 2.954 23
34.870998 6.9299998 2.8870001 21
34.426998 6.7870002 2.8380001 20
34.044998 6.6570001 2.796 31
33.594002 6.5159998 2.7460001 27
33.195 6.3839998 2.701 16
32.862 6.2680001 2.661 20
32.488998 6.1430001 2.618 38
32.294998 6.0539999 2.5899999 19
32.202999 5.9829998 2.569 44
32.217999 5.9330001 2.5569999 45
32.236 5.8829999 2.5450001 45
32.259998 5.8330002 2.533 46
32.268002 5.7800002 2.5190001 43
32.282001 5.7290001 2.506 45
32.299 5.677 2.493 51
32.330002 5.6290002 2.48 49
32.338001 5.5749998 2.4660001 48
32.359001 5.5250001 2.4519999 47
32.375999 5.473 2.4389999 45
32.409 5.4229999 2.4260001 35
32.375 5.362 2.4070001 101
32.405998 5.3109999 2.3929999 46
32.287998 5.237 2.368 10
31.723 5.0910001 2.3099999 49
31.691 5.0310001 2.2909999 100
31.893999 5.0079999 2.289 35
32.484001 5.0440001 2.313 84
32.499001 4.9899998 2.2969999 82
32.511002 4.9349999 2.28 71
32.550999 4.8839998 2.2639999 80
32.558998 4.8280001 2.2460001 80
32.576 4.7740002 2.2279999 83
32.596001 4.7199998 2.211 85
32.601002 4.6620002 2.1919999 84
32.623001 4.6079998 2.1730001 84
32.659 4.5549998 2.1559999 84
32.673 4.4990001 2.1370001 81
32.688 4.4429998 2.1170001 91
32.687 4.3839998 2.0969999 86
32.710999 4.329 2.0769999 86
32.727001 4.2719998 2.0569999 91
32.745998 4.2160001 2.0369999 92
32.796001 4.164 2.0179999 79
33.084999 4.1420002 2.0139999 14
33.094002 4.0830002 1.992 13
33.116001 4.0250001 1.971 13
33.147999 3.971 1.95 9
0 0 0 16
25.093 2.9130001 1.4400001 23
25.039 2.862 1.419 30
24.995001 2.8110001 1.399 32
24.962999 2.763 1.3789999 38
24.938999 2.7149999 1.36 44
24.919001 2.668 1.34 44
24.912001 2.622 1.321 49
24.882 2.573 1.3 54
24.892 2.5280001 1.2819999 64
24.896999 2.483 1.263 45
24.905001 2.4389999 1.244 61
24.936001 2.3959999 1.225 45
24.955 2.352 1.206 51
24.975 2.3069999 1.187 47
25.011 2.2650001 1.168 33
25.047001 2.2219999 1.149 36
25.091 2.1789999 1.13 31
25.157 2.1389999 1.113 26
25.252001 2.1010001 1.095 17
0 0 0 29
0 0 0 0
0 0 0 9
33.641998 2.55 1.3430001 5
33.688999 2.4909999 1.3150001 6
33.735001 2.434 1.288 2
33.710999 2.3699999 1.256 12
33.681 2.306 1.225 40
33.676998 2.244 1.194 12
0 0 0 0
0 0 0 0
0 0 0 0
0 0 0 0
0 0 0 0
0 0 0 7
0 0 0 12
33.820999 1.755 0.94400001 12
33.647999 1.683 0.90600002 28
33.631001 1.6210001 0.87300003 52
33.623001 1.559 0.83899999 120
33.638 1.498 0.80599999 113
33.655998 1.438 0.77399999 114
33.685001 1.377 0.74000001 119
33.703999 1.316 0.70599997 116
33.723999 1.255 0.67199999 116
33.731998 1.193 0.63700002 116
33.765999 1.132 0.602 118
33.776001 1.0700001 0.56699997 115
33.817001 1.0089999 0.53200001 89
0 0 0 18
17.437 0.456 0.237 18
17.358 0.42300001 0.21699999 28
17.329 0.38999999 0.198 32
17.297001 0.359 0.17900001 35
17.263 0.32600001 0.16 40
17.245001 0.29499999 0.141 40
17.215 0.26300001 0.121 44
17.205999 0.23199999 0.102 47
17.184999 0.20100001 0.082999997 50
17.176001 0.17 0.063000001 52
17.167 0.139 0.044 53
17.169001 0.108 0.024 65
17.16 0.077 0.0040000002 39
17.152 0.046999998 -0.014 65
17.153999 0.016000001 -0.034000002 39
0 0 0 55
15.52 -0.039999999 -0.067000002 4
15.536 -0.068000004 -0.085000001 15
15.393 -0.093999997 -0.103 53
15.342 -0.121 -0.12 53
15.234 -0.147 -0.138 52
15.27 -0.17399999 -0.156 53
15.162 -0.2 -0.17399999 52
15.013 -0.22400001 -0.19 51
14.973 -0.25 -0.208 51
14.879 -0.27500001 -0.22499999 42
14.902 -0.301 -0.244 42
14.939 -0.32800001 -0.26300001 43
15.158 -0.36000001 -0.28600001 12
14.89 -0.37900001 -0.29899999 25
14.795 -0.40200001 -0.31600001 33
14.798 -0.428 -0.33399999 30
14.797 -0.45300001 -0.35299999 34
14.82 -0.479 -0.37200001 22
14.822 -0.505 -0.391 37
14.826 -0.52999997 -0.41 35
14.842 -0.55599999 -0.43000001 37
14.842 -0.58099997 -0.449 34
14.852 -0.60699999 -0.46799999 32
14.864 -0.63200003 -0.48800001 37
14.87 -0.65799999 -0.50700003 40
14.865 -0.68199998 -0.52600002 40
14.88 -0.70700002 -0.546 44
14.898 -0.73299998 -0.56699997 1
0 0 0 10
29.337 -1.541 -1.193 9
29.039 -1.574 -1.22 9
28.658001 -1.6 -1.242 7
28.336 -1.628 -1.266 4
27.975 -1.653 -1.2869999 3
27.815001 -1.689 -1.318 2
0 0 0 1
0 0 0 1
13.113 -0.86000001 -0.67400002 9
13.065 -0.87800002 -0.68900001 12
12.998 -0.89399999 -0.704 10
12.949 -0.91100001 -0.71899998 10
12.871 -0.926 -0.73199999 15
12.839 -0.94400001 -0.74800003 13
12.764 -0.95899999 -0.76099998 15
12.727 -0.97600001 -0.77700001 10
12.67 -0.99199998 -0.79100001 11
12.616 -1.007 -0.80500001 10
12.531 -1.02 -0.81699997 10
12.401 -1.028 -0.82599998 11
12.204 -1.031 -0.82999998 8
11.964 -1.029 -0.82999998 5
11.583 -1.0140001 -0.81999999 2
11.131 -0.99199998 -0.80400002 2
10.791 -0.97799999 -0.79500002 2
10.465 -0.96399999 -0.78500003 2
10.183 -0.95300001 -0.77899998 3
9.9300003 -0.94400001 -0.773 3
9.6479998 -0.93199998 -0.76499999 4
9.408 -0.92299998 -0.759 4
9.1829996 -0.91399997 -0.75400001 4
8.9709997 -0.90600002 -0.74900001 4
8.7250004 -0.89399999 -0.741 4
8.5200005 -0.88499999 -0.736 3
8.29 -0.87300003 -0.72799999 4
8.0909996 -0.86400002 -0.72299999 4
7.9070001 -0.85600001 -0.71700001 4
7.7529998 -0.85000002 -0.71499997 5
7.5999999 -0.84399998 -0.71100003 5
7.448 -0.838 -0.708 4
7.3200002 -0.83399999 -0.70599997 4
7.158 -0.82499999 -0.70099998 4
7.0240002 -0.81999999 -0.69800001 5
6.8909998 -0.81300002 -0.69499999 5
6.71 -0.801 -0.68599999 7
6.5229998 -0.78799999 -0.67699999 5
6.4380002 -0.78600001 -0.67699999 7
6.3670001 -0.78600001 -0.67900002 9
6.289 -0.78500003 -0.68000001 9
6.1719999 -0.77899998 -0.676 7
6.0910001 -0.77700001 -0.676 5
5.9889998 -0.77200001 -0.67400002 5
5.8730001 -0.764 -0.66900003 4
5.7670002 -0.75800002 -0.66600001 4
5.6859999 -0.755 -0.66399997 4
5.5770001 -0.74800003 -0.66000003 4
5.4899998 -0.74299997 -0.65799999 4
5.402 -0.73799998 -0.65499997 4
5.322 -0.73299998 -0.653 3
5.223 -0.727 -0.648 4
5.1560001 -0.72399998 -0.648 4
5.098 -0.722 -0.648 4
5.0180001 -0.71700001 -0.64499998 3
4.9489999 -0.713 -0.64300001 2
4.8769999 -0.708 -0.64099997 2
4.8319998 -0.708 -0.64200002 1
4.79 -0.70700002 -0.64300001 1
4.7490001 -0.70700002 -0.64499998 1
4.6999998 -0.70499998 -0.64499998 1
4.487 -0.67799997 -0.62199998 1
4.4190001 -0.67299998 -0.61900002 1
4.4499998 -0.68300003 -0.63 1
4.3889999 -0.67900002 -0.62800002 1
4.494 -0.69999999 -0.64899999 1
4.408 -0.69199997 -0.64300001 1
4.2859998 -0.67799997 -0.63200003 2
4.1020002 -0.653 -0.61000001 2
4.053 -0.64999998 -0.60900003 2
3.99 -0.64399999 -0.60500002 2
3.9449999 -0.64099997 -0.60399997 2
3.911 -0.63999999 -0.60399997 2
3.8599999 -0.63599998 -0.602 2
3.859 -0.639 -0.60699999 2
3.8710001 -0.64600003 -0.61500001 2
3.7920001 -0.63599998 -0.60799998 3
3.7620001 -0.63499999 -0.60799998 2
3.721 -0.63200003 -0.60699999 2
3.6960001 -0.63200003 -0.60799998 2
3.6670001 -0.63 -0.60799998 3
3.596 -0.62199998 -0.602 2
3.5239999 -0.61299998 -0.59500003 2
3.549 -0.62 -0.60399997 2
3.448 -0.60600001 -0.59100002 2
3.4519999 -0.61000001 -0.597 2
3.503 -0.62300003 -0.61000001 2
3.48 -0.62199998 -0.611 2
3.401 -0.611 -0.602 2
3.322 -0.60000002 -0.59299999 2
3.316 -0.602 -0.59600002 2
3.382 -0.61699998 -0.61299998 2
3.224 -0.59100002 -0.588 2
3.233 -0.59500003 -0.59399998 2
3.2030001 -0.59299999 -0.59299999 2
3.303 -0.61400002 -0.616 2
3.1530001 -0.58899999 -0.59200001 2
3.155 -0.59200001 -0.597 2
3.1129999 -0.58700001 -0.59299999 2
3.0079999 -0.56900001 -0.57700002 2
2.9879999 -0.56800002 -0.57700002 2
2.9590001 -0.565 -0.57599998 2
2.947 -0.565 -0.57700002 2
2.977 -0.57300001 -0.58700001 2
2.9760001 -0.57499999 -0.59100002 1
2.947 -0.57200003 -0.58899999 2
2.865 -0.55800003 -0.57599998 1
2.862 -0.56 -0.579 1
2.852 -0.56 -0.58099997 1
2.823 -0.55599999 -0.579 1
2.7969999 -0.55299997 -0.57700002 1
2.7820001 -0.55199999 -0.57700002 1
2.8069999 -0.55900002 -0.58600003 1
2.7320001 -0.546 -0.574 1
2.7149999 -0.54500002 -0.574 1
2.711 -0.546 -0.57599998 1
2.6389999 -0.53299999 -0.56400001 1
2.7490001 -0.55699998 -0.59100002 1
2.638 -0.53600001 -0.56999999 1
2.5940001 -0.52899998 -0.56400001 1
2.5650001 -0.52399999 -0.56099999 1
2.552 -0.52399999 -0.56099999 1
2.5409999 -0.523 -0.56199998 1
2.5220001 -0.51999998 -0.56099999 1
2.5450001 -0.52700001 -0.56900001 1
2.5420001 -0.528 -0.57099998 1
2.48 -0.51599997 -0.56 1
2.4530001 -0.51200002 -0.55699998 1
2.4449999 -0.51099998 -0.55800003 1
2.4430001 -0.51200002 -0.56 1
2.415 -0.50800002 -0.55599999 1
2.4100001 -0.50800002 -0.55800003 1
2.3929999 -0.50599998 -0.55699998 1
2.3789999 -0.50400001 -0.55599999 1
2.3699999 -0.50300002 -0.55699998 1
2.359 -0.50199997 -0.55699998 1
2.335 -0.498 -0.55400002 1
2.329 -0.498 -0.55500001 1
2.313 -0.495 -0.55299997 1
2.306 -0.495 -0.55400002 1
2.296 -0.49399999 -0.55400002 1
2.28 -0.49200001 -0.55299997 1
2.2679999 -0.49000001 -0.55199999 1
2.256 -0.48800001 -0.55199999 1
2.2449999 -0.48699999 -0.55199999 1
2.2390001 -0.486 -0.55299997 1
2.2290001 -0.48500001 -0.55199999 1
2.2160001 -0.48300001 -0.551 1
2.2079999 -0.48199999 -0.551 1
2.1889999 -0.479 -0.54900002 1
2.178 -0.477 -0.54799998 1
2.168 -0.47600001 -0.54799998 1
2.161 -0.47499999 -0.54799998 1
2.1530001 -0.47400001 -0.54799998 1
2.1440001 -0.472 -0.54799998 1
2.131 -0.47 -0.54699999 1
2.128 -0.47 -0.54799998 1
2.1170001 -0.46799999 -0.54699999 1
2.1129999 -0.46799999 -0.54799998 1
2.099 -0.465 -0.546 1
2.0929999 -0.46399999 -0.546 1
2.089 -0.46399999 -0.54699999 1
2.0799999 -0.46200001 -0.54699999 1
2.0710001 -0.461 -0.546 1
2.062 -0.45899999 -0.546 1
2.0580001 -0.45899999 -0.546 1
2.0550001 -0.458 -0.54699999 1
2.052 -0.458 -0.54799998 1
2.0439999 -0.45699999 -0.54699999 2
2.036 -0.45500001 -0.54699999 2
2.0320001 -0.45500001 -0.54799998 2
2.027 -0.454 -0.54799998 2
2.0190001 -0.45199999 -0.54699999 2
2.013 -0.45100001 -0.54699999 2
2.01 -0.45100001 -0.54799998 2
2.0009999 -0.449 -0.54699999 2
1.994 -0.447 -0.546 2
1.988 -0.44600001 -0.546 2
1.9859999 -0.44600001 -0.54699999 2
1.982 -0.44499999 -0.54699999 2
1.972 -0.44299999 -0.546 1
1.969 -0.442 -0.546 1
1.9529999 -0.43900001 -0.54299998 1
1.9450001 -0.43700001 -0.542 1
1.9349999 -0.435 -0.54100001 1
1.937 -0.435 -0.54299998 1
1.933 -0.435 -0.54299998 1
1.924 -0.43200001 -0.54100001 1
1.916 -0.43099999 -0.54000002 1
1.926 -0.433 -0.54400003 1
1.9119999 -0.43000001 -0.54100001 1
1.908 -0.42899999 -0.54100001 1
1.904 -0.428 -0.54100001 1
1.904 -0.42699999 -0.542 1
1.892 -0.42500001 -0.54000002 1
1.885 -0.42300001 -0.53899997 1
1.892 -0.42399999 -0.542 1
1.892 -0.42399999 -0.54299998 1
1.877 -0.41999999 -0.53899997 1
1.873 -0.419 -0.53899997 1
1.877 -0.41999999 -0.54100001 1
1.869 -0.41800001 -0.54000002 1
1.863 -0.41600001 -0.53899997 1
1.8609999 -0.41499999 -0.53899997 1
1.86 -0.41499999 -0.53899997 1
1.857 -0.414 -0.53899997 1
1.859 -0.414 -0.54100001 1
1.853 -0.412 -0.54000002 1
1.848 -0.41100001 -0.53899997 1
1.847 -0.41 -0.53899997 1
1.842 -0.40900001 -0.53899997 1
1.836 -0.40700001 -0.53799999 1
1.841 -0.40700001 -0.54000002 1
1.834 -0.405 -0.53799999 1
1.83 -0.40400001 -0.537 1
1.831 -0.40400001 -0.53799999 1
1.829 -0.403 -0.53799999 1
1.825 -0.40099999 -0.537 1
1.823 -0.40000001 -0.537 1
1.823 -0.40000001 -0.53799999 1
1.825 -0.40000001 -0.53899997 1
1.823 -0.39899999 -0.53899997 1
1.814 -0.396 -0.53600001 1
1.823 -0.39700001 -0.53899997 1
1.811 -0.39399999 -0.53600001 1
1.814 -0.39399999 -0.537 1
1.8150001 -0.39300001 -0.53799999 1
1.8099999 -0.39199999 -0.537 1
1.816 -0.39199999 -0.53899997 1
1.808 -0.38999999 -0.537 1
1.809 -0.389 -0.537 1
1.811 -0.389 -0.53799999 1
1.8099999 -0.38800001 -0.53799999 1
1.808 -0.38699999 -0.537 1
1.803 -0.38499999 -0.53600001 1
1.811 -0.38600001 -0.53799999 1
1.8099999 -0.38499999 -0.53799999 1
1.8049999 -0.38299999 -0.537 1
1.8099999 -0.38299999 -0.53799999 1
1.808 -0.382 -0.537 1
1.807 -0.38100001 -0.537 1
1.8049999 -0.37900001 -0.537 1
1.809 -0.37900001 -0.53799999 1
1.8099999 -0.37900001 -0.53799999 1
1.809 -0.377 -0.537 1
1.807 -0.37599999 -0.537 1
1.8099999 -0.37599999 -0.53799999 1
1.809 -0.375 -0.537 1
1.813 -0.37400001 -0.53799999 1
1.814 -0.373 -0.53799999 1
1.8150001 -0.373 -0.53799999 1
1.813 -0.37099999 -0.537 1
1.814 -0.37 -0.537 1
1.824 -0.37099999 -0.54000002 1
1.822 -0.37 -0.53899997 1
1.819 -0.368 -0.53799999 1
1.818 -0.36700001 -0.537 1
1.818 -0.366 -0.53600001 1
1.818 -0.36500001 -0.53600001 1
1.831 -0.366 -0.53899997 1
1.83 -0.36500001 -0.53899997 1
1.824 -0.36199999 -0.53600001 1
1.8279999 -0.36199999 -0.537 1
1.83 -0.361 -0.537 1
1.832 -0.36000001 -0.537 1
1.837 -0.36000001 -0.53799999 1
1.841 -0.359 -0.53799999 1
1.846 -0.359 -0.53899997 1
1.845 -0.35800001 -0.53899997 1
1.855 -0.35800001 -0.54100001 1
1.848 -0.35600001 -0.53799999 1
1.851 -0.35499999 -0.53799999 1
1.8559999 -0.354 -0.53899997 1
1.8609999 -0.354 -0.53899997 1
1.865 -0.35299999 -0.54000002 1
1.863 -0.352 -0.53799999 1
1.872 -0.352 -0.54000002 1
1.875 -0.35100001 -0.54000002 1
1.881 -0.35100001 -0.54100001 1
1.882 -0.34900001 -0.54000002 1
1.882 -0.34799999 -0.53899997 1
1.8890001 -0.34799999 -0.54000002 1
1.8940001 -0.347 -0.54100001 1
1.892 -0.345 -0.53899997 1
1.905 -0.34599999 -0.542 1
1.906 -0.345 -0.54100001 1
1.9 -0.34200001 -0.53799999 1
1.913 -0.34299999 -0.54100001 1
1.928 -0.34400001 -0.54400003 1
1.918 -0.34099999 -0.54000002 1
1.925 -0.34 -0.54000002 1
1.938 -0.34099999 -0.54299998 1
1.9349999 -0.33899999 -0.54100001 1
1.9400001 -0.338 -0.54100001 1
1.948 -0.338 -0.542 1
1.956 -0.33700001 -0.542 1
1.951 -0.33500001 -0.54000002 1
1.954 -0.33399999 -0.53899997 1
1.972 -0.33500001 -0.54299998 1
1.972 -0.333 -0.54100001 1
1.979 -0.333 -0.542 1
1.9960001 -0.33399999 -0.54500002 1
1.994 -0.33199999 -0.54299998 1
1.999 -0.331 -0.542 1
2.01 -0.331 -0.54400003 1
2.017 -0.33000001 -0.54400003 1
2.0190001 -0.32800001 -0.54299998 1
2.0280001 -0.32800001 -0.54400003 1
2.0380001 -0.32800001 -0.54500002 1
2.046 -0.32699999 -0.54500002 1
2.0469999 -0.32499999 -0.54299998 1
2.063 -0.32600001 -0.546 1
2.0669999 -0.32499999 -0.54500002 1
2.0769999 -0.324 -0.546 1
2.089 -0.324 -0.54699999 1
2.0910001 -0.32300001 -0.546 1
2.108 -0.32300001 -0.54799998 1
2.119 -0.32300001 -0.54900002 1
2.1240001 -0.322 -0.54900002 1
2.131 -0.32100001 -0.54799998 1
2.152 -0.322 -0.551 1
2.1489999 -0.31900001 -0.54900002 1
2.1570001 -0.31799999 -0.54900002 1
2.1619999 -0.317 -0.54699999 1
2.168 -0.31600001 -0.54699999 1
2.2609999 -0.32699999 -0.56800002 1
2.325 -0.33399999 -0.58200002 1
2.2880001 -0.32600001 -0.56999999 1
2.2969999 -0.32600001 -0.56999999 1
2.2390001 -0.315 -0.55299997 1
2.2460001 -0.31400001 -0.55199999 1
2.2650001 -0.31400001 -0.55500001 1
2.2690001 -0.31200001 -0.55299997 1
2.289 -0.31299999 -0.55500001 1
2.2939999 -0.31099999 -0.55400002 1
2.302 -0.31 -0.55299997 1
2.316 -0.31 -0.55400002 1
2.3310001 -0.30899999 -0.55500001 1
2.3469999 -0.30899999 -0.55599999 1
2.3610001 -0.308 -0.55599999 1
2.3610001 -0.30599999 -0.55299997 1
2.3829999 -0.30599999 -0.55599999 1
2.3989999 -0.30599999 -0.55599999 1
2.4100001 -0.30500001 -0.55599999 1
2.4319999 -0.30500001 -0.55800003 1
2.4449999 -0.30399999 -0.55800003 1
2.45 -0.303 -0.55599999 1
2.4749999 -0.303 -0.55900002 1
2.494 -0.303 -0.56 1
2.503 -0.301 -0.55900002 1
2.523 -0.301 -0.56 1
2.546 -0.301 -0.56099999 1
2.566 -0.301 -0.56300002 1
2.5769999 -0.30000001 -0.56099999 1
2.596 -0.29899999 -0.56199998 1
2.6099999 -0.29800001 -0.56199998 1
2.6270001 -0.29699999 -0.56199998 1
2.6470001 -0.29699999 -0.56199998 1
2.6689999 -0.29699999 -0.56300002 1
2.691 -0.296 -0.56400001 1
2.7119999 -0.296 -0.565 1
2.737 -0.296 -0.56599998 2
2.7550001 -0.29499999 -0.56599998 2
2.7820001 -0.29499999 -0.56800002 2
2.803 -0.294 -0.56800002 1
2.8380001 -0.29499999 -0.57099998 1
2.892 -0.29800001 -0.57800001 1
3.0050001 -0.30599999 -0.59600002 2
3.007 -0.303 -0.59200001 2
2.9319999 -0.29300001 -0.57300001 2
2.9679999 -0.29300001 -0.57499999 2
2.993 -0.29300001 -0.57599998 2
3.0220001 -0.292 -0.57700002 2
3.0510001 -0.292 -0.57800001 2
3.072 -0.29100001 -0.57700002 2
3.1070001 -0.29100001 -0.579 2
3.132 -0.28999999 -0.579 2
3.1670001 -0.28999999 -0.57999998 2
3.1960001 -0.28999999 -0.58099997 2
3.372 -0.30199999 -0.60699999 2
3.303 -0.29300001 -0.58999997 2
3.401 -0.29800001 -0.602 2
3.4400001 -0.29800001 -0.60299999 2
3.4909999 -0.29899999 -0.60600001 2
3.447 -0.29100001 -0.59299999 2
3.473 -0.28999999 -0.59200001 2
3.5 -0.289 -0.59100002 1
3.5420001 -0.289 -0.59200001 1
3.6029999 -0.28999999 -0.597 2
3.681 -0.29300001 -0.60299999 3
3.7160001 -0.292 -0.60299999 2
3.7539999 -0.29100001 -0.60299999 2
3.7479999 -0.287 -0.59600002 2
3.848 -0.29100001 -0.60500002 2
3.9560001 -0.29499999 -0.61500001 3
3.9909999 -0.294 -0.61400002 2
3.9879999 -0.289 -0.60699999 2
4.0190001 -0.28799999 -0.60500002 2
4.086 -0.28799999 -0.60799998 2
4.1430001 -0.28799999 -0.60900003 2
4.2189999 -0.28999999 -0.61299998 2
4.29 -0.28999999 -0.616 2
4.3260002 -0.289 -0.61299998 2
4.415 -0.28999999 -0.61799997 2
4.4879999 -0.29100001 -0.62099999 2
4.5669999 -0.292 -0.62300003 2
4.6399999 -0.292 -0.625 3
4.7129998 -0.292 -0.62699997 3
4.7950001 -0.292 -0.62900001 3
4.8850002 -0.29300001 -0.63200003 4
4.9790001 -0.294 -0.63499999 3
5.079 -0.296 -0.63800001 3
5.178 -0.29699999 -0.64200002 4
5.2940001 -0.29800001 -0.64600003 3
5.408 -0.30000001 -0.64999998 4
5.5050001 -0.30000001 -0.65200001 4
5.6209998 -0.301 -0.65499997 3
5.7309999 -0.30199999 -0.65799999 3
5.8720002 -0.30399999 -0.66299999 3
6.0079999 -0.30599999 -0.667 3
6.1589999 -0.308 -0.67199999 4
6.3039999 -0.30899999 -0.676 4
6.4520001 -0.31099999 -0.68000001 4
6.605 -0.31299999 -0.68400002 4
6.7579999 -0.31400001 -0.68699998 3
6.9460001 -0.317 -0.69300002 3
7.1630001 -0.31999999 -0.70099998 4
7.4029999 -0.32499999 -0.71100003 8
7.5809999 -0.32600001 -0.71399999 12
7.7119999 -0.32499999 -0.71100003 13
7.881 -0.32600001 -0.71200001 14
8.1490002 -0.33000001 -0.72000003 12
8.4680004 -0.336 -0.73199999 5
8.7539997 -0.34 -0.74000001 6
9.059 -0.34400001 -0.74900001 5
9.3669996 -0.34799999 -0.75599998 5
9.691 -0.35299999 -0.76300001 4
10.06 -0.35800001 -0.773 4
10.445 -0.36300001 -0.78200001 3
10.907 -0.37 -0.79500002 2
11.35 -0.37599999 -0.80500001 3
11.789 -0.382 -0.81199998 3
12.315 -0.389 -0.824 3
12.955 -0.39899999 -0.84200001 3
0 0 0 4
14.632 -0.42899999 -0.89399999 31
14.753 -0.421 -0.87199998 36
14.767 -0.41 -0.84299999 40
14.777 -0.40000001 -0.815 34
14.772 -0.389 -0.78600001 25
14.761 -0.37799999 -0.75599998 27
14.767 -0.36700001 -0.727 27
14.765 -0.35699999 -0.69700003 27
14.752 -0.34599999 -0.66600001 41
14.764 -0.33500001 -0.63700002 24
14.757 -0.32499999 -0.60799998 24
14.804 -0.31600001 -0.579 10
14.849 -0.30599999 -0.551 12
14.858 -0.296 -0.52100003 12
14.905 -0.287 -0.493 8
14.942 -0.278 -0.463 13
14.953 -0.26800001 -0.433 15
14.994 -0.259 -0.40400001 9
15.04 -0.25 -0.375 13
15.065 -0.23999999 -0.34400001 13
15.083 -0.23100001 -0.31400001 16
15.199 -0.223 -0.285 33
15.237 -0.214 -0.255 6
15.237 -0.205 -0.22400001 4
15.181 -0.19499999 -0.192 52
15.189 -0.185 -0.161 52
15.171 -0.176 -0.12899999 52
15.188 -0.167 -0.098999999 52
15.215 -0.15899999 -0.068000004 52
15.277 -0.15099999 -0.037 59
15.283 -0.142 -0.0049999999 4
15.375 -0.134 0.025 25
15.442 -0.126 0.057 54
0 0 0 66
17.194 -0.121 0.13500001 61
17.194 -0.112 0.17 52
17.188999 -0.103 0.206 55
17.18 -0.093999997 0.241 61
17.174999 -0.085000001 0.27700001 64
17.171 -0.075999998 0.31200001 62
17.181999 -0.068000004 0.34799999 41
17.18 -0.059 0.38299999 67
17.172001 -0.050999999 0.41800001 67
17.169001 -0.041999999 0.454 67
17.167 -0.034000002 0.48899999 67
17.159 -0.026000001 0.52499998 67
17.184999 -0.017999999 0.56099999 45
17.172001 -0.0099999998 0.59600002 44
17.163 -0.003 0.63099998 67
17.173 0.0040000002 0.667 42
17.184 0.011 0.70300001 67
17.17 0.018999999 0.73799998 67
17.16 0.026000001 0.773 67
17.177999 0.033 0.80900002 44
17.187 0.039999999 0.84500003 45
17.181 0.046999998 0.88 43
17.181 0.054000001 0.91600001 67
17.188 0.059999999 0.95099998 49
17.177 0.067000002 0.98699999 67
17.195 0.072999999 1.023 43
17.188 0.079000004 1.058 41
17.184 0.085000001 1.092 67
17.202999 0.092 1.1289999 44
17.202 0.097000003 1.165 44
17.200001 0.103 1.2 44
17.200001 0.109 1.235 67
17.202 0.114 1.271 67
17.202999 0.12 1.306 67
17.209 0.125 1.341 67
17.209 0.13 1.377 67
17.201 0.13500001 1.411 63
17.224001 0.14 1.448 37
17.222 0.145 1.483 57
17.223 0.15000001 1.5190001 57
17.226999 0.154 1.554 60
17.225 0.15899999 1.589 61
17.226 0.163 1.623 64
17.218 0.167 1.656 64
17.236 0.171 1.694 59
17.233 0.175 1.728 56
17.243 0.17900001 1.763 53
17.228001 0.183 1.796 54
17.250999 0.186 1.8329999 60
17.239 0.19 1.8660001 49
17.246 0.193 1.902 54
17.264999 0.197 1.938 55
17.267 0.2 1.973 52
17.264999 0.20299999 2.007 54
17.273001 0.206 2.0420001 51
17.261999 0.20900001 2.075 53
17.264 0.211 2.1099999 51
17.275999 0.214 2.145 57
17.285999 0.21600001 2.181 33
17.268 0.219 2.2130001 49
17.271999 0.221 2.2479999 50
17.285999 0.223 2.283 50
17.296 0.22499999 2.3180001 32
17.291 0.227 2.352 52
17.284 0.229 2.3840001 51
17.302 0.23100001 2.4200001 36
17.302 0.23199999 2.4530001 34
17.305 0.234 2.487 32
17.298 0.235 2.5190001 48
17.305 0.236 2.5539999 49
17.292999 0.237 2.585 48
17.315001 0.23800001 2.622 34
17.318001 0.23899999 2.655 34
17.312 0.23999999 2.687 47
17.309999 0.241 2.72 32
17.32 0.241 2.7550001 33
17.309 0.242 2.7850001 53
17.329 0.242 2.8210001 34
17.311001 0.242 2.8499999 47
17.309999 0.242 2.881 44
17.326 0.242 2.9159999 45
17.327999 0.242 2.948 30
17.323999 0.242 2.9790001 46
17.336 0.242 3.013 30
17.333 0.242 3.0450001 29
17.332001 0.241 3.076 28
17.337999 0.23999999 3.108 41
17.319 0.23899999 3.1359999 39
17.327999 0.23899999 3.1689999 37
17.333 0.23800001 3.201 42
17.327999 0.237 3.2309999 39
17.332001 0.236 3.263 41
17.330999 0.235 3.293 38
17.341 0.234 3.326 29
17.337999 0.23199999 3.3559999 27
17.341 0.23100001 3.3870001 41
17.34 0.229 3.4170001 38
17.339001 0.228 3.447 39
17.347 0.226 3.4779999 42
17.356001 0.22400001 3.51 30
17.351 0.222 3.539 30
17.34 0.22 3.566 45
17.34 0.21799999 3.596 42
17.343 0.215 3.6259999 37
17.332001 0.213 3.652 38
17.347 0.211 3.6849999 29
17.343 0.208 3.7130001 39
17.346001 0.206 3.7420001 28
17.344999 0.20299999 3.77 29
17.337999 0.2 3.7969999 40
17.348 0.198 3.8280001 42
17.346001 0.19499999 3.855 40
17.336 0.192 3.881 39
17.357 0.189 3.9130001 27
17.334 0.185 3.9360001 37
17.337999 0.183 3.964 38
17.33 0.17900001 3.99 39
17.337999 0.176 4.0180001 41
17.343 0.17299999 4.046 41
17.341 0.169 4.073 39
17.329 0.16500001 4.0970001 38
17.341999 0.161 4.1269999 28
17.327999 0.15800001 4.1490002 40
17.35 0.154 4.1810002 28
17.337999 0.15000001 4.204 28
17.329 0.146 4.2270002 30
17.325001 0.142 4.2519999 41
17.33 0.138 4.2789998 27
17.327999 0.133 4.3039999 38
17.323 0.12899999 4.3280001 42
17.329 0.125 4.3540001 44
17.327 0.12 4.3779998 46
17.322001 0.116 4.402 31
17.322001 0.111 4.4260001 46
17.323 0.107 4.4499998 44
17.316999 0.102 4.473 29
17.320999 0.097000003 4.4980001 32
17.309 0.093000002 4.5190001 46
17.313999 0.088 4.5430002 45
17.320999 0.082999997 4.5689998 48
17.313999 0.078000002 4.5900002 50
17.306999 0.072999999 4.6110001 46
17.320999 0.068000004 4.638 45
17.318001 0.063000001 4.6589999 47
17.316999 0.057999998 4.6810002 31
17.312 0.052000001 4.7020001 48
17.327999 0.046999998 4.7280002 31
17.315001 0.041999999 4.7459998 44
17.313999 0.035999998 4.7680001 45
17.309999 0.030999999 4.7870002 46
17.309999 0.025 4.809 48
17.313 0.02 4.8309999 45
17.311001 0.014 4.8499999 47
17.306999 0.0080000004 4.8699999 49
17.302999 0.003 4.8889999 42
17.323999 -0.0020000001 4.915 36
17.320999 -0.0080000004 4.934 35
17.306999 -0.013 4.9489999 55
17.306999 -0.018999999 4.9689999 51
17.319 -0.025 4.9910002 34
17.327 -0.030999999 5.013 33
17.318001 -0.037999999 5.0289998 34
17.315001 -0.043000001 5.046 51
17.309999 -0.048999999 5.0630002 56
17.32 -0.055 5.0840001 35
17.319 -0.061999999 5.1020002 34
17.304001 -0.068000004 5.1149998 46
17.305 -0.074000001 5.1329999 55
17.319 -0.079999998 5.1550002 33
17.315001 -0.086999997 5.1700001 50
17.320999 -0.093000002 5.1890001 51
17.311001 -0.1 5.2020001 50
17.315001 -0.106 5.2199998 49
17.306999 -0.112 5.2340002 47
17.315001 -0.119 5.2519999 45
17.319 -0.125 5.2690001 47
17.315001 -0.132 5.283 45
17.32 -0.139 5.3000002 47
17.309 -0.145 5.3119998 43
17.318001 -0.152 5.3299999 45
17.343 -0.15899999 5.3520002 32
17.323 -0.16500001 5.3600001 50
17.320999 -0.17200001 5.3740001 49
17.333 -0.17900001 5.3920002 43
17.327 -0.186 5.4029999 43
17.337 -0.193 5.4200001 44
17.346001 -0.2 5.4359999 30
17.346001 -0.206 5.4489999 31
17.332001 -0.213 5.4569998 44
17.346001 -0.22 5.474 44
17.337 -0.227 5.4840002 44
17.349001 -0.234 5.5 36
17.356001 -0.241 5.5139999 37
17.351 -0.248 5.5240002 37
17.357 -0.255 5.5370002 40
17.35 -0.26199999 5.546 43
17.362 -0.27000001 5.5609999 45
17.360001 -0.27599999 5.5710001 44
17.368999 -0.28400001 5.585 42
17.365 -0.29100001 5.5939999 43
17.386 -0.29800001 5.6100001 32
17.378 -0.30500001 5.618 46
17.393999 -0.31200001 5.632 46
17.385 -0.31900001 5.638 46
17.389 -0.32699999 5.6479998 43
17.406 -0.33399999 5.6630001 29
17.393999 -0.34099999 5.6669998 39
17.403999 -0.34799999 5.6789999 40
17.399 -0.35600001 5.6849999 40
17.395 -0.36300001 5.6919999 42
17.403 -0.37 5.7020001 39
17.412001 -0.37799999 5.7119999 36
17.427999 -0.38600001 5.7249999 37
17.417999 -0.39300001 5.7280002 34
17.443001 -0.40000001 5.743 25
17.426001 -0.40700001 5.743 34
17.434999 -0.414 5.7529998 32
17.443001 -0.42199999 5.7610002 32
17.452999 -0.42899999 5.77 30
17.450001 -0.43599999 5.7740002 31
17.469999 -0.44400001 5.7859998 30
17.481001 -0.45199999 5.7940001 30
17.496 -0.46000001 5.8039999 26
17.483999 -0.46599999 5.8039999 28
17.525 -0.47499999 5.822 26
