# .PCD v0.7 - Point Cloud Data file format
VERSION 0.7
FIELDS x y z intensity
SIZE 4 4 4 4
TYPE F F F F
COUNT 1 1 1 1
WIDTH 1787
HEIGHT 1
VIEWPOINT 0 0 0 1 0 0 0
POINTS 1787
DATA ascii
25.969999 -4.197 6.7779999 26
25.899 -4.2069998 6.776 32
25.836 -4.2179999 6.777 27
25.771999 -4.2280002 6.777 31
25.731001 -4.243 6.783 26
25.65 -4.2490001 6.7779999 29
25.615 -4.2639999 6.7839999 30
25.552999 -4.2740002 6.783 31
25.502001 -4.2849998 6.7849998 26
25.445 -4.2950001 6.7839999 24
25.403 -4.3080001 6.7870002 30
25.341999 -4.3169999 6.7849998 30
25.302 -4.329 6.7880001 30
25.264 -4.342 6.7909999 28
25.218 -4.3530002 6.7919998 33
25.166 -4.3629999 6.7909999 33
25.128 -4.3759999 6.7930002 28
25.113001 -4.3909998 6.8010001 28
25.049999 -4.3979998 6.796 30
25.01 -4.4089999 6.796 31
24.983999 -4.4219999 6.8000002 32
24.948999 -4.434 6.802 27
24.907 -4.4439998 6.8000002 30
24.865999 -4.454 6.7989998 30
24.839001 -4.467 6.802 25
24.815001 -4.48 6.8049998 30
24.771999 -4.4889998 6.802 29
24.731001 -4.4980001 6.7989998 29
24.705999 -4.5100002 6.8010001 29
24.688999 -4.5229998 6.8049998 26
24.659 -4.5339999 6.8039999 30
24.617001 -4.5419998 6.8000002 25
24.606001 -4.5549998 6.8039999 29
24.583 -4.5669999 6.8049998 30
24.554001 -4.5770001 6.8039999 30
24.544001 -4.5900002 6.8070002 30
24.524 -4.6020002 6.8080001 30
24.5 -4.612 6.8060002 30
24.483999 -4.6240001 6.8070002 31
24.472 -4.6370001 6.809 27
24.457001 -4.6479998 6.8099999 26
24.441 -4.6599998 6.809 31
24.414 -4.6680002 6.8060002 32
24.421 -4.6830001 6.8119998 28
24.399 -4.6929998 6.809 32
24.399 -4.7069998 6.8119998 33
24.384001 -4.717 6.8109999 32
24.377001 -4.7290001 6.8109999 32
24.357 -4.7379999 6.8080001 32
24.344 -4.7480001 6.8070002 31
24.349001 -4.7620001 6.8099999 32
24.343 -4.7729998 6.809 32
24.346001 -4.7859998 6.8109999 27
24.326 -4.7950001 6.8060002 32
24.316999 -4.8049998 6.8039999 31
24.330999 -4.8189998 6.8080001 31
24.334999 -4.8319998 6.809 33
24.327999 -4.8410001 6.8070002 31
24.323999 -4.8509998 6.8049998 31
24.327999 -4.8629999 6.8049998 33
24.333 -4.875 6.8049998 31
24.341999 -4.888 6.8060002 30
24.349001 -4.8990002 6.8060002 32
24.354 -4.9109998 6.8049998 28
24.355 -4.921 6.802 31
24.363001 -4.9320002 6.802 31
24.370001 -4.9429998 6.8010001 32
24.386999 -4.9559999 6.802 31
24.386 -4.9650002 6.7979999 31
24.393 -4.9759998 6.796 31
24.409 -4.9879999 6.796 31
24.441999 -5.0029998 6.8010001 29
0 0 0 1
21.009001 -4.3150001 5.836 4
20.993 -4.3179998 5.8270001 11
20.975 -4.3210001 5.8169999 15
20.959 -4.3249998 5.8070002 18
20.938999 -4.3270001 5.796 18
20.923 -4.3299999 5.7859998 17
20.916 -4.335 5.7779999 17
20.891001 -4.336 5.7649999 18
20.882 -4.3400002 5.756 19
20.868999 -4.3429999 5.7449999 20
20.853001 -4.3449998 5.7340002 21
20.834999 -4.3460002 5.7220001 22
20.839001 -4.3520002 5.7150002 23
20.830999 -4.355 5.7049999 20
20.809999 -4.355 5.691 24
20.82 -4.3610001 5.6859999 24
20.805 -4.362 5.6729999 26
20.792 -4.3639998 5.6609998 25
20.780001 -4.3649998 5.6490002 26
20.784 -4.3699999 5.6399999 26
20.781 -4.3730001 5.6300001 28
20.778 -4.3759999 5.6199999 23
20.757999 -4.375 5.605 28
20.761999 -4.3779998 5.5949998 28
20.761 -4.381 5.585 29
20.754999 -4.3829999 5.572 30
20.754 -4.3850002 5.5609999 30
20.742001 -4.3839998 5.5469999 25
20.74 -4.3860002 5.5349998 31
20.743 -4.388 5.5250001 30
20.729 -4.3870001 5.5089998 30
20.728001 -4.388 5.4970002 31
20.733 -4.3909998 5.4860001 31
20.742001 -4.3930001 5.4759998 31
20.731001 -4.3930001 5.46 26
20.721001 -4.3909998 5.4439998 31
20.724001 -4.3920002 5.4320002 32
20.726999 -4.3930001 5.4190001 31
20.718 -4.3909998 5.4029999 32
20.715 -4.3909998 5.3889999 32
20.712 -4.3899999 5.3740001 33
20.715 -4.3899999 5.3600001 32
20.723 -4.3920002 5.348 32
20.716 -4.3889999 5.3319998 33
20.723 -4.3899999 5.3179998 33
20.718 -4.3870001 5.302 32
20.73 -4.3889999 5.289 31
20.723 -4.3860002 5.2719998 30
20.714001 -4.382 5.2540002 29
20.719999 -4.381 5.2399998 29
20.714001 -4.3779998 5.2220001 29
20.733 -4.3800001 5.21 29
20.733999 -4.3779998 5.1929998 30
20.728001 -4.3740001 5.1750002 30
20.74 -4.3740001 5.1609998 30
20.743999 -4.3720002 5.1440001 29
20.737 -4.3660002 5.125 30
20.740999 -4.3639998 5.1090002 28
20.753 -4.3629999 5.0929999 28
20.754 -4.3590002 5.0749998 29
20.747 -4.3540001 5.0549998 27
20.768999 -4.3540001 5.0419998 26
20.756001 -4.3470001 5.02 26
20.773001 -4.3460002 5.0050001 27
20.773001 -4.3410001 4.9860001 25
20.785999 -4.3390002 4.9689999 25
20.798 -4.336 4.9530001 24
20.808001 -4.3330002 4.9359999 24
20.806 -4.3270001 4.915 24
20.819 -4.3239999 4.8979998 22
20.826 -4.3200002 4.8790002 22
20.844999 -4.3169999 4.8639998 21
20.841999 -4.3099999 4.842 20
20.862 -4.3080001 4.8249998 20
20.872999 -4.303 4.8060002 18
20.884001 -4.2989998 4.7870002 17
20.915001 -4.2969999 4.7729998 16
20.931 -4.2930002 4.7550001 14
20.945 -4.289 4.7360001 11
20.965 -4.2849998 4.7179999 6
21.004 -4.2849998 4.7049999 2
0 0 0 23
29.805 -6.0580001 6.6129999 26
29.945999 -6.0739999 6.6110001 23
30.056 -6.0840001 6.6020002 26
30.200001 -6.0999999 6.5999999 23
30.336 -6.1139998 6.5970001 22
30.466 -6.1269999 6.5910001 22
30.610001 -6.1420002 6.5869999 23
30.740999 -6.1539998 6.5809999 22
30.9 -6.1719999 6.5799999 21
31.056999 -6.1869998 6.5770001 24
31.195999 -6.1999998 6.5700002 23
31.337 -6.2129998 6.5640001 24
31.493 -6.2280002 6.5599999 23
31.648001 -6.2420001 6.5539999 22
31.794001 -6.2529998 6.546 23
31.931 -6.263 6.5359998 24
32.081001 -6.2740002 6.5279999 22
32.242001 -6.2880001 6.5229998 22
32.439999 -6.3080001 6.5229998 23
32.598999 -6.3200002 6.5149999 22
32.780998 -6.336 6.5100002 22
32.962002 -6.3520002 6.5050001 24
33.127998 -6.3639998 6.4970002 24
33.328999 -6.382 6.4949999 24
33.519001 -6.3969998 6.4899998 24
33.712002 -6.4130001 6.4840002 25
33.908001 -6.428 6.48 25
34.084999 -6.4400001 6.4699998 25
34.278999 -6.454 6.4629998 26
34.457001 -6.4640002 6.4520001 26
34.673 -6.4809999 6.448 26
34.849998 -6.4910002 6.4359999 26
35.056999 -6.5050001 6.4289999 27
35.286999 -6.5229998 6.4250002 27
35.518002 -6.54 6.4200001 27
35.721001 -6.552 6.4089999 28
35.928001 -6.5640001 6.4000001 28
36.136002 -6.5749998 6.388 28
36.362 -6.5890002 6.381 29
36.556 -6.5970001 6.3660002 27
36.709 -6.5949998 6.3439999 25
36.844002 -6.5910001 6.316 24
36.873001 -6.5669999 6.2709999 23
36.877998 -6.5380001 6.2220001 23
36.876999 -6.5079999 6.1719999 24
36.875 -6.4780002 6.1199999 22
36.859001 -6.4450002 6.0669999 24
36.852001 -6.4130001 6.0149999 22
36.848999 -6.381 5.9629998 20
36.845001 -6.349 5.9109998 16
36.838001 -6.316 5.8600001 9
36.860001 -6.2880001 5.8119998 4
0 0 0 0
0 0 0 0
0 0 0 0
0 0 0 0
0 0 0 0
0 0 0 0
0 0 0 10
28.791 -4.7010002 4.2140002 18
28.737 -4.665 4.164 23
28.711 -4.6339998 4.1199999 27
28.669001 -4.5999999 4.073 32
28.648001 -4.5679998 4.0289998 32
28.639 -4.5380001 3.9860001 36
28.627001 -4.5079999 3.944 37
28.596001 -4.4749999 3.898 39
28.591999 -4.4450002 3.8559999 36
28.582001 -4.414 3.813 43
28.566 -4.3829999 3.7690001 46
28.554001 -4.3509998 3.7260001 48
28.556999 -4.322 3.6860001 48
28.549 -4.29 3.6429999 47
28.542999 -4.2600002 3.6010001 55
28.546 -4.2290001 3.5599999 52
28.544001 -4.198 3.517 52
28.556999 -4.1700001 3.4779999 56
28.559 -4.1389999 3.4360001 50
28.568001 -4.1090002 3.395 51
28.591 -4.0799999 3.3559999 41
28.603001 -4.0489998 3.3139999 43
28.610001 -4.0180001 3.273 44
28.634001 -3.9879999 3.234 42
28.636 -3.957 3.1919999 40
28.688 -3.931 3.1559999 37
28.715 -3.901 3.1170001 34
28.75 -3.872 3.0780001 34
28.787001 -3.8429999 3.039 29
28.847 -3.8169999 3.003 23
28.931 -3.7939999 2.9690001 12
0 0 0 0
0 0 0 0
0 0 0 0
0 0 0 0
0 0 0 0
0 0 0 0
0 0 0 0
0 0 0 0
0 0 0 2
36.632 -4.3499999 3.217 6
36.620998 -4.302 3.161 15
36.602001 -4.2529998 3.1059999 34
36.578999 -4.2030001 3.05 51
36.549 -4.152 2.993 77
36.523998 -4.1020002 2.938 84
36.518002 -4.053 2.8840001 99
36.508999 -4.0040002 2.8299999 98
36.518002 -3.9560001 2.7750001 101
36.495998 -3.905 2.721 90
36.507 -3.8570001 2.6670001 87
36.488998 -3.8050001 2.612 92
36.486 -3.7550001 2.5580001 88
36.467999 -3.7030001 2.503 76
36.465 -3.651 2.4489999 80
36.48 -3.6029999 2.3959999 78
36.457001 -3.5510001 2.342 81
36.448002 -3.4990001 2.2880001 82
36.41 -3.444 2.233 72
36.451 -3.3959999 2.1819999 55
36.445 -3.3440001 2.1289999 64
36.453999 -3.293 2.076 90
36.465 -3.2409999 2.023 46
36.483002 -3.1900001 1.971 29
36.518002 -3.1400001 1.92 20
36.591999 -3.092 1.87 13
36.604 -3.04 1.818 10
36.599998 -2.9849999 1.765 11
36.617001 -2.9330001 1.7130001 12
36.594002 -2.8770001 1.659 11
36.604 -2.823 1.607 8
36.592999 -2.7679999 1.554 4
0 0 0 6
40.77 -2.961 1.615 6
41.261002 -2.9349999 1.577 7
41.745998 -2.9059999 1.536 5
42.092999 -2.865 1.489 22
43.997002 -2.928 1.495 23
44.216 -2.8740001 1.439 49
44.261002 -2.809 1.3789999 99
44.368 -2.747 1.3200001 46
44.959999 -2.714 1.274 5
45.280998 -2.664 1.222 6
46.950001 -2.6889999 1.201 22
45.255001 -2.5190001 1.094 35
45.243999 -2.4460001 1.03 40
45.251999 -2.375 0.96899998 52
45.263 -2.3039999 0.90600002 22
45.271 -2.2320001 0.84399998 13
45.268002 -2.1589999 0.78200001 3
0 0 0 54
0 0 0 53
52.48 -2.2490001 0.69199997 42
53.095001 -2.1900001 0.62900001 19
53.109001 -2.1040001 0.55800003 23
53.105 -2.017 0.486 19
0 0 0 79
60.487 -2.0999999 0.39300001 105
60.52 -2.0009999 0.31299999 127
60.518002 -1.901 0.23199999 109
60.500999 -1.8 0.152 97
60.724998 -1.704 0.071999997 54
0 0 0 0
0 0 0 134
68.556999 -1.58 -0.18700001 150
68.575996 -1.465 -0.27599999 69
68.544998 -1.348 -0.36399999 75
68.731003 -1.2359999 -0.454 75
69.157997 -1.128 -0.54400003 14
0 0 0 70
74.976997 -0.96700001 -0.78100002 33
0 0 0 0
0 0 0 0
0 0 0 0
0 0 0 0
0 0 0 43
0 0 0 26
0 0 0 0
0 0 0 153
94.803001 0.24699999 -2.0480001 23
95.028999 0.41299999 -2.1689999 44
95.132004 0.574 -2.283 78
94.765999 0.73799998 -2.388 43
0 0 0 152
0 0 0 153
72.776001 0.95099998 -2.095 243
72.745003 1.077 -2.178 50
75.535004 1.25 -2.349 16
0 0 0 0
0 0 0 0
0 0 0 20
0 0 0 0
0 0 0 0
0 0 0 0
0 0 0 0
0 0 0 0
0 0 0 1
0 0 0 2
28.290001 1.021 -1.232 1
27.461 1.041 -1.227 3
27.915001 1.109 -1.278 2
0 0 0 0
0 0 0 1
0 0 0 1
0 0 0 2
18.976999 0.92400002 -0.97000003 1
19.041 0.96200001 -0.99299997 5
18.716 0.97899997 -0.99599999 2
18.033001 0.97600001 -0.97799999 2
17.464001 0.97600001 -0.96399999 2
16.924999 0.97600001 -0.95200002 2
16.444 0.97799999 -0.94099998 2
16.037001 0.98199999 -0.93400002 2
15.512 0.97799999 -0.91900003 2
15.129 0.98199999 -0.91100001 2
14.785 0.98500001 -0.90499997 2
14.386 0.98500001 -0.89499998 2
14.042 0.986 -0.88599998 2
13.689 0.986 -0.87699997 2
13.304 0.98199999 -0.86500001 2
13 0.98299998 -0.85799998 3
12.727 0.98500001 -0.852 3
12.449 0.986 -0.84399998 3
12.254 0.99199998 -0.84200001 3
11.965 0.99000001 -0.833 3
11.682 0.98799998 -0.824 2
11.457 0.99000001 -0.81900001 2
11.247 0.99199998 -0.81400001 3
11.009 0.991 -0.80599999 3
10.857 0.99699998 -0.80500001 4
10.678 1 -0.801 4
10.472 0.99900001 -0.79400003 4
10.251 0.99699998 -0.787 3
9.9870005 0.98900002 -0.77499998 3
9.7729998 0.98500001 -0.76599997 3
9.6169996 0.98699999 -0.76200002 4
9.4219999 0.98299998 -0.75400001 3
9.243 0.98199999 -0.74800003 4
9.1040001 0.98299998 -0.74400002 4
8.9280005 0.98000002 -0.73699999 3
8.783 0.98000002 -0.73199999 3
8.6239996 0.977 -0.72500002 3
8.4860001 0.977 -0.72000003 4
8.3669996 0.97799999 -0.71700001 4
8.2559996 0.98000002 -0.713 5
8.1470003 0.98100001 -0.70999998 4
8.052 0.98400003 -0.708 4
7.9320002 0.98299998 -0.70300001 4
7.8189998 0.98299998 -0.699 4
7.7150002 0.98400003 -0.69499999 3
7.6409998 0.98799998 -0.69400001 3
7.552 0.99000001 -0.69199997 3
7.4549999 0.991 -0.68800002 3
7.3699999 0.99199998 -0.685 2
7.2789998 0.99199998 -0.68199998 2
7.2119999 0.99599999 -0.68000001 3
7.1020002 0.99299997 -0.67500001 3
7.0700002 1.001 -0.67699999 4
7.006 1.0039999 -0.67500001 4
6.9419999 1.007 -0.67299998 4
6.8940001 1.012 -0.67299998 4
6.8299999 1.0140001 -0.671 4
6.7729998 1.017 -0.67000002 4
6.7280002 1.022 -0.67000002 4
6.6360002 1.02 -0.66500002 4
6.5619998 1.02 -0.66100001 3
6.5100002 1.023 -0.66000003 3
6.4520001 1.024 -0.65799999 3
6.3870001 1.025 -0.65499997 3
6.3210001 1.025 -0.65200001 3
6.276 1.029 -0.65100002 3
6.217 1.029 -0.648 3
6.1849999 1.034 -0.648 4
6.1399999 1.0369999 -0.64700001 3
6.099 1.04 -0.64600003 3
6.0560002 1.043 -0.64399999 3
6.0240002 1.048 -0.64399999 3
5.9749999 1.049 -0.64200002 3
5.9510002 1.054 -0.64200002 3
5.8930001 1.054 -0.639 3
5.8600001 1.057 -0.639 3
5.8210001 1.0599999 -0.63700002 3
5.77 1.0599999 -0.634 5
5.7459998 1.0650001 -0.634 3
5.7160001 1.069 -0.634 3
5.6719999 1.0700001 -0.63099998 5
5.6560001 1.076 -0.63200003 3
5.6139998 1.077 -0.63 5
5.6040001 1.084 -0.63099998 3
5.5879998 1.09 -0.63200003 3
5.5609999 1.0930001 -0.63099998 3
5.526 1.095 -0.62900001 3
5.48 1.094 -0.62599999 3
5.4660001 1.1 -0.62699997 3
5.4310002 1.101 -0.625 3
5.4089999 1.105 -0.625 3
5.3720002 1.1059999 -0.62199998 3
5.3530002 1.11 -0.62199998 3
5.336 1.115 -0.62199998 3
5.3200002 1.12 -0.62199998 3
5.289 1.1210001 -0.62 3
5.27 1.125 -0.62 3
5.2379999 1.126 -0.61799997 2
5.2350001 1.133 -0.61900002 3
5.223 1.138 -0.61900002 3
5.1880002 1.138 -0.61699998 4
5.1690001 1.141 -0.616 3
5.1570001 1.146 -0.616 3
5.1339998 1.148 -0.61500001 3
5.118 1.152 -0.61400002 3
5.0949998 1.154 -0.61299998 5
5.085 1.159 -0.61299998 4
5.0770001 1.165 -0.61299998 5
5.059 1.168 -0.61199999 6
5.0469999 1.1720001 -0.61199999 5
5.0370002 1.176 -0.61199999 3
5.0100002 1.177 -0.61000001 2
4.9970002 1.181 -0.61000001 3
4.9920001 1.187 -0.61000001 4
4.9770002 1.1900001 -0.60900003 2
4.9699998 1.1950001 -0.60900003 3
4.9619999 1.199 -0.61000001 2
4.9450002 1.202 -0.60799998 2
4.9330001 1.205 -0.60799998 2
4.9099998 1.206 -0.60600001 4
4.9120002 1.2130001 -0.60699999 2
4.9000001 1.217 -0.60600001 2
4.8860002 1.219 -0.60500002 4
4.8850002 1.225 -0.60600001 4
4.862 1.226 -0.60399997 4
4.8660002 1.233 -0.60500002 2
4.8499999 1.235 -0.60299999 4
4.8439999 1.239 -0.60299999 4
4.8400002 1.244 -0.60299999 2
4.8239999 1.2460001 -0.602 4
4.8319998 1.2539999 -0.60299999 2
4.8210001 1.257 -0.602 3
4.8179998 1.261 -0.602 2
4.8060002 1.2640001 -0.60100001 2
4.8070002 1.27 -0.602 2
4.809 1.276 -0.602 2
4.803 1.28 -0.602 3
4.796 1.283 -0.60100001 2
4.8000002 1.29 -0.602 2
4.7859998 1.291 -0.60000002 3
4.7849998 1.296 -0.60000002 3
4.7820001 1.301 -0.60000002 3
4.776 1.304 -0.60000002 2
4.783 1.311 -0.60000002 3
4.7859998 1.317 -0.60100001 3
4.789 1.323 -0.60100001 3
4.7719998 1.323 -0.59899998 3
4.7810001 1.33 -0.60000002 3
4.7820001 1.335 -0.60000002 3
4.7779999 1.339 -0.60000002 3
4.7639999 1.34 -0.59799999 5
4.7750001 1.348 -0.59899998 3
4.7880001 1.3559999 -0.60000002 3
4.789 1.3609999 -0.60000002 3
4.7820001 1.363 -0.59899998 5
4.7810001 1.367 -0.59899998 4
4.7820001 1.372 -0.59799999 3
4.8070002 1.3839999 -0.60100001 3
4.7989998 1.386 -0.60000002 3
4.7919998 1.388 -0.59899998 4
4.802 1.395 -0.59899998 2
4.8109999 1.401 -0.60000002 5
4.8000002 1.403 -0.59799999 5
4.8150001 1.411 -0.59899998 3
4.823 1.4170001 -0.60000002 3
4.829 1.423 -0.60000002 2
4.836 1.429 -0.60000002 3
4.8270001 1.4299999 -0.59899998 4
4.842 1.438 -0.60000002 5
4.849 1.444 -0.60000002 3
4.862 1.451 -0.60100001 5
4.8699999 1.457 -0.60100001 3
4.8779998 1.4630001 -0.60100001 3
4.8870001 1.469 -0.602 3
4.8909998 1.474 -0.60100001 2
4.9000001 1.48 -0.60100001 2
4.8969998 1.482 -0.60000002 4
4.9159999 1.4910001 -0.60100001 3
4.9219999 1.4960001 -0.60100001 4
4.9299998 1.502 -0.60100001 4
4.9619999 1.515 -0.60399997 3
4.9619999 1.518 -0.60299999 5
4.9640002 1.521 -0.602 5
4.9879999 1.531 -0.60399997 3
4.993 1.536 -0.60399997 3
5.0019999 1.541 -0.60299999 3
5.0279999 1.552 -0.60500002 3
5.0430002 1.559 -0.60600001 3
5.046 1.563 -0.60500002 3
5.0710001 1.573 -0.60699999 3
5.0780001 1.5779999 -0.60699999 3
5.0929999 1.585 -0.60699999 3
5.1110001 1.5930001 -0.60699999 3
5.1360002 1.603 -0.60900003 3
5.145 1.608 -0.60900003 3
5.1599998 1.615 -0.60900003 3
5.164 1.618 -0.60799998 5
5.177 1.624 -0.60799998 3
5.1960001 1.632 -0.60900003 3
5.211 1.6390001 -0.60900003 3
5.2290001 1.647 -0.60900003 3
5.2529998 1.656 -0.61000001 3
5.277 1.665 -0.61199999 3
5.2800002 1.6670001 -0.61000001 3
5.3000002 1.675 -0.611 3
5.3210001 1.684 -0.61199999 3
5.3309999 1.688 -0.611 2
5.3629999 1.7 -0.61299998 2
5.3930001 1.711 -0.61400002 2
5.4050002 1.715 -0.61400002 3
5.4369998 1.727 -0.61500001 3
5.4770002 1.7410001 -0.61799997 2
5.4879999 1.745 -0.61699998 2
5.5250001 1.758 -0.61900002 2
5.5419998 1.7640001 -0.61900002 3
5.5689998 1.774 -0.62 3
5.5949998 1.7819999 -0.62099999 3
5.6090002 1.788 -0.62 3
5.6370001 1.7970001 -0.62099999 3
5.658 1.804 -0.62099999 3
5.697 1.817 -0.62300003 3
5.711 1.822 -0.62300003 5
5.7309999 1.829 -0.62199998 5
5.756 1.837 -0.62300003 5
5.79 1.848 -0.62400001 3
5.8169999 1.857 -0.625 3
5.8379998 1.863 -0.62400001 3
5.8660002 1.872 -0.625 3
5.8940001 1.881 -0.625 3
5.9310002 1.892 -0.62699997 3
5.9749999 1.906 -0.62900001 4
6.0100002 1.916 -0.63 4
6.046 1.928 -0.63099998 4
6.0819998 1.938 -0.63200003 4
6.1139998 1.948 -0.63200003 4
6.1420002 1.956 -0.63200003 4
6.1760001 1.966 -0.63300002 4
6.2210002 1.979 -0.63499999 4
6.2519999 1.988 -0.63499999 4
6.2849998 1.997 -0.63499999 4
6.3270001 2.0090001 -0.63700002 4
6.3639998 2.02 -0.63700002 4
6.4039998 2.0309999 -0.63800001 4
6.4429998 2.0420001 -0.639 5
6.5100002 2.0610001 -0.64200002 5
6.5599999 2.075 -0.64399999 5
6.6479998 2.1010001 -0.64899999 7
6.7129998 2.1199999 -0.653 9
6.7490001 2.1289999 -0.653 11
6.7909999 2.1400001 -0.653 11
6.836 2.152 -0.65399998 11
6.855 2.155 -0.65200001 11
6.8829999 2.161 -0.65200001 11
6.921 2.171 -0.65200001 12
6.947 2.1760001 -0.64999998 12
6.9819999 2.184 -0.64999998 12
7.0209999 2.1930001 -0.64999998 12
7.0879998 2.211 -0.653 12
7.1479998 2.2260001 -0.65399998 12
7.2210002 2.2460001 -0.65700001 13
7.2940001 2.2650001 -0.66000003 13
7.3530002 2.28 -0.66100001 13
7.4060001 2.2920001 -0.662 13
7.4590001 2.3050001 -0.66299999 12
7.5219998 2.3199999 -0.66399997 10
7.5840001 2.335 -0.66600001 9
7.6729999 2.358 -0.66900003 7
7.7420001 2.375 -0.671 7
7.8369999 2.4000001 -0.67500001 5
7.9159999 2.4189999 -0.67799997 6
7.9959998 2.4389999 -0.68000001 8
8.0799999 2.4590001 -0.68300003 5
8.1639996 2.4790001 -0.685 5
8.2580004 2.5020001 -0.68900001 5
8.3199997 2.5150001 -0.68900001 5
8.4160004 2.5380001 -0.69199997 6
8.5059996 2.5599999 -0.69499999 5
8.5970001 2.5810001 -0.69700003 6
8.7150002 2.6099999 -0.70200002 5
8.823 2.6359999 -0.70599997 5
8.9709997 2.674 -0.71200001 7
9.066 2.6949999 -0.71499997 9
9.1529999 2.7130001 -0.71600002 10
9.2340002 2.73 -0.71700001 9
9.3310003 2.7509999 -0.71899998 9
9.4309998 2.773 -0.72100002 9
9.5279999 2.7939999 -0.72399998 6
9.6059999 2.8080001 -0.72399998 6
9.7200003 2.8329999 -0.727 5
9.8199997 2.8540001 -0.72899997 3
9.9490004 2.8829999 -0.73299998 2
10.125 2.925 -0.74000001 2
10.273 2.9579999 -0.74400002 4
10.414 2.9890001 -0.74900001 5
10.58 3.027 -0.75400001 7
10.74 3.063 -0.75999999 8
10.844 3.082 -0.75999999 8
11.001 3.1159999 -0.76499999 6
11.204 3.1619999 -0.773 5
11.343 3.1900001 -0.77600002 4
11.512 3.2260001 -0.77999997 4
11.703 3.2679999 -0.787 4
11.888 3.3069999 -0.792 6
12.031 3.3340001 -0.79400003 10
12.131 3.349 -0.79400003 7
12.249 3.369 -0.79400003 4
12.412 3.4000001 -0.79799998 3
12.551 3.425 -0.79900002 3
12.674 3.444 -0.80000001 3
12.883 3.4860001 -0.80500001 3
13.087 3.527 -0.81 3
13.27 3.5610001 -0.81400001 3
13.436 3.5899999 -0.81599998 3
13.671 3.6370001 -0.82200003 3
13.793 3.6530001 -0.82099998 4
13.947 3.677 -0.82200003 4
14.086 3.697 -0.82200003 5
14.244 3.721 -0.82300001 5
14.42 3.7490001 -0.82499999 5
14.523 3.7579999 -0.82300001 6
14.623 3.766 -0.81999999 5
0 0 0 1
10.825 2.76 -0.59399998 1
10.86 2.7550001 -0.58999997 1
10.929 2.7590001 -0.58700001 1
10.941 2.747 -0.58200002 1
10.945 2.734 -0.57499999 1
10.97 2.7249999 -0.57099998 1
10.994 2.717 -0.565 1
11.043 2.714 -0.56199998 1
11.094 2.711 -0.55800003 1
11.166 2.7130001 -0.55500001 1
11.295 2.7290001 -0.55500001 2
11.353 2.727 -0.55199999 2
11.308 2.701 -0.54299998 1
11.282 2.678 -0.53500003 1
11.352 2.678 -0.53200001 1
11.427 2.6800001 -0.52899998 1
11.426 2.6630001 -0.523 1
0 0 0 3
13.353 3.073 -0.597 2
13.223 3.0239999 -0.58399999 1
13.249 3.01 -0.57700002 1
13.264 2.994 -0.57099998 1
13.313 2.9849999 -0.56599998 2
13.347 2.9719999 -0.56 2
13.421 2.9679999 -0.55599999 2
13.521 2.97 -0.55299997 3
13.476 2.9389999 -0.54400003 4
13.446 2.9119999 -0.53600001 27
13.488 2.9000001 -0.52999997 59
13.568 2.8959999 -0.52600002 42
13.669 2.8959999 -0.523 64
13.799 2.901 -0.52100003 70
13.86 2.892 -0.51599997 2
0 0 0 2
0 0 0 1
33.182999 6.7620001 -1.1849999 2
33.119999 6.6950002 -1.166 2
33.094002 6.6350002 -1.149 3
33.154999 6.592 -1.135 3
33.018002 6.5089998 -1.113 3
33.032001 6.4569998 -1.098 3
33.068001 6.408 -1.0829999 3
33.083 6.355 -1.067 3
33.044998 6.2909999 -1.05 3
33.074001 6.2410002 -1.036 5
33.063 6.1820002 -1.02 5
33.087002 6.1290002 -1.005 5
33.097 6.073 -0.99000001 6
33.078999 6.0120001 -0.97399998 6
33.073002 5.9520001 -0.95899999 6
33.077 5.895 -0.94400001 6
33.068001 5.835 -0.92900002 6
33.061001 5.7750001 -0.91399997 6
33.076 5.7189999 -0.89999998 7
33.075001 5.6589999 -0.88599998 8
33.087002 5.6020002 -0.87199998 7
33.075001 5.5419998 -0.85699999 9
33.165001 5.4949999 -0.84500003 9
33.256001 5.4489999 -0.83399999 6
33.153999 5.3720002 -0.81699997 10
33.168999 5.3130002 -0.80400002 9
33.098999 5.2420001 -0.79000002 72
33.108002 5.1820002 -0.77700001 15
33.102001 5.1199999 -0.76300001 32
33.166 5.0679998 -0.75199997 9
33.165001 5.006 -0.73900002 9
33.161999 4.9450002 -0.727 9
33.113998 4.875 -0.713 9
33.139 4.816 -0.70200002 8
33.168999 4.7579999 -0.69 69
33.244999 4.7049999 -0.68000001 150
33.268002 4.6459999 -0.66900003 111
33.34 4.5900002 -0.65799999 81
33.417999 4.5370002 -0.64899999 64
33.466 4.4790001 -0.63800001 14
33.457001 4.4130001 -0.62699997 2
0 0 0 10
41.375 5.2989998 -0.74800003 22
41.353001 5.217 -0.73500001 42
41.339001 5.1339998 -0.722 44
41.327999 5.0510001 -0.70899999 42
41.313999 4.9679999 -0.69700003 40
41.325001 4.888 -0.685 28
41.311001 4.8039999 -0.67199999 26
41.273998 4.717 -0.66000003 25
41.287998 4.6360002 -0.64899999 24
41.266998 4.552 -0.63800001 21
41.251999 4.467 -0.62599999 23
41.259998 4.3860002 -0.616 20
41.264 4.303 -0.60600001 19
41.235001 4.217 -0.59500003 17
41.228001 4.1329999 -0.58499998 17
41.215 4.0489998 -0.57499999 15
41.210999 3.964 -0.565 13
41.198002 3.8800001 -0.55599999 12
41.214001 3.7980001 -0.54799998 11
41.202999 3.714 -0.53899997 9
41.179001 3.6270001 -0.52999997 7
41.215 3.546 -0.523 21
41.221001 3.4619999 -0.51499999 52
41.212002 3.3759999 -0.50700003 49
41.222 3.2920001 -0.5 37
41.222 3.2060001 -0.49200001 26
41.233002 3.122 -0.486 16
41.231998 3.036 -0.479 11
41.229 2.9519999 -0.47299999 8
41.209 2.8629999 -0.46599999 4
41.173 2.7739999 -0.46000001 3
0 0 0 150
87.399002 5.5250001 -0.95499998 151
87.335999 5.3390002 -0.94400001 160
87.374001 5.158 -0.935 157
87.377998 4.9770002 -0.926 152
87.402 4.7969999 -0.917 152
87.416 4.6110001 -0.90899998 150
87.478996 4.4330001 -0.90200001 44
0 0 0 0
0 0 0 20
94.815002 4.2090001 -0.95700002 23
94.795998 4.0079999 -0.95099998 30
94.795998 3.8069999 -0.94599998 29
94.830002 3.6070001 -0.94199997 29
91.634003 3.2880001 -0.90700001 37
94.954002 3.2060001 -0.93699998 61
0 0 0 28
0 0 0 13
94.698997 2.5929999 -0.92900002 20
94.790001 2.3959999 -0.92900002 22
94.723 2.1919999 -0.92900002 28
94.793999 1.9910001 -0.93000001 46
94.811996 1.789 -0.93199998 52
94.799004 1.584 -0.93400002 49
94.716003 1.383 -0.93599999 21
94.943001 1.183 -0.94199997 28
95.213997 0.98299998 -0.949 30
95.139999 0.77600002 -0.95300001 27
94.976997 0.57099998 -0.95700002 25
94.797997 0.36700001 -0.96100003 22
94.859001 0.17 -0.96799999 15
0 0 0 0
0 0 0 108
135.79201 -0.625 -1.421 29
0 0 0 0
0 0 0 0
0 0 0 13
73.966003 -0.97600001 -0.80699998 94
71.723 -1.1 -0.79100001 83
68.811996 -1.2029999 -0.76899999 23
68.540001 -1.345 -0.77499998 79
68.559998 -1.492 -0.78600001 129
68.533997 -1.638 -0.796 138
68.573997 -1.784 -0.80800003 15
0 0 0 42
60.48 -1.832 -0.73299998 120
0 0 0 21
46.354 -1.602 -0.579 54
46.263 -1.696 -0.58700001 44
45.715 -1.773 -0.58899999 24
45.497002 -1.8609999 -0.59600002 43
45.514 -1.956 -0.60600001 43
45.500999 -2.0539999 -0.616 43
45.236 -2.138 -0.62300003 31
45.351002 -2.24 -0.63499999 35
44.369999 -2.286 -0.63200003 34
43.917999 -2.3559999 -0.63700002 38
43.959999 -2.4489999 -0.64899999 38
43.868999 -2.5369999 -0.65899998 40
44.182999 -2.6500001 -0.676 37
44.291 -2.75 -0.69 90
44.307999 -2.8440001 -0.70200002 114
44.306999 -2.937 -0.71499997 105
0 0 0 5
40.810001 -2.8770001 -0.68300003 5
0 0 0 1
23.834999 -1.78 -0.414 2
0 0 0 0
0 0 0 0
0 0 0 1
22.093 -1.834 -0.41299999 1
0 0 0 0
0 0 0 2
21.309999 -1.902 -0.421 6
21.059 -1.923 -0.42399999 3
0 0 0 0
0 0 0 0
0 0 0 0
0 0 0 1
20.381001 -2.0710001 -0.44999999 1
20.374001 -2.112 -0.458 1
0 0 0 25
0 0 0 1
20.204 -2.217 -0.479 2
20.165001 -2.2539999 -0.48699999 3
20.160999 -2.2939999 -0.495 3
20.146 -2.3329999 -0.50400001 4
20.128 -2.372 -0.51200002 5
20.128 -2.4130001 -0.52100003 6
20.104 -2.451 -0.52999997 5
20.108 -2.4920001 -0.53899997 4
20.1 -2.5309999 -0.54900002 6
20.104 -2.572 -0.55800003 14
20.045 -2.6040001 -0.56599998 115
20.077999 -2.648 -0.57700002 199
20.070999 -2.687 -0.58600003 199
20.115999 -2.7320001 -0.59799999 199
20.118 -2.7720001 -0.60799998 199
20.118 -2.812 -0.61799997 199
20.106001 -2.8499999 -0.62800002 185
20.122999 -2.891 -0.639 175
20.138 -2.9319999 -0.64999998 169
20.104 -2.9660001 -0.65899998 161
20.096001 -3.0039999 -0.67000002 162
20.105 -3.0439999 -0.68099999 157
20.18 -3.095 -0.69400001 18
20.181 -3.1329999 -0.70499998 2
20.174999 -3.1700001 -0.71600002 2
20.142 -3.2030001 -0.72600001 2
20.174 -3.247 -0.73799998 2
20.184999 -3.2869999 -0.75 2
20.256001 -3.3369999 -0.764 2
20.247 -3.3740001 -0.77499998 2
20.222 -3.408 -0.78600001 2
20.268 -3.4530001 -0.80000001 2
20.363001 -3.5079999 -0.815 2
20.466999 -3.5639999 -0.83099997 2
20.691999 -3.641 -0.85299999 2
20.476999 -3.641 -0.85600001 1
0 0 0 53
22.900999 -4.1560001 -0.986 51
22.915001 -4.1999998 -1 39
22.914 -4.2410002 -1.0140001 46
22.914 -4.2820001 -1.028 64
22.93 -4.3270001 -1.043 36
0 0 0 7
36.759998 -7.0669999 -1.7180001 5
36.594002 -7.099 -1.734 4
36.547001 -7.1550002 -1.755 5
36.620998 -7.2340002 -1.7819999 2
0 0 0 15
20.646 -4.1500001 -1.031 21
20.589001 -4.1739998 -1.041 24
20.544001 -4.1999998 -1.052 27
20.493 -4.2249999 -1.063 28
20.466999 -4.2540002 -1.075 33
20.416 -4.2779999 -1.086 33
20.396999 -4.3080001 -1.098 27
20.365 -4.336 -1.11 37
20.351999 -4.3670001 -1.123 38
20.32 -4.3940001 -1.135 30
20.26 -4.415 -1.145 26
19.215 -4.2189999 -1.099 20
0 0 0 0
0 0 0 7
18.489 -4.1500001 -1.096 7
18.341 -4.1459999 -1.1 7
18.138 -4.1290002 -1.1 5
17.921 -4.1079998 -1.099 4
0 0 0 0
0 0 0 0
0 0 0 1
15.076 -3.5510001 -0.96600002 2
15.628 -3.7049999 -1.013 2
15.347 -3.6619999 -1.006 3
15.048 -3.6140001 -0.99699998 2
14.81 -3.579 -0.991 2
14.553 -3.539 -0.98400003 2
14.285 -3.4949999 -0.97600001 2
14.065 -3.4619999 -0.97100002 2
13.822 -3.4219999 -0.96399999 3
13.54 -3.372 -0.954 3
13.306 -3.3329999 -0.94700003 3
13.045 -3.2869999 -0.93800002 3
12.847 -3.2550001 -0.93300003 3
12.6 -3.211 -0.92400002 3
12.423 -3.1830001 -0.92000002 3
12.207 -3.145 -0.912 3
12.024 -3.115 -0.90700001 3
11.816 -3.0769999 -0.89999998 3
11.596 -3.0350001 -0.89200002 2
11.394 -2.9979999 -0.884 2
11.19 -2.96 -0.87699997 2
0 0 0 2
9.8509998 -2.631 -0.78600001 2
10.253 -2.7520001 -0.82499999 2
9.8830004 -2.6659999 -0.80299997 2
9.7069998 -2.631 -0.796 4
9.6759996 -2.635 -0.80000001 4
9.6400003 -2.6370001 -0.80400002 4
9.6020002 -2.6389999 -0.80800003 5
9.5600004 -2.6400001 -0.81099999 7
9.5139999 -2.6389999 -0.81400001 10
9.4519997 -2.6329999 -0.815 10
9.3900003 -2.6270001 -0.81699997 9
9.2799997 -2.608 -0.81400001 10
9.1800003 -2.5910001 -0.81199998 13
9.1079998 -2.5810001 -0.81199998 9
9.0369997 -2.5710001 -0.81199998 8
8.967 -2.562 -0.81199998 6
8.8979998 -2.553 -0.81300002 5
8.8459997 -2.5480001 -0.81400001 4
8.7580004 -2.5320001 -0.81199998 3
8.698 -2.5239999 -0.81300002 2
8.6149998 -2.51 -0.81099999 1
8.5190001 -2.4909999 -0.80800003 1
0 0 0 1
7.7649999 -2.2869999 -0.74800003 1
7.7059999 -2.2780001 -0.74800003 1
7.6859999 -2.28 -0.75099999 1
7.8280001 -2.3299999 -0.77100003 1
7.6869998 -2.296 -0.76200002 2
7.5929999 -2.2750001 -0.75800002 2
7.4959998 -2.2539999 -0.75400001 3
7.4200001 -2.2379999 -0.75099999 3
7.3390002 -2.221 -0.74800003 3
7.263 -2.2049999 -0.745 3
7.1729999 -2.184 -0.741 3
7.1220002 -2.175 -0.741 3
7.0359998 -2.155 -0.73699999 4
6.9590001 -2.138 -0.73299998 4
6.8969998 -2.125 -0.73199999 4
6.8130002 -2.105 -0.72799999 4
6.7550001 -2.0929999 -0.72600001 4
6.7020001 -2.082 -0.72500002 4
6.6350002 -2.0669999 -0.722 4
6.5739999 -2.0539999 -0.72000003 4
6.513 -2.04 -0.71700001 4
6.467 -2.0309999 -0.71700001 4
6.4070001 -2.017 -0.71499997 4
6.3709998 -2.01 -0.71499997 4
6.2979999 -1.992 -0.70999998 4
6.2340002 -1.977 -0.70700002 3
6.191 -1.967 -0.70700002 4
6.1279998 -1.952 -0.70300001 4
6.086 -1.943 -0.70300001 4
6.0300002 -1.929 -0.69999999 4
6.0089998 -1.926 -0.70200002 4
5.9429998 -1.909 -0.69800001 4
5.8889999 -1.896 -0.69499999 4
5.855 -1.8890001 -0.69499999 4
5.8070002 -1.877 -0.69300002 4
5.7480001 -1.8609999 -0.68900001 4
5.7319999 -1.859 -0.69099998 5
5.6849999 -1.847 -0.68900001 5
5.6339998 -1.834 -0.68599999 5
5.5999999 -1.826 -0.685 4
5.5570002 -1.8150001 -0.68300003 4
5.533 -1.8099999 -0.68400002 4
5.4850001 -1.7970001 -0.68099999 4
5.461 -1.7920001 -0.68099999 4
5.415 -1.78 -0.67900002 4
5.3699999 -1.767 -0.67699999 4
5.3260002 -1.755 -0.67400002 4
5.2989998 -1.749 -0.67400002 4
5.2680001 -1.7410001 -0.67299998 3
5.2449999 -1.735 -0.67299998 3
5.211 -1.726 -0.67199999 3
5.1830001 -1.719 -0.671 3
5.1479998 -1.709 -0.66900003 3
5.105 -1.697 -0.667 3
5.079 -1.6900001 -0.66600001 3
5.0489998 -1.682 -0.66500002 3
5.02 -1.674 -0.66399997 3
4.993 -1.666 -0.66299999 3
4.9749999 -1.6619999 -0.66299999 3
4.9419999 -1.652 -0.66100001 3
4.9169998 -1.645 -0.66000003 3
4.9070001 -1.643 -0.662 3
4.875 -1.633 -0.66000003 3
4.8460002 -1.625 -0.65799999 3
4.8249998 -1.619 -0.65799999 3
4.796 -1.61 -0.65600002 3
4.7800002 -1.6059999 -0.65700001 3
4.7490001 -1.596 -0.65499997 3
4.7220001 -1.5880001 -0.653 3
4.6919999 -1.5779999 -0.65100002 2
4.6750002 -1.573 -0.65100002 3
4.638 -1.561 -0.648 5
4.6399999 -1.562 -0.65100002 3
4.6090002 -1.552 -0.64899999 3
4.5869999 -1.545 -0.648 3
4.5669999 -1.539 -0.64700001 3
4.5479999 -1.5319999 -0.64600003 3
4.5310001 -1.527 -0.64600003 3
4.5100002 -1.52 -0.64499998 3
4.4970002 -1.516 -0.64499998 3
4.4770002 -1.5089999 -0.64399999 3
4.4710002 -1.507 -0.64499998 3
4.4460001 -1.498 -0.64300001 3
4.434 -1.494 -0.64300001 3
4.4260001 -1.4910001 -0.64399999 3
4.401 -1.482 -0.64200002 3
4.3909998 -1.478 -0.64200002 2
4.3629999 -1.4680001 -0.63999999 4
4.355 -1.465 -0.63999999 4
4.3390002 -1.459 -0.63999999 4
4.3319998 -1.456 -0.63999999 2
4.3060002 -1.447 -0.63800001 4
4.29 -1.441 -0.63700002 4
4.276 -1.4349999 -0.63599998 4
4.2649999 -1.431 -0.63599998 4
4.2529998 -1.426 -0.63599998 2
4.2459998 -1.4220001 -0.63599998 2
4.2280002 -1.415 -0.63499999 4
4.2290001 -1.414 -0.63599998 2
4.2160001 -1.409 -0.63599998 3
4.191 -1.399 -0.63300002 4
4.178 -1.3940001 -0.63200003 4
4.1690001 -1.3890001 -0.63200003 2
4.178 -1.391 -0.63499999 2
4.1739998 -1.388 -0.63599998 2
4.1389999 -1.375 -0.63099998 2
4.1420002 -1.375 -0.63300002 4
4.1230001 -1.367 -0.63099998 2
4.1100001 -1.3609999 -0.63 2
4.164 -1.377 -0.63999999 4
4.073 -1.345 -0.62699997 2
4.053 -1.337 -0.62400001 2
4.0840001 -1.345 -0.63 2
4.0819998 -1.3430001 -0.63099998 2
4.0700002 -1.337 -0.63 3
4.052 -1.329 -0.62800002 2
4.0539999 -1.3279999 -0.62900001 4
4.0949998 -1.339 -0.63599998 2
4.0320001 -1.316 -0.62699997 2
4.0310001 -1.314 -0.62800002 3
4.007 -1.304 -0.625 3
4.0170002 -1.3049999 -0.62699997 2
4.027 -1.306 -0.62900001 3
4.02 -1.301 -0.62900001 3
3.9879999 -1.288 -0.62400001 2
4 -1.29 -0.62699997 2
3.9790001 -1.28 -0.62400001 2
4 -1.285 -0.62800002 2
4.0019999 -1.283 -0.62900001 3
4 -1.279 -0.62900001 3
4.0029998 -1.278 -0.63 2
4.0380001 -1.286 -0.63599998 2
3.9630001 -1.2589999 -0.62400001 3
3.9530001 -1.253 -0.62300003 2
3.9549999 -1.251 -0.62400001 2
3.9760001 -1.255 -0.62699997 2
3.9319999 -1.238 -0.62099999 2
3.9330001 -1.235 -0.62099999 2
3.927 -1.23 -0.62 2
3.9560001 -1.2359999 -0.625 2
3.984 -1.242 -0.63 3
3.9489999 -1.227 -0.62400001 3
3.9170001 -1.214 -0.61900002 3
3.904 -1.207 -0.61699998 3
3.9200001 -1.2079999 -0.62 2
3.944 -1.2130001 -0.62400001 2
3.937 -1.207 -0.62199998 2
3.938 -1.204 -0.62300003 2
3.941 -1.201 -0.62300003 3
3.9100001 -1.188 -0.61799997 2
3.9189999 -1.187 -0.61900002 2
3.901 -1.178 -0.616 2
3.951 -1.189 -0.62400001 2
3.9519999 -1.186 -0.62400001 2
3.931 -1.176 -0.62 2
3.97 -1.183 -0.62599999 2
3.937 -1.17 -0.62099999 2
3.9590001 -1.1720001 -0.62400001 3
3.9419999 -1.163 -0.62099999 2
3.9389999 -1.159 -0.62 2
3.951 -1.158 -0.62199998 3
3.9690001 -1.159 -0.62400001 3
3.9960001 -1.163 -0.62800002 4
3.9549999 -1.147 -0.62099999 3
3.9979999 -1.155 -0.62699997 3
3.961 -1.14 -0.62099999 2
3.9560001 -1.1339999 -0.61900002 2
4.006 -1.1440001 -0.62599999 2
3.99 -1.135 -0.62300003 3
3.9979999 -1.133 -0.62400001 2
4.0029998 -1.1289999 -0.62400001 2
3.9909999 -1.1210001 -0.62099999 3
4.0139999 -1.123 -0.62400001 2
3.9979999 -1.114 -0.62 2
3.994 -1.108 -0.61900002 2
4.0149999 -1.109 -0.62099999 3
4 -1.1 -0.61799997 3
4.026 -1.103 -0.62099999 2
4.0229998 -1.097 -0.62 2
4.1240001 -1.119 -0.634 3
4.0250001 -1.0880001 -0.61799997 2
4.0999999 -1.103 -0.62800002 3
4.0570002 -1.086 -0.62099999 2
4.0580001 -1.081 -0.62 2
4.0830002 -1.082 -0.62199998 3
4.0929999 -1.08 -0.62300003 2
4.1300001 -1.084 -0.62699997 4
4.1350002 -1.08 -0.62599999 2
4.1609998 -1.082 -0.62900001 3
4.1240001 -1.067 -0.62199998 2
4.2280002 -1.0880001 -0.63599998 3
4.1609998 -1.0650001 -0.625 3
4.1609998 -1.059 -0.62300003 2
4.177 -1.058 -0.62400001 2
4.2220001 -1.064 -0.62900001 3
4.2350001 -1.061 -0.63 2
4.2470002 -1.058 -0.63 2
4.2839999 -1.062 -0.634 2
4.336 -1.068 -0.63999999 4
4.2940001 -1.052 -0.63200003 2
4.3179998 -1.052 -0.63300002 2
4.3260002 -1.048 -0.63300002 2
4.335 -1.044 -0.63200003 4
4.3610001 -1.044 -0.634 2
4.3670001 -1.039 -0.63300002 4
4.382 -1.036 -0.63300002 4
4.401 -1.034 -0.634 2
4.415 -1.031 -0.634 3
4.4190001 -1.026 -0.63200003 3
4.448 -1.026 -0.634 3
4.4580002 -1.022 -0.63300002 4
4.4790001 -1.02 -0.634 4
4.5040002 -1.0190001 -0.63499999 2
4.5219998 -1.016 -0.63599998 4
4.5440001 -1.0140001 -0.63599998 2
4.566 -1.012 -0.63700002 3
4.5830002 -1.0089999 -0.63700002 2
4.618 -1.0089999 -0.639 3
4.632 -1.005 -0.63800001 3
4.6550002 -1.003 -0.639 3
4.6880002 -1.003 -0.64099997 3
4.7010002 -0.99900001 -0.63999999 3
4.7350001 -0.99800003 -0.64200002 3
4.777 -1 -0.64399999 3
4.7930002 -0.99599999 -0.64399999 3
4.8400002 -0.99800003 -0.64700001 3
4.8629999 -0.995 -0.64700001 3
4.8829999 -0.991 -0.64600003 4
4.9109998 -0.98900002 -0.64700001 4
4.954 -0.99000001 -0.64999998 2
4.9829998 -0.98799998 -0.64999998 2
5.0120001 -0.986 -0.65100002 4
5.0570002 -0.986 -0.653 2
5.0760002 -0.98199999 -0.65200001 4
5.118 -0.98199999 -0.65399998 3
5.1490002 -0.97899997 -0.65399998 2
5.1880002 -0.97799999 -0.65600002 2
5.2290001 -0.977 -0.65700001 2
5.2490001 -0.97299999 -0.65600002 3
5.3189998 -0.977 -0.66100001 2
5.3559999 -0.97500002 -0.66100001 2
5.3779998 -0.97000003 -0.66000003 4
5.4460001 -0.97299999 -0.66399997 2
5.4959998 -0.97299999 -0.66600001 3
5.5510001 -0.97399998 -0.66799998 2
5.5830002 -0.97000003 -0.66799998 3
5.632 -0.96899998 -0.66900003 2
5.6799998 -0.96799999 -0.671 2
5.7389998 -0.96799999 -0.67299998 2
5.7880001 -0.96700001 -0.67400002 2
5.8499999 -0.96700001 -0.676 2
5.901 -0.96600002 -0.67699999 2
5.9619999 -0.96600002 -0.67900002 3
6.0139999 -0.96399999 -0.68000001 3
6.085 -0.96499997 -0.68300003 3
6.131 -0.96200001 -0.68300003 2
6.2259998 -0.96600002 -0.68800002 2
6.2709999 -0.963 -0.68800002 2
6.3410001 -0.963 -0.69 3
6.427 -0.96499997 -0.69400001 2
6.4809999 -0.96200001 -0.69300002 3
6.585 -0.96600002 -0.699 3
6.6459999 -0.96399999 -0.699 3
6.743 -0.96600002 -0.70300001 3
6.8470001 -0.96899998 -0.70700002 3
6.9229999 -0.96799999 -0.70899999 3
7.0320001 -0.972 -0.713 3
7.105 -0.96899998 -0.71399999 3
7.2119999 -0.972 -0.71799999 3
7.3130002 -0.97299999 -0.72100002 3
7.4320002 -0.97600001 -0.72500002 3
7.527 -0.97500002 -0.727 3
7.6630001 -0.98000002 -0.73299998 4
7.7950001 -0.98299998 -0.73799998 4
7.9060001 -0.98299998 -0.74000001 4
8.052 -0.98699999 -0.745 4
8.1809998 -0.98900002 -0.74900001 4
8.3310003 -0.99299997 -0.75400001 4
8.4680004 -0.995 -0.75800002 5
8.6379995 -1 -0.764 4
8.8009996 -1.003 -0.76899999 3
8.9849997 -1.0089999 -0.77600002 4
9.1619997 -1.013 -0.78100002 4
9.3800001 -1.021 -0.79000002 3
9.5760002 -1.025 -0.796 3
9.8149996 -1.034 -0.80500001 2
10.079 -1.045 -0.81599998 3
10.317 -1.052 -0.824 3
10.554 -1.058 -0.83099997 2
10.794 -1.063 -0.838 2
11.094 -1.074 -0.84899998 2
11.431 -1.087 -0.86199999 3
11.719 -1.094 -0.87 4
12.015 -1.101 -0.87800002 6
12.257 -1.102 -0.88200003 5
12.5 -1.102 -0.88499999 4
12.793 -1.1059999 -0.88999999 3
13.098 -1.11 -0.89600003 3
13.58 -1.127 -0.91299999 3
14.113 -1.147 -0.93199998 3
14.541 -1.1569999 -0.94300002 3
14.99 -1.168 -0.954 3
15.369 -1.171 -0.95999998 2
16.000999 -1.192 -0.98000002 2
16.558001 -1.205 -0.99400002 2
17.212999 -1.224 -1.012 2
0 0 0 0
0 0 0 2
18.458 -1.2180001 -1.017 2
0 0 0 8
20.723 -1.2970001 -1.089 1
0 0 0 0
0 0 0 3
0 0 0 2
27.271 -1.524 -1.294 3
27.802999 -1.507 -1.283 2
0 0 0 0
0 0 0 2
32.681999 -1.608 -1.381 5
32.646999 -1.552 -1.336 114
32.667999 -1.499 -1.294 153
32.702999 -1.446 -1.251 152
32.75 -1.395 -1.21 70
0 0 0 61
44.220001 -1.738 -1.515 58
44.231998 -1.666 -1.456 57
44.351002 -1.597 -1.399 42
44.463001 -1.529 -1.342 53
44.68 -1.4630001 -1.2869999 41
45.097 -1.403 -1.237 42
45.695 -1.347 -1.1900001 43
45.745998 -1.273 -1.127 41
45.77 -1.201 -1.064 33
45.801998 -1.128 -1.001 30
45.846001 -1.054 -0.93699998 11
0 0 0 54
68.5 -1.358 -1.2079999 83
68.564003 -1.25 -1.112 11
71.708 -1.193 -1.061 88
73.939003 -1.113 -0.98799998 28
74.272003 -1.002 -0.88700002 66
75.067001 -0.89399999 -0.78799999 24
0 0 0 0
0 0 0 44
0 0 0 0
0 0 0 26
0 0 0 77
135.38699 -0.34200001 -0.233 65
0 0 0 0
0 0 0 0
0 0 0 11
0 0 0 0
0 0 0 0
0 0 0 25
0 0 0 25
0 0 0 0
0 0 0 0
0 0 0 0
0 0 0 0
0 0 0 0
0 0 0 0
0 0 0 0
0 0 0 20
92.117996 1.974 2.0569999 19
0 0 0 0
0 0 0 0
0 0 0 15
89.214996 2.424 2.5409999 15
92.125 2.635 2.767 15
0 0 0 0
0 0 0 0
0 0 0 28
0 0 0 0
0 0 0 20
89.774002 3.322 3.536 34
89.342003 3.428 3.6570001 41
89.011002 3.5369999 3.7839999 32
88.774002 3.6489999 3.914 14
90.554001 3.845 4.1350002 15
90.652 3.9719999 4.283 26
90.371002 4.0809999 4.4130001 31
90.253998 4.197 4.5510001 18
90.151001 4.3119998 4.6890001 17
91.351997 4.4910002 4.8969998 16
90.855003 4.585 5.0120001 28
90.730003 4.697 5.1500001 27
90.639 4.8099999 5.29 26
91.275002 4.9619999 5.473 21
0 0 0 0
0 0 0 20
91.397003 5.3189998 5.9159999 28
91.626999 5.4489999 6.0780001 33
91.5 5.5560002 6.217 36
91.419998 5.6659999 6.3579998 27
91.252998 5.7680001 6.4899998 22
0 0 0 26
119.13 7.8270001 8.8579998 28
119.154 7.9749999 9.0550003 30
119.155 8.1199999 9.2469997 45
119.073 8.257 9.4289999 46
119.091 8.3999996 9.6219997 54
119.138 8.5459995 9.8179998 46
119.441 8.7089996 10.036 23
0 0 0 0
0 0 0 0
0 0 0 39
129.217 10.021 11.687 37
129.21001 10.169 11.895 37
0 0 0 0
0 0 0 0
0 0 0 106
118.808 9.882 11.696 150
118.735 10.004 11.879 150
118.762 10.136 12.073 97
118.753 10.264 12.263 74
118.793 10.399 12.459 77
118.759 10.524 12.647 80
118.787 10.648 12.836 77
118.765 10.772 13.024 51
118.772 10.897 13.215 42
0 0 0 0
0 0 0 0
0 0 0 0
0 0 0 0
0 0 0 0
0 0 0 29
0 0 0 0
0 0 0 0
0 0 0 0
0 0 0 0
0 0 0 0
0 0 0 26
119.034 12.453 15.704 27
118.924 12.552 15.877 40
118.786 12.647 16.046 57
118.72 12.748 16.219999 57
118.669 12.85 16.403 75
118.636 12.953 16.584 69
118.654 13.06 16.768999 70
118.698 13.169 16.959999 72
118.652 13.267 17.139 49
118.73 13.378 17.334 37
118.712 13.477 17.511999 25
0 0 0 0
0 0 0 25
118.895 13.797 18.09 27
118.865 13.89 18.264999 25
118.777 13.976 18.434 30
118.798 14.074 18.618999 28
118.687 14.155 18.778999 33
118.842 14.267 18.983999 29
118.83 14.355 19.162001 31
118.817 14.444 19.336 31
118.88 14.542 19.525999 31
118.817 14.624 19.694 29
118.771 14.706 19.861 32
118.679 14.782 20.023001 42
118.605 14.859 20.188 41
118.596 14.943 20.358999 63
118.637 15.032 20.542 65
118.575 15.107 20.705999 78
118.589 15.19 20.882999 82
118.635 15.277 21.065001 66
118.609 15.354 21.233999 51
118.567 15.427 21.395 38
118.621 15.512 21.577 35
0 0 0 0
0 0 0 0
0 0 0 23
118.678 15.817 22.264999 30
0 0 0 0
0 0 0 23
118.798 16.052 22.792999 24
118.806 16.122999 22.958 25
118.738 16.181 23.114 23
118.747 16.25 23.281 24
118.762 16.319 23.445 27
118.74 16.382 23.604 24
0 0 0 0
0 0 0 27
118.61 16.554001 24.063999 33
118.664 16.622999 24.232 40
118.565 16.67 24.371 52
118.568 16.729 24.531 64
118.571 16.788 24.688999 64
118.562 16.844 24.841 59
118.519 16.893999 24.988001 68
118.54 16.952 25.148001 70
118.484 16.997999 25.290001 58
118.5 17.054001 25.447001 48
118.511 17.108 25.598 52
118.553 17.162001 25.759001 48
118.538 17.209999 25.903 48
118.58 17.264999 26.062 51
118.553 17.309 26.205 47
118.578 17.360001 26.358 50
118.613 17.414 26.513 52
118.553 17.447001 26.646 48
118.489 17.485001 26.777 53
118.554 17.537001 26.934999 49
118.515 17.573 27.07 47
118.561 17.620001 27.222 49
118.594 17.665001 27.371 48
118.557 17.700001 27.499001 49
118.525 17.733 27.631001 47
118.572 17.775999 27.780001 47
118.562 17.809999 27.914 49
118.498 17.834999 28.035 47
118.576 17.881001 28.188 49
118.546 17.909 28.315001 49
118.564 17.943001 28.452 46
118.582 17.978001 28.584999 47
118.583 18.007999 28.716 44
118.588 18.037001 28.846001 51
118.544 18.058001 28.964001 48
118.589 18.094999 29.101999 44
118.578 18.118999 29.225 46
118.552 18.139999 29.344 61
118.559 18.164 29.469 57
118.53 18.183001 29.584 64
118.582 18.212 29.719 63
118.518 18.223 29.823 49
118.559 18.249001 29.952 45
118.507 18.261 30.054001 43
118.576 18.289 30.188 43
118.604 18.309 30.309 42
118.486 18.306 30.393 46
118.565 18.333 30.525999 43
118.59 18.354 30.643999 47
118.559 18.362 30.746 42
118.612 18.384001 30.867001 42
118.602 18.393999 30.972 50
118.526 18.388 31.059999 47
118.613 18.412001 31.186001 45
118.594 18.417999 31.285 50
118.627 18.431 31.399 47
118.647 18.440001 31.506001 51
118.625 18.441999 31.601 48
118.58 18.441 31.686001 47
118.586 18.445 31.785 51
118.661 18.459 31.902 45
118.616 18.452999 31.986 55
118.602 18.450001 32.074001 46
118.634 18.454 32.174999 52
118.622 18.452999 32.261002 42
118.613 18.448999 32.348999 47
118.622 18.447001 32.439999 46
118.603 18.438999 32.521999 51
118.642 18.440001 32.618999 46
118.686 18.441 32.716 48
118.661 18.431999 32.790001 42
118.64 18.42 32.866001 57
118.597 18.403999 32.935001 45
118.616 18.396999 33.019001 51
118.652 18.395 33.104 45
118.654 18.379999 33.183998 48
118.642 18.368 33.252998 49
118.647 18.355 33.327999 50
118.643 18.343 33.396999 47
118.67 18.330999 33.476002 49
118.708 18.318001 33.557999 43
118.678 18.299 33.615002 44
118.648 18.275999 33.673 45
118.631 18.254 33.734001 43
118.632 18.237 33.794998 48
118.751 18.233999 33.891998 44
118.693 18.204 33.936001 54
118.787 18.195999 34.021999 39
118.698 18.158001 34.054001 44
118.754 18.145 34.125 46
118.703 18.112 34.166 52
118.722 18.089001 34.224998 61
118.68 18.055 34.264999 58
118.681 18.027 34.314999 64
118.692 18.003 34.366001 57
118.72 17.975 34.423 48
118.732 17.948999 34.471001 41
118.719 17.916 34.512001 44
118.726 17.884001 34.556999 41
118.691 17.846001 34.589001 37
118.762 17.823 34.648998 40
118.718 17.785 34.674 44
118.752 17.754999 34.721001 47
118.751 17.718 34.757 43
118.822 17.691 34.812 50
118.751 17.643 34.823002 49
118.772 17.610001 34.859001 47
118.773 17.568001 34.890999 51
118.753 17.527 34.910999 50
118.758 17.487 34.938999 48
118.756 17.444 34.964001 46
118.837 17.413 35.011002 48
118.759 17.358 35.009998 48
118.784 17.316999 35.037998 49
118.798 17.274 35.061001 47
118.807 17.229 35.081001 49
118.831 17.188999 35.102001 43
118.841 17.143 35.119999 47
118.804 17.089001 35.122002 46
118.832 17.047001 35.139999 43
118.865 17.002001 35.159 40
118.814 16.944 35.152 47
118.895 16.903999 35.182999 46
118.812 16.84 35.162998 42
118.831 16.790001 35.173 44
118.775 16.729 35.158001 55
118.817 16.68 35.171001 63
118.844 16.629 35.178001 64
118.906 16.584999 35.192001 29
0 0 0 0
0 0 0 0
0 0 0 0
0 0 0 0
0 0 0 0
0 0 0 0
0 0 0 0
0 0 0 0
0 0 0 0
0 0 0 0
0 0 0 0
0 0 0 0
0 0 0 0
0 0 0 0
0 0 0 0
0 0 0 0
0 0 0 0
0 0 0 0
0 0 0 0
0 0 0 0
0 0 0 25
119.393 15.257 34.877998 28
0 0 0 0
0 0 0 0
0 0 0 0
0 0 0 0
0 0 0 0
0 0 0 0
0 0 0 0
0 0 0 0
0 0 0 0
0 0 0 0
0 0 0 0
0 0 0 24
119.187 14.271 34.193001 26
119.17 14.19 34.129002 32
119.185 14.116 34.073002 28
119.149 14.033 34.000999 28
119.246 13.964 33.965 24
119.167 13.878 33.877998 27
119.425 13.827 33.884998 28
119.393 13.739 33.810001 28
119.259 13.644 33.700001 25
119.344 13.573 33.655998 33
119.268 13.481 33.562 26
0 0 0 0
0 0 0 0
0 0 0 25
119.084 13.132 33.206001 32
119.119 13.051 33.136002 36
119.151 12.969 33.063 41
119.111 12.879 32.969002 49
119.155 12.801 32.896999 60
119.143 12.713 32.807999 56
119.146 12.627 32.722 63
119.122 12.534 32.629002 66
119.122 12.45 32.539001 57
119.135 12.363 32.450001 59
119.185 12.28 32.370998 51
119.173 12.194 32.272999 47
119.139 12.101 32.167999 41
119.211 12.019 32.09 34
119.246 11.932 32 38
119.253 11.843 31.900999 32
119.363 11.763 31.827999 29
0 0 0 0
0 0 0 0
0 0 0 0
0 0 0 0
0 0 0 0
0 0 0 0
0 0 0 0
0 0 0 0
0 0 0 0
0 0 0 0
0 0 0 0
0 0 0 0
0 0 0 0
0 0 0 0
0 0 0 0
0 0 0 0
0 0 0 0
0 0 0 0
0 0 0 0
0 0 0 0
0 0 0 26
119.32 9.717 29.214001 32
119.365 9.625 29.09 36
119.35 9.5279999 28.951 45
119.287 9.4300003 28.799999 48
119.301 9.335 28.665001 53
119.341 9.2440004 28.539 63
119.331 9.1470003 28.395 60
119.343 9.052 28.256001 64
119.366 8.96 28.118999 51
119.376 8.8649998 27.976 50
119.449 8.7729998 27.847 42
119.504 8.6809998 27.712 33
0 0 0 0
0 0 0 0
0 0 0 0
0 0 0 0
0 0 0 0
0 0 0 0
0 0 0 0
0 0 0 0
0 0 0 0
0 0 0 0
0 0 0 0
0 0 0 0
0 0 0 0
0 0 0 0
0 0 0 26
119.559 7.1430001 25.186001 34
119.476 7.0419998 25 36
119.44 6.9439998 24.822001 56
119.409 6.848 24.642 62
119.431 6.7550001 24.479 66
119.466 6.6609998 24.312 69
119.423 6.5640001 24.129 54
119.463 6.4699998 23.961 48
119.5 6.3800001 23.794001 46
119.548 6.2880001 23.625 29
119.73 6.2020001 23.481001 25
119.722 6.1069999 23.299 26
119.671 6.0110002 23.104 25
119.629 5.914 22.913 27
119.845 5.829 22.773001 23
119.644 5.7259998 22.549999 31
119.758 5.6370001 22.385 33
119.794 5.546 22.201 37
119.908 5.4580002 22.033001 34
0 0 0 0
0 0 0 0
0 0 0 0
0 0 0 0
0 0 0 24
121.938 4.9879999 21.233999 59
121.992 4.8969998 21.044001 77
122.009 4.8070002 20.851999 70
122.034 4.7150002 20.655001 62
122.009 4.6220002 20.448 74
121.981 4.5289998 20.24 67
122.01 4.4390001 20.037001 69
122.045 4.3520002 19.839001 52
122.058 4.2610002 19.638 49
122.166 4.177 19.450001 29
122.188 4.0869999 19.245001 32
122.178 3.997 19.033001 33
122.187 3.908 18.823999 38
122.197 3.8199999 18.610001 33
122.135 3.7290001 18.388 28
122.185 3.642 18.181999 35
122.182 3.5539999 17.966999 31
122.234 3.4679999 17.759001 30
122.182 3.3800001 17.535 27
122.125 3.2920001 17.309999 32
122.174 3.207 17.099001 39
122.094 3.1199999 16.868999 51
122.018 3.033 16.639 66
122.083 2.95 16.427 72
122.069 2.865 16.204 80
122.03 2.7809999 15.973 74
122.083 2.6989999 15.76 54
122.192 2.6210001 15.553 42
122.382 2.543 15.352 27
0 0 0 0
0 0 0 0
0 0 0 0
0 0 0 32
122.483 2.1429999 14.228 35
122.505 2.0639999 14 24
0 0 0 0
0 0 0 0
0 0 0 0
0 0 0 0
0 0 0 44
122.046 1.598 12.559 64
122.091 1.523 12.329 83
122.071 1.449 12.092 72
122.076 1.375 11.856 85
122.048 1.302 11.617 82
122.1 1.23 11.385 82
122.127 1.161 11.152 50
122.272 1.089 10.92 35
122.164 1.0190001 10.677 35
122.152 0.94999999 10.436 32
122.232 0.88300002 10.206 26
0 0 0 0
0 0 0 0
0 0 0 29
122.063 0.61199999 9.224 44
