# .PCD v0.7 - Point Cloud Data file format
VERSION 0.7
FIELDS x y z intensity
SIZE 4 4 4 4
TYPE F F F F
COUNT 1 1 1 1
WIDTH 1643
HEIGHT 1
VIEWPOINT 0 0 0 1 0 0 0
POINTS 1643
DATA ascii
33.338001 10.497 3.0539999 21
33.34 10.487 3.0650001 21
33.333 10.474 3.076 21
33.348 10.467 3.0880001 21
0 0 0 0
0 0 0 5
28.069 8.7779999 2.6240001 7
28.077 8.7690001 2.6329999 10
28.058001 8.7510004 2.6389999 14
28.056999 8.7390003 2.6470001 13
28.070999 8.7299995 2.6559999 8
28.105 8.7270002 2.668 4
28.157 8.7309999 2.6800001 1
0 0 0 23
32.967999 10.19 3.1559999 23
32.946999 10.166 3.1630001 23
32.937 10.146 3.1689999 23
0 0 0 4
29.153999 8.9490004 2.8199999 10
29.153999 8.9320002 2.8269999 11
29.396 8.9890003 2.8570001 15
29.598 9.0340004 2.882 16
29.527 8.993 2.8829999 11
29.290001 8.9029999 2.8659999 11
28.413 8.6190004 2.786 18
28.812 8.7209997 2.8310001 18
28.851 8.7150002 2.8410001 18
28.860001 8.6969995 2.8469999 18
28.624001 8.6070004 2.8280001 17
28.518999 8.5559998 2.823 27
28.461 8.5179996 2.823 34
28.407 8.4820004 2.823 47
28.34 8.441 2.8210001 44
28.299 8.4069996 2.8210001 40
28.232 8.3660002 2.819 40
28.186001 8.3310003 2.8180001 42
28.172001 8.3039999 2.8210001 49
28.222 8.2969999 2.8299999 40
28.274 8.2889996 2.839 32
28.291 8.2709999 2.8440001 39
28.344 8.2629995 2.8529999 30
28.358999 8.243 2.858 35
28.407 8.2320004 2.8659999 32
28.538 8.2449999 2.882 22
28.6 8.2390003 2.891 17
28.580999 8.2069998 2.891 17
28.565001 8.177 2.892 23
28.599001 8.1610003 2.8970001 22
28.552999 8.1210003 2.895 24
28.649 8.1219997 2.9059999 18
28.583 8.0760002 2.901 22
28.653999 8.0679998 2.9100001 21
28.586 8.0209999 2.905 21
28.681999 8.0190001 2.9159999 14
28.868999 8.0430002 2.9360001 6
28.908001 8.0240002 2.941 11
28.792 7.9629998 2.9300001 17
28.789 7.9320002 2.9300001 14
28.736 7.888 2.924 16
28.684999 7.8439999 2.9200001 13
28.702999 7.8189998 2.9219999 8
28.743 7.7979999 2.925 6
28.702999 7.756 2.921 1
0 0 0 21
31.743 8.5080004 3.2279999 21
31.671 8.4530001 3.22 21
31.722 8.4309998 3.224 23
32.070999 8.4870005 3.2579999 21
32.414001 8.5410004 3.2909999 29
32.407001 8.5010004 3.2880001 23
32.181 8.4049997 3.2639999 22
32.216 8.3760004 3.2639999 24
32.359001 8.3739996 3.277 33
32.451 8.3590002 3.283 41
32.646 8.3699999 3.3 44
32.497002 8.2919998 3.2820001 48
32.486 8.2489996 3.277 45
32.341999 8.1719999 3.2579999 28
32.516998 8.1759996 3.2720001 37
32.459999 8.1199999 3.2620001 44
32.459999 8.0790005 3.2579999 41
32.5 8.0480003 3.257 44
32.441002 7.9899998 3.247 38
32.369999 7.9310002 3.2349999 35
32.394001 7.8940001 3.2320001 38
32.314999 7.8309999 3.2179999 36
32.353001 7.7979999 3.217 35
32.369999 7.7589998 3.2130001 40
32.327999 7.7049999 3.2019999 37
32.298 7.6550002 3.1930001 37
32.368 7.6269999 3.1930001 35
32.390999 7.5879998 3.1889999 32
32.381001 7.5409999 3.181 36
32.417 7.5040002 3.177 37
32.453999 7.467 3.1730001 42
32.459999 7.4229999 3.1659999 35
32.423 7.368 3.154 41
32.394001 7.3150001 3.1429999 35
32.488998 7.2909999 3.145 43
32.493999 7.2459998 3.1359999 35
32.577 7.217 3.135 32
32.542 7.1620002 3.1229999 30
32.549999 7.1170001 3.1140001 36
32.518002 7.0619998 3.1010001 42
32.549999 7.02 3.0940001 38
32.563 6.9749999 3.085 28
32.523998 6.9180002 3.0710001 36
32.549 6.8740001 3.0639999 33
32.584999 6.8330002 3.056 29
32.641998 6.7950001 3.049 23
32.564999 6.7290001 3.0309999 24
32.567001 6.6799998 3.02 26
32.583 6.6329999 3.0090001 16
32.641998 6.5939999 3.003 12
32.619999 6.54 2.9890001 8
32.632999 6.4910002 2.9779999 1
0 0 0 16
0 0 0 11
46.220001 8.9770002 4.1620002 9
46.464001 8.9510002 4.165 10
46.421001 8.868 4.1409998 11
46.463001 8.802 4.1259999 10
0 0 0 0
0 0 0 24
114.475 21.129999 10.011 42
114.531 20.954 9.9630003 36
114.553 20.77 9.9119997 38
114.682 20.605 9.868 44
114.774 20.431999 9.8210001 36
114.659 20.226 9.7539997 41
114.783 20.056999 9.7080002 31
114.872 19.882 9.6569996 32
115.071 19.724001 9.6149998 23
0 0 0 0
0 0 0 24
0 0 0 0
0 0 0 38
0 0 0 0
0 0 0 0
0 0 0 0
0 0 0 0
0 0 0 0
0 0 0 0
0 0 0 25
0 0 0 31
0 0 0 0
0 0 0 25
0 0 0 19
87.752998 12.641 6.5159998 30
87.885002 12.509 6.4679999 31
87.994003 12.368 6.4190001 32
88.117996 12.234 6.3699999 32
87.976997 12.062 6.3010001 30
88.081001 11.922 6.2480001 26
0 0 0 0
0 0 0 23
87.414001 11.366 6.0190001 24
87.961998 11.284 5.9949999 25
88.305 11.171 5.9549999 32
88.316002 11.015 5.8920002 26
88.504997 10.884 5.8390002 22
88.616997 10.74 5.7810001 27
89.035004 10.631 5.7420001 18
89.058998 10.479 5.6789999 14
89.362 10.353 5.6269999 15
88.671997 10.116 5.5180001 12
88.410004 9.9300003 5.4330001 13
0 0 0 29
118.159 12.847 7.0739999 33
118.144 12.632 6.9790001 39
0 0 0 31
0 0 0 41
118.135 11.996 6.6890001 49
118.164 11.791 6.5949998 74
118.195 11.58 6.4980001 72
118.214 11.368 6.3979998 76
118.245 11.155 6.296 77
118.284 10.95 6.1989999 105
118.337 10.74 6.099 83
118.345 10.527 5.9949999 64
118.369 10.312 5.8889999 63
118.427 10.102 5.7859998 67
118.446 9.8879995 5.6799998 86
118.605 9.6859999 5.5799999 68
0 0 0 0
0 0 0 0
0 0 0 13
84.321999 6.276 3.654 23
84.267998 6.1160002 3.5710001 29
86.491997 6.1230001 3.5840001 18
0 0 0 0
0 0 0 30
84.558998 5.5250001 3.2579999 18
0 0 0 42
72.869003 4.4970002 2.6630001 90
70.653999 4.2319999 2.5120001 50
68.862999 3.9979999 2.3770001 26
0 0 0 18
62.714001 3.4130001 2.0369999 23
59.91 3.152 1.885 25
58.536999 2.9760001 1.781 24
58.021 2.8429999 1.704 41
55.847 2.635 1.582 15
55.049 2.4979999 1.501 34
54.859001 2.3900001 1.438 7
0 0 0 0
0 0 0 21
57.344002 2.1900001 1.318 10
0 0 0 0
0 0 0 0
0 0 0 0
0 0 0 31
50.088001 1.4630001 0.87400001 37
50.144001 1.376 0.81900001 26
49.563999 1.271 0.75300002 20
49.443001 1.1799999 0.69499999 98
49.452999 1.092 0.639 98
0 0 0 16
45.744999 0.84600002 0.484 67
45.657001 0.76300001 0.43000001 63
45.627998 0.68199998 0.37599999 44
45.457001 0.59899998 0.32100001 14
0 0 0 58
42.209 0.40700001 0.198 11
41.799999 0.33000001 0.146 18
41.563 0.255 0.094999999 28
41.349998 0.18099999 0.045000002 92
41.347 0.109 -0.0049999999 90
39.144001 0.034000002 -0.052000001 4
39.127998 -0.032000002 -0.1 3
38.994999 -0.098999999 -0.147 32
38.424999 -0.164 -0.193 8
37.945999 -0.228 -0.237 6
37.384998 -0.289 -0.28 19
36.818001 -0.34799999 -0.322 21
36.921001 -0.414 -0.37099999 16
36.599998 -0.472 -0.41299999 2
0 0 0 1
20.375 -0.33199999 -0.28200001 1
0 0 0 0
0 0 0 0
0 0 0 1
19.559999 -0.45100001 -0.37099999 1
19.334999 -0.479 -0.39199999 1
19.087999 -0.505 -0.412 1
18.853001 -0.52999997 -0.43200001 1
18.573 -0.55299997 -0.44999999 1
18.145 -0.57099998 -0.46399999 4
17.851999 -0.59200001 -0.47999999 2
17.825001 -0.62 -0.50300002 3
17.806999 -0.64899999 -0.52700001 3
17.785999 -0.67799997 -0.55000001 3
17.698 -0.70300001 -0.57099998 1
17.549 -0.72600001 -0.58999997 1
17.576 -0.75599998 -0.61500001 1
17.483999 -0.77999997 -0.63499999 1
17.469 -0.80800003 -0.65799999 1
17.531 -0.83899999 -0.685 2
17.576 -0.87 -0.71100003 3
17.594999 -0.89899999 -0.736 4
17.653999 -0.93099999 -0.76300001 3
17.761999 -0.96399999 -0.792 3
17.836 -0.99699998 -0.81999999 2
17.916 -1.03 -0.84899998 1
0 0 0 2
0 0 0 0
0 0 0 1
0 0 0 1
18.377001 -1.2 -1.001 1
17.693001 -1.183 -0.98900002 2
16.914 -1.1569999 -0.97000003 2
16.924999 -1.184 -0.99400002 2
0 0 0 2
15.239 -1.113 -0.93900001 3
14.727 -1.098 -0.92799997 4
14.33 -1.089 -0.92400002 4
13.937 -1.08 -0.91799998 3
13.466 -1.064 -0.90700001 3
12.88 -1.0369999 -0.88599998 3
12.441 -1.02 -0.87400001 3
12.059 -1.007 -0.86400002 2
11.679 -0.99199998 -0.85399997 2
11.29 -0.97600001 -0.84200001 3
10.983 -0.96499997 -0.83600003 3
10.695 -0.95599997 -0.829 3
10.379 -0.94199997 -0.81999999 2
10.077 -0.92900002 -0.81099999 3
9.8330002 -0.921 -0.80599999 3
9.5959997 -0.912 -0.80000001 3
9.3400002 -0.90100002 -0.79299998 2
9.0670004 -0.88800001 -0.78299999 3
8.8400002 -0.87800002 -0.77700001 2
8.5719995 -0.86400002 -0.76599997 3
8.3710003 -0.85500002 -0.76099998 4
8.1750002 -0.84600002 -0.755 4
8 -0.83899999 -0.75099999 5
7.796 -0.829 -0.74299997 6
7.6079998 -0.81900001 -0.73699999 11
7.4380002 -0.81099999 -0.73100001 12
7.3340001 -0.80900002 -0.73199999 12
7.2319999 -0.80800003 -0.73299998 12
7.0900002 -0.801 -0.72899997 9
6.882 -0.787 -0.71799999 4
6.7030001 -0.77499998 -0.70899999 3
6.5580001 -0.76700002 -0.704 3
6.414 -0.759 -0.69800001 3
6.2989998 -0.75300002 -0.69499999 3
6.2020001 -0.75 -0.69300002 3
6.0799999 -0.74299997 -0.68900001 3
5.961 -0.736 -0.68400002 3
5.8400002 -0.72799999 -0.67900002 4
5.7470002 -0.72399998 -0.67699999 4
5.6329999 -0.71700001 -0.67199999 4
5.5609999 -0.71499997 -0.67199999 4
5.454 -0.708 -0.667 4
5.3530002 -0.70099998 -0.66299999 3
5.2740002 -0.69700003 -0.66100001 4
5.1849999 -0.69199997 -0.65799999 3
5.1069999 -0.68699998 -0.65499997 3
5.0380001 -0.68400002 -0.65399998 3
4.9510002 -0.67799997 -0.64999998 2
4.8769999 -0.67400002 -0.648 3
4.8099999 -0.67000002 -0.64600003 3
4.7360001 -0.66500002 -0.64300001 3
4.6700001 -0.66100001 -0.64099997 4
4.6069999 -0.65799999 -0.63999999 3
4.533 -0.65200001 -0.63599998 3
4.4829998 -0.64999998 -0.63599998 2
4.4200001 -0.64600003 -0.63300002 4
4.3639998 -0.64300001 -0.63200003 2
4.3309999 -0.64300001 -0.634 2
4.257 -0.63599998 -0.62900001 3
4.177 -0.62900001 -0.62300003 3
4.1300001 -0.62599999 -0.62300003 3
4.0799999 -0.62300003 -0.62099999 2
4.0380001 -0.62099999 -0.62099999 2
3.96 -0.61299998 -0.61400002 2
3.918 -0.611 -0.61400002 1
3.9449999 -0.61900002 -0.62400001 3
3.8499999 -0.60799998 -0.61400002 1
3.8099999 -0.60500002 -0.61299998 3
3.858 -0.61699998 -0.62699997 2
3.9000001 -0.62800002 -0.639 3
3.7079999 -0.60000002 -0.61299998 2
3.674 -0.59799999 -0.61299998 2
3.622 -0.59299999 -0.61000001 3
3.562 -0.58700001 -0.60500002 3
3.5309999 -0.58499998 -0.60500002 3
3.4820001 -0.58099997 -0.60100001 2
3.4219999 -0.574 -0.59600002 1
3.392 -0.57200003 -0.59500003 1
3.5 -0.59299999 -0.61900002 2
3.497 -0.59600002 -0.62400001 2
3.3759999 -0.57800001 -0.60699999 2
3.2820001 -0.565 -0.59500003 1
3.2409999 -0.56099999 -0.59200001 1
3.2360001 -0.56300002 -0.59600002 1
3.2119999 -0.56199998 -0.59600002 1
3.174 -0.55800003 -0.59299999 1
3.214 -0.56800002 -0.60500002 1
3.197 -0.56699997 -0.60699999 1
3.1619999 -0.56400001 -0.60399997 2
3.0510001 -0.546 -0.58700001 1
3.033 -0.546 -0.588 1
3.0350001 -0.54799998 -0.59200001 1
2.9579999 -0.537 -0.58200002 1
2.987 -0.54400003 -0.59100002 1
2.961 -0.542 -0.58999997 1
2.98 -0.54799998 -0.59799999 1
2.925 -0.54000002 -0.59100002 1
2.9389999 -0.54500002 -0.59799999 1
2.8499999 -0.52999997 -0.58399999 1
2.8440001 -0.53100002 -0.58600003 1
2.8269999 -0.52999997 -0.58600003 1
2.753 -0.51800001 -0.57499999 1
2.773 -0.52399999 -0.58200002 1
2.711 -0.514 -0.57300001 1
2.73 -0.51999998 -0.58099997 1
2.7060001 -0.51700002 -0.579 1
2.743 -0.52600002 -0.58999997 1
2.684 -0.51599997 -0.58099997 1
2.6760001 -0.51599997 -0.583 1
2.675 -0.51800001 -0.58600003 1
2.5739999 -0.5 -0.56699997 1
2.5580001 -0.498 -0.56699997 1
2.5450001 -0.49700001 -0.56699997 1
2.5239999 -0.495 -0.56599998 1
2.513 -0.49399999 -0.56599998 1
2.4990001 -0.493 -0.56599998 1
2.474 -0.48899999 -0.56400001 1
2.464 -0.48899999 -0.56400001 1
2.4419999 -0.48500001 -0.56199998 1
2.4230001 -0.48300001 -0.56099999 1
2.415 -0.48300001 -0.56199998 1
2.3989999 -0.48100001 -0.56099999 1
2.3889999 -0.47999999 -0.56099999 1
2.3729999 -0.47799999 -0.56 1
2.3559999 -0.47600001 -0.55900002 1
2.352 -0.47600001 -0.56099999 1
2.336 -0.47400001 -0.56 1
2.3180001 -0.47099999 -0.55800003 1
2.3080001 -0.47 -0.55800003 1
2.2850001 -0.46700001 -0.55500001 1
2.28 -0.46700001 -0.55699998 1
2.266 -0.465 -0.55599999 1
2.2550001 -0.46399999 -0.55599999 1
2.244 -0.46200001 -0.55500001 1
2.237 -0.46200001 -0.55599999 1
2.221 -0.45899999 -0.55400002 1
2.217 -0.45899999 -0.55599999 1
2.2030001 -0.45699999 -0.55500001 1
2.1989999 -0.45699999 -0.55599999 1
2.1730001 -0.45300001 -0.55199999 1
2.171 -0.45300001 -0.55299997 1
2.1619999 -0.45199999 -0.55299997 1
2.155 -0.45100001 -0.55400002 1
2.145 -0.449 -0.55299997 1
2.131 -0.447 -0.55199999 1
2.1270001 -0.447 -0.55299997 1
2.1140001 -0.44499999 -0.551 1
2.1059999 -0.44400001 -0.551 1
2.0999999 -0.44299999 -0.55199999 1
2.0899999 -0.442 -0.551 1
2.0880001 -0.442 -0.55299997 1
2.0810001 -0.44 -0.55299997 1
2.072 -0.43900001 -0.55199999 1
2.0650001 -0.43799999 -0.55199999 1
2.0510001 -0.43599999 -0.55000001 1
2.0439999 -0.435 -0.55000001 1
2.0309999 -0.43200001 -0.54900002 1
2.0309999 -0.433 -0.55000001 1
2.0239999 -0.43099999 -0.55000001 1
2.013 -0.42899999 -0.54900002 1
2.007 -0.428 -0.54900002 1
1.997 -0.42699999 -0.54799998 1
1.9910001 -0.426 -0.54799998 1
1.9859999 -0.42500001 -0.54799998 1
1.976 -0.42300001 -0.54699999 1
1.973 -0.42199999 -0.54799998 1
1.961 -0.41999999 -0.546 1
1.961 -0.41999999 -0.54799998 1
1.9450001 -0.417 -0.54500002 1
1.943 -0.417 -0.54500002 1
1.938 -0.41600001 -0.54500002 1
1.932 -0.414 -0.54500002 1
1.918 -0.412 -0.54299998 1
1.9119999 -0.41 -0.542 1
1.909 -0.41 -0.54299998 1
1.904 -0.40900001 -0.54299998 1
1.9 -0.40799999 -0.54299998 1
1.896 -0.40700001 -0.54299998 1
1.896 -0.40700001 -0.54400003 1
1.891 -0.40599999 -0.54400003 1
1.8839999 -0.40400001 -0.54299998 1
1.8839999 -0.40400001 -0.54400003 1
1.8789999 -0.403 -0.54400003 1
1.8710001 -0.40099999 -0.54299998 1
1.865 -0.40000001 -0.542 1
1.863 -0.39899999 -0.54299998 1
1.86 -0.39899999 -0.54299998 1
1.855 -0.39700001 -0.542 1
1.851 -0.396 -0.542 1
1.85 -0.396 -0.54299998 1
1.841 -0.39399999 -0.54100001 1
1.837 -0.39199999 -0.54100001 1
1.835 -0.39199999 -0.54100001 1
1.832 -0.391 -0.54100001 1
1.83 -0.38999999 -0.542 1
1.8279999 -0.38999999 -0.542 1
1.822 -0.38800001 -0.54100001 1
1.819 -0.38699999 -0.54000002 1
1.818 -0.38600001 -0.54100001 1
1.814 -0.38499999 -0.54000002 1
1.812 -0.384 -0.54100001 1
1.8150001 -0.38499999 -0.542 1
1.811 -0.38299999 -0.542 1
1.807 -0.382 -0.54100001 1
1.7970001 -0.38 -0.53899997 1
1.804 -0.38 -0.54100001 1
1.799 -0.37900001 -0.54100001 1
1.801 -0.37900001 -0.542 1
1.793 -0.377 -0.54000002 1
1.786 -0.375 -0.53799999 1
1.791 -0.375 -0.54000002 1
1.791 -0.375 -0.54100001 1
1.785 -0.373 -0.53899997 1
1.789 -0.373 -0.54100001 1
1.79 -0.373 -0.542 1
1.788 -0.37200001 -0.542 1
1.778 -0.36899999 -0.53899997 1
1.783 -0.36899999 -0.54100001 1
1.783 -0.36899999 -0.54100001 1
1.778 -0.36700001 -0.54000002 1
1.781 -0.36700001 -0.54100001 1
1.778 -0.366 -0.54000002 1
1.778 -0.36500001 -0.54100001 1
1.779 -0.36500001 -0.54100001 1
1.778 -0.36399999 -0.54100001 1
1.772 -0.36199999 -0.53899997 1
1.778 -0.36199999 -0.54100001 1
1.779 -0.36199999 -0.54100001 1
1.779 -0.361 -0.542 1
1.7640001 -0.35699999 -0.537 1
1.775 -0.35800001 -0.54000002 1
1.775 -0.35699999 -0.54000002 1
1.775 -0.35699999 -0.54000002 1
1.775 -0.35600001 -0.54000002 1
1.775 -0.35499999 -0.54000002 1
1.778 -0.35499999 -0.54100001 1
1.776 -0.35299999 -0.54100001 1
1.776 -0.352 -0.54000002 1
1.778 -0.352 -0.54100001 1
1.776 -0.35100001 -0.54000002 1
1.778 -0.34999999 -0.54100001 1
1.777 -0.34900001 -0.54000002 1
1.779 -0.34799999 -0.54000002 1
1.777 -0.347 -0.54000002 1
1.779 -0.34599999 -0.54000002 1
1.779 -0.345 -0.53899997 1
1.779 -0.34400001 -0.53899997 1
1.7869999 -0.345 -0.54100001 1
1.783 -0.34299999 -0.54000002 1
1.785 -0.34200001 -0.54000002 1
1.791 -0.34200001 -0.54100001 1
1.789 -0.34099999 -0.54000002 1
1.789 -0.34 -0.54000002 1
1.798 -0.34 -0.542 1
1.796 -0.33899999 -0.54100001 1
1.798 -0.338 -0.54100001 1
1.795 -0.336 -0.54000002 1
1.803 -0.33700001 -0.54100001 1
1.804 -0.336 -0.54100001 1
1.802 -0.33399999 -0.54000002 1
1.806 -0.33399999 -0.54000002 1
1.809 -0.333 -0.54100001 1
1.8099999 -0.33199999 -0.54000002 1
1.819 -0.33199999 -0.542 1
1.821 -0.331 -0.542 1
1.818 -0.33000001 -0.54000002 1
1.8279999 -0.33000001 -0.54299998 1
1.8279999 -0.329 -0.542 1
1.8380001 -0.329 -0.54400003 1
1.832 -0.32699999 -0.54100001 1
1.8380001 -0.32699999 -0.542 1
1.85 -0.32699999 -0.54500002 1
1.848 -0.32499999 -0.54299998 1
1.854 -0.32499999 -0.54400003 1
1.857 -0.324 -0.54400003 1
1.8609999 -0.324 -0.54400003 1
1.855 -0.32100001 -0.54100001 1
1.867 -0.322 -0.54400003 1
1.872 -0.32100001 -0.54400003 1
1.874 -0.31999999 -0.54299998 1
1.878 -0.31900001 -0.54400003 1
1.878 -0.31799999 -0.542 1
1.8839999 -0.317 -0.54299998 1
1.886 -0.31600001 -0.542 1
1.896 -0.31600001 -0.54400003 1
1.892 -0.31400001 -0.54100001 1
1.8940001 -0.31299999 -0.54100001 1
1.91 -0.31400001 -0.54400003 1
1.919 -0.31400001 -0.54500002 1
1.919 -0.31200001 -0.54400003 1
1.931 -0.31200001 -0.546 1
1.9299999 -0.31099999 -0.54400003 1
1.942 -0.31099999 -0.546 1
1.949 -0.31 -0.546 1
1.9529999 -0.30899999 -0.546 1
1.956 -0.308 -0.54500002 1
1.965 -0.308 -0.546 1
1.971 -0.30700001 -0.546 1
1.98 -0.30700001 -0.54699999 1
1.992 -0.30700001 -0.54900002 1
1.995 -0.30500001 -0.54799998 1
1.997 -0.30399999 -0.54699999 1
2.013 -0.30500001 -0.54900002 1
2.0079999 -0.30199999 -0.546 1
2.0209999 -0.30199999 -0.54799998 1
2.027 -0.301 -0.54799998 1
2.0369999 -0.301 -0.54900002 1
2.04 -0.30000001 -0.54699999 1
2.0510001 -0.29899999 -0.54799998 1
2.062 -0.29899999 -0.54900002 1
2.0699999 -0.29800001 -0.54900002 1
2.082 -0.29800001 -0.551 1
2.0880001 -0.29699999 -0.55000001 1
2.092 -0.296 -0.54900002 1
2.1059999 -0.296 -0.55000001 1
2.1140001 -0.29499999 -0.551 1
2.1229999 -0.294 -0.551 1
2.132 -0.29300001 -0.551 1
2.138 -0.292 -0.55000001 1
2.1559999 -0.29300001 -0.55199999 1
2.165 -0.292 -0.55199999 1
2.1789999 -0.292 -0.55400002 1
2.1860001 -0.29100001 -0.55299997 1
2.1989999 -0.28999999 -0.55400002 1
2.21 -0.289 -0.55400002 1
2.224 -0.289 -0.55500001 1
2.2349999 -0.289 -0.55500001 1
2.2460001 -0.28799999 -0.55500001 1
2.2590001 -0.287 -0.55599999 1
2.276 -0.287 -0.55800003 1
2.29 -0.287 -0.55800003 1
2.3039999 -0.28600001 -0.55900002 1
2.322 -0.28600001 -0.56 1
2.335 -0.28600001 -0.56099999 1
2.3510001 -0.285 -0.56199998 1
2.359 -0.28400001 -0.56099999 1
2.3710001 -0.28299999 -0.56 1
2.395 -0.28400001 -0.56300002 1
2.4089999 -0.28299999 -0.56300002 1
2.4159999 -0.28099999 -0.56199998 1
2.438 -0.28200001 -0.56400001 1
2.4530001 -0.28099999 -0.56400001 1
2.467 -0.28 -0.56400001 1
2.4849999 -0.28 -0.565 1
2.5039999 -0.27900001 -0.56599998 1
2.523 -0.27900001 -0.56699997 1
2.539 -0.278 -0.56699997 1
2.5550001 -0.278 -0.56699997 1
2.5710001 -0.27700001 -0.56699997 1
2.598 -0.27700001 -0.56900001 1
2.6099999 -0.27599999 -0.56800002 1
2.641 -0.27700001 -0.57099998 1
2.652 -0.27500001 -0.56999999 1
2.6800001 -0.27500001 -0.57200003 1
2.704 -0.27500001 -0.57300001 1
2.7690001 -0.27900001 -0.583 1
2.7709999 -0.27700001 -0.57999998 1
2.766 -0.273 -0.57499999 1
2.8510001 -0.27900001 -0.588 1
2.8629999 -0.27700001 -0.58600003 1
2.9170001 -0.28 -0.59299999 1
2.96 -0.28099999 -0.597 1
3.0510001 -0.287 -0.611 1
2.9530001 -0.27500001 -0.58700001 1
3.0090001 -0.27700001 -0.59299999 2
2.9909999 -0.27200001 -0.58499998 1
3.0769999 -0.27700001 -0.597 1
3.059 -0.27200001 -0.58899999 1
3.1129999 -0.27399999 -0.59500003 1
3.0999999 -0.27000001 -0.58700001 1
3.2219999 -0.278 -0.60500002 1
3.2320001 -0.27500001 -0.602 1
3.1919999 -0.26899999 -0.58999997 1
3.28 -0.273 -0.60000002 1
3.2820001 -0.27000001 -0.59600002 1
3.345 -0.27200001 -0.602 1
3.3280001 -0.26800001 -0.59299999 1
3.411 -0.271 -0.602 1
3.444 -0.27000001 -0.602 1
3.4579999 -0.26800001 -0.59899998 1
3.5120001 -0.26899999 -0.60299999 2
3.5250001 -0.26699999 -0.59899998 1
3.5999999 -0.26899999 -0.60600001 1
3.674 -0.271 -0.61199999 2
3.7019999 -0.27000001 -0.611 3
3.779 -0.27200001 -0.61699998 3
3.78 -0.26800001 -0.611 3
3.904 -0.27399999 -0.62400001 3
3.9100001 -0.271 -0.61799997 2
3.957 -0.27000001 -0.61900002 2
3.9760001 -0.26800001 -0.61500001 2
4.1009998 -0.27200001 -0.62699997 3
4.1090002 -0.26899999 -0.62099999 2
4.145 -0.26800001 -0.61900002 2
4.2129998 -0.26800001 -0.62199998 2
4.2639999 -0.26800001 -0.62199998 1
4.3629999 -0.27000001 -0.62900001 3
4.448 -0.271 -0.63300002 2
4.52 -0.27200001 -0.63499999 4
4.5869999 -0.27200001 -0.63599998 4
4.658 -0.27200001 -0.63800001 3
4.7049999 -0.271 -0.63599998 4
4.7979999 -0.27200001 -0.63999999 3
4.882 -0.27200001 -0.64200002 3
4.9920001 -0.27399999 -0.64700001 3
5.098 -0.27500001 -0.65200001 4
5.211 -0.27700001 -0.65600002 4
5.3189998 -0.278 -0.66000003 3
5.428 -0.27900001 -0.66399997 4
5.5450001 -0.28099999 -0.66799998 4
5.6659999 -0.28200001 -0.67199999 3
5.8080001 -0.28400001 -0.67799997 3
5.9569998 -0.287 -0.68400002 3
6.1079998 -0.289 -0.69 3
6.2399998 -0.28999999 -0.69300002 3
6.4039998 -0.292 -0.699 4
6.5749998 -0.29499999 -0.70499998 4
6.7529998 -0.29699999 -0.71100003 4
6.9229999 -0.29899999 -0.71600002 4
7.099 -0.301 -0.72000003 4
7.3280001 -0.30500001 -0.73000002 4
7.5599999 -0.30899999 -0.73799998 4
7.75 -0.31 -0.74199998 4
8.0019999 -0.31400001 -0.75 4
8.2480001 -0.31799999 -0.75700003 4
8.5970001 -0.324 -0.773 3
8.9639997 -0.331 -0.78799999 18
9.1450005 -0.331 -0.78600001 19
9.3610001 -0.33199999 -0.787 6
9.7390003 -0.338 -0.79900002 4
10.103 -0.34299999 -0.81 3
10.525 -0.34999999 -0.82300001 3
10.943 -0.35600001 -0.83399999 3
11.403 -0.36300001 -0.84600002 3
11.905 -0.37 -0.86000001 3
12.413 -0.377 -0.87199998 3
12.929 -0.38299999 -0.88200003 3
13.642 -0.39500001 -0.90399998 3
14.388 -0.40700001 -0.92400002 3
15.138 -0.41800001 -0.94199997 2
0 0 0 3
16.129999 -0.42300001 -0.93900001 2
0 0 0 3
0 0 0 4
0 0 0 4
20.556 -0.48500001 -1.031 3
20.507999 -0.47 -0.98699999 4
20.489 -0.45699999 -0.94499999 4
20.445999 -0.44299999 -0.90100002 4
20.423 -0.43000001 -0.85900003 4
20.384001 -0.41600001 -0.815 4
20.318001 -0.40200001 -0.77100003 3
20.278999 -0.389 -0.72799999 2
20.247 -0.37599999 -0.685 2
20.327999 -0.36500001 -0.64600003 2
20.395 -0.35499999 -0.60699999 3
20.450001 -0.34400001 -0.56599998 3
20.601 -0.33399999 -0.528 3
20.733999 -0.324 -0.48800001 5
20.868 -0.315 -0.449 6
21.027 -0.30500001 -0.40799999 12
21.068001 -0.294 -0.36500001 15
21.011 -0.28200001 -0.31999999 7
20.944 -0.27000001 -0.27500001 1
0 0 0 16
36.748001 -0.435 -0.331 59
36.858002 -0.417 -0.25600001 47
37.175999 -0.40200001 -0.18099999 29
37.363998 -0.38499999 -0.104 25
37.233002 -0.36500001 -0.026000001 23
37.173 -0.34599999 0.050999999 16
37.349998 -0.33000001 0.12899999 41
37.377998 -0.31200001 0.207 61
37.373001 -0.29499999 0.285 40
37.557999 -0.27900001 0.36500001 7
37.724998 -0.26300001 0.447 7
37.875 -0.24699999 0.52600002 7
38.007999 -0.23100001 0.60699999 6
38.174999 -0.215 0.69 6
38.280998 -0.199 0.77200001 7
38.442001 -0.184 0.85600001 8
38.658001 -0.169 0.94099998 9
38.722 -0.154 1.024 6
38.917999 -0.139 1.109 17
38.965 -0.124 1.192 56
38.891998 -0.109 1.272 49
39.056 -0.094999999 1.357 12
39.199001 -0.079999998 1.4450001 30
39.125 -0.066 1.523 32
39.255001 -0.052999999 1.61 18
39.661999 -0.039000001 1.7079999 5
39.749001 -0.026000001 1.795 5
39.740002 -0.012 1.877 5
37.994999 0 1.874 6
37.556 0.012 1.931 10
36.821999 0.023 1.97 9
36.008999 0.033 2.0009999 10
35.577999 0.044 2.052 8
35.587002 0.055 2.1270001 7
35.748001 0.064999998 2.21 9
35.765999 0.075000003 2.2850001 15
35.662998 0.083999999 2.3529999 28
35.618999 0.093999997 2.424 34
35.703999 0.103 2.5020001 29
35.803001 0.112 2.582 22
35.902 0.121 2.664 20
36.077999 0.131 2.7520001 29
36.203999 0.139 2.8380001 27
36.310001 0.148 2.9200001 16
36.568001 0.15700001 3.016 5
36.645 0.16500001 3.098 2
0 0 0 65
39.412998 0.193 3.4920001 64
39.435001 0.2 3.575 65
39.421001 0.207 3.654 63
39.439999 0.214 3.734 65
39.424999 0.22 3.813 63
39.445 0.227 3.895 61
39.473 0.233 3.977 59
39.569 0.23999999 4.0679998 31
39.796001 0.24600001 4.171 31
40.068001 0.25400001 4.2800002 33
40.299 0.25999999 4.3860002 34
40.466 0.266 4.4850001 43
40.595001 0.271 4.5809999 52
40.745998 0.27700001 4.6799998 54
40.789001 0.28099999 4.7670002 58
40.797001 0.285 4.848 58
40.778999 0.28799999 4.927 55
40.787998 0.292 5.0089998 54
40.798 0.29499999 5.092 57
40.813 0.29699999 5.1739998 55
40.791 0.30000001 5.2509999 55
40.798 0.30199999 5.3319998 55
40.793999 0.30399999 5.4120002 55
40.796001 0.30500001 5.493 57
40.82 0.30700001 5.5760002 56
40.825001 0.308 5.6560001 58
40.816002 0.30899999 5.7340002 54
40.824001 0.31 5.8140001 55
40.827999 0.31 5.8930001 58
40.819 0.31 5.9710002 53
40.827999 0.31 6.0510001 53
40.826 0.31 6.1279998 52
40.826 0.30899999 6.2059999 52
40.837002 0.308 6.2859998 51
40.832001 0.30700001 6.3629999 48
40.851002 0.30599999 6.4429998 52
40.845001 0.30399999 6.52 51
40.848 0.303 6.598 50
40.84 0.30000001 6.6729999 50
40.853001 0.29800001 6.7519999 52
40.855 0.29499999 6.829 48
40.839001 0.292 6.902 46
40.875999 0.28999999 6.9829998 44
40.877998 0.28600001 7.0570002 40
40.860001 0.28200001 7.1290002 40
40.869999 0.27900001 7.2059999 45
40.872002 0.27399999 7.2810001 44
40.879002 0.27000001 7.3559999 45
40.869999 0.266 7.4299998 45
40.870998 0.26100001 7.5040002 44
40.895 0.257 7.5819998 44
40.891998 0.25099999 7.6539998 43
40.887001 0.24600001 7.7259998 42
40.891998 0.23999999 7.8000002 41
40.883999 0.235 7.8699999 42
40.902 0.229 7.9450002 39
40.887001 0.222 8.0139999 40
40.903999 0.21600001 8.0889997 41
40.896 0.20900001 8.158 39
40.876999 0.20200001 8.2250004 33
40.835999 0.19499999 8.2869997 36
40.651001 0.186 8.3199997 35
40.459999 0.178 8.349 26
40.259998 0.169 8.3760004 20
40.030998 0.161 8.3959999 26
39.772999 0.152 8.4090004 34
39.650002 0.14399999 8.448 34
39.595001 0.13500001 8.5030003 32
39.598 0.127 8.5690002 35
39.608002 0.118 8.6379995 38
39.580002 0.109 8.6949997 40
39.592999 0.1 8.7620001 38
39.594002 0.092 8.8269997 38
39.583 0.082000002 8.8889999 35
39.591 0.072999999 8.9540005 35
39.591 0.063000001 9.0170002 37
39.596001 0.054000001 9.0799999 34
39.601002 0.044 9.1429996 35
39.625999 0.034000002 9.2110004 37
39.604 0.023 9.2670002 35
39.606998 0.013 9.3280001 34
39.625 0.0020000001 9.3940001 35
39.591999 -0.0080000004 9.4469995 31
39.393002 -0.017999999 9.4580002 27
39.067001 -0.028999999 9.4390001 19
38.681999 -0.039999999 9.4029999 21
38.366001 -0.050999999 9.3830004 25
38.271 -0.061000001 9.4160004 25
38.263 -0.071999997 9.4700003 25
38.261002 -0.083999999 9.5249996 24
38.256001 -0.096000001 9.5790005 24
38.269001 -0.108 9.6370001 23
38.255001 -0.119 9.6879997 23
38.264 -0.132 9.7440004 24
38.275002 -0.14399999 9.8009996 24
38.280998 -0.155 9.8549995 23
38.273998 -0.168 9.9060001 23
38.275002 -0.18000001 9.9580002 25
38.277 -0.193 10.01 23
38.165001 -0.205 10.031 24
37.729 -0.215 9.967 18
37.293999 -0.22499999 9.901 22
37.012001 -0.236 9.875 30
36.941002 -0.249 9.9040003 25
36.924999 -0.26199999 9.948 29
36.956001 -0.27500001 10.004 24
36.929001 -0.28799999 10.043 24
36.939999 -0.30000001 10.093 23
36.951 -0.31400001 10.141 24
36.950001 -0.32600001 10.187 24
36.948002 -0.34 10.232 23
36.969002 -0.354 10.282 23
36.969002 -0.368 10.326 23
36.952999 -0.38100001 10.366 24
36.643002 -0.39199999 10.322 21
36.173 -0.40099999 10.232 17
35.702 -0.40799999 10.139 22
35.599998 -0.421 10.15 21
35.585999 -0.43399999 10.186 24
35.617001 -0.449 10.235 23
35.613998 -0.463 10.274 25
35.610001 -0.47600001 10.311 21
35.612999 -0.49000001 10.35 22
35.618 -0.50400001 10.389 21
35.627998 -0.51800001 10.429 21
35.631001 -0.53299999 10.467 22
35.626999 -0.54699999 10.502 22
35.626999 -0.56099999 10.538 21
35.561001 -0.574 10.554 22
35.002998 -0.579 10.423 16
34.487 -0.58499998 10.303 19
34.290001 -0.59399998 10.276 20
34.249001 -0.60799998 10.296 21
34.268002 -0.62099999 10.334 21
34.257999 -0.63599998 10.363 22
34.257999 -0.64999998 10.394 22
34.277 -0.66500002 10.431 21
34.276001 -0.67900002 10.461 22
34.268002 -0.69300002 10.487 20
34.279999 -0.70700002 10.521 20
34.272999 -0.722 10.547 22
34.279999 -0.73699999 10.578 21
34.234001 -0.75099999 10.592 24
33.695 -0.75199997 10.453 15
33.155998 -0.75400001 10.312 19
32.964001 -0.76300001 10.278 21
32.905998 -0.77600002 10.285 23
32.915001 -0.79000002 10.312 24
32.91 -0.80299997 10.335 26
32.922001 -0.81900001 10.362 25
32.917 -0.833 10.384 25
32.912998 -0.847 10.406 24
32.936001 -0.86199999 10.435 19
32.93 -0.875 10.456 24
32.949001 -0.88999999 10.483 20
32.951 -0.90399998 10.505 19
32.937 -0.91799998 10.521 19
32.814999 -0.92799997 10.503 19
32.299999 -0.92900002 10.357 14
31.752001 -0.926 10.199 22
31.608999 -0.93599999 10.172 18
31.580999 -0.949 10.18 24
31.576 -0.96100003 10.196 25
31.576 -0.97500002 10.212 24
31.579 -0.99000001 10.23 25
31.575001 -1.003 10.245 23
31.596001 -1.017 10.267 22
31.58 -1.031 10.277 21
31.584 -1.044 10.293 22
31.597 -1.059 10.311 22
31.601 -1.072 10.326 18
31.587999 -1.086 10.335 17
31.607 -1.099 10.354 19
31.283001 -1.102 10.26 16
30.780001 -1.098 10.106 12
30.32 -1.094 9.9659996 19
30.254 -1.104 9.9549999 16
30.214001 -1.117 9.9519997 22
30.223 -1.1289999 9.9639997 22
30.215 -1.142 9.9709997 23
30.233999 -1.156 9.9860001 23
30.226999 -1.169 9.9919996 22
30.243 -1.182 10.004 23
30.23 -1.194 10.008 24
30.226 -1.207 10.013 22
30.226999 -1.22 10.02 22
30.242001 -1.233 10.031 21
30.238001 -1.2460001 10.036 22
30.239 -1.258 10.041 22
30.239 -1.271 10.046 20
30.122999 -1.279 10.012 20
29.58 -1.2690001 9.835 11
29.059999 -1.258 9.665 19
28.903999 -1.2640001 9.6160002 19
28.861 -1.274 9.6040001 21
28.872999 -1.2869999 9.6099997 22
28.858999 -1.2970001 9.6070004 22
28.868 -1.3099999 9.6120005 22
28.870001 -1.322 9.6129999 22
28.864 -1.3329999 9.6110001 21
28.884001 -1.345 9.618 22
28.886 -1.357 9.618 22
28.882999 -1.369 9.6160002 22
28.882999 -1.381 9.6149998 22
28.896 -1.393 9.618 21
28.891001 -1.405 9.6140003 22
28.888 -1.415 9.6099997 21
28.881001 -1.427 9.6049995 22
28.9 -1.438 9.6079998 21
28.872999 -1.448 9.5950003 16
28.410999 -1.437 9.4370003 14
27.988001 -1.426 9.2919998 14
27.607 -1.4170001 9.1610003 15
27.548 -1.425 9.1359997 18
27.535 -1.4349999 9.1260004 21
27.518 -1.4450001 9.1149998 21
27.530001 -1.455 9.1120005 21
27.516001 -1.464 9.1009998 21
27.513 -1.475 9.0930004 22
27.530001 -1.4859999 9.0909996 21
27.52 -1.4960001 9.0790005 21
27.52 -1.506 9.0710001 22
27.516001 -1.516 9.0609999 21
27.525999 -1.527 9.0550003 21
27.525 -1.5369999 9.0450001 21
27.514 -1.546 9.0319996 21
27.541 -1.557 9.0299997 21
27.525999 -1.566 9.0150003 20
27.527 -1.575 9.0039997 20
27.537001 -1.586 8.9960003 21
27.538 -1.595 8.9840002 20
27.535999 -1.605 8.9709997 20
27.527 -1.614 8.9560003 21
27.379999 -1.614 8.8950005 17
26.979 -1.599 8.7519999 11
26.542 -1.5829999 8.5970001 16
26.254999 -1.574 8.4899998 15
26.191999 -1.579 8.4560003 18
26.174 -1.587 8.4350004 18
26.158001 -1.594 8.4160004 20
26.149 -1.602 8.3979998 20
26.143 -1.61 8.3809996 21
26.150999 -1.619 8.3669996 21
26.156 -1.628 8.3529997 21
26.153 -1.635 8.3360004 22
26.153999 -1.643 8.3190002 21
26.153999 -1.651 8.3030005 21
26.142 -1.658 8.2810001 22
26.148001 -1.666 8.2650003 21
26.148001 -1.674 8.2469997 21
26.163 -1.682 8.2329998 20
26.171 -1.691 8.217 21
26.153 -1.697 8.1920004 21
26.157 -1.705 8.1739998 21
26.150999 -1.711 8.1520004 21
26.157 -1.719 8.1339998 21
26.16 -1.726 8.1140003 21
26.163 -1.733 8.0939999 21
26.146999 -1.739 8.0679998 21
26.111 -1.743 8.0349998 18
25.934 -1.738 7.9590001 15
25.702999 -1.729 7.8660002 11
25.399 -1.715 7.7509999 9
25.025 -1.696 7.6149998 11
24.917999 -1.694 7.5599999 11
24.886999 -1.698 7.5289998 11
24.870001 -1.7029999 7.5009999 12
24.844999 -1.706 7.4699998 10
24.799 -1.71 7.4320002 9
24.768 -1.7130001 7.3990002 9
24.745001 -1.716 7.369 9
24.705 -1.719 7.3330002 9
24.674999 -1.722 7.2989998 7
24.631001 -1.724 7.2620001 8
24.604 -1.727 7.2280002 8
24.593 -1.7309999 7.1999998 9
24.549 -1.733 7.1609998 8
24.525 -1.7359999 7.1290002 9
24.511 -1.739 7.099 9
24.490999 -1.742 7.0669999 9
24.464001 -1.744 7.033 9
24.424999 -1.7460001 6.9949999 9
24.414 -1.749 6.9650002 9
24.386999 -1.751 6.9289999 9
24.427999 -1.758 6.9130001 11
24.49 -1.766 6.9029999 16
24.558001 -1.775 6.8940001 19
24.643 -1.784 6.8889999 26
24.729 -1.793 6.8829999 30
24.834999 -1.8049999 6.8829999 25
24.903999 -1.813 6.8730001 27
25.01 -1.824 6.8709998 28
25.108999 -1.834 6.868 27
25.218 -1.845 6.8660002 27
25.322001 -1.8559999 6.8629999 25
25.438999 -1.867 6.8629999 25
25.528 -1.876 6.8540001 29
25.628 -1.886 6.848 24
25.733999 -1.896 6.8439999 26
25.846001 -1.9069999 6.8400002 23
25.975 -1.918 6.8400002 23
26.107 -1.9299999 6.8400002 24
26.207001 -1.939 6.8309999 23
26.343 -1.951 6.8309999 27
26.475 -1.962 6.8299999 23
26.593 -1.973 6.8239999 26
26.726999 -1.984 6.822 24
26.848 -1.994 6.816 30
26.955 -2.0039999 6.8049998 29
27.084999 -2.0139999 6.8000002 24
27.211 -2.0239999 6.7940001 28
27.358999 -2.036 6.7909999 23
27.497 -2.046 6.7870002 28
27.635 -2.0569999 6.7810001 29
27.777 -2.0680001 6.776 30
27.936001 -2.0799999 6.7729998 24
28.077999 -2.0899999 6.7659998 23
28.240999 -2.102 6.7639999 23
28.399 -2.1140001 6.7589998 29
28.555 -2.125 6.7540002 27
28.705 -2.1359999 6.7459998 24
28.872 -2.1470001 6.7410002 25
29.058001 -2.1600001 6.7410002 29
29.211 -2.1700001 6.7319999 24
29.386999 -2.1819999 6.7270002 25
29.584999 -2.1949999 6.7259998 26
29.766001 -2.2060001 6.7210002 24
29.940001 -2.217 6.7140002 24
30.118999 -2.2279999 6.7059999 24
30.313999 -2.24 6.7020001 24
30.493 -2.2509999 6.6929998 24
30.690001 -2.263 6.6880002 24
30.882999 -2.2739999 6.6810002 24
31.089001 -2.2869999 6.6750002 26
31.282 -2.2969999 6.664 25
31.504 -2.3099999 6.6609998 26
31.708 -2.322 6.652 26
31.937 -2.3340001 6.6469998 21
32.150002 -2.345 6.638 21
32.403 -2.359 6.6360002 22
32.616001 -2.3699999 6.6259999 23
32.853001 -2.382 6.618 22
33.073002 -2.3929999 6.6079998 25
33.291 -2.4030001 6.5949998 23
33.527 -2.415 6.585 24
33.694 -2.421 6.5619998 20
33.870998 -2.427 6.5370002 13
34.088001 -2.4360001 6.52 7
34.476002 -2.457 6.5349998 3
34.562 -2.457 6.4910002 2
34.813999 -2.467 6.4780002 2
34.098 -2.4089999 6.2849998 2
34.075001 -2.401 6.223 2
34.055 -2.391 6.158 2
34.007999 -2.381 6.0910001 1
0 0 0 0
0 0 0 0
0 0 0 2
37.691002 -2.5999999 6.4819999 2
0 0 0 0
0 0 0 1
0 0 0 0
0 0 0 0
0 0 0 0
0 0 0 0
0 0 0 0
0 0 0 0
0 0 0 0
0 0 0 0
0 0 0 0
0 0 0 0
0 0 0 0
0 0 0 0
0 0 0 0
0 0 0 0
0 0 0 0
0 0 0 0
0 0 0 0
0 0 0 0
0 0 0 0
0 0 0 2
0 0 0 0
0 0 0 0
0 0 0 0
0 0 0 0
0 0 0 0
0 0 0 0
0 0 0 0
0 0 0 0
0 0 0 0
0 0 0 6
52.553001 -2.9719999 5.803 7
52.714001 -2.9549999 5.7189999 6
52.676998 -2.927 5.6129999 7
52.733002 -2.9030001 5.5170002 7
52.604 -2.868 5.4029999 5
0 0 0 0
0 0 0 8
33.793999 -1.789 3.276 27
33.759998 -1.768 3.2060001 59
33.728001 -1.748 3.1370001 79
33.706001 -1.728 3.0699999 91
33.679001 -1.7079999 3.0009999 106
33.701 -1.689 2.937 104
33.666 -1.668 2.869 99
33.667999 -1.648 2.803 101
33.661999 -1.628 2.7379999 108
33.673 -1.608 2.6719999 109
33.660999 -1.587 2.6059999 99
33.646 -1.566 2.5380001 94
33.632999 -1.544 2.471 101
33.660999 -1.524 2.4070001 89
33.655998 -1.502 2.3410001 78
33.643002 -1.48 2.2739999 69
33.637001 -1.4579999 2.207 73
33.636002 -1.436 2.142 83
33.637001 -1.413 2.076 81
33.631001 -1.39 2.01 86
33.622002 -1.367 1.943 87
33.609001 -1.3430001 1.876 88
33.602001 -1.3200001 1.8099999 101
33.597 -1.295 1.743 107
33.581001 -1.271 1.675 108
33.587002 -1.247 1.61 106
33.583 -1.223 1.544 104
33.57 -1.198 1.477 105
33.560001 -1.173 1.411 107
33.558998 -1.148 1.345 105
33.549999 -1.122 1.279 105
33.550999 -1.097 1.2130001 104
33.549999 -1.071 1.147 109
33.529999 -1.045 1.082 98
33.542999 -1.0190001 1.016 108
33.540001 -0.99299997 0.94999999 105
33.521999 -0.96499997 0.88300002 92
33.542 -0.93900001 0.81800002 78
33.557999 -0.912 0.75300002 59
33.527 -0.884 0.68699998 36
33.533001 -0.85699999 0.62199998 24
33.525002 -0.829 0.55599999 16
33.542999 -0.801 0.491 7
33.73 -0.778 0.428 2
33.912998 -0.75300002 0.36399999 2
0 0 0 0
0 0 0 1
20.565001 -0.40400001 0.101 1
20.500999 -0.38499999 0.061999999 1
20.524 -0.36700001 0.022 1
20.459999 -0.34799999 -0.017000001 1
20.438 -0.329 -0.056000002 1
0 0 0 0
0 0 0 0
0 0 0 0
0 0 0 1
0 0 0 0
0 0 0 25
36.405998 -0.35499999 -0.58600003 26
36.372002 -0.32100001 -0.65399998 24
36.847 -0.28999999 -0.73299998 23
37.314999 -0.25799999 -0.81300002 61
37.492001 -0.22400001 -0.88800001 9
37.831001 -0.19 -0.96700001 8
0 0 0 1
25.165001 -0.077 -0.73799998 151
25.177 -0.052000001 -0.78600001 164
25.200001 -0.028000001 -0.83399999 161
25.139 -0.003 -0.87900001 160
25.117001 0.021 -0.92500001 155
25.094999 0.046999998 -0.972 169
25.084 0.071999997 -1.018 156
25.094 0.097999997 -1.066 73
25.142 0.123 -1.114 17
25.048 0.149 -1.1569999 3
24.271 0.169 -1.165 3
0 0 0 1
0 0 0 0
0 0 0 1
17.905001 0.199 -0.991 2
16.829 0.205 -0.96200001 2
15.923 0.20999999 -0.93900001 3
15.091 0.215 -0.917 2
14.414 0.221 -0.90200001 3
13.766 0.226 -0.88499999 3
13.157 0.23 -0.87 3
12.658 0.235 -0.86000001 3
12.096 0.23800001 -0.84299999 3
11.604 0.241 -0.82999998 2
11.23 0.245 -0.82300001 2
10.839 0.248 -0.81300002 2
10.456 0.25099999 -0.80299997 3
10.094 0.25299999 -0.79299998 3
9.7790003 0.25600001 -0.78500003 3
9.4510002 0.25799999 -0.77499998 4
9.1499996 0.25999999 -0.76700002 4
8.9200001 0.264 -0.76300001 4
8.6719999 0.26699999 -0.75700003 3
8.4379997 0.26899999 -0.75099999 3
8.1809998 0.27000001 -0.74199998 3
7.9679999 0.27200001 -0.73699999 3
7.7329998 0.273 -0.72799999 4
7.5370002 0.27500001 -0.722 3
7.3470001 0.27599999 -0.71700001 3
7.1529999 0.27700001 -0.70999998 4
6.9629998 0.278 -0.70300001 4
6.8039999 0.27900001 -0.69800001 4
6.6810002 0.28200001 -0.69700003 3
6.5029998 0.28200001 -0.68900001 3
6.3530002 0.28299999 -0.68300003 3
6.1849999 0.28299999 -0.67500001 6
6.0619998 0.28400001 -0.67199999 10
5.9780002 0.287 -0.67199999 10
5.881 0.28999999 -0.671 8
5.7600002 0.28999999 -0.66600001 7
5.6440001 0.29100001 -0.662 6
5.5110002 0.29100001 -0.65499997 4
5.3889999 0.29100001 -0.64899999 3
5.3039999 0.29300001 -0.648 3
5.217 0.294 -0.64499998 3
5.1110001 0.294 -0.63999999 3
5.026 0.296 -0.63800001 3
4.9400001 0.296 -0.634 3
4.862 0.29800001 -0.63200003 3
4.776 0.29800001 -0.62800002 3
4.7020001 0.29899999 -0.62599999 3
4.6230001 0.30000001 -0.62199998 3
4.553 0.301 -0.62 3
4.4970002 0.303 -0.61900002 3
4.4429998 0.30399999 -0.61799997 3
4.3839998 0.30599999 -0.61699998 3
4.3210001 0.30700001 -0.61500001 2
4.2950001 0.31 -0.61699998 2
4.2080002 0.30899999 -0.611 2
4.1690001 0.31099999 -0.611 2
4.197 0.31799999 -0.62199998 4
4.0619998 0.31299999 -0.60799998 2
4.066 0.31799999 -0.61400002 2
4.0190001 0.31999999 -0.61299998 3
3.9679999 0.31999999 -0.611 2
3.908 0.31999999 -0.60699999 2
3.8670001 0.322 -0.60600001 3
3.766 0.31799999 -0.59600002 3
3.7479999 0.32100001 -0.59799999 4
3.7179999 0.32300001 -0.59799999 4
3.7449999 0.33000001 -0.60799998 3
3.6459999 0.32600001 -0.597 2
3.5829999 0.32499999 -0.59100002 1
3.559 0.32699999 -0.59200001 2
3.4790001 0.324 -0.58399999 2
3.4590001 0.32600001 -0.58499998 2
3.4790001 0.33199999 -0.59299999 1
3.427 0.33199999 -0.58899999 1
3.4690001 0.34 -0.60100001 2
3.3629999 0.33399999 -0.58700001 1
3.4330001 0.345 -0.60299999 2
3.299 0.336 -0.58399999 1
3.3050001 0.34 -0.58899999 1
3.299 0.34400001 -0.59200001 2
3.2780001 0.345 -0.59299999 1
3.21 0.34200001 -0.58399999 1
3.2869999 0.354 -0.602 2
3.1789999 0.347 -0.58700001 1
3.1919999 0.352 -0.59299999 1
3.1340001 0.34900001 -0.58600003 1
3.1440001 0.354 -0.59200001 1
3.063 0.34900001 -0.57999998 1
3.0090001 0.34599999 -0.57300001 2
2.9809999 0.347 -0.57200003 2
2.9619999 0.34799999 -0.57099998 2
2.9389999 0.34900001 -0.56999999 2
2.9159999 0.34999999 -0.56900001 2
2.8870001 0.34999999 -0.56699997 2
2.8640001 0.35100001 -0.56599998 2
2.849 0.352 -0.56599998 1
2.8399999 0.35499999 -0.56699997 2
2.8139999 0.35499999 -0.565 2
2.7969999 0.35600001 -0.565 2
2.7809999 0.35699999 -0.565 2
2.7690001 0.359 -0.565 2
2.7449999 0.359 -0.56300002 2
2.73 0.361 -0.56300002 2
2.7149999 0.36199999 -0.56300002 2
2.7019999 0.36300001 -0.56300002 1
2.681 0.36399999 -0.56099999 1
2.6689999 0.36500001 -0.56199998 1
2.645 0.36500001 -0.55900002 1
2.6440001 0.368 -0.56199998 2
2.6110001 0.36700001 -0.55699998 1
2.6059999 0.36899999 -0.55900002 1
2.5899999 0.37 -0.55800003 1
2.5810001 0.37099999 -0.55800003 2
2.5639999 0.37200001 -0.55699998 1
2.553 0.373 -0.55699998 2
2.546 0.375 -0.55800003 2
2.53 0.375 -0.55699998 2
2.5179999 0.377 -0.55599999 2
2.5050001 0.377 -0.55599999 2
2.4990001 0.37900001 -0.55699998 2
2.4879999 0.38100001 -0.55599999 2
2.477 0.382 -0.55599999 1
2.4630001 0.382 -0.55500001 1
2.451 0.38299999 -0.55400002 1
2.441 0.384 -0.55400002 1
2.4230001 0.384 -0.55199999 1
2.418 0.38600001 -0.55299997 1
2.4089999 0.38699999 -0.55299997 1
2.392 0.38699999 -0.551 1
2.3889999 0.389 -0.55199999 1
2.3770001 0.38999999 -0.551 1
2.3699999 0.391 -0.551 1
2.3559999 0.391 -0.55000001 1
2.349 0.39300001 -0.55000001 1
2.3399999 0.39399999 -0.54900002 1
2.336 0.396 -0.55000001 1
2.3199999 0.39500001 -0.54799998 1
2.3169999 0.39700001 -0.54900002 1
2.3080001 0.398 -0.54799998 2
2.3 0.39899999 -0.54799998 2
2.296 0.40099999 -0.54900002 2
2.289 0.40200001 -0.54799998 2
2.283 0.403 -0.54799998 2
2.266 0.40200001 -0.546 2
2.2620001 0.40400001 -0.546 2
2.25 0.40400001 -0.54500002 2
2.25 0.40599999 -0.546 2
2.237 0.40599999 -0.54400003 2
2.2320001 0.40700001 -0.54400003 1
2.223 0.40799999 -0.54299998 1
2.2249999 0.41 -0.54500002 1
2.2219999 0.412 -0.546 1
2.2160001 0.41299999 -0.54500002 1
2.2160001 0.41499999 -0.54699999 1
2.2090001 0.41600001 -0.546 1
2.198 0.41600001 -0.54400003 1
2.1960001 0.417 -0.54500002 1
2.191 0.419 -0.54500002 1
2.178 0.41800001 -0.54299998 1
2.1830001 0.421 -0.54500002 1
2.184 0.42300001 -0.546 1
2.1789999 0.42399999 -0.546 1
2.164 0.42300001 -0.54299998 1
2.165 0.42500001 -0.54400003 1
2.151 0.42399999 -0.54100001 1
2.1500001 0.426 -0.542 1
2.1459999 0.42699999 -0.542 1
2.1459999 0.42899999 -0.54299998 1
2.138 0.42899999 -0.54100001 1
2.138 0.43099999 -0.542 1
2.135 0.43200001 -0.542 1
2.1289999 0.43200001 -0.54100001 1
2.131 0.43399999 -0.542 1
2.1259999 0.435 -0.542 1
2.115 0.43399999 -0.54000002 1
2.122 0.43799999 -0.542 1
2.1170001 0.43799999 -0.54100001 1
2.1159999 0.44 -0.542 1
2.1070001 0.43900001 -0.54000002 1
2.108 0.44100001 -0.54100001 1
2.108 0.44299999 -0.54100001 1
2.1070001 0.44400001 -0.54100001 1
2.1010001 0.44400001 -0.54000002 1
2.099 0.44499999 -0.54000002 1
2.098 0.447 -0.54000002 1
2.0969999 0.44800001 -0.54000002 1
2.0999999 0.44999999 -0.542 1
2.096 0.45100001 -0.54100001 1
2.0910001 0.45100001 -0.54000002 1
2.0910001 0.45199999 -0.54000002 1
2.0910001 0.454 -0.54000002 1
2.0899999 0.45500001 -0.54000002 1
2.092 0.456 -0.54100001 1
2.0929999 0.458 -0.542 1
2.089 0.45899999 -0.54100001 1
2.0829999 0.458 -0.53899997 1
2.0829999 0.46000001 -0.53899997 1
2.086 0.461 -0.54000002 1
2.086 0.463 -0.54000002 1
2.089 0.465 -0.54100001 1
2.0869999 0.465 -0.54100001 1
2.0840001 0.46599999 -0.54000002 1
2.085 0.46700001 -0.54000002 1
2.0869999 0.46900001 -0.54100001 1
2.0829999 0.46900001 -0.53899997 1
2.089 0.47099999 -0.54100001 1
2.0899999 0.47299999 -0.54100001 1
2.086 0.47299999 -0.54000002 1
2.0799999 0.47299999 -0.53799999 1
2.0940001 0.477 -0.54100001 1
2.0869999 0.47600001 -0.54000002 1
2.089 0.477 -0.54000002 1
2.0910001 0.479 -0.54000002 1
2.0910001 0.47999999 -0.54000002 1
2.096 0.48199999 -0.54100001 1
2.0969999 0.48300001 -0.54100001 1
2.095 0.48300001 -0.54000002 1
2.095 0.484 -0.54000002 1
2.096 0.48500001 -0.54000002 1
2.092 0.48500001 -0.53799999 1
2.099 0.48699999 -0.53899997 1
2.0999999 0.48800001 -0.53899997 1
2.102 0.48899999 -0.53899997 1
2.1010001 0.49000001 -0.53799999 1
2.1059999 0.49200001 -0.53899997 1
2.1040001 0.49200001 -0.53799999 1
2.1110001 0.49399999 -0.54000002 1
2.1210001 0.49700001 -0.54100001 1
2.122 0.498 -0.54100001 1
2.122 0.49900001 -0.54000002 1
2.1229999 0.5 -0.54000002 1
2.1229999 0.5 -0.53899997 1
2.1259999 0.50099999 -0.54000002 1
2.1359999 0.50400001 -0.54100001 1
2.1389999 0.505 -0.54100001 1
2.1440001 0.50700003 -0.542 1
2.1370001 0.50599998 -0.53899997 1
2.1440001 0.50800002 -0.54000002 1
2.1470001 0.509 -0.54000002 1
2.1559999 0.51099998 -0.542 1
2.158 0.51200002 -0.54100001 1
2.1600001 0.51300001 -0.54100001 1
2.171 0.51599997 -0.542 1
2.165 0.51499999 -0.54000002 1
2.1719999 0.51700002 -0.54100001 1
2.181 0.51899999 -0.542 1
2.184 0.51999998 -0.542 1
2.1860001 0.51999998 -0.54100001 1
2.197 0.523 -0.54299998 1
2.198 0.523 -0.542 1
2.204 0.52499998 -0.542 1
2.2149999 0.528 -0.54400003 2
2.2190001 0.52899998 -0.54400003 2
2.2219999 0.52999997 -0.54299998 2
2.223 0.52999997 -0.542 2
2.2320001 0.53200001 -0.54299998 2
2.2360001 0.53299999 -0.54299998 2
2.2490001 0.53600001 -0.54500002 2
2.2490001 0.53600001 -0.54400003 2
2.2509999 0.53600001 -0.54299998 2
2.2609999 0.53899997 -0.54400003 2
2.2650001 0.53899997 -0.54299998 2
2.276 0.542 -0.54500002 2
2.28 0.542 -0.54400003 2
2.2880001 0.54400003 -0.54500002 2
2.296 0.546 -0.54500002 2
2.303 0.54699999 -0.54500002 2
2.3139999 0.54900002 -0.546 2
2.323 0.551 -0.54699999 2
2.332 0.55299997 -0.54699999 2
2.3440001 0.55500001 -0.54799998 2
2.348 0.55599999 -0.54799998 2
2.3510001 0.55599999 -0.54699999 2
2.3640001 0.55900002 -0.54799998 2
2.3740001 0.56099999 -0.54900002 2
2.381 0.56199998 -0.54900002 2
2.3859999 0.56199998 -0.54799998 2
2.391 0.56300002 -0.54699999 2
2.4059999 0.56599998 -0.54900002 2
2.4260001 0.56999999 -0.55199999 2
2.431 0.56999999 -0.551 2
2.438 0.57099998 -0.551 2
2.4460001 0.57200003 -0.55000001 2
2.46 0.57499999 -0.551 2
2.47 0.57599998 -0.55199999 2
2.4749999 0.57700002 -0.551 2
2.4960001 0.58099997 -0.55400002 2
2.5 0.58099997 -0.55199999 2
2.5079999 0.58200002 -0.55199999 2
2.5250001 0.58499998 -0.55400002 2
2.5369999 0.58600003 -0.55400002 2
2.5439999 0.58700001 -0.55400002 2
2.5510001 0.58700001 -0.55299997 2
2.5669999 0.58999997 -0.55400002 2
2.5810001 0.59200001 -0.55500001 2
2.596 0.59500003 -0.55599999 2
2.6140001 0.597 -0.55699998 2
2.6199999 0.59799999 -0.55599999 2
2.628 0.59799999 -0.55500001 2
2.6440001 0.60000002 -0.55599999 2
2.6570001 0.602 -0.55699998 2
2.6760001 0.60500002 -0.55800003 2
2.6849999 0.60600001 -0.55699998 2
2.7 0.60799998 -0.55800003 2
2.723 0.611 -0.56 2
2.734 0.61199999 -0.56 2
2.7460001 0.61299998 -0.55900002 2
2.7650001 0.616 -0.56099999 2
2.7839999 0.61799997 -0.56199998 2
2.7920001 0.61900002 -0.56099999 2
2.8080001 0.62099999 -0.56099999 2
2.826 0.62300003 -0.56199998 2
2.842 0.62400001 -0.56199998 2
2.858 0.62599999 -0.56300002 2
2.868 0.62599999 -0.56099999 2
2.8970001 0.63099998 -0.56400001 1
3.02 0.65600002 -0.58499998 2
3.026 0.65499997 -0.583 2
3.0320001 0.65399998 -0.58099997 2
2.98 0.64099997 -0.56800002 2
3.1329999 0.671 -0.59399998 2
3.135 0.66900003 -0.59100002 1
3.141 0.66799998 -0.58899999 2
3.1300001 0.66399997 -0.583 2
3.2260001 0.68199998 -0.59799999 2
3.233 0.68099999 -0.59600002 2
3.266 0.685 -0.59799999 2
3.1489999 0.65799999 -0.57300001 1
3.1789999 0.66100001 -0.57499999 1
3.2579999 0.67500001 -0.58600003 1
3.293 0.68000001 -0.58899999 1
3.461 0.71200001 -0.61500001 2
3.3959999 0.69499999 -0.60000002 2
3.3469999 0.68199998 -0.58700001 2
3.388 0.68800002 -0.59100002 2
3.497 0.70700002 -0.60600001 2
3.392 0.68300003 -0.58399999 2
3.415 0.68400002 -0.58399999 1
3.4030001 0.67900002 -0.57800001 2
3.4949999 0.69400001 -0.58899999 1
3.5369999 0.699 -0.59200001 3
3.566 0.70099998 -0.59299999 3
3.5869999 0.70200002 -0.59299999 2
3.645 0.70999998 -0.59799999 3
3.6040001 0.69800001 -0.58700001 2
3.7049999 0.71399999 -0.59899998 3
3.6989999 0.70899999 -0.59399998 2
3.7520001 0.71600002 -0.59799999 2
3.7869999 0.71899998 -0.59899998 2
3.8440001 0.72500002 -0.60399997 2
3.8759999 0.727 -0.60399997 2
4.0050001 0.74699998 -0.62 3
3.895 0.72299999 -0.59799999 4
3.9119999 0.722 -0.59600002 4
3.938 0.722 -0.59500003 4
4.0440001 0.73699999 -0.60600001 3
4.0450001 0.73299998 -0.602 3
4.145 0.74699998 -0.61199999 3
4.1929998 0.75 -0.61400002 3
4.1719999 0.74199998 -0.60500002 3
4.171 0.73699999 -0.60000002 2
4.2420001 0.745 -0.60500002 2
4.3400002 0.75700003 -0.61400002 3
4.3299999 0.75 -0.60799998 4
4.3769999 0.75300002 -0.60900003 3
4.4310002 0.75700003 -0.611 3
4.487 0.76200002 -0.61299998 3
4.5359998 0.764 -0.61400002 3
4.5739999 0.76499999 -0.61400002 3
4.638 0.76999998 -0.61699998 3
4.6929998 0.77399999 -0.61900002 3
4.7690001 0.77999997 -0.62300003 3
4.8039999 0.77999997 -0.62199998 3
4.8860002 0.787 -0.62599999 3
4.9499998 0.79100001 -0.62800002 3
5.0159998 0.79500002 -0.63099998 3
5.086 0.80000001 -0.63300002 5
5.1690001 0.80599999 -0.63700002 3
5.2360001 0.81 -0.639 3
5.3169999 0.81599998 -0.64200002 3
5.3850002 0.81900001 -0.64399999 3
