# .PCD v0.7 - Point Cloud Data file format
VERSION 0.7
FIELDS x y z intensity
SIZE 4 4 4 4
TYPE F F F F
COUNT 1 1 1 1
WIDTH 1776
HEIGHT 1
VIEWPOINT 0 0 0 1 0 0 0
POINTS 1776
DATA ascii
3.3099999 0.82099998 -0.58999997 2
3.2869999 0.81300002 -0.583 2
3.3629999 0.82999998 -0.59299999 2
3.375 0.83099997 -0.59299999 2
3.3870001 0.83099997 -0.59200001 2
3.3870001 0.829 -0.58899999 2
3.464 0.84500003 -0.59899998 2
3.3970001 0.82700002 -0.58399999 2
3.388 0.82200003 -0.57999998 3
3.4119999 0.82499999 -0.58099997 3
3.437 0.829 -0.58200002 3
3.4519999 0.82999998 -0.58099997 3
3.4660001 0.83099997 -0.57999998 3
3.4809999 0.83200002 -0.57999998 3
3.5090001 0.83499998 -0.58099997 3
3.523 0.83600003 -0.57999998 3
3.549 0.83899999 -0.58099997 3
3.6270001 0.85500002 -0.58999997 2
3.7030001 0.87 -0.59899998 2
3.7060001 0.86699998 -0.59600002 2
3.753 0.875 -0.60000002 2
3.7190001 0.86400002 -0.59100002 2
3.832 0.88700002 -0.60500002 2
3.7980001 0.87599999 -0.59600002 2
3.918 0.89999998 -0.611 2
3.8929999 0.89099997 -0.60399997 2
4 0.91100001 -0.616 3
3.8529999 0.87400001 -0.58999997 3
3.8800001 0.87699997 -0.58999997 3
4.039 0.90899998 -0.61000001 3
4.0120001 0.89899999 -0.602 3
4.1230001 0.92000002 -0.61500001 3
4.073 0.90399998 -0.60299999 3
4.1139998 0.90899998 -0.60500002 4
4.1139998 0.90499997 -0.60100001 2
4.1279998 0.90399998 -0.59899998 2
4.2210002 0.92000002 -0.60799998 4
4.2069998 0.91299999 -0.602 2
4.2690001 0.92199999 -0.60600001 2
4.2800002 0.92000002 -0.60399997 2
4.3260002 0.92500001 -0.60600001 2
4.3699999 0.92900002 -0.60699999 2
4.4070001 0.93199998 -0.60799998 2
4.4520001 0.93699998 -0.61000001 2
4.52 0.94599998 -0.61400002 2
4.566 0.95099998 -0.616 4
4.619 0.95700002 -0.61799997 3
4.6529999 0.958 -0.61799997 2
4.7119999 0.96499997 -0.62099999 2
4.7509999 0.96799999 -0.62099999 2
4.803 0.97299999 -0.62300003 3
4.8569999 0.97799999 -0.625 2
4.902 0.98100001 -0.625 2
4.9629998 0.98699999 -0.62800002 4
5.026 0.99400002 -0.63099998 2
5.0929999 1.001 -0.634 2
5.1630001 1.008 -0.63700002 2
5.2140002 1.011 -0.63800001 2
5.2839999 1.018 -0.64099997 3
5.3449998 1.023 -0.64200002 3
5.4130001 1.029 -0.64499998 3
5.4860001 1.036 -0.648 3
5.5609999 1.043 -0.65100002 3
5.6259999 1.048 -0.65200001 3
5.6880002 1.052 -0.65399998 3
5.7579999 1.057 -0.65499997 3
5.8410001 1.0650001 -0.65899998 3
5.9200001 1.071 -0.66100001 3
5.9970002 1.077 -0.66399997 3
6.098 1.087 -0.66799998 3
6.1739998 1.092 -0.67000002 3
6.2579999 1.098 -0.67299998 3
6.369 1.108 -0.67799997 3
6.4559999 1.115 -0.68000001 3
6.5349998 1.119 -0.68199998 3
6.6620002 1.131 -0.68800002 4
6.7680001 1.14 -0.69099998 4
6.8569999 1.145 -0.69300002 4
6.9990001 1.158 -0.69999999 4
7.086 1.1619999 -0.70099998 4
7.1890001 1.169 -0.704 4
7.316 1.179 -0.70899999 4
7.4050002 1.182 -0.70999998 3
7.533 1.191 -0.71399999 4
7.6599998 1.2 -0.71799999 4
7.7950001 1.209 -0.722 3
7.9289999 1.2180001 -0.72600001 4
8.0649996 1.226 -0.73000002 5
8.2469997 1.2410001 -0.73799998 8
8.3649998 1.2460001 -0.74000001 16
8.4280005 1.242 -0.73699999 16
8.5640001 1.249 -0.74000001 17
8.6999998 1.255 -0.74299997 17
8.8310003 1.26 -0.74400002 13
9.0010004 1.27 -0.74900001 11
9.1789999 1.281 -0.755 5
9.3809996 1.294 -0.76200002 4
9.5430002 1.301 -0.76499999 4
9.7659998 1.316 -0.773 4
9.9809999 1.3279999 -0.77999997 3
10.179 1.3380001 -0.78500003 2
10.379 1.347 -0.79000002 3
10.577 1.355 -0.79400003 3
10.779 1.364 -0.79799998 3
11.02 1.376 -0.80500001 3
11.276 1.3890001 -0.81199998 3
11.488 1.396 -0.81599998 3
11.716 1.403 -0.81999999 3
11.952 1.411 -0.82499999 2
12.238 1.424 -0.83200002 3
12.503 1.433 -0.838 3
12.841 1.45 -0.84799999 3
13.183 1.466 -0.85799998 3
13.491 1.477 -0.86400002 3
13.719 1.478 -0.86500001 3
13.914 1.475 -0.86400002 4
14.542 1.516 -0.889 2
14.953 1.533 -0.89899999 2
15.417 1.553 -0.91299999 2
15.928 1.576 -0.92699999 2
16.493 1.603 -0.94400001 1
17.079 1.6289999 -0.96200001 2
16.763 1.569 -0.92799997 2
17.205999 1.58 -0.93599999 1
17.615 1.586 -0.94199997 1
0 0 0 4
19.41 1.677 -1.001 4
0 0 0 2
0 0 0 0
0 0 0 3
0 0 0 0
0 0 0 0
0 0 0 0
0 0 0 1
0 0 0 2
28.85 2.0139999 -1.252 1
0 0 0 5
0 0 0 0
0 0 0 2
0 0 0 26
24.687 1.49 -0.96200001 152
24.622 1.439 -0.93800002 153
24.658001 1.3940001 -0.91799998 160
24.66 1.346 -0.89700001 165
24.747 1.3049999 -0.87900001 162
24.700001 1.255 -0.85699999 7
0 0 0 25
36.837002 1.729 -1.216 80
36.848999 1.658 -1.186 94
0 0 0 5
20.483999 0.84200001 -0.625 4
20.061001 0.78500003 -0.59600002 5
19.778999 0.736 -0.57200003 1
19.48 0.68599999 -0.54699999 1
19.107 0.63499999 -0.52200001 1
18.813999 0.588 -0.49900001 1
18.618999 0.54500002 -0.479 1
18.341999 0.50099999 -0.45699999 1
18.056999 0.458 -0.43599999 2
17.653 0.412 -0.41299999 4
17.483 0.373 -0.396 3
17.488001 0.33899999 -0.38299999 3
17.34 0.301 -0.366 1
0 0 0 0
0 0 0 0
0 0 0 1
17.094999 0.16 -0.31099999 1
17.059999 0.125 -0.29800001 1
17.052999 0.090999998 -0.28600001 1
17.024 0.056000002 -0.273 1
0 0 0 0
0 0 0 0
0 0 0 0
0 0 0 0
0 0 0 0
0 0 0 1
16.92 -0.183 -0.191 1
16.896 -0.21699999 -0.18000001 1
16.858 -0.25099999 -0.169 1
16.875 -0.285 -0.15800001 1
17.009001 -0.322 -0.149 6
17.028 -0.35800001 -0.138 6
16.962999 -0.391 -0.127 10
16.882999 -0.42399999 -0.116 18
16.915001 -0.46000001 -0.106 11
16.902 -0.49399999 -0.096000001 10
16.917 -0.52999997 -0.086000003 8
16.919001 -0.56400001 -0.075999998 7
16.915001 -0.59899998 -0.066 6
16.93 -0.634 -0.056000002 4
16.948 -0.67000002 -0.046999998 2
16.968 -0.70499998 -0.037999999 1
16.944 -0.74000001 -0.028000001 1
0 0 0 0
0 0 0 0
0 0 0 0
0 0 0 0
0 0 0 0
0 0 0 0
0 0 0 1
17.624001 -1.061 0.043000001 1
17.604 -1.097 0.052000001 1
17.646999 -1.135 0.061000001 1
17.826 -1.184 0.07 1
18.424 -1.262 0.081 2
18.533001 -1.308 0.090000004 2
0 0 0 0
0 0 0 0
0 0 0 0
0 0 0 7
0 0 0 3
34.096001 -2.8299999 0.255 9
33.922001 -2.8859999 0.26699999 24
33.830002 -2.948 0.28 55
33.813999 -3.016 0.294 124
33.821999 -3.0869999 0.30700001 124
33.839001 -3.1589999 0.32100001 136
33.849998 -3.23 0.333 123
33.859001 -3.299 0.345 120
33.887001 -3.372 0.35800001 96
33.886002 -3.4419999 0.37 120
33.901001 -3.513 0.382 117
33.931 -3.5869999 0.39399999 120
0 0 0 14
17.615999 -1.934 0.21600001 22
17.542 -1.961 0.221 27
17.504 -1.993 0.226 34
17.457001 -2.023 0.23 39
17.42 -2.0539999 0.235 40
17.414 -2.089 0.23999999 41
17.389 -2.1210001 0.245 49
17.375999 -2.154 0.249 32
17.348 -2.1860001 0.25299999 49
17.333 -2.22 0.25799999 36
17.323999 -2.2539999 0.26199999 66
17.308001 -2.2869999 0.266 66
17.302 -2.3199999 0.27000001 69
17.306999 -2.3559999 0.27500001 39
17.304001 -2.3900001 0.278 61
17.306 -2.425 0.28200001 58
17.325001 -2.4630001 0.28600001 52
17.337 -2.4990001 0.28999999 34
17.353001 -2.536 0.294 35
17.357 -2.5710001 0.29699999 54
17.378 -2.609 0.301 33
17.400999 -2.6470001 0.30500001 41
17.417999 -2.684 0.308 39
17.464001 -2.7260001 0.31200001 20
17.518 -2.7690001 0.31600001 22
17.58 -2.8139999 0.31999999 15
17.688999 -2.8659999 0.324 1
0 0 0 0
0 0 0 2
38.437 -6.4520001 0.72100002 3
38.372002 -6.5159998 0.72399998 4
38.432999 -6.6009998 0.73000002 4
38.484001 -6.684 0.73500001 4
38.473999 -6.756 0.73900002 4
38.494999 -6.8340001 0.74299997 4
0 0 0 30
34.720001 -6.296 0.676 32
0 0 0 0
0 0 0 0
0 0 0 0
0 0 0 0
0 0 0 0
0 0 0 4
34.868 -6.783 0.69300002 25
34.817001 -6.8390002 0.69400001 50
34.632999 -6.8670001 0.69099998 19
34.519001 -6.9089999 0.69 39
34.525002 -6.974 0.69 76
34.540001 -7.0409999 0.69099998 79
34.530998 -7.1030002 0.69099998 78
34.562 -7.1729999 0.69099998 83
34.560001 -7.2350001 0.69199997 81
34.584999 -7.303 0.69199997 83
34.601002 -7.369 0.69099998 82
34.613998 -7.4349999 0.69 79
34.625 -7.4990001 0.69 67
0 0 0 2
30.271 -6.664 0.60100001 2
30.290001 -6.7220001 0.60000002 1
30.267 -6.7709999 0.59799999 1
30.469999 -6.8699999 0.60000002 1
0 0 0 21
34.715 -7.9489999 0.67900002 26
34.713001 -8.0080004 0.67699999 25
34.731998 -8.073 0.67400002 28
34.751999 -8.1379995 0.67199999 25
34.75 -8.1969995 0.66799998 27
34.762001 -8.2589998 0.66500002 26
0 0 0 0
0 0 0 0
0 0 0 1
27.847 -6.803 0.52100003 3
27.867001 -6.8540001 0.51800001 2
0 0 0 0
0 0 0 0
0 0 0 2
31.031 -7.835 0.56 3
30.959 -7.8670001 0.55500001 7
30.997999 -7.927 0.551 6
30.964001 -7.9689999 0.54500002 7
30.975 -8.0220003 0.54100001 6
30.999001 -8.0760002 0.53600001 6
31.007999 -8.1269999 0.53100002 6
31.004 -8.1739998 0.52499998 6
31.003 -8.2220001 0.52100003 6
31.016001 -8.2729998 0.51499999 5
31.014999 -8.3210001 0.509 6
31.052999 -8.3789997 0.505 5
31.041 -8.4230003 0.498 5
31.070999 -8.4779997 0.49200001 5
0 0 0 0
0 0 0 0
0 0 0 2
30.750999 -8.573 0.46200001 1
0 0 0 3
0 0 0 0
0 0 0 6
30.582001 -8.7010002 0.43200001 7
30.58 -8.7440004 0.42500001 10
30.563 -8.7819996 0.417 11
30.582001 -8.8299999 0.41 13
30.604 -8.8789997 0.403 15
30.601999 -8.9200001 0.39500001 14
30.611 -8.9630003 0.38699999 13
30.636999 -9.0120001 0.37900001 13
30.625 -9.0500002 0.37099999 10
30.610001 -9.0869999 0.36300001 8
30.587 -9.1199999 0.35499999 8
30.542 -9.1470003 0.34599999 7
0 0 0 1
28.127001 -8.4949999 0.303 4
28.103001 -8.5240002 0.29499999 8
28.056999 -8.5450001 0.287 13
28.041 -8.5740004 0.278 19
28.032 -8.6059999 0.271 29
28.017 -8.6370001 0.26100001 36
27.627001 -8.5489998 0.25 17
27.198999 -8.4490004 0.237 22
27.122 -8.4569998 0.228 28
27.086 -8.4770002 0.22 31
27.030001 -8.4910002 0.212 35
27.007999 -8.5150003 0.20299999 39
26.965 -8.5319996 0.19400001 40
26.936001 -8.5530005 0.186 35
26.917999 -8.5769997 0.177 45
26.886999 -8.5970001 0.169 43
26.878 -8.6230001 0.16 44
26.855 -8.6450005 0.15099999 49
26.836 -8.6669998 0.142 48
26.829 -8.6929998 0.133 53
26.820999 -8.7180004 0.124 45
26.804001 -8.7399998 0.114 56
26.77 -8.7550001 0.105 65
26.777 -8.7840004 0.096000001 48
26.775999 -8.8100004 0.086999997 57
26.791 -8.8409996 0.078000002 42
26.777 -8.8620005 0.068999998 50
26.777 -8.8870001 0.059999999 47
26.771999 -8.9099998 0.050000001 45
26.757 -8.9289999 0.041000001 44
26.778 -8.9610004 0.030999999 42
26.778999 -8.9849997 0.021 42
26.785 -9.0109997 0.012 33
26.785999 -9.0340004 0.0020000001 38
26.795 -9.0600004 -0.0070000002 38
26.813 -9.0889997 -0.017000001 34
26.818001 -9.1129999 -0.027000001 27
0 0 0 1
9.9040003 -3.381 -0.017000001 3
9.882 -3.381 -0.02 7
9.8439999 -3.3759999 -0.024 8
9.8170004 -3.3740001 -0.028000001 9
9.7869997 -3.3710001 -0.030999999 10
9.7670002 -3.3710001 -0.035 18
9.7559996 -3.3740001 -0.039000001 12
9.7250004 -3.3699999 -0.041999999 19
9.7060003 -3.3699999 -0.046 22
9.7019997 -3.375 -0.048999999 14
9.6800003 -3.3740001 -0.052999999 23
9.684 -3.382 -0.057 15
9.665 -3.381 -0.059999999 17
9.6529999 -3.3829999 -0.064000003 18
9.6459999 -3.3859999 -0.068000004 17
9.6440001 -3.391 -0.071999997 17
9.6269999 -3.391 -0.075000003 18
9.6129999 -3.391 -0.079000004 18
9.6190004 -3.398 -0.082000002 18
9.6040001 -3.398 -0.086000003 19
9.6120005 -3.4059999 -0.090000004 20
9.6070004 -3.4089999 -0.093999997 20
9.6009998 -3.411 -0.097999997 27
9.5790005 -3.408 -0.101 28
9.5810003 -3.4130001 -0.105 28
9.5810003 -3.4170001 -0.109 28
9.573 -3.418 -0.113 28
9.566 -3.4200001 -0.116 28
9.5600004 -3.421 -0.12 29
9.5559998 -3.424 -0.124 29
9.5609999 -3.4289999 -0.12800001 29
9.5419998 -3.4260001 -0.131 29
9.552 -3.4319999 -0.13500001 29
9.5369997 -3.4300001 -0.139 30
9.5290003 -3.4300001 -0.142 29
9.5349998 -3.4349999 -0.146 28
9.5360003 -3.438 -0.15099999 28
9.5299997 -3.438 -0.154 28
9.5220003 -3.438 -0.15800001 28
9.5290003 -3.4430001 -0.162 28
9.5179996 -3.441 -0.16599999 28
9.5080004 -3.4389999 -0.169 29
9.5089998 -3.441 -0.17299999 29
9.5179996 -3.4460001 -0.177 30
9.5240002 -3.45 -0.18099999 30
9.5170002 -3.4489999 -0.185 31
9.5100002 -3.447 -0.18799999 31
9.5080004 -3.448 -0.192 31
9.5100002 -3.45 -0.19599999 31
9.5139999 -3.4519999 -0.2 31
9.5120001 -3.4519999 -0.20299999 31
9.5129995 -3.4530001 -0.208 31
9.5080004 -3.451 -0.211 31
9.5150003 -3.454 -0.215 31
9.507 -3.451 -0.219 31
9.5039997 -3.45 -0.222 31
9.5139999 -3.454 -0.227 31
9.5089998 -3.451 -0.23 31
9.5039997 -3.4489999 -0.234 31
9.5129995 -3.4519999 -0.23800001 31
9.5129995 -3.451 -0.241 32
9.5170002 -3.451 -0.245 32
9.5050001 -3.4460001 -0.249 32
9.5120001 -3.447 -0.25299999 31
9.5039997 -3.4430001 -0.25600001 30
9.5100002 -3.444 -0.25999999 30
9.5200005 -3.4460001 -0.264 30
9.5129995 -3.4419999 -0.26800001 29
9.5050001 -3.437 -0.271 29
9.526 -3.4419999 -0.27599999 29
9.5190001 -3.438 -0.27900001 29
9.5179996 -3.4349999 -0.28200001 29
9.5319996 -3.438 -0.287 29
9.526 -3.4330001 -0.28999999 29
9.5270004 -3.431 -0.294 30
9.5319996 -3.4289999 -0.29699999 29
9.5430002 -3.4300001 -0.301 30
9.5349998 -3.425 -0.30500001 30
9.5349998 -3.421 -0.308 29
9.5340004 -3.4170001 -0.31200001 29
9.5410004 -3.4159999 -0.31600001 28
9.5469999 -3.415 -0.31900001 28
9.552 -3.4130001 -0.32300001 29
9.5629997 -3.4130001 -0.32699999 28
9.5670004 -3.4100001 -0.331 28
9.5719995 -3.4070001 -0.33399999 27
9.5710001 -3.402 -0.338 26
9.5780001 -3.4000001 -0.34099999 20
9.5749998 -3.3940001 -0.345 17
9.5830002 -3.392 -0.34799999 18
9.5959997 -3.392 -0.352 18
9.5959997 -3.3870001 -0.35600001 19
9.6149998 -3.3889999 -0.36000001 18
9.5979996 -3.3770001 -0.36300001 23
9.6210003 -3.3800001 -0.36700001 17
9.6260004 -3.3759999 -0.37099999 16
9.6409998 -3.375 -0.37400001 18
9.6639996 -3.3770001 -0.37799999 18
9.6599998 -3.3699999 -0.382 14
9.677 -3.369 -0.38600001 16
9.691 -3.3670001 -0.389 15
9.6990004 -3.3640001 -0.39300001 14
9.7270002 -3.3670001 -0.398 12
9.7419996 -3.365 -0.40099999 11
9.7550001 -3.3629999 -0.405 15
9.7849998 -3.3659999 -0.40900001 10
9.8059998 -3.3659999 -0.41299999 15
9.823 -3.3640001 -0.417 12
9.8409996 -3.3629999 -0.421 9
9.8940001 -3.3729999 -0.426 4
9.9589996 -3.3870001 -0.43200001 1
0 0 0 31
26.768999 -9.0620003 -1.1799999 32
26.759001 -9.0360003 -1.187 36
26.746 -9.0089998 -1.1950001 36
26.747 -8.9860001 -1.2029999 38
26.733999 -8.9580002 -1.21 37
26.731001 -8.9329996 -1.2180001 42
26.726999 -8.908 -1.225 40
26.732 -8.8850002 -1.233 45
26.724001 -8.8570004 -1.2410001 48
26.737 -8.8360004 -1.249 49
26.745001 -8.8129997 -1.256 43
26.74 -8.7849998 -1.263 53
26.740999 -8.7600002 -1.27 58
26.754999 -8.7379999 -1.278 61
26.767 -8.7139997 -1.286 46
26.764999 -8.6859999 -1.293 56
26.771999 -8.6619997 -1.3 56
26.795 -8.6409998 -1.309 50
26.798 -8.6140003 -1.3150001 46
26.829 -8.5939999 -1.324 37
26.857 -8.5749998 -1.331 43
26.867001 -8.5480003 -1.3380001 39
26.884001 -8.5229998 -1.345 38
26.913 -8.5019999 -1.354 35
26.938999 -8.4799995 -1.3609999 33
26.973 -8.4589996 -1.369 30
27.014 -8.441 -1.377 26
27.056999 -8.4230003 -1.385 22
0 0 0 1
6.5599999 -2.026 -0.338 4
6.6110001 -2.0339999 -0.34200001 150
6.652 -2.039 -0.34599999 156
6.6389999 -2.027 -0.34599999 156
6.6300001 -2.016 -0.347 156
6.5370002 -1.979 -0.34400001 22
6.5479999 -1.974 -0.345 65
6.605 -1.983 -0.34999999 150
6.6069999 -1.975 -0.35100001 152
6.6079998 -1.967 -0.352 156
6.6069999 -1.9579999 -0.35299999 156
6.6020002 -1.948 -0.354 156
6.6069999 -1.9400001 -0.35600001 156
6.6030002 -1.9299999 -0.35600001 156
6.5970001 -1.919 -0.35699999 158
6.605 -1.913 -0.359 164
6.6069999 -1.904 -0.36000001 167
6.618 -1.898 -0.361 170
6.6170001 -1.8890001 -0.36199999 166
6.5939999 -1.873 -0.36199999 158
6.6149998 -1.87 -0.36399999 156
6.6370001 -1.867 -0.366 156
6.6750002 -1.868 -0.36899999 156
6.6659999 -1.8559999 -0.36899999 156
6.6490002 -1.841 -0.36899999 80
6.6810002 -1.84 -0.37099999 23
6.697 -1.835 -0.373 4
0 0 0 0
0 0 0 0
0 0 0 1
23.6 -6.3239999 -1.323 1
0 0 0 0
0 0 0 0
0 0 0 1
0 0 0 17
12.317 -3.2049999 -0.69499999 28
12.313 -3.1849999 -0.69499999 27
12.306 -3.164 -0.69499999 24
12.309 -3.145 -0.69599998 26
12.307 -3.125 -0.69599998 24
12.298 -3.1029999 -0.69599998 27
12.295 -3.082 -0.69599998 24
12.3 -3.063 -0.69700003 26
12.288 -3.04 -0.69700003 30
12.282 -3.0179999 -0.69599998 24
12.272 -2.9960001 -0.69599998 23
12.28 -2.9779999 -0.69599998 27
12.276 -2.9560001 -0.69599998 41
12.272 -2.934 -0.69599998 22
12.261 -2.911 -0.69499999 22
12.27 -2.892 -0.69499999 23
12.26 -2.869 -0.69400001 21
12.24 -2.8429999 -0.69300002 24
12.25 -2.8239999 -0.69300002 19
12.298 -2.8150001 -0.69499999 8
12.355 -2.8069999 -0.69700003 11
12.417 -2.799 -0.69999999 9
12.444 -2.783 -0.70099998 15
12.486 -2.7709999 -0.70200002 14
12.564 -2.766 -0.70599997 14
12.605 -2.753 -0.70700002 15
12.689 -2.7490001 -0.71100003 9
12.729 -2.734 -0.71200001 11
12.79 -2.7249999 -0.71399999 11
12.85 -2.714 -0.71600002 12
12.921 -2.7060001 -0.71799999 12
12.997 -2.6989999 -0.72100002 10
13.049 -2.6860001 -0.72299999 8
13.122 -2.677 -0.72500002 10
13.188 -2.6659999 -0.727 8
0 0 0 1
22.914 -4.5489998 -1.256 1
0 0 0 0
0 0 0 1
23.033001 -4.4450002 -1.252 1
23.285 -4.4499998 -1.262 1
23.139999 -4.3800001 -1.25 1
23.419001 -4.3889999 -1.26 1
0 0 0 10
14.941 -2.743 -0.79799998 27
14.943 -2.7160001 -0.79500002 27
14.928 -2.6849999 -0.79100001 26
14.922 -2.655 -0.78799999 40
14.922 -2.6270001 -0.78399998 26
14.91 -2.596 -0.77999997 25
14.912 -2.5680001 -0.77700001 25
14.902 -2.5380001 -0.77200001 35
14.911 -2.51 -0.76899999 25
14.901 -2.48 -0.76499999 27
14.897 -2.451 -0.76099998 23
14.882 -2.4189999 -0.75599998 43
14.867 -2.388 -0.75099999 41
14.89 -2.3629999 -0.74800003 19
14.978 -2.348 -0.74800003 13
15.05 -2.3299999 -0.74699998 10
15.15 -2.316 -0.74800003 10
15.225 -2.2969999 -0.74699998 9
15.323 -2.2820001 -0.74699998 8
15.408 -2.2639999 -0.74599999 7
15.495 -2.247 -0.745 7
15.588 -2.2290001 -0.74400002 7
15.697 -2.214 -0.74400002 8
15.738 -2.1889999 -0.74000001 5
0 0 0 38
17.283001 -2.335 -0.80000001 37
17.288 -2.302 -0.79400003 39
17.291 -2.2679999 -0.78799999 37
17.302999 -2.2349999 -0.78200001 38
17.313999 -2.2019999 -0.77499998 35
17.313999 -2.168 -0.76800001 55
17.349001 -2.1370001 -0.76300001 30
17.358999 -2.1040001 -0.75599998 30
17.399 -2.0739999 -0.75 29
17.400999 -2.039 -0.74299997 39
17.440001 -2.0090001 -0.73699999 35
17.464001 -1.977 -0.73000002 23
17.516001 -1.948 -0.72500002 20
17.594 -1.921 -0.72000003 17
17.681999 -1.896 -0.71600002 15
0 0 0 48
33.875999 -3.4960001 -1.34 47
33.619999 -3.4030001 -1.313 18
33.698002 -3.342 -1.3 17
33.423 -3.2479999 -1.272 8
33.291 -3.168 -1.251 19
33.750999 -3.1459999 -1.251 46
0 0 0 51
19.813 -1.765 -0.713 80
19.812 -1.726 -0.70300001 64
19.827999 -1.687 -0.69300002 26
0 0 0 1
17.243999 -1.398 -0.58399999 1
17.193001 -1.359 -0.57200003 1
17.08 -1.3150001 -0.55900002 1
17.101999 -1.2819999 -0.55000001 1
17.08 -1.245 -0.53899997 1
17.003 -1.205 -0.52600002 1
17.007 -1.171 -0.51599997 1
17.025 -1.138 -0.50700003 1
17.023001 -1.104 -0.49599999 1
16.962999 -1.0650001 -0.484 1
16.972 -1.031 -0.47400001 1
16.905001 -0.99299997 -0.461 1
16.875 -0.95700002 -0.44999999 4
16.868999 -0.92199999 -0.43900001 161
16.862 -0.88800001 -0.428 184
16.882999 -0.85500002 -0.417 184
16.861 -0.81999999 -0.405 174
16.857 -0.78600001 -0.39399999 174
16.816 -0.75099999 -0.382 167
16.836 -0.71799999 -0.37099999 159
16.837999 -0.68400002 -0.359 159
16.837 -0.64999998 -0.347 154
16.872999 -0.61799997 -0.336 151
16.805 -0.58099997 -0.32300001 104
16.830999 -0.54799998 -0.31099999 47
16.888 -0.51599997 -0.30000001 11
16.955 -0.484 -0.289 9
16.955999 -0.45100001 -0.27700001 12
16.950001 -0.41600001 -0.264 11
16.940001 -0.382 -0.25099999 10
16.952999 -0.34799999 -0.23800001 4
16.872 -0.31299999 -0.22400001 1
16.875 -0.27900001 -0.211 1
16.871 -0.24699999 -0.198 1
16.929001 -0.214 -0.186 1
16.884001 -0.17900001 -0.17200001 1
17.054001 -0.148 -0.16 1
17.007 -0.113 -0.146 1
17.025999 -0.079999998 -0.132 1
17.105 -0.048 -0.119 2
17.146 -0.014 -0.106 2
17.122 0.017999999 -0.092 2
17.254 0.052000001 -0.078000002 103
17.285 0.086000003 -0.064000003 154
17.264999 0.12 -0.048999999 3
17.278 0.154 -0.034000002 1
0 0 0 0
0 0 0 0
0 0 0 0
0 0 0 0
0 0 0 1
18.179001 0.373 0.057999998 1
18.403 0.41299999 0.075000003 1
18.546 0.45100001 0.092 1
18.702999 0.491 0.109 1
19.417 0.54699999 0.131 1
19.851999 0.597 0.152 1
20.205 0.64600003 0.17299999 1
0 0 0 6
34.297001 1.227 0.35800001 10
34.722 1.306 0.39399999 9
35.108002 1.387 0.43200001 6
36.922001 1.528 0.48899999 76
36.919998 1.597 0.52399999 79
36.901001 1.666 0.55900002 101
36.917999 1.735 0.59399998 20
37.550999 1.836 0.64099997 6
38.201 1.936 0.68800002 8
38.424 2.0190001 0.73000002 40
38.812 2.1110001 0.77499998 6
40.921001 2.3010001 0.85699999 118
40.910999 2.375 0.89700001 109
40.890999 2.448 0.93699998 78
41.339001 2.55 0.98799998 4
42.348999 2.688 1.054 5
43.492001 2.839 1.126 23
41.759998 2.8010001 1.124 40
41.740002 2.8740001 1.165 49
41.754002 2.95 1.207 43
41.755001 3.0250001 1.25 45
41.747002 3.098 1.293 45
41.742001 3.1719999 1.336 49
41.75 3.2460001 1.378 60
41.734001 3.3169999 1.421 58
41.740002 3.3900001 1.465 73
41.713001 3.4619999 1.507 88
41.737999 3.5369999 1.552 10
0 0 0 0
0 0 0 0
0 0 0 18
49.203999 4.5089998 2.0369999 51
49.401001 4.6110001 2.098 28
50.425999 4.7930002 2.1960001 28
51.543999 4.9860001 2.3 27
54.164001 5.3309999 2.4749999 12
54.148998 5.421 2.533 36
0 0 0 49
59.597 6.164 2.9159999 49
60.759998 6.3850002 3.039 45
62.084 6.6259999 3.1719999 47
63.338001 6.8639998 3.3050001 49
64.916 7.1409998 3.4590001 52
66.588997 7.434 3.6210001 64
68.089996 7.7119999 3.7780001 62
69.436996 7.973 3.927 69
71.094002 8.2770004 4.0999999 60
73.199997 8.6400003 4.302 63
0 0 0 0
0 0 0 0
0 0 0 0
0 0 0 25
117.761 14.826 7.5760002 28
117.88 15.024 7.7160001 27
117.891 15.205 7.8470001 42
117.797 15.374 7.973 40
117.817 15.557 8.1070004 48
0 0 0 0
0 0 0 33
117.618 16.066999 8.4919996 37
117.543 16.233999 8.6230001 32
117.546 16.41 8.7559996 29
117.494 16.573999 8.8830004 36
117.454 16.739 9.0100002 37
117.413 16.907 9.1440001 36
117.338 17.065001 9.2679996 30
117.296 17.23 9.4020004 47
117.256 17.389999 9.5290003 47
117.145 17.541 9.6540003 44
117.099 17.700001 9.783 37
117.132 17.868 9.9169998 28
117.234 18.048 10.059 34
0 0 0 0
0 0 0 0
0 0 0 0
0 0 0 0
0 0 0 0
0 0 0 0
0 0 0 0
0 0 0 0
0 0 0 29
122.676 20.534 11.917 25
116.832 19.705999 11.48 22
116.693 19.833 11.599 50
116.723 19.988001 11.735 65
0 0 0 0
0 0 0 33
114.105 19.971001 11.861 52
114.101 20.112 11.991 75
114.029 20.239 12.109 83
113.998 20.372999 12.235 85
114.018 20.514999 12.367 82
113.96 20.636999 12.486 76
113.917 20.77 12.613 75
113.886 20.899 12.738 78
113.888 21.033001 12.867 74
113.879 21.164 12.994 81
113.821 21.284 13.112 77
113.804 21.412001 13.241 60
113.803 21.541 13.368 48
113.793 21.667 13.494 33
113.846 21.802999 13.624 31
113.928 21.944 13.761 27
113.827 22.049 13.875 28
0 0 0 0
0 0 0 0
0 0 0 0
0 0 0 23
0 0 0 0
0 0 0 0
0 0 0 0
0 0 0 0
0 0 0 0
0 0 0 0
0 0 0 0
0 0 0 0
0 0 0 0
0 0 0 0
0 0 0 0
0 0 0 0
0 0 0 28
113.685 24.056999 16.065001 27
113.506 24.121 16.163 39
113.38 24.194 16.261 63
113.31 24.282 16.372 86
113.257 24.368 16.482 94
113.252 24.464001 16.599001 75
113.209 24.549999 16.709999 74
113.183 24.638 16.819 80
113.203 24.735001 16.938 75
113.189 24.823999 17.051001 72
113.189 24.914 17.163 68
113.172 24.999001 17.275 72
113.148 25.082001 17.385 50
113.156 25.17 17.5 44
113.145 25.253 17.611 44
113.084 25.323999 17.714001 39
113.197 25.429001 17.841999 25
113.213 25.514 17.955 25
113.288 25.612 18.075001 22
113.167 25.663 18.166 25
113.125 25.732 18.268 30
113.165 25.818001 18.381001 25
113.232 25.909 18.5 24
113.163 25.966999 18.596001 26
113.125 26.031 18.697001 27
113.189 26.117001 18.813999 34
113.069 26.16 18.896999 31
113.151 26.249001 19.016001 27
113.072 26.298 19.103001 25
113.021 26.35 19.200001 27
113.071 26.427 19.308001 25
113.092 26.496 19.415001 27
113.03 26.544001 19.506001 31
113.005 26.601999 19.604 29
113.104 26.686001 19.722 28
113.058 26.733999 19.813999 27
112.958 26.767 19.895 31
113.007 26.834999 20.002001 28
112.927 26.871 20.084999 28
113.024 26.948 20.198999 31
112.884 26.969999 20.268 33
112.859 27.013 20.357 37
112.84 27.059 20.445 43
112.757 27.087 20.524 49
112.744 27.131001 20.614 54
112.77 27.183001 20.711 52
112.722 27.215 20.797001 55
112.712 27.259001 20.882999 58
112.724 27.304001 20.975 56
112.721 27.344999 21.059999 69
112.671 27.372 21.139 61
112.724 27.423 21.236 62
112.724 27.458 21.320999 63
112.733 27.496 21.408001 53
112.737 27.531 21.493999 38
112.694 27.555 21.566 36
112.621 27.568001 21.635 31
112.667 27.610001 21.726999 26
0 0 0 0
0 0 0 0
0 0 0 0
0 0 0 0
0 0 0 0
0 0 0 0
0 0 0 0
0 0 0 0
0 0 0 0
0 0 0 0
0 0 0 0
0 0 0 0
0 0 0 0
0 0 0 0
0 0 0 0
0 0 0 0
0 0 0 0
0 0 0 0
0 0 0 0
0 0 0 0
0 0 0 0
0 0 0 0
0 0 0 0
0 0 0 0
0 0 0 0
0 0 0 0
0 0 0 0
0 0 0 0
0 0 0 0
0 0 0 0
0 0 0 0
0 0 0 0
0 0 0 0
0 0 0 0
0 0 0 0
0 0 0 0
0 0 0 0
0 0 0 0
0 0 0 26
112.871 27.836 24.273001 28
112.854 27.812 24.309999 35
112.914 27.806 24.362 40
112.853 27.764 24.392 37
112.804 27.729 24.417999 35
112.84 27.711 24.464001 34
112.845 27.684 24.503 39
112.752 27.632 24.518999 38
112.812 27.617001 24.566999 42
112.77 27.575001 24.591999 43
112.839 27.559 24.639999 44
112.794 27.513 24.662001 51
112.776 27.474001 24.688999 45
112.79 27.441 24.721001 58
112.812 27.410999 24.752001 56
112.837 27.378 24.785 58
112.847 27.34 24.813999 56
112.819 27.294001 24.83 53
112.866 27.263 24.865 65
112.915 27.231001 24.899 56
112.903 27.183001 24.917999 60
112.879 27.132 24.934 60
112.908 27.091 24.959999 57
112.905 27.042 24.978001 55
112.925 27 24.997 57
112.906 26.944 25.009001 60
112.889 26.888 25.021 60
112.939 26.85 25.044001 63
112.926 26.790001 25.056 64
112.969 26.745001 25.077 67
112.975 26.691999 25.087 63
113.032 26.648001 25.108999 65
113.012 26.584 25.113001 66
113.043 26.531 25.127001 67
113.034 26.471001 25.129 59
113.027 26.407 25.132 66
113.041 26.347 25.139 67
113.06 26.285999 25.146 66
113.117 26.233999 25.16 63
113.126 26.172001 25.16 69
113.134 26.106001 25.160999 58
113.142 26.039 25.16 70
113.14 25.968 25.157 71
113.172 25.907 25.158001 68
113.191 25.839001 25.156 73
113.132 25.752001 25.136 57
113.154 25.683001 25.132999 64
113.225 25.624001 25.139999 71
113.243 25.554001 25.132 68
113.242 25.473 25.122 66
113.208 25.389999 25.1 57
113.305 25.332001 25.107 54
113.295 25.249001 25.09 59
113.291 25.166 25.073 66
113.323 25.093 25.061001 63
113.291 25.003 25.037001 61
113.351 24.93 25.028999 69
113.372 24.849001 25.011999 64
113.368 24.761 24.989 70
113.411 24.686001 24.974001 69
113.411 24.594999 24.952 67
113.45 24.516001 24.934 62
113.469 24.43 24.910999 66
113.5 24.344 24.889999 61
113.48 24.25 24.855 63
113.481 24.153999 24.826 67
113.506 24.066999 24.798 58
113.558 23.982 24.777 69
113.574 23.889 24.746 60
113.601 23.797001 24.716999 67
113.639 23.708 24.684999 73
113.609 23.6 24.643999 66
113.67 23.514 24.615 59
113.694 23.417 24.58 59
113.717 23.323 24.542999 68
113.743 23.222 24.507 65
113.823 23.136999 24.479 46
113.775 23.021999 24.424 43
113.807 22.922001 24.385 43
113.813 22.816999 24.337999 37
113.938 22.736 24.319 51
113.969 22.634001 24.275999 47
113.988 22.531 24.228001 42
114.039 22.431 24.187 41
114.071 22.329 24.139 36
114.168 22.236 24.105 32
114.207 22.131001 24.056999 26
114.198 22.014999 23.997999 25
114.176 21.896 23.934999 29
114.231 21.795 23.886999 27
114.277 21.687 23.836 25
114.161 21.548 23.75 24
0 0 0 0
0 0 0 0
0 0 0 0
0 0 0 0
0 0 0 0
0 0 0 22
114.471 20.771 23.349001 31
114.453 20.642 23.271 26
114.561 20.538 23.219999 28
114.521 20.406 23.138 32
114.529 20.285999 23.063999 29
114.533 20.160999 22.989 31
114.759 20.076 22.959999 34
114.739 19.943001 22.874001 35
0 0 0 0
0 0 0 0
0 0 0 0
0 0 0 0
0 0 0 28
116.967 19.544001 22.813999 44
117.028 19.423 22.737 42
117.058 19.292999 22.653 59
117.067 19.163 22.563 66
117.08 19.028 22.476999 80
117.121 18.898001 22.391001 89
117.127 18.761999 22.298 86
117.157 18.629 22.204 79
117.238 18.507 22.122 87
117.238 18.365 22.024 86
117.186 18.221001 21.915001 76
117.284 18.096001 21.832001 84
117.328 17.962 21.739 87
117.345 17.823999 21.639 81
117.375 17.686001 21.540001 80
117.425 17.552 21.443001 83
117.418 17.412001 21.336 82
117.467 17.275999 21.237 69
117.51 17.139 21.135 69
117.525 17 21.028 72
117.548 16.858999 20.921 66
117.561 16.712 20.809999 77
117.656 16.584 20.712999 68
117.656 16.438 20.598 75
117.652 16.291 20.481001 76
117.714 16.153 20.375 69
117.754 16.011999 20.263 63
117.777 15.867 20.146999 55
117.862 15.731 20.041 49
117.864 15.583 19.919001 49
117.881 15.437 19.799 35
118.098 15.316 19.711 37
118.111 15.168 19.587 33
118.101 15.018 19.455 25
118.195 14.883 19.347 30
118.233 14.741 19.224001 35
118.201 14.586 19.089001 30
118.269 14.443 18.968 31
118.197 14.283 18.823999 36
118.233 14.14 18.697001 31
118.361 14.004 18.582001 34
118.284 13.843 18.434 27
0 0 0 0
0 0 0 0
0 0 0 0
0 0 0 0
0 0 0 0
0 0 0 0
0 0 0 0
0 0 0 0
0 0 0 0
0 0 0 48
115.721 11.904 16.504 58
115.636 11.746 16.346001 31
115.778 11.61 16.219999 55
115.797 11.464 16.076 33
115.927 11.327 15.945 30
116.038 11.187 15.81 52
0 0 0 0
0 0 0 0
0 0 0 0
0 0 0 9
51.605 4.6409998 6.6929998 8
50.863998 4.5089998 6.5289998 8
50.252998 4.3899999 6.382 14
49.622002 4.27 6.2340002 36
49.609001 4.2049999 6.165 43
48.286999 4.0300002 5.934 40
48.264999 3.9649999 5.8639998 50
46.960999 3.799 5.6409998 44
46.714001 3.7179999 5.546 24
45.369999 3.552 5.322 12
45.209999 3.4809999 5.2389998 57
45.209999 3.4230001 5.1739998 61
45.235001 3.3670001 5.1129999 63
45.240002 3.3110001 5.0500002 56
45.233002 3.2520001 4.9840002 60
45.238998 3.194 4.9180002 45
0 0 0 11
41.234001 2.806 4.362 28
41.210999 2.7520001 4.2989998 55
40.966999 2.684 4.2140002 44
40.241001 2.5840001 4.0780001 61
40.242001 2.533 4.0170002 63
39.880001 2.4590001 3.921 41
38.909 2.3499999 3.766 60
38.921001 2.3010001 3.7079999 58
38.882 2.25 3.645 52
37.576 2.1270001 3.464 46
0 0 0 2
34.640999 1.873 3.086 6
34.008999 1.796 2.9760001 16
33.535 1.729 2.882 19
33.243999 1.6720001 2.8050001 27
33.166 1.626 2.7449999 27
33.005001 1.5779999 2.6800001 51
33.037998 1.538 2.6300001 47
33.037998 1.497 2.5769999 49
33.042 1.456 2.5239999 48
33.049 1.415 2.471 50
33.07 1.376 2.4189999 47
33.067001 1.335 2.365 52
33.068001 1.294 2.3099999 63
33.082001 1.255 2.257 53
33.083 1.215 2.2030001 51
33.098 1.175 2.1489999 39
33.139 1.136 2.096 24
33.240002 1.099 2.0469999 12
33.299999 1.061 1.995 9
33.307999 1.021 1.9400001 8
33.122002 0.97600001 1.874 51
33.098999 0.93599999 1.8150001 105
33.109001 0.89700001 1.761 103
33.120998 0.85699999 1.7029999 107
33.112 0.81800002 1.646 104
33.117001 0.77899998 1.589 107
33.118999 0.74000001 1.5319999 104
33.139999 0.70099998 1.475 103
33.141998 0.66299999 1.419 108
33.127998 0.62400001 1.36 105
33.147999 0.58600003 1.303 112
33.150002 0.54799998 1.245 112
33.161999 0.50999999 1.187 111
33.182999 0.47299999 1.13 68
33.186001 0.435 1.071 21
0 0 0 1
18.823 0.204 0.54100001 1
18.657 0.18099999 0.50199997 1
0 0 0 0
0 0 0 0
0 0 0 0
0 0 0 0
0 0 0 0
0 0 0 0
0 0 0 0
0 0 0 25
0 0 0 1
17.729 -0.021 0.15700001 1
17.677999 -0.039999999 0.124 1
17.440001 -0.057999998 0.090000004 1
0 0 0 0
0 0 0 1
17.069 -0.111 -0.0060000001 1
17.061001 -0.12899999 -0.037999999 2
17.025 -0.146 -0.068999998 3
17.004999 -0.163 -0.101 1
16.948 -0.18000001 -0.132 1
16.909 -0.197 -0.163 1
16.921 -0.214 -0.19499999 1
16.858999 -0.23 -0.226 1
16.9 -0.248 -0.25799999 1
16.886 -0.264 -0.28999999 1
16.872999 -0.28099999 -0.322 1
16.811001 -0.296 -0.352 3
16.829 -0.31299999 -0.38499999 2
16.792 -0.329 -0.41499999 58
16.785999 -0.345 -0.447 39
16.820999 -0.36199999 -0.47999999 8
16.823 -0.37799999 -0.51200002 6
16.923 -0.396 -0.54699999 4
16.989 -0.41299999 -0.58200002 9
17.023001 -0.43000001 -0.61500001 10
16.992001 -0.44499999 -0.64700001 6
16.98 -0.46000001 -0.67900002 4
17.042 -0.47799999 -0.71399999 3
17.375 -0.50199997 -0.76099998 4
17.521 -0.523 -0.801 3
17.587999 -0.54000002 -0.838 2
0 0 0 0
0 0 0 2
20.273001 -0.676 -1.084 2
0 0 0 2
17.84 -0.62599999 -1.023 2
0 0 0 2
0 0 0 2
14.765 -0.55500001 -0.93199998 2
13.926 -0.53500003 -0.90600002 3
13.221 -0.51899999 -0.88599998 3
12.75 -0.51099998 -0.87900001 4
12.331 -0.50400001 -0.87400001 3
11.732 -0.48899999 -0.85399997 3
11.231 -0.477 -0.83999997 3
10.806 -0.46799999 -0.82800001 3
10.384 -0.458 -0.81599998 3
10.003 -0.449 -0.80599999 3
9.6929998 -0.442 -0.80000001 4
9.3870001 -0.435 -0.79299998 3
9.0530005 -0.42699999 -0.78200001 3
8.7580004 -0.419 -0.77399999 3
8.4829998 -0.412 -0.76599997 4
8.1689997 -0.403 -0.75300002 3
7.921 -0.39700001 -0.74599999 4
7.6880002 -0.38999999 -0.73900002 5
7.4629998 -0.384 -0.73199999 9
7.2020001 -0.37599999 -0.72000003 11
7.0650001 -0.37400001 -0.72000003 11
6.915 -0.37099999 -0.71799999 11
6.7690001 -0.36700001 -0.71600002 9
6.5929999 -0.36199999 -0.70999998 6
6.355 -0.354 -0.69700003 3
6.2059999 -0.34999999 -0.69300002 4
6.0570002 -0.345 -0.68800002 3
5.9169998 -0.34099999 -0.68400002 3
5.7800002 -0.33700001 -0.67900002 3
5.6220002 -0.331 -0.671 3
5.527 -0.329 -0.671 4
5.3779998 -0.32300001 -0.66299999 3
5.263 -0.31999999 -0.65899998 3
5.152 -0.31600001 -0.65499997 3
5.0580001 -0.31299999 -0.653 3
4.9489999 -0.31 -0.648 3
4.855 -0.30700001 -0.64499998 3
4.7620001 -0.303 -0.64200002 3
4.6859999 -0.301 -0.64099997 3
4.6160002 -0.29899999 -0.63999999 2
4.5079999 -0.29499999 -0.63300002 3
4.4390001 -0.29300001 -0.63200003 2
4.3239999 -0.28799999 -0.62400001 2
4.323 -0.28999999 -0.63200003 3
4.2179999 -0.285 -0.625 3
4.1490002 -0.28299999 -0.62300003 3
4.085 -0.28 -0.62099999 2
4.033 -0.27900001 -0.62 2
3.984 -0.27700001 -0.62 3
3.927 -0.27500001 -0.61900002 2
3.869 -0.273 -0.61699998 2
3.869 -0.27500001 -0.62400001 3
3.7409999 -0.26800001 -0.611 3
3.658 -0.26300001 -0.60399997 1
3.7160001 -0.26899999 -0.62 3
3.5669999 -0.25999999 -0.602 1
3.5250001 -0.25799999 -0.602 1
3.4360001 -0.25299999 -0.59299999 1
3.4619999 -0.257 -0.60399997 2
3.395 -0.25299999 -0.59799999 1
3.352 -0.252 -0.597 2
3.346 -0.252 -0.602 1
3.289 -0.249 -0.59799999 1
3.247 -0.24699999 -0.59600002 1
3.2349999 -0.248 -0.60000002 1
3.197 -0.24600001 -0.59799999 1
3.2409999 -0.25099999 -0.61299998 2
3.1159999 -0.242 -0.59500003 1
3.0969999 -0.242 -0.59600002 1
3.0880001 -0.242 -0.60000002 1
3.039 -0.23899999 -0.59600002 1
3.039 -0.23999999 -0.602 1
2.9619999 -0.235 -0.59100002 1
2.9119999 -0.23199999 -0.58700001 1
2.905 -0.233 -0.58999997 1
2.8199999 -0.227 -0.57800001 1
2.826 -0.228 -0.58399999 1
2.763 -0.22400001 -0.57599998 1
2.7539999 -0.22400001 -0.579 1
2.7160001 -0.222 -0.57599998 1
2.789 -0.228 -0.59600002 1
2.681 -0.22 -0.57800001 1
2.6459999 -0.21799999 -0.57499999 1
2.6270001 -0.21699999 -0.57499999 1
2.6229999 -0.21699999 -0.579 1
2.576 -0.214 -0.57300001 1
2.5869999 -0.21600001 -0.57999998 1
2.5039999 -0.20900001 -0.565 1
2.5339999 -0.212 -0.57599998 1
2.47 -0.208 -0.56599998 1
2.448 -0.206 -0.565 1
2.424 -0.205 -0.56300002 1
2.3989999 -0.20299999 -0.56099999 1
2.3829999 -0.20200001 -0.56199998 1
2.372 -0.20200001 -0.56300002 1
2.348 -0.2 -0.56099999 1
2.329 -0.199 -0.56 1
2.309 -0.198 -0.55900002 1
2.289 -0.19599999 -0.55800003 1
2.277 -0.19499999 -0.55900002 1
2.2460001 -0.193 -0.55500001 1
2.2460001 -0.19400001 -0.55800003 1
2.23 -0.192 -0.55800003 1
2.2090001 -0.191 -0.55599999 1
2.1889999 -0.189 -0.55400002 1
2.1730001 -0.18799999 -0.55400002 1
2.1619999 -0.18799999 -0.55400002 1
2.1440001 -0.186 -0.55299997 1
2.1270001 -0.185 -0.55199999 1
2.1110001 -0.184 -0.551 1
2.1010001 -0.183 -0.551 1
2.0780001 -0.18099999 -0.54799998 1
2.0669999 -0.18099999 -0.54900002 1
2.062 -0.18000001 -0.55000001 1
2.0439999 -0.17900001 -0.54799998 1
2.0280001 -0.177 -0.54699999 1
2.0220001 -0.177 -0.54799998 1
2.007 -0.176 -0.54699999 1
1.997 -0.175 -0.54699999 1
1.989 -0.17399999 -0.54799998 1
1.98 -0.17399999 -0.54799998 1
1.972 -0.17299999 -0.54900002 1
1.952 -0.171 -0.546 1
1.946 -0.171 -0.54699999 1
1.932 -0.17 -0.546 1
1.923 -0.169 -0.546 1
1.9119999 -0.168 -0.54500002 1
1.9069999 -0.167 -0.546 1
1.895 -0.16599999 -0.546 1
1.881 -0.16500001 -0.54400003 1
1.8660001 -0.164 -0.542 1
1.859 -0.163 -0.542 1
1.844 -0.162 -0.54000002 1
1.836 -0.161 -0.54000002 1
1.83 -0.16 -0.54100001 1
1.827 -0.16 -0.542 1
1.809 -0.15800001 -0.53899997 1
1.802 -0.15700001 -0.53899997 1
1.794 -0.15700001 -0.53899997 1
1.7869999 -0.156 -0.53899997 1
1.774 -0.155 -0.53799999 1
1.774 -0.154 -0.53899997 1
1.763 -0.153 -0.53799999 1
1.758 -0.153 -0.53899997 1
1.745 -0.15099999 -0.537 1
1.7410001 -0.15099999 -0.53799999 1
1.737 -0.15000001 -0.53799999 1
1.714 -0.148 -0.53299999 1
1.714 -0.148 -0.53500003 1
1.7029999 -0.147 -0.53299999 1
1.698 -0.146 -0.53399998 1
1.691 -0.145 -0.53299999 1
1.684 -0.145 -0.53299999 1
1.684 -0.14399999 -0.53399998 1
1.678 -0.14399999 -0.53500003 1
1.665 -0.142 -0.53200001 1
1.666 -0.142 -0.53399998 1
1.652 -0.141 -0.53100002 1
1.645 -0.14 -0.53100002 1
1.645 -0.139 -0.53200001 1
1.6390001 -0.138 -0.53200001 1
1.6390001 -0.138 -0.53299999 1
1.628 -0.13699999 -0.53100002 1
1.622 -0.13600001 -0.53100002 1
1.62 -0.13600001 -0.53200001 1
1.615 -0.13500001 -0.53100002 1
1.6109999 -0.134 -0.53100002 1
1.6059999 -0.134 -0.53100002 1
1.601 -0.133 -0.53100002 1
1.595 -0.132 -0.52999997 1
1.585 -0.131 -0.528 1
1.585 -0.131 -0.52999997 1
1.586 -0.13 -0.53100002 1
1.582 -0.12899999 -0.53100002 1
1.573 -0.12800001 -0.52899998 1
1.5650001 -0.127 -0.528 1
1.564 -0.127 -0.528 1
1.5599999 -0.126 -0.52899998 1
1.551 -0.125 -0.52600002 1
1.551 -0.125 -0.528 1
1.55 -0.124 -0.528 1
1.551 -0.124 -0.52999997 1
1.544 -0.123 -0.528 1
1.544 -0.123 -0.52999997 1
1.5420001 -0.122 -0.52999997 1
1.534 -0.121 -0.528 1
1.526 -0.12 -0.52600002 1
1.534 -0.12 -0.52999997 1
1.525 -0.119 -0.528 1
1.524 -0.118 -0.528 1
1.518 -0.117 -0.52700001 1
1.515 -0.117 -0.52700001 1
1.522 -0.117 -0.52999997 1
1.5140001 -0.116 -0.528 1
1.512 -0.115 -0.528 1
1.503 -0.114 -0.52600002 1
1.503 -0.114 -0.52600002 1
1.503 -0.113 -0.52700001 1
1.501 -0.112 -0.52700001 1
1.502 -0.112 -0.528 1
1.499 -0.111 -0.528 1
1.499 -0.111 -0.528 1
1.494 -0.11 -0.52700001 1
1.4910001 -0.109 -0.52600002 1
1.494 -0.109 -0.528 1
1.499 -0.109 -0.52999997 1
1.4910001 -0.108 -0.528 1
1.485 -0.107 -0.52600002 1
1.4910001 -0.107 -0.52899998 1
1.485 -0.106 -0.52700001 1
1.485 -0.105 -0.52700001 1
1.485 -0.105 -0.528 1
1.473 -0.103 -0.52399999 1
1.4809999 -0.103 -0.52700001 1
1.482 -0.103 -0.528 1
1.472 -0.102 -0.52499998 1
1.472 -0.101 -0.52499998 1
1.482 -0.101 -0.52899998 1
1.471 -0.1 -0.52499998 1
1.472 -0.098999999 -0.52600002 1
1.472 -0.098999999 -0.52600002 1
1.472 -0.097999997 -0.52600002 1
1.465 -0.097000003 -0.523 1
1.474 -0.097000003 -0.52700001 1
1.464 -0.096000001 -0.523 1
1.466 -0.094999999 -0.52399999 1
1.478 -0.096000001 -0.528 1
1.471 -0.094999999 -0.52600002 1
1.464 -0.093000002 -0.523 1
1.472 -0.093000002 -0.52600002 1
1.471 -0.093000002 -0.52600002 1
1.472 -0.092 -0.52600002 1
1.471 -0.092 -0.52600002 1
1.472 -0.090999998 -0.52600002 1
1.485 -0.090999998 -0.53100002 1
1.472 -0.090000004 -0.52600002 1
1.477 -0.090000004 -0.528 1
1.474 -0.089000002 -0.52600002 1
1.473 -0.088 -0.52600002 1
1.482 -0.088 -0.52899998 1
1.483 -0.086999997 -0.52899998 1
1.478 -0.086000003 -0.52700001 1
1.482 -0.086000003 -0.528 1
1.4809999 -0.085000001 -0.52700001 1
1.485 -0.085000001 -0.528 1
1.482 -0.083999999 -0.52700001 1
1.485 -0.083999999 -0.52700001 1
1.485 -0.082999997 -0.52700001 1
1.487 -0.082000002 -0.52700001 1
1.489 -0.082000002 -0.52700001 1
1.487 -0.081 -0.52600002 1
1.49 -0.081 -0.52700001 1
1.493 -0.079999998 -0.52700001 1
1.487 -0.079000004 -0.52499998 1
1.494 -0.079000004 -0.52700001 1
1.494 -0.078000002 -0.52600002 1
1.502 -0.078000002 -0.528 1
1.501 -0.077 -0.528 1
1.505 -0.077 -0.528 1
1.503 -0.075999998 -0.52700001 1
1.505 -0.075000003 -0.52700001 1
1.505 -0.075000003 -0.52600002 1
1.517 -0.075000003 -0.52899998 1
1.5140001 -0.074000001 -0.528 1
1.515 -0.072999999 -0.52700001 1
1.518 -0.072999999 -0.52700001 1
1.527 -0.071999997 -0.52999997 1
1.528 -0.071999997 -0.52899998 1
1.526 -0.071000002 -0.528 1
1.539 -0.071000002 -0.53100002 1
1.536 -0.07 -0.52899998 1
1.5369999 -0.068999998 -0.52899998 1
1.541 -0.068999998 -0.52899998 1
1.5420001 -0.068000004 -0.528 1
1.545 -0.068000004 -0.528 1
1.548 -0.067000002 -0.528 1
1.553 -0.067000002 -0.52899998 1
1.553 -0.066 -0.528 1
1.554 -0.064999998 -0.52700001 1
1.562 -0.064999998 -0.52899998 1
1.5700001 -0.064000003 -0.52999997 1
1.5700001 -0.064000003 -0.52899998 1
1.5779999 -0.063000001 -0.53100002 1
1.579 -0.063000001 -0.52999997 1
1.587 -0.061999999 -0.53100002 1
1.589 -0.061000001 -0.52999997 1
1.591 -0.061000001 -0.52999997 1
1.5880001 -0.059999999 -0.52700001 1
1.597 -0.059999999 -0.52899998 1
1.6059999 -0.059 -0.53100002 1
1.615 -0.059 -0.53200001 1
1.619 -0.057999998 -0.53200001 1
1.625 -0.057999998 -0.53299999 1
1.628 -0.057 -0.53200001 1
1.632 -0.056000002 -0.53200001 1
1.641 -0.056000002 -0.53299999 1
1.6440001 -0.055 -0.53299999 1
1.65 -0.055 -0.53299999 1
1.658 -0.054000001 -0.53399998 1
1.666 -0.054000001 -0.53500003 1
1.677 -0.052999999 -0.537 1
1.674 -0.052999999 -0.53399998 1
1.678 -0.052000001 -0.53299999 1
1.684 -0.050999999 -0.53399998 1
1.705 -0.050999999 -0.53799999 1
1.712 -0.050999999 -0.53899997 1
1.719 -0.050000001 -0.53899997 1
1.72 -0.048999999 -0.537 1
1.727 -0.048999999 -0.53799999 1
1.73 -0.048 -0.537 1
1.7410001 -0.048 -0.53799999 1
1.744 -0.046999998 -0.537 1
1.753 -0.046999998 -0.53799999 1
1.7589999 -0.046 -0.53799999 1
1.77 -0.045000002 -0.53899997 1
1.777 -0.045000002 -0.53899997 1
1.783 -0.044 -0.53899997 1
1.796 -0.044 -0.54000002 1
1.796 -0.043000001 -0.53799999 1
1.818 -0.043000001 -0.542 1
1.822 -0.041999999 -0.54100001 1
1.826 -0.041000001 -0.54000002 1
1.836 -0.041000001 -0.54100001 1
1.848 -0.039999999 -0.542 1
1.858 -0.039999999 -0.542 1
1.869 -0.039000001 -0.54299998 1
1.8839999 -0.039000001 -0.54500002 1
1.896 -0.037999999 -0.546 1
1.898 -0.037999999 -0.54400003 1
1.911 -0.037 -0.54500002 1
1.9220001 -0.037 -0.546 1
1.9349999 -0.035999998 -0.54699999 1
1.939 -0.035 -0.54500002 1
1.9529999 -0.035 -0.546 1
1.96 -0.034000002 -0.54500002 1
1.976 -0.034000002 -0.54699999 1
1.988 -0.033 -0.54699999 1
2.0020001 -0.033 -0.54799998 1
2.0079999 -0.032000002 -0.54699999 1
2.0209999 -0.032000002 -0.54799998 1
2.033 -0.030999999 -0.54799998 1
2.052 -0.030999999 -0.55000001 1
2.0610001 -0.029999999 -0.54900002 1
2.079 -0.028999999 -0.551 1
2.0910001 -0.028999999 -0.551 1
2.102 -0.028000001 -0.551 1
2.1129999 -0.028000001 -0.55000001 1
2.1359999 -0.027000001 -0.55299997 1
2.1500001 -0.027000001 -0.55299997 1
2.1689999 -0.026000001 -0.55500001 1
2.1830001 -0.026000001 -0.55500001 1
2.1930001 -0.025 -0.55400002 1
2.21 -0.024 -0.55400002 1
2.2349999 -0.024 -0.55699998 1
2.2449999 -0.023 -0.55599999 1
2.2590001 -0.023 -0.55599999 1
2.2750001 -0.022 -0.55599999 1
2.2969999 -0.022 -0.55699998 1
2.3150001 -0.021 -0.55800003 1
2.335 -0.021 -0.55900002 1
2.348 -0.02 -0.55800003 1
2.3740001 -0.02 -0.56 1
2.3900001 -0.018999999 -0.56 1
2.4130001 -0.018999999 -0.56099999 1
2.428 -0.017999999 -0.56099999 1
2.451 -0.017999999 -0.56199998 1
2.4790001 -0.017000001 -0.56400001 1
2.4949999 -0.017000001 -0.56300002 1
2.526 -0.016000001 -0.56599998 1
2.543 -0.016000001 -0.565 1
2.5669999 -0.015 -0.56599998 1
2.5929999 -0.015 -0.56699997 1
2.6110001 -0.014 -0.56599998 1
2.631 -0.014 -0.56599998 1
2.6619999 -0.013 -0.56800002 1
2.714 -0.013 -0.574 1
2.721 -0.012 -0.57099998 1
2.7690001 -0.012 -0.57599998 1
2.8 -0.011 -0.57700002 1
2.918 -0.011 -0.59600002 1
2.9089999 -0.011 -0.58899999 1
2.9059999 -0.0099999998 -0.583 1
2.983 -0.0099999998 -0.59299999 1
2.9890001 -0.0089999996 -0.58899999 2
3.043 -0.0089999996 -0.59399998 1
3.0599999 -0.0080000004 -0.59100002 1
3.1170001 -0.0080000004 -0.59600002 1
3.161 -0.0080000004 -0.59899998 1
3.1730001 -0.0070000002 -0.59500003 1
3.2349999 -0.0070000002 -0.60100001 1
3.2279999 -0.0060000001 -0.59299999 2
3.359 -0.0060000001 -0.611 2
3.3540001 -0.0060000001 -0.60399997 1
3.313 -0.0049999999 -0.58999997 1
3.454 -0.0049999999 -0.60799998 2
3.3989999 -0.0040000002 -0.59200001 1
3.4649999 -0.0040000002 -0.597 1
3.5469999 -0.0040000002 -0.60399997 1
3.586 -0.003 -0.60399997 1
3.6389999 -0.003 -0.60600001 3
3.684 -0.003 -0.60600001 1
3.7179999 -0.0020000001 -0.60399997 3
3.8080001 -0.0020000001 -0.611 2
3.858 -0.0020000001 -0.61199999 2
3.9089999 -0.0020000001 -0.61199999 1
3.9530001 -0.0020000001 -0.611 3
3.99 -0.001 -0.60900003 2
4.0760002 -0.001 -0.61400002 2
4.1830001 -0.001 -0.62099999 2
4.2639999 -0.001 -0.625 3
4.276 -0.001 -0.61799997 3
4.3850002 -0.001 -0.625 3
4.4840002 -0.001 -0.63 3
4.5739999 -0.001 -0.63300002 3
4.645 -0.001 -0.634 3
4.7639999 -0.001 -0.63999999 3
4.8649998 -0.001 -0.64399999 4
4.9619999 -0.001 -0.64700001 3
5.0630002 -0.001 -0.64999998 4
5.177 -0.001 -0.65399998 3
5.2870002 -0.001 -0.65700001 3
5.4520001 -0.001 -0.66600001 4
5.5739999 -0.0020000001 -0.67000002 3
5.7160001 -0.0020000001 -0.67500001 4
5.868 -0.003 -0.68099999 3
6.0029998 -0.003 -0.68400002 4
6.1719999 -0.0040000002 -0.69099998 4
6.3590002 -0.0040000002 -0.69800001 4
6.5040002 -0.0049999999 -0.70099998 4
6.7020001 -0.0060000001 -0.708 4
6.9359999 -0.0070000002 -0.71899998 4
7.1399999 -0.0080000004 -0.72500002 5
7.3460002 -0.0089999996 -0.73000002 4
7.5780001 -0.0099999998 -0.73799998 5
7.79 -0.011 -0.74199998 5
8.0970001 -0.013 -0.75400001 4
8.4209995 -0.014 -0.76700002 10
8.6330004 -0.016000001 -0.76800001 13
8.9469995 -0.017999999 -0.778 11
9.2250004 -0.02 -0.78299999 9
9.5550003 -0.022 -0.79000002 4
9.9969997 -0.025 -0.80599999 3
10.392 -0.028000001 -0.81599998 3
10.823 -0.030999999 -0.82700002 3
11.347 -0.035 -0.84299999 4
11.812 -0.039000001 -0.85299999 3
12.368 -0.043000001 -0.86699998 3
13.035 -0.048999999 -0.88599998 3
13.806 -0.055 -0.90899998 3
0 0 0 4
15.342 -0.068000004 -0.94599998 4
15.366 -0.071999997 -0.91500002 2
0 0 0 2
0 0 0 2
19.188 -0.105 -1.022 1
0 0 0 1
0 0 0 3
0 0 0 2
17.280001 -0.114 -0.773 4
17.097 -0.118 -0.72899997 4
16.957001 -0.122 -0.68800002 3
16.868 -0.127 -0.648 3
16.841999 -0.132 -0.61199999 4
16.846001 -0.138 -0.57599998 3
16.836 -0.14300001 -0.54000002 2
16.856001 -0.149 -0.505 1
16.815001 -0.155 -0.46900001 1
16.829 -0.161 -0.433 4
16.829 -0.167 -0.39700001 8
16.82 -0.17299999 -0.361 3
16.795 -0.17900001 -0.32499999 1
16.816 -0.186 -0.28999999 1
16.84 -0.193 -0.255 1
16.851999 -0.2 -0.219 1
16.879 -0.207 -0.184 1
16.889999 -0.214 -0.148 1
16.927999 -0.222 -0.114 1
16.968 -0.23 -0.078000002 3
16.983 -0.237 -0.041999999 2
17.018 -0.245 -0.0070000002 1
0 0 0 0
0 0 0 0
0 0 0 1
17.805 -0.289 0.14 1
0 0 0 0
0 0 0 0
0 0 0 0
0 0 0 1
20.605 -0.38499999 0.377 1
20.565001 -0.39399999 0.419 1
0 0 0 0
0 0 0 0
0 0 0 0
0 0 0 0
0 0 0 12
25.475 -0.56900001 0.83399999 33
25.441 -0.58200002 0.884 41
25.445999 -0.597 0.93699998 43
25.437 -0.611 0.98799998 44
25.431 -0.625 1.04 46
25.414 -0.639 1.091 46
25.406 -0.65399998 1.142 47
25.393 -0.66799998 1.193 46
25.389 -0.68300003 1.244 47
25.355 -0.69800001 1.294 50
25.361 -0.713 1.344 51
25.361 -0.72799999 1.395 40
25.370001 -0.74400002 1.447 50
25.337999 -0.759 1.4960001 55
25.34 -0.77499998 1.5470001 56
25.327 -0.79100001 1.598 55
25.336 -0.80699998 1.648 57
25.334 -0.824 1.699 56
25.326 -0.83999997 1.749 56
25.339001 -0.85699999 1.8 63
25.316999 -0.87300003 1.848 61
25.322001 -0.88999999 1.899 62
25.327 -0.90799999 1.949 62
25.316 -0.92400002 1.997 60
25.334 -0.94199997 2.0480001 67
25.343 -0.95999998 2.098 50
25.341 -0.97799999 2.148 71
25.332001 -0.995 2.1960001 65
25.341999 -1.0140001 2.247 63
25.344999 -1.0319999 2.296 55
25.349001 -1.05 2.3440001 50
25.344999 -1.068 2.392 55
25.362 -1.087 2.4419999 57
25.355 -1.1059999 2.49 54
25.365 -1.125 2.539 56
25.379999 -1.1440001 2.589 47
25.408001 -1.164 2.6389999 49
25.413 -1.183 2.688 46
25.43 -1.2029999 2.737 43
25.436001 -1.223 2.786 46
25.462 -1.244 2.836 44
25.476 -1.2640001 2.885 42
25.489 -1.284 2.9330001 40
25.5 -1.304 2.9809999 38
25.538 -1.326 3.033 36
25.552999 -1.347 3.0799999 31
25.587999 -1.369 3.131 28
25.618 -1.39 3.181 24
25.646999 -1.4119999 3.2309999 21
25.716999 -1.437 3.286 15
25.76 -1.46 3.3380001 4
0 0 0 3
0 0 0 2
38.597 -2.2809999 5.2069998 3
38.451 -2.3039999 5.256 3
38.421001 -2.3340001 5.3189998 2
38.305 -2.359 5.3699999 3
38.198002 -2.3829999 5.421 2
38.02 -2.404 5.4619999 3
0 0 0 0
0 0 0 2
0 0 0 0
0 0 0 0
0 0 0 2
33.884998 -2.3139999 5.2160001 7
33.874001 -2.342 5.2709999 19
33.896 -2.3729999 5.3309999 19
33.904999 -2.402 5.3889999 10
33.977001 -2.4360001 5.4559999 3
0 0 0 0
0 0 0 0
0 0 0 2
0 0 0 2
34.030998 -2.5869999 5.743 2
