# .PCD v0.7 - Point Cloud Data file format
VERSION 0.7
FIELDS x y z intensity
SIZE 4 4 4 4
TYPE F F F F
COUNT 1 1 1 1
WIDTH 1870
HEIGHT 1
VIEWPOINT 0 0 0 1 0 0 0
POINTS 1870
DATA ascii
24.966 -3.6029999 6.7519999 10
24.862 -3.6070001 6.7410002 10
24.777 -3.6140001 6.7360001 9
24.684999 -3.619 6.7280002 10
24.596001 -3.6240001 6.7199998 10
24.531 -3.6329999 6.7189999 11
24.43 -3.6370001 6.7069998 12
24.379 -3.6470001 6.7090001 13
24.309 -3.654 6.7049999 16
24.243999 -3.6630001 6.7020001 16
24.205999 -3.675 6.7069998 19
24.145 -3.6819999 6.704 20
24.084999 -3.691 6.7010002 22
24.052 -3.704 6.7059999 20
24.011 -3.714 6.7080002 25
23.955999 -3.723 6.7059999 27
23.917 -3.733 6.7069998 30
23.863001 -3.7409999 6.704 25
23.816 -3.7509999 6.7030001 31
23.783001 -3.7620001 6.7059999 33
23.743 -3.7720001 6.7059999 33
23.712 -3.783 6.7080002 27
23.684 -3.7939999 6.711 29
23.648001 -3.8039999 6.711 28
23.624001 -3.816 6.7140002 28
23.572001 -3.823 6.7090001 35
23.559 -3.8369999 6.7150002 35
23.518 -3.845 6.7119999 28
23.493999 -3.8559999 6.7150002 34
23.455999 -3.865 6.7119999 32
23.440001 -3.8770001 6.7160001 27
23.408001 -3.8870001 6.7150002 34
23.377001 -3.8959999 6.7129998 32
23.370001 -3.9089999 6.7189999 31
23.35 -3.9200001 6.7189999 31
23.330999 -3.931 6.7210002 27
23.309999 -3.941 6.7210002 27
23.289 -3.951 6.7210002 28
23.264 -3.961 6.7199998 31
23.240999 -3.97 6.7179999 31
23.232 -3.9820001 6.7210002 30
23.209999 -3.9909999 6.7189999 30
23.198 -4.0019999 6.7199998 30
23.191999 -4.0139999 6.723 31
23.176001 -4.0240002 6.7220001 31
23.167 -4.0339999 6.723 30
23.166 -4.0469999 6.7259998 26
23.136 -4.0539999 6.7199998 26
23.118 -4.0630002 6.7179999 29
23.113001 -4.0739999 6.7189999 29
23.115 -4.085 6.7210002 26
23.111 -4.0960002 6.7220001 31
23.104 -4.1069999 6.7210002 30
23.1 -4.1170001 6.7210002 31
23.106001 -4.1290002 6.724 30
23.086 -4.1370001 6.7189999 30
23.103001 -4.151 6.724 26
23.09 -4.158 6.7210002 30
23.086 -4.1680002 6.7189999 29
23.096001 -4.1799998 6.7210002 31
23.096001 -4.191 6.7199998 26
23.099001 -4.2010002 6.7199998 26
23.103001 -4.2119999 6.7199998 32
23.106001 -4.2220001 6.7179999 31
23.1 -4.23 6.7150002 31
23.103001 -4.2399998 6.7129998 30
23.122 -4.2529998 6.7160001 31
23.125999 -4.263 6.7140002 31
23.125999 -4.2709999 6.711 31
23.158001 -4.2859998 6.717 26
23.165001 -4.296 6.7150002 25
23.17 -4.3060002 6.7119999 30
23.195999 -4.3189998 6.7150002 31
23.200001 -4.3280001 6.711 30
23.215 -4.3379998 6.71 31
23.226999 -4.348 6.7090001 30
23.24 -4.3569999 6.7069998 31
23.27 -4.3699999 6.71 29
23.283001 -4.3800001 6.7069998 31
23.304001 -4.3909998 6.7069998 29
23.326 -4.402 6.7059999 30
23.341 -4.4120002 6.7030001 29
23.386 -4.427 6.7080002 25
23.396999 -4.4349999 6.704 30
23.431 -4.448 6.7059999 26
23.445 -4.4559999 6.7010002 32
23.483 -4.4689999 6.7030001 32
23.506001 -4.4790001 6.7010002 33
23.531 -4.4899998 6.6989999 35
23.563999 -4.5009999 6.6989999 28
23.601 -4.513 6.6989999 34
23.636999 -4.5250001 6.6989999 28
23.646 -4.5310001 6.691 33
23.677999 -4.5419998 6.6890001 32
23.712 -4.553 6.6880002 27
23.74 -4.5630002 6.684 32
23.782 -4.5749998 6.6849999 26
23.806999 -4.5830002 6.6799998 31
23.836 -4.592 6.6760001 31
23.888 -4.6059999 6.678 26
23.933001 -4.6170001 6.677 26
23.965 -4.6269999 6.6729999 26
23.997999 -4.6360002 6.6690001 32
24.049999 -4.6490002 6.6700001 30
24.097 -4.6599998 6.6690001 26
24.146 -4.6719999 6.6680002 32
24.195999 -4.6830001 6.6669998 26
24.243999 -4.6950002 6.665 27
24.288 -4.7049999 6.6620002 33
24.337 -4.7160001 6.6599998 31
24.396 -4.7280002 6.6599998 32
24.450001 -4.7399998 6.658 32
24.49 -4.7490001 6.6529999 29
24.547001 -4.7610002 6.651 29
24.614 -4.7740002 6.652 24
24.667999 -4.7849998 6.6490002 28
24.726999 -4.796 6.6469998 25
24.799 -4.8099999 6.6479998 26
24.849001 -4.8189998 6.6440001 32
24.914 -4.8309999 6.6420002 28
24.969999 -4.8410001 6.638 32
25.035999 -4.8530002 6.6360002 32
25.073 -4.8590002 6.6259999 27
25.146999 -4.8720002 6.6259999 33
25.205999 -4.882 6.6209998 32
25.288 -4.8959999 6.6209998 30
25.361 -4.908 6.619 30
25.438999 -4.9200001 6.619 25
25.507 -4.9310002 6.6149998 30
25.589001 -4.9439998 6.6139998 26
25.653 -4.9530001 6.6079998 29
25.733999 -4.9660001 6.6059999 26
25.806 -4.9759998 6.6009998 30
25.878 -4.9860001 6.5970001 29
25.966 -5 6.5949998 29
26.054001 -5.0120001 6.5939999 27
26.141001 -5.0240002 6.5910001 28
26.238001 -5.0380001 6.5910001 24
26.305 -5.046 6.5819998 28
26.403999 -5.0599999 6.5809999 28
26.489 -5.0710001 6.5770001 29
26.566 -5.0809999 6.5700002 24
26.68 -5.0960002 6.572 27
26.764 -5.1059999 6.5650001 28
26.865999 -5.118 6.5630002 24
26.971001 -5.132 6.5609999 24
27.059 -5.1420002 6.5549998 27
27.139 -5.1500001 6.546 29
27.259001 -5.165 6.546 23
27.371 -5.1789999 6.5440001 24
27.48 -5.191 6.54 22
27.577999 -5.2010002 6.5349998 26
27.708 -5.217 6.5349998 27
27.816999 -5.2290001 6.5300002 24
27.931999 -5.2420001 6.526 26
28.030001 -5.25 6.5190001 26
28.148001 -5.263 6.5139999 28
28.271999 -5.276 6.5110002 29
28.385 -5.2870002 6.5040002 29
28.492001 -5.296 6.4959998 23
28.618 -5.309 6.4920001 23
28.759001 -5.3239999 6.4910002 27
28.899 -5.3379998 6.4879999 29
29.035999 -5.3520002 6.4850001 30
29.143999 -5.3600001 6.474 29
29.275 -5.3709998 6.4689999 30
29.433001 -5.3870001 6.467 25
29.58 -5.4000001 6.4650002 28
29.709999 -5.4109998 6.4559999 25
29.858 -5.4239998 6.4520001 25
29.997999 -5.4359999 6.4450002 25
30.160999 -5.4510002 6.4419999 27
30.32 -5.4650002 6.4390001 30
30.448 -5.473 6.428 29
30.620001 -5.4879999 6.4250002 29
30.747 -5.4949999 6.4120002 29
30.924 -5.5100002 6.4109998 28
31.070999 -5.52 6.401 29
31.216999 -5.5289998 6.3909998 26
0 0 0 5
27.455 -4.8330002 5.5489998 12
27.400999 -4.8080001 5.5019999 17
27.358999 -4.7849998 5.4580002 19
27.330999 -4.7639999 5.4159999 22
27.319 -4.7449999 5.3769999 24
27.298 -4.7249999 5.3369999 26
27.274 -4.7049999 5.2950001 27
27.238001 -4.6820002 5.2509999 29
27.222 -4.6620002 5.211 33
27.222 -4.6440001 5.1739998 34
27.205 -4.6240001 5.1329999 35
27.191 -4.6040001 5.0929999 36
27.183001 -4.585 5.0539999 37
27.184 -4.566 5.0170002 39
27.177 -4.546 4.9770002 40
27.155001 -4.5240002 4.9349999 44
27.153 -4.5040002 4.8969998 44
27.148001 -4.4840002 4.8569999 43
27.136 -4.4629998 4.8179998 47
27.132 -4.4429998 4.777 47
27.136 -4.4229999 4.7399998 47
27.122 -4.401 4.6989999 43
27.127001 -4.381 4.6609998 46
27.139999 -4.3639998 4.625 44
27.129 -4.3400002 4.5830002 56
27.115 -4.3169999 4.5409999 55
27.128 -4.2979999 4.5050001 57
27.125999 -4.276 4.4650002 59
27.124001 -4.2540002 4.4250002 53
27.122999 -4.2329998 4.3860002 51
27.124001 -4.21 4.3460002 48
27.132999 -4.1890001 4.3070002 47
27.152 -4.1690001 4.27 49
27.149 -4.145 4.2290001 44
27.169001 -4.125 4.1919999 41
27.186001 -4.1040001 4.1539998 40
27.177999 -4.0799999 4.112 39
27.195 -4.0570002 4.073 41
27.219999 -4.0370002 4.0359998 39
27.242001 -4.0159998 3.9979999 37
27.253 -3.993 3.9590001 34
27.292999 -3.974 3.9230001 33
27.316 -3.9519999 3.885 30
27.34 -3.9300001 3.8469999 25
27.378 -3.9089999 3.8099999 22
27.437 -3.892 3.7780001 17
27.514999 -3.8770001 3.7460001 11
27.566999 -3.8570001 3.711 1
0 0 0 0
0 0 0 0
0 0 0 0
0 0 0 0
0 0 0 0
0 0 0 0
0 0 0 0
0 0 0 0
0 0 0 0
0 0 0 0
0 0 0 0
0 0 0 0
0 0 0 0
0 0 0 0
0 0 0 0
0 0 0 0
0 0 0 0
0 0 0 2
35.331001 -4.2399998 3.7190001 3
35.382999 -4.2069998 3.6689999 2
35.323002 -4.1589999 3.608 2
35.139 -4.0970001 3.5339999 5
35.066002 -4.0489998 3.473 42
35.077999 -4.0089998 3.4189999 51
35.078999 -3.9690001 3.3640001 52
35.071999 -3.927 3.3099999 57
35.068001 -3.885 3.2539999 58
35.063 -3.8440001 3.201 58
35.063999 -3.8010001 3.145 56
35.057999 -3.7579999 3.0899999 55
35.057999 -3.7149999 3.0350001 55
35.041 -3.6719999 2.98 54
35.043999 -3.6289999 2.925 54
35.022999 -3.5840001 2.869 61
35.004002 -3.5369999 2.812 77
35.008999 -3.494 2.7579999 88
34.994999 -3.4489999 2.7019999 79
34.980999 -3.4030001 2.6470001 81
34.990002 -3.3599999 2.5929999 57
34.973999 -3.313 2.5380001 79
34.971001 -3.2679999 2.483 88
34.984001 -3.224 2.4300001 85
34.972 -3.177 2.375 68
34.958 -3.1300001 2.3199999 74
34.957001 -3.0840001 2.2650001 73
34.936001 -3.036 2.211 75
34.943001 -2.99 2.1559999 71
34.958 -2.9449999 2.1040001 43
34.949001 -2.8970001 2.049 45
34.952999 -2.8499999 1.995 45
34.948002 -2.802 1.941 47
34.931999 -2.753 1.886 44
34.935001 -2.7049999 1.8329999 34
35.144001 -2.674 1.791 9
35.299 -2.6370001 1.745 8
35.987999 -2.638 1.724 4
36.741001 -2.6429999 1.705 11
37.5 -2.645 1.683 8
38.298 -2.6470001 1.66 7
39.028 -2.642 1.633 6
39.460999 -2.615 1.591 5
39.672001 -2.573 1.54 2
41.965 -2.661 1.5650001 3
0 0 0 0
0 0 0 5
46.998001 -2.7750001 1.541 6
0 0 0 3
43.824001 -2.46 1.306 16
43.769001 -2.392 1.239 138
43.755001 -2.3269999 1.173 151
43.758999 -2.263 1.109 152
43.764 -2.198 1.045 152
43.813 -2.1340001 0.98100001 54
43.811001 -2.0680001 0.91600001 42
43.818001 -2.0020001 0.852 38
43.818001 -1.936 0.787 31
43.796001 -1.869 0.72399998 3
0 0 0 0
0 0 0 0
0 0 0 0
0 0 0 0
0 0 0 0
0 0 0 63
59.667 -1.903 0.382 6
59.728001 -1.812 0.29800001 28
59.692001 -1.716 0.212 39
0 0 0 8
67.123001 -1.7180001 0.046999998 31
67.136002 -1.612 -0.046999998 64
67.209999 -1.507 -0.141 30
67.835999 -1.413 -0.23800001 20
67.699997 -1.301 -0.33199999 22
0 0 0 95
73.427002 -1.177 -0.56300002 63
73.358002 -1.058 -0.66399997 52
73.357002 -0.93900001 -0.76599997 30
0 0 0 0
0 0 0 38
134.004 -1.0650001 -1.947 90
133.95799 -0.84600002 -2.128 109
0 0 0 0
0 0 0 0
0 0 0 0
0 0 0 56
0 0 0 0
0 0 0 0
0 0 0 25
0 0 0 25
0 0 0 25
0 0 0 0
0 0 0 0
0 0 0 4
39.673 0.60399997 -1.309 43
39.518002 0.66799998 -1.354 16
39.409 0.73199999 -1.4 17
39.346001 0.79799998 -1.448 21
39.278 0.86299998 -1.495 24
39.268002 0.93000001 -1.544 18
39.577999 1.0039999 -1.6059999 10
40.157001 1.0880001 -1.679 7
40.326 1.1619999 -1.737 7
40.325001 1.2309999 -1.786 5
40.139999 1.294 -1.827 3
0 0 0 0
0 0 0 0
0 0 0 0
0 0 0 0
0 0 0 2
0 0 0 0
0 0 0 0
0 0 0 0
0 0 0 1
20.283001 1.003 -1.164 2
19.5 0.99800003 -1.141 1
0 0 0 2
18.153 0.991 -1.103 2
17.493999 0.986 -1.0829999 2
16.839001 0.977 -1.061 2
16.355 0.97799999 -1.049 2
15.792 0.972 -1.03 3
15.306 0.96799999 -1.015 2
14.917 0.97000003 -1.006 2
14.447 0.96399999 -0.99000001 2
14.056 0.963 -0.97799999 3
13.691 0.96200001 -0.96700001 3
13.348 0.95999998 -0.95700002 3
13.052 0.96200001 -0.94999999 3
12.743 0.96100003 -0.94 3
12.492 0.96399999 -0.935 2
12.128 0.95700002 -0.92000002 3
11.84 0.95499998 -0.91000003 2
11.567 0.95300001 -0.90100002 2
11.308 0.95200002 -0.89300001 3
11.11 0.954 -0.88800001 2
10.898 0.95499998 -0.88200003 3
10.697 0.95599997 -0.87599999 2
10.5 0.95599997 -0.87 2
10.259 0.95200002 -0.86000001 2
10.06 0.95099998 -0.85299999 3
9.8990002 0.95300001 -0.84899998 4
9.7270002 0.954 -0.84399998 4
9.5530005 0.95300001 -0.838 4
9.3789997 0.95200002 -0.83099997 4
9.2259998 0.95300001 -0.82599998 4
9.0950003 0.95499998 -0.82300001 3
8.908 0.94999999 -0.81400001 4
8.7489996 0.949 -0.80699998 4
8.5900002 0.94599998 -0.801 4
8.4300003 0.94300002 -0.79299998 4
8.3000002 0.94300002 -0.78799999 5
8.1630001 0.94199997 -0.78200001 5
8.0039997 0.93699998 -0.77399999 5
7.882 0.93599999 -0.76899999 5
7.7750001 0.93699998 -0.76499999 5
7.6869998 0.93900001 -0.76300001 4
7.5770001 0.93900001 -0.759 4
7.4710002 0.93900001 -0.75400001 4
7.3670001 0.93800002 -0.75 4
7.2490001 0.93599999 -0.74299997 4
7.1550002 0.93599999 -0.74000001 4
7.0430002 0.93300003 -0.73400003 4
6.9650002 0.935 -0.73100001 4
6.8930001 0.93599999 -0.72899997 4
6.8140001 0.93699998 -0.72600001 4
6.7509999 0.94 -0.72399998 4
6.6659999 0.93900001 -0.72000003 4
6.605 0.94199997 -0.71799999 4
6.5489998 0.94499999 -0.71700001 4
6.4699998 0.94400001 -0.713 4
6.4239998 0.94800001 -0.713 3
6.3499999 0.94800001 -0.70899999 3
6.2540002 0.94400001 -0.70300001 4
6.1869998 0.94400001 -0.69999999 4
6.145 0.94800001 -0.699 3
6.0910001 0.94999999 -0.69700003 3
6.0479999 0.95300001 -0.69700003 2
5.9790001 0.95200002 -0.69300002 3
5.9359999 0.95499998 -0.69199997 3
5.8909998 0.95700002 -0.69 2
5.849 0.95999998 -0.68900001 2
5.7940001 0.95999998 -0.68599999 3
5.7600002 0.96399999 -0.68599999 3
5.7290001 0.96799999 -0.68599999 2
5.6700001 0.96700001 -0.68199998 2
5.6500001 0.972 -0.68300003 2
5.612 0.97500002 -0.68199998 3
5.5560002 0.97399998 -0.67799997 3
5.5310001 0.97799999 -0.67799997 4
5.4949999 0.98100001 -0.67699999 4
5.461 0.98400003 -0.676 4
5.441 0.98799998 -0.67699999 3
5.415 0.99199998 -0.67699999 4
5.3699999 0.99199998 -0.67400002 4
5.342 0.99599999 -0.67299998 4
5.3109999 0.99800003 -0.67199999 3
5.277 1 -0.671 3
5.2470002 1.002 -0.66900003 3
5.198 1.001 -0.66600001 3
5.1760001 1.0039999 -0.66600001 3
5.1550002 1.008 -0.66500002 3
5.1240001 1.01 -0.66399997 3
5.0970001 1.012 -0.66299999 3
5.0689998 1.0140001 -0.662 3
5.0370002 1.016 -0.66000003 3
5.0100002 1.017 -0.65899998 2
4.9790001 1.0190001 -0.65700001 3
4.9699998 1.024 -0.65799999 2
4.9349999 1.024 -0.65499997 3
4.9099998 1.026 -0.65399998 2
4.8860002 1.028 -0.653 4
4.875 1.033 -0.653 3
4.8340001 1.031 -0.64999998 2
4.8239999 1.036 -0.64999998 2
4.8060002 1.039 -0.64999998 3
4.7839999 1.041 -0.648 3
4.7659998 1.044 -0.648 3
4.7470002 1.046 -0.64700001 3
4.717 1.046 -0.64399999 3
4.717 1.053 -0.64600003 3
4.6869998 1.053 -0.64399999 5
4.6810002 1.058 -0.64399999 3
4.6589999 1.059 -0.64300001 3
4.651 1.064 -0.64300001 3
4.6329999 1.066 -0.64200002 3
4.619 1.069 -0.64200002 3
4.6090002 1.073 -0.64099997 3
4.599 1.076 -0.64099997 3
4.5630002 1.074 -0.63800001 4
4.5700002 1.081 -0.63999999 3
4.5500002 1.0829999 -0.63800001 2
4.5380001 1.086 -0.63800001 4
4.5300002 1.09 -0.63800001 2
4.5159998 1.092 -0.63700002 3
4.5110002 1.097 -0.63700002 2
4.5089998 1.102 -0.63800001 2
4.5009999 1.105 -0.63800001 2
4.4899998 1.108 -0.63700002 2
4.4780002 1.1109999 -0.63599998 2
4.4619999 1.112 -0.63499999 4
4.4559999 1.1160001 -0.63499999 2
4.4419999 1.118 -0.634 3
4.4439998 1.123 -0.63499999 2
4.428 1.125 -0.63300002 4
4.4310002 1.13 -0.634 2
4.4239998 1.1339999 -0.634 2
4.4289999 1.14 -0.63499999 2
4.4070001 1.1390001 -0.63300002 2
4.4060001 1.1440001 -0.63300002 4
4.4029999 1.148 -0.63300002 2
4.3899999 1.15 -0.63200003 4
4.3829999 1.153 -0.63099998 4
4.3730001 1.155 -0.63 4
4.3839998 1.1619999 -0.63200003 2
4.3720002 1.164 -0.63099998 4
4.368 1.168 -0.63099998 4
4.362 1.171 -0.63 4
4.3569999 1.174 -0.63 4
4.3709998 1.182 -0.63200003 2
4.3660002 1.1849999 -0.63099998 2
4.3639998 1.189 -0.63099998 2
4.349 1.189 -0.62900001 2
4.3590002 1.196 -0.63099998 2
4.349 1.197 -0.63 4
4.3520002 1.202 -0.63 2
4.3509998 1.206 -0.63 2
4.342 1.2079999 -0.62900001 4
4.3499999 1.214 -0.63 3
4.348 1.217 -0.62900001 2
4.3369999 1.2180001 -0.62800002 4
4.348 1.225 -0.62900001 2
4.3499999 1.229 -0.62900001 4
4.3410001 1.23 -0.62800002 4
4.3520002 1.237 -0.62900001 4
4.3590002 1.243 -0.63 2
4.362 1.247 -0.63 4
4.3590002 1.25 -0.63 2
4.3520002 1.251 -0.62800002 4
4.3530002 1.255 -0.62800002 4
4.3709998 1.2640001 -0.63 2
4.3670001 1.266 -0.62900001 4
4.3730001 1.271 -0.63 2
4.3740001 1.274 -0.62900001 4
4.3759999 1.278 -0.62900001 4
4.3899999 1.285 -0.63099998 2
4.3909998 1.289 -0.63 4
4.3979998 1.294 -0.63099998 2
4.3909998 1.295 -0.62900001 4
4.4120002 1.304 -0.63099998 2
4.4039998 1.3049999 -0.63 4
4.4060001 1.308 -0.62900001 4
4.4289999 1.317 -0.63200003 2
4.4289999 1.3200001 -0.63099998 2
4.4429998 1.327 -0.63200003 2
4.4359999 1.3279999 -0.63 4
4.4510002 1.335 -0.63200003 4
4.474 1.344 -0.634 3
4.4710002 1.345 -0.63300002 2
4.4790001 1.35 -0.63300002 2
4.4829998 1.354 -0.63200003 2
4.487 1.358 -0.63200003 2
4.5050001 1.365 -0.634 2
4.5100002 1.369 -0.63300002 3
4.5219998 1.375 -0.634 2
4.5310001 1.3789999 -0.634 2
4.5300002 1.381 -0.63300002 4
4.559 1.392 -0.63599998 3
4.5650001 1.396 -0.63499999 3
4.579 1.402 -0.63599998 3
4.5809999 1.404 -0.63499999 3
4.5960002 1.411 -0.63599998 3
4.599 1.414 -0.63499999 3
4.631 1.425 -0.63800001 3
4.6399999 1.429 -0.63800001 3
4.6570001 1.436 -0.639 3
4.6589999 1.438 -0.63800001 5
4.6680002 1.442 -0.63800001 3
4.697 1.4529999 -0.63999999 3
4.7010002 1.455 -0.639 3
4.7140002 1.46 -0.639 3
4.7329998 1.467 -0.63999999 3
4.7410002 1.471 -0.63999999 3
4.7579999 1.478 -0.63999999 3
4.783 1.4859999 -0.64200002 3
4.8010001 1.493 -0.64300001 2
4.8109999 1.497 -0.64200002 4
4.8239999 1.502 -0.64200002 3
4.8530002 1.511 -0.64399999 2
4.8699999 1.517 -0.64499998 3
4.888 1.524 -0.64499998 4
4.9260001 1.536 -0.648 2
4.9320002 1.538 -0.64700001 3
4.9439998 1.543 -0.64700001 4
4.9920001 1.558 -0.65100002 3
5.0009999 1.561 -0.64999998 4
5.0120001 1.5650001 -0.64899999 4
5.0419998 1.574 -0.65100002 4
5.066 1.582 -0.65200001 3
5.0799999 1.586 -0.65200001 4
5.1170001 1.598 -0.65399998 3
5.1409998 1.605 -0.65499997 3
5.151 1.608 -0.65399998 3
5.1810002 1.617 -0.65600002 3
5.204 1.624 -0.65600002 3
5.2129998 1.626 -0.65499997 5
5.256 1.6390001 -0.65799999 3
5.2969999 1.651 -0.66100001 3
5.336 1.663 -0.66299999 4
5.3790002 1.676 -0.66600001 5
5.4130001 1.6849999 -0.667 6
5.4369998 1.692 -0.66799998 7
5.4559999 1.697 -0.667 7
5.4710002 1.701 -0.667 7
5.4829998 1.7029999 -0.66500002 7
5.4970002 1.706 -0.66399997 7
5.5219998 1.7130001 -0.66500002 7
5.5359998 1.716 -0.66299999 7
5.5560002 1.721 -0.66299999 7
5.5770001 1.725 -0.66299999 6
5.6230001 1.738 -0.66500002 5
5.6750002 1.753 -0.66799998 3
5.7290001 1.767 -0.67199999 3
5.7719998 1.779 -0.67400002 2
5.803 1.786 -0.67400002 3
5.8379998 1.795 -0.67500001 3
5.8850002 1.807 -0.67799997 2
5.9310002 1.819 -0.68000001 2
5.9640002 1.827 -0.68000001 2
5.9920001 1.8329999 -0.68000001 3
6.0430002 1.846 -0.68199998 4
6.1020002 1.8609999 -0.68599999 3
6.1409998 1.8710001 -0.68699998 3
6.1820002 1.88 -0.68800002 3
6.2199998 1.8890001 -0.68800002 3
6.283 1.905 -0.69199997 3
6.3340001 1.9170001 -0.69400001 4
6.381 1.928 -0.69499999 3
6.4369998 1.942 -0.69800001 4
6.4949999 1.956 -0.69999999 4
6.5479999 1.9680001 -0.70200002 4
6.6129999 1.984 -0.70499998 4
6.6529999 1.992 -0.70499998 4
6.7220001 2.0079999 -0.708 5
6.7670002 2.0179999 -0.70899999 4
6.8119998 2.027 -0.70999998 4
6.8870001 2.0450001 -0.713 4
6.947 2.0580001 -0.71499997 4
7.0100002 2.072 -0.71799999 4
7.0799999 2.0880001 -0.72000003 4
7.1479998 2.1029999 -0.72299999 3
7.2069998 2.1159999 -0.72500002 3
7.2659998 2.128 -0.72600001 4
7.3439999 2.145 -0.72899997 3
7.4190001 2.1619999 -0.73199999 4
7.5120001 2.1830001 -0.73699999 4
7.6350002 2.2130001 -0.74400002 4
7.6999998 2.2249999 -0.745 6
7.8169999 2.253 -0.75199997 8
7.8730001 2.263 -0.75199997 9
7.9239998 2.2709999 -0.75199997 10
8 2.286 -0.75400001 12
8.0780001 2.302 -0.75599998 11
8.151 2.316 -0.75800002 11
8.2460003 2.335 -0.76099998 8
8.3739996 2.3640001 -0.76800001 9
8.4809999 2.3870001 -0.77200001 8
8.6429996 2.425 -0.78100002 15
8.7399998 2.444 -0.78399998 18
8.8280001 2.46 -0.787 19
8.9280005 2.4790001 -0.79000002 12
9.0649996 2.5090001 -0.796 5
9.2049999 2.5380001 -0.80199999 4
9.3520002 2.5699999 -0.80900002 4
9.4860001 2.5969999 -0.81400001 5
9.6169996 2.6229999 -0.81900001 5
9.7659998 2.654 -0.82499999 5
9.8789997 2.675 -0.82800001 6
10 2.697 -0.83200002 7
10.121 2.7190001 -0.83499998 6
10.239 2.74 -0.838 7
10.422 2.777 -0.84600002 5
10.568 2.8050001 -0.852 9
10.681 2.823 -0.85299999 8
10.799 2.842 -0.85600001 5
10.9 2.8570001 -0.85600001 6
11.045 2.882 -0.86000001 6
11.17 2.902 -0.86299998 7
11.3 2.9219999 -0.86500001 5
11.417 2.9389999 -0.86699998 5
11.571 2.9649999 -0.87099999 5
11.703 2.9849999 -0.87300003 5
11.88 3.016 -0.87800002 3
12.082 3.052 -0.88499999 3
12.238 3.0769999 -0.889 3
12.407 3.1040001 -0.89200002 3
12.675 3.155 -0.90399998 3
12.882 3.1900001 -0.91000003 4
12.998 3.2019999 -0.90899998 5
13.125 3.217 -0.91000003 5
13.273 3.2360001 -0.91100001 4
13.425 3.2550001 -0.91299999 3
13.656 3.293 -0.91900003 3
13.859 3.323 -0.92400002 4
14.065 3.3540001 -0.92799997 4
14.384 3.4100001 -0.94 4
14.623 3.447 -0.94599998 4
14.947 3.5020001 -0.95700002 4
15.207 3.5420001 -0.96399999 4
15.483 3.585 -0.97100002 4
15.741 3.6229999 -0.97799999 4
15.991 3.658 -0.98199999 4
15.54 3.5320001 -0.94499999 3
15.773 3.563 -0.949 3
16.042 3.6010001 -0.95499998 2
0 0 0 0
0 0 0 3
17.240999 3.7939999 -0.99299997 3
17.421 3.8080001 -0.99199998 3
18.055 3.9189999 -1.017 3
18.285999 3.941 -1.018 3
18.427 3.944 -1.0140001 1
19.311001 4.1030002 -1.051 2
20.023001 4.224 -1.077 4
20.389999 4.2690001 -1.084 2
0 0 0 3
22.809 4.704 -1.184 2
0 0 0 0
0 0 0 0
0 0 0 0
0 0 0 0
0 0 0 0
0 0 0 4
0 0 0 0
0 0 0 0
0 0 0 3
31.642 6.0120001 -1.45 2
31.729 5.9780002 -1.436 2
31.799999 5.9369998 -1.42 3
31.66 5.8579998 -1.395 3
31.697001 5.8119998 -1.3789999 3
31.681 5.7550001 -1.36 3
31.705999 5.7059999 -1.3430001 3
31.705 5.651 -1.325 4
31.667 5.5890002 -1.3049999 5
31.632 5.5279999 -1.286 5
31.648001 5.4759998 -1.2690001 5
31.808001 5.448 -1.258 7
31.664 5.368 -1.234 4
31.594999 5.3000002 -1.214 38
31.700001 5.2610002 -1.201 21
31.698999 5.2049999 -1.184 13
31.625 5.1360002 -1.164 12
31.625 5.079 -1.147 16
31.715 5.0359998 -1.1339999 8
31.718 4.9790001 -1.117 16
31.601999 4.9029999 -1.097 88
31.634001 4.8499999 -1.081 43
31.722 4.8049998 -1.068 8
31.659 4.737 -1.05 31
31.620001 4.6729999 -1.033 20
31.643 4.6170001 -1.017 8
31.715 4.5679998 -1.0039999 8
31.775999 4.5170002 -0.99000001 16
31.862 4.4689999 -0.977 14
31.907 4.415 -0.963 10
31.983 4.3649998 -0.94999999 10
0 0 0 0
0 0 0 0
0 0 0 0
0 0 0 51
49.154999 6.2379999 -1.347 91
49.161999 6.145 -1.326 110
49.16 6.0479999 -1.304 117
49.178001 5.9549999 -1.283 153
49.186001 5.862 -1.262 155
49.208 5.7680001 -1.242 135
49.236 5.6729999 -1.222 95
49.238998 5.5770001 -1.202 87
49.286999 5.4840002 -1.182 57
0 0 0 2
40.695 4.368 -0.94400001 4
40.657001 4.2810001 -0.926 4
40.571999 4.1919999 -0.90899998 6
40.557999 4.1079998 -0.89300001 7
40.487 4.0209999 -0.87699997 8
40.419998 3.9330001 -0.86000001 8
40.382999 3.848 -0.84500003 8
0 0 0 22
85.712997 7.822 -1.732 75
0 0 0 4
40.077999 3.4949999 -0.78200001 2
0 0 0 0
0 0 0 0
0 0 0 0
0 0 0 0
0 0 0 0
0 0 0 0
0 0 0 0
0 0 0 0
0 0 0 0
0 0 0 0
0 0 0 0
0 0 0 0
0 0 0 0
0 0 0 0
0 0 0 5
39.445999 2.138 -0.58899999 12
39.379002 2.052 -0.579 16
39.332001 1.967 -0.56900001 22
39.345001 1.886 -0.56099999 13
39.703999 1.817 -0.55699998 11
39.84 1.742 -0.551 13
0 0 0 0
0 0 0 0
0 0 0 0
0 0 0 32
0 0 0 37
0 0 0 0
0 0 0 29
0 0 0 0
0 0 0 43
133.575 3.0050001 -1.623 50
133.51199 2.723 -1.604 61
133.644 2.444 -1.59 57
133.76601 2.161 -1.575 109
133.698 1.874 -1.559 66
133.783 1.59 -1.546 70
133.802 1.308 -1.534 87
133.784 1.017 -1.522 76
133.827 0.73100001 -1.511 86
133.843 0.449 -1.5 81
133.868 0.162 -1.4910001 85
133.89101 -0.12800001 -1.483 81
133.883 -0.41499999 -1.476 81
133.953 -0.70300001 -1.47 86
0 0 0 10
73.391998 -0.69800001 -0.79900002 22
73.361 -0.85500002 -0.79699999 26
73.389999 -1.013 -0.796 26
73.413002 -1.171 -0.79500002 44
72.611 -1.316 -0.78600001 26
0 0 0 29
67.077003 -1.503 -0.72600001 70
67.074997 -1.645 -0.727 73
67.058998 -1.789 -0.72799999 133
0 0 0 16
59.280998 -1.836 -0.64700001 45
59.02 -1.951 -0.64700001 109
59.004002 -2.079 -0.64899999 121
58.247002 -2.177 -0.64399999 60
57.937 -2.286 -0.64499998 138
55.751999 -2.319 -0.62400001 8
0 0 0 8
44.238998 -2.0309999 -0.50199997 21
44.117001 -2.1199999 -0.505 10
44.280998 -2.2219999 -0.51099998 7
45.056999 -2.3570001 -0.52399999 11
43.620998 -2.378 -0.51300001 23
43.608002 -2.4679999 -0.51800001 38
43.178001 -2.5350001 -0.51800001 38
43.049999 -2.6210001 -0.52200001 44
43.043999 -2.711 -0.52700001 41
42.926998 -2.7950001 -0.53200001 47
42.824001 -2.8789999 -0.537 94
42.806 -2.9690001 -0.54400003 103
40.504002 -2.895 -0.52100003 9
40.443001 -2.9749999 -0.52700001 22
39.515999 -2.9890001 -0.52200001 6
38.860001 -3.023 -0.52100003 11
38.757999 -3.096 -0.52700001 80
38.792999 -3.181 -0.53500003 12
0 0 0 0
0 0 0 0
0 0 0 0
0 0 0 1
0 0 0 0
0 0 0 0
0 0 0 1
0 0 0 0
0 0 0 25
0 0 0 25
0 0 0 25
0 0 0 25
0 0 0 25
0 0 0 25
0 0 0 4
18.885 -2.1760001 -0.336 1
18.966 -2.2249999 -0.34299999 1
0 0 0 25
0 0 0 25
0 0 0 1
18.738001 -2.3499999 -0.36300001 1
18.757 -2.391 -0.37 1
18.788 -2.4319999 -0.377 1
18.669001 -2.454 -0.38100001 1
18.729 -2.5 -0.389 1
18.771 -2.543 -0.396 5
18.73 -2.575 -0.40200001 8
18.708 -2.609 -0.40799999 10
18.733 -2.6500001 -0.41600001 8
18.700001 -2.6830001 -0.42199999 9
18.705 -2.72 -0.43000001 8
18.712 -2.7579999 -0.43700001 7
18.736 -2.799 -0.44499999 6
18.736 -2.835 -0.45300001 5
18.615999 -2.8540001 -0.45699999 17
18.638 -2.8929999 -0.465 4
18.681 -2.9360001 -0.47400001 4
18.743 -2.9809999 -0.484 9
18.761999 -3.0209999 -0.49200001 11
18.686001 -3.0450001 -0.498 14
18.645 -3.0739999 -0.505 27
18.672001 -3.1140001 -0.514 36
18.808001 -3.1730001 -0.52600002 16
18.806999 -3.2090001 -0.53500003 10
18.732 -3.2320001 -0.54100001 2
18.691 -3.26 -0.54900002 1
18.653 -3.2880001 -0.55599999 1
18.655001 -3.3239999 -0.565 1
18.686001 -3.3640001 -0.57499999 1
18.690001 -3.4000001 -0.58399999 1
18.773001 -3.45 -0.59500003 1
18.797001 -3.4890001 -0.60500002 1
18.868 -3.5369999 -0.61699998 1
19.007 -3.5969999 -0.63099998 4
19.039 -3.638 -0.64099997 41
19.056 -3.6760001 -0.65200001 68
19.006001 -3.701 -0.66000003 1
0 0 0 31
21.413 -4.2480001 -0.76499999 46
21.424999 -4.289 -0.77700001 48
21.407 -4.323 -0.787 58
21.414 -4.3629999 -0.79900002 51
21.433001 -4.4050002 -0.81099999 11
0 0 0 40
35.101002 -7.3369999 -1.3660001 44
35.074001 -7.3930001 -1.3839999 51
34.643002 -7.362 -1.386 55
34.765999 -7.4489999 -1.41 31
0 0 0 1
19.240999 -4.1880002 -0.80199999 17
19.16 -4.2030001 -0.80900002 23
19.117001 -4.2259998 -0.81800002 28
19.038 -4.2410002 -0.82499999 29
19.000999 -4.2649999 -0.83499998 33
18.981001 -4.2909999 -0.84399998 35
18.952 -4.316 -0.85399997 37
18.929001 -4.342 -0.86400002 42
18.91 -4.369 -0.87400001 41
18.893999 -4.3959999 -0.884 48
18.878 -4.4229999 -0.89499998 49
18.858999 -4.4489999 -0.90499997 48
18.843 -4.4759998 -0.91500002 57
18.843 -4.506 -0.926 38
18.832001 -4.533 -0.93699998 41
18.813999 -4.5580001 -0.94700003 57
0 0 0 0
0 0 0 8
17.200001 -4.2470002 -0.89700001 8
17.125999 -4.2550001 -0.903 5
17.013 -4.2529998 -0.90799999 10
16.924999 -4.257 -0.91299999 8
16.854 -4.2639999 -0.92000002 8
16.780001 -4.27 -0.926 9
16.702 -4.2750001 -0.93199998 9
16.629999 -4.2820001 -0.93800002 9
16.541 -4.283 -0.94400001 9
16.451 -4.283 -0.94800001 11
16.403999 -4.2950001 -0.95599997 34
16.407 -4.3189998 -0.96700001 41
16.417999 -4.3449998 -0.977 40
16.417 -4.3670001 -0.98799998 40
16.407 -4.388 -0.99699998 39
16.417 -4.4130001 -1.008 27
16.422001 -4.4369998 -1.0190001 30
16.427 -4.461 -1.029 32
16.408001 -4.4780002 -1.039 42
16.417 -4.5029998 -1.049 36
16.426001 -4.527 -1.0599999 36
16.424 -4.5479999 -1.071 39
16.424 -4.5700002 -1.081 44
16.417 -4.5900002 -1.091 32
16.431 -4.6149998 -1.102 35
16.424 -4.6339998 -1.112 35
16.422001 -4.6539998 -1.123 26
16.406 -4.6700001 -1.132 27
16.481001 -4.7119999 -1.148 6
15.688 -4.5050001 -1.103 3
15.339 -4.4229999 -1.0880001 3
14.948 -4.3280001 -1.069 2
14.676 -4.2670002 -1.059 2
14.459 -4.2210002 -1.053 3
14.209 -4.165 -1.044 3
14.675 -4.3189998 -1.0880001 4
14.418 -4.2600002 -1.0779999 4
14.221 -4.2179999 -1.072 4
14.04 -4.1799998 -1.067 4
13.844 -4.1370001 -1.061 4
13.582 -4.0739999 -1.05 4
13.376 -4.027 -1.043 4
13.15 -3.973 -1.034 3
12.924 -3.9189999 -1.024 3
12.714 -3.868 -1.015 3
12.476 -3.809 -1.0039999 3
12.291 -3.7650001 -0.99699998 3
12.116 -3.724 -0.99000001 3
11.904 -3.6700001 -0.98100001 3
11.759 -3.6370001 -0.97600001 3
11.576 -3.592 -0.96799999 2
11.425 -3.556 -0.963 2
11.283 -3.523 -0.958 2
11.129 -3.4849999 -0.95200002 2
11.011 -3.4579999 -0.94800001 2
10.857 -3.4200001 -0.94199997 2
10.724 -3.388 -0.93699998 2
10.548 -3.3410001 -0.92799997 3
10.435 -3.3150001 -0.92500001 2
10.3 -3.2809999 -0.91900003 2
0 0 0 0
0 0 0 0
0 0 0 1
8.3629999 -2.6919999 -0.76700002 1
8.3260002 -2.6860001 -0.76800001 1
8.3100004 -2.687 -0.77200001 1
8.2700005 -2.681 -0.773 1
8.2399998 -2.677 -0.77499998 1
8.2270002 -2.6789999 -0.77899998 1
8.191 -2.6730001 -0.78100002 2
8.1920004 -2.6800001 -0.78500003 2
8.1709995 -2.6789999 -0.78799999 3
8.1660004 -2.6830001 -0.792 4
8.1169996 -2.6719999 -0.79299998 6
8.1520004 -2.6889999 -0.801 5
8.1389999 -2.6900001 -0.80400002 5
8.1239996 -2.6900001 -0.80699998 5
8.1210003 -2.694 -0.81199998 5
8.1040001 -2.6930001 -0.815 6
8.0869999 -2.6919999 -0.81800002 4
8.0629997 -2.6889999 -0.81999999 7
8.0469999 -2.688 -0.82300001 6
8.0019999 -2.678 -0.82300001 7
7.9629998 -2.6689999 -0.82300001 10
7.9109998 -2.6559999 -0.82200003 13
7.8569999 -2.641 -0.82099998 10
7.8000002 -2.6259999 -0.81900001 13
7.7350001 -2.608 -0.81699997 13
7.6820002 -2.5940001 -0.815 15
7.6230001 -2.5780001 -0.81300002 14
7.585 -2.5680001 -0.81300002 14
7.5560002 -2.5610001 -0.81400001 14
7.5219998 -2.553 -0.81400001 14
7.4889998 -2.5450001 -0.815 14
7.4590001 -2.5369999 -0.81599998 10
7.4380002 -2.533 -0.81699997 6
7.415 -2.5280001 -0.81800002 4
7.3720002 -2.516 -0.81699997 3
7.3439999 -2.5079999 -0.81800002 2
7.2820001 -2.49 -0.815 1
7.2319999 -2.4749999 -0.81300002 1
7.1690001 -2.4549999 -0.81 1
7.125 -2.4419999 -0.80800003 1
7.0949998 -2.434 -0.80800003 1
7.0409999 -2.4170001 -0.80599999 1
7.0110002 -2.408 -0.80500001 1
6.9720001 -2.3959999 -0.80500001 1
6.9320002 -2.3840001 -0.80299997 1
6.5500002 -2.2539999 -0.76200002 1
6.5409999 -2.2509999 -0.764 1
6.4759998 -2.23 -0.759 1
6.4439998 -2.22 -0.759 1
6.4089999 -2.2090001 -0.75800002 1
6.355 -2.191 -0.75400001 1
6.3239999 -2.181 -0.75300002 1
6.2659998 -2.1619999 -0.74900001 1
6.2340002 -2.151 -0.74800003 1
6.1950002 -2.138 -0.74599999 1
6.1609998 -2.1270001 -0.74400002 1
6.1290002 -2.1159999 -0.74299997 1
6.092 -2.1029999 -0.741 3
6.0949998 -2.1040001 -0.74400002 3
6.039 -2.0840001 -0.74000001 3
6.0229998 -2.079 -0.74000001 4
5.9790001 -2.063 -0.73699999 4
5.9679999 -2.059 -0.73799998 3
5.9499998 -2.053 -0.73799998 3
5.9109998 -2.0380001 -0.736 3
5.8759999 -2.026 -0.73400003 1
5.8629999 -2.0209999 -0.73500001 1
5.9120002 -2.0369999 -0.74299997 2
5.8759999 -2.0239999 -0.74000001 2
5.8390002 -2.01 -0.73799998 3
5.8140001 -2 -0.73699999 3
5.7940001 -1.993 -0.736 3
5.7670002 -1.982 -0.73500001 3
5.7410002 -1.972 -0.73400003 3
5.7210002 -1.964 -0.73299998 3
5.7080002 -1.9579999 -0.73299998 3
5.6690001 -1.943 -0.73000002 3
5.6440001 -1.933 -0.72899997 3
5.6240001 -1.924 -0.72799999 3
5.6069999 -1.9170001 -0.727 3
5.586 -1.908 -0.72600001 3
5.5710001 -1.901 -0.72600001 3
5.5370002 -1.888 -0.72299999 3
5.527 -1.882 -0.72399998 3
5.5040002 -1.873 -0.722 3
5.4970002 -1.868 -0.72299999 3
5.4679999 -1.8559999 -0.72100002 3
5.4530001 -1.849 -0.72000003 3
5.4349999 -1.841 -0.71899998 3
5.4219999 -1.834 -0.71899998 3
5.4130001 -1.8279999 -0.71899998 4
5.381 -1.8150001 -0.71600002 4
5.3590002 -1.8049999 -0.71399999 3
5.3579998 -1.802 -0.71600002 4
5.3319998 -1.79 -0.713 4
5.3200002 -1.784 -0.713 4
5.303 -1.775 -0.71200001 4
5.2930002 -1.7690001 -0.71200001 4
5.2909999 -1.766 -0.713 4
5.2670002 -1.755 -0.70999998 4
5.2649999 -1.751 -0.71100003 4
5.2480001 -1.742 -0.70999998 4
5.2420001 -1.737 -0.70999998 4
5.2270002 -1.729 -0.70899999 4
5.2140002 -1.721 -0.708 4
5.2119999 -1.717 -0.70899999 4
5.1950002 -1.7079999 -0.70700002 4
5.1890001 -1.702 -0.70700002 4
5.1830001 -1.697 -0.70700002 4
5.1719999 -1.689 -0.70599997 4
5.1659999 -1.684 -0.70599997 3
5.1550002 -1.676 -0.70499998 4
5.145 -1.669 -0.70499998 3
5.1329999 -1.6619999 -0.704 3
5.1269999 -1.656 -0.70300001 3
5.118 -1.649 -0.70200002 3
5.1079998 -1.642 -0.70200002 3
5.1079998 -1.638 -0.70200002 3
5.1059999 -1.633 -0.70200002 3
5.099 -1.627 -0.70200002 3
5.0910001 -1.62 -0.70099998 5
5.0999999 -1.618 -0.70300001 3
5.099 -1.613 -0.70300001 3
5.0819998 -1.603 -0.70099998 5
5.0869999 -1.601 -0.70200002 3
5.0819998 -1.595 -0.70099998 3
5.0900002 -1.592 -0.70200002 3
5.0689998 -1.581 -0.699 5
5.0760002 -1.5779999 -0.70099998 3
5.066 -1.5700001 -0.699 3
5.0700002 -1.567 -0.69999999 3
5.0799999 -1.5650001 -0.70099998 3
5.0609999 -1.554 -0.699 3
5.0510001 -1.546 -0.69700003 5
5.0700002 -1.5470001 -0.69999999 3
5.0700002 -1.5420001 -0.69999999 3
5.066 -1.535 -0.699 3
5.0749998 -1.533 -0.69999999 3
5.0819998 -1.53 -0.70099998 3
5.0599999 -1.518 -0.69700003 5
5.0640001 -1.513 -0.69800001 5
5.0760002 -1.511 -0.699 3
5.0799999 -1.507 -0.699 5
5.0819998 -1.502 -0.699 3
5.0830002 -1.497 -0.699 3
5.1100001 -1.499 -0.70200002 3
5.1090002 -1.493 -0.70099998 3
5.086 -1.48 -0.69800001 4
5.1139998 -1.482 -0.70099998 3
5.1030002 -1.473 -0.699 4
5.1199999 -1.472 -0.69999999 3
5.1259999 -1.4680001 -0.69999999 3
5.1360002 -1.465 -0.70099998 3
5.138 -1.459 -0.70099998 3
5.1550002 -1.4579999 -0.70200002 3
5.1500001 -1.449 -0.70099998 5
5.165 -1.447 -0.70200002 3
5.177 -1.444 -0.70200002 3
5.1830001 -1.439 -0.70200002 3
5.1939998 -1.436 -0.70300001 3
5.211 -1.434 -0.704 3
5.2090001 -1.427 -0.70300001 3
5.223 -1.424 -0.70300001 3
5.2319999 -1.419 -0.704 3
5.2410002 -1.415 -0.704 3
5.2639999 -1.414 -0.70599997 4
5.2839999 -1.4119999 -0.70700002 4
5.2940001 -1.408 -0.70700002 4
5.303 -1.403 -0.70700002 3
5.3150001 -1.399 -0.70700002 3
5.3179998 -1.393 -0.70599997 3
5.3340001 -1.39 -0.70599997 3
5.368 -1.391 -0.70899999 4
5.3790002 -1.386 -0.70899999 3
5.3829999 -1.38 -0.708 3
5.4180002 -1.381 -0.71100003 4
5.4359999 -1.377 -0.71200001 3
5.4429998 -1.372 -0.71100003 3
5.4809999 -1.373 -0.71399999 4
5.506 -1.372 -0.71600002 4
5.5110002 -1.365 -0.71399999 3
5.5279999 -1.3609999 -0.71499997 3
5.5539999 -1.359 -0.71600002 3
5.579 -1.357 -0.71700001 3
5.612 -1.3559999 -0.71899998 3
5.618 -1.35 -0.71799999 3
5.6399999 -1.346 -0.71799999 3
5.6739998 -1.346 -0.72000003 3
5.6950002 -1.342 -0.72100002 3
5.7199998 -1.339 -0.722 5
5.7470002 -1.337 -0.72299999 3
5.776 -1.335 -0.72399998 3
5.822 -1.336 -0.727 4
5.8579998 -1.335 -0.72899997 4
5.8930001 -1.334 -0.73100001 4
5.9130001 -1.329 -0.73000002 4
5.9310002 -1.324 -0.73000002 4
5.9720001 -1.324 -0.73199999 3
5.9879999 -1.317 -0.73100001 3
6.0250001 -1.316 -0.73299998 3
6.0689998 -1.316 -0.73500001 3
6.1009998 -1.313 -0.736 3
6.1290002 -1.309 -0.736 3
6.1810002 -1.3099999 -0.73900002 3
6.23 -1.3099999 -0.741 3
6.2490001 -1.304 -0.74000001 3
6.2859998 -1.302 -0.741 3
6.3299999 -1.3 -0.74299997 3
6.388 -1.302 -0.74599999 3
6.4390001 -1.302 -0.74900001 4
6.4580002 -1.295 -0.74699998 4
6.5359998 -1.3 -0.75199997 4
6.586 -1.298 -0.75400001 5
6.6209998 -1.294 -0.75400001 5
6.6669998 -1.2920001 -0.755 6
6.7280002 -1.2920001 -0.75800002 5
6.7839999 -1.2920001 -0.75999999 4
6.842 -1.291 -0.76200002 5
6.901 -1.291 -0.76499999 4
6.961 -1.29 -0.76700002 5
7.0250001 -1.29 -0.76899999 5
7.092 -1.29 -0.77200001 5
7.1729999 -1.2920001 -0.77600002 4
7.237 -1.291 -0.778 4
7.3060002 -1.291 -0.77999997 5
7.3660002 -1.289 -0.78200001 4
7.4530001 -1.291 -0.78600001 4
7.559 -1.296 -0.792 4
7.6230001 -1.294 -0.79299998 4
7.6869998 -1.2920001 -0.79400003 4
7.8070002 -1.298 -0.80000001 4
7.875 -1.296 -0.80199999 3
7.9990001 -1.302 -0.80800003 3
8.1070004 -1.3049999 -0.81300002 3
8.2250004 -1.3099999 -0.81900001 3
8.3839998 -1.321 -0.82800001 5
8.5480003 -1.332 -0.838 6
8.6450005 -1.331 -0.84100002 10
8.7360001 -1.33 -0.84200001 10
8.8210001 -1.3279999 -0.84399998 16
8.915 -1.326 -0.84500003 17
9.0220003 -1.326 -0.84799999 18
9.1300001 -1.325 -0.85100001 13
9.2449999 -1.326 -0.85399997 11
9.3959999 -1.331 -0.86000001 10
9.507 -1.329 -0.86199999 13
9.6730003 -1.336 -0.86900002 8
9.8330002 -1.34 -0.875 7
10.042 -1.35 -0.88499999 5
10.235 -1.358 -0.89300001 5
10.409 -1.363 -0.89899999 6
10.576 -1.3660001 -0.90399998 5
10.743 -1.368 -0.90799999 4
10.919 -1.3710001 -0.91299999 4
11.146 -1.3789999 -0.92199999 3
11.362 -1.386 -0.93000001 3
11.625 -1.397 -0.94099998 2
11.886 -1.4069999 -0.95099998 2
12.136 -1.415 -0.95899999 3
12.415 -1.425 -0.97000003 3
12.668 -1.432 -0.977 3
12.964 -1.442 -0.98799998 3
13.276 -1.4529999 -0.99800003 3
13.561 -1.459 -1.007 3
13.861 -1.467 -1.015 3
14.206 -1.478 -1.026 3
14.548 -1.487 -1.036 3
14.913 -1.498 -1.048 2
15.401 -1.5190001 -1.066 2
15.869 -1.5369999 -1.082 3
16.291 -1.549 -1.095 3
16.745001 -1.562 -1.108 2
17.287001 -1.582 -1.126 2
17.905001 -1.6059999 -1.147 2
17.641001 -1.551 -1.1109999 1
0 0 0 1
0 0 0 0
0 0 0 4
21.813999 -1.761 -1.28 3
22.386999 -1.767 -1.29 2
0 0 0 5
24.131001 -1.819 -1.337 1
0 0 0 4
26.511999 -1.904 -1.41 3
26.535999 -1.858 -1.381 10
26.535 -1.812 -1.351 154
26.589001 -1.768 -1.323 147
26.66 -1.726 -1.296 123
0 0 0 0
0 0 0 17
38.726002 -2.302 -1.749 8
38.602001 -2.227 -1.698 5
0 0 0 4
31.232 -1.691 -1.3 154
31.23 -1.637 -1.263 194
31.26 -1.584 -1.227 255
31.266001 -1.529 -1.189 185
31.267 -1.475 -1.151 9
0 0 0 55
42.972 -1.877 -1.478 37
43.278 -1.814 -1.434 39
43.466 -1.748 -1.387 39
43.898998 -1.6900001 -1.347 40
44.132999 -1.624 -1.3 42
44.173 -1.549 -1.2460001 49
44.23 -1.475 -1.192 39
44.263 -1.399 -1.137 30
44.131001 -1.321 -1.0779999 5
0 0 0 74
67.029999 -1.777 -1.466 70
67.042999 -1.663 -1.3789999 76
67.030998 -1.548 -1.2920001 83
0 0 0 0
0 0 0 86
72.432999 -1.307 -1.114 116
73.539001 -1.205 -1.035 26
0 0 0 52
0 0 0 18
73.323997 -0.833 -0.74000001 42
73.363998 -0.71100003 -0.64300001 51
73.370003 -0.58899999 -0.54400003 27
0 0 0 0
0 0 0 0
0 0 0 0
0 0 0 23
0 0 0 0
0 0 0 0
0 0 0 12
85.428001 0.42899999 0.294 16
0 0 0 0
0 0 0 25
0 0 0 0
0 0 0 0
0 0 0 0
0 0 0 0
0 0 0 0
0 0 0 16
90.871002 1.7640001 1.4630001 20
90.568001 1.9 1.587 17
90.542999 2.039 1.714 16
90.439003 2.178 1.842 14
0 0 0 0
0 0 0 0
0 0 0 16
90.331001 2.7309999 2.359 32
0 0 0 0
0 0 0 0
0 0 0 15
88.828003 3.2219999 2.835 24
88.643997 3.349 2.9590001 33
87.976997 3.4549999 3.066 33
87.639 3.572 3.1830001 32
0 0 0 0
0 0 0 19
88.806999 4.0110002 3.6170001 14
88.790001 4.1389999 3.7460001 14
0 0 0 0
0 0 0 0
0 0 0 64
117.494 6.1589999 5.6589999 65
117.521 6.3280001 5.8369999 49
0 0 0 19
88.983002 5.0440001 4.6859999 18
0 0 0 0
0 0 0 0
0 0 0 15
89.253998 5.5560002 5.2360001 15
90.93 5.7859998 5.4710002 25
90.518997 5.882 5.5809999 38
90.189003 5.9840002 5.697 35
89.985001 6.092 5.8210001 30
90.035004 6.217 5.961 18
0 0 0 35
117.745 8.4440002 8.1499996 47
117.659 8.5939999 8.323 41
117.863 8.7629995 8.5139999 62
117.807 8.9130001 8.6890001 43
117.654 9.0550003 8.8570004 45
117.553 9.1990004 9.0290003 27
0 0 0 0
0 0 0 0
0 0 0 0
0 0 0 35
127.779 10.816 10.792 45
127.758 10.974 10.986 67
127.841 11.135 11.184 30
0 0 0 0
0 0 0 28
117.319 10.653 10.803 59
117.322 10.795 10.983 119
117.284 10.932 11.159 114
117.31 11.074 11.341 86
117.299 11.212 11.519 85
117.316 11.352 11.7 72
117.277 11.485 11.876 72
117.304 11.623 12.054 89
117.276 11.755 12.231 64
117.354 11.896 12.415 44
117.454 12.04 12.604 36
0 0 0 0
0 0 0 0
0 0 0 0
0 0 0 0
0 0 0 35
117.248 12.796 13.65 25
0 0 0 0
0 0 0 0
0 0 0 0
0 0 0 0
0 0 0 0
0 0 0 25
117.591 13.701 14.936 31
117.413 13.8 15.09 37
117.313 13.906 15.25 45
117.287 14.02 15.422 54
117.142 14.118 15.575 63
117.186 14.238 15.756 71
117.21 14.355 15.935 74
117.23 14.471 16.112 72
117.244 14.584 16.289 57
117.246 14.696 16.462999 50
117.218 14.802 16.632999 34
117.305 14.925 16.819 27
117.409 15.047 17.007 24
117.266 15.131 17.155001 22
117.363 15.253 17.346001 30
117.45 15.37 17.527 25
117.354 15.461 17.684999 29
117.32 15.559 17.851 34
117.269 15.654 18.014 27
117.414 15.774 18.205999 25
117.36 15.866 18.368 24
117.266 15.952 18.521999 29
117.29 16.052999 18.691999 29
0 0 0 0
0 0 0 0
0 0 0 28
117.168 16.415001 19.337999 37
117.098 16.497 19.493 42
117.137 16.594 19.665001 58
117.117 16.681 19.826 65
117.15 16.775 19.997 75
117.104 16.856001 20.149 54
117.123 16.945999 20.316 57
117.145 17.035 20.482 57
117.091 17.111 20.631001 53
117.156 17.205 20.804001 57
117.155 17.287001 20.965 55
117.149 17.368 21.124001 50
117.12 17.444 21.278999 60
117.128 17.525 21.436001 51
117.101 17.599001 21.589001 55
117.119 17.679001 21.747 50
117.114 17.750999 21.903 55
117.08 17.825001 22.052999 55
117.101 17.899 22.209 54
117.064 17.969999 22.357 53
117.083 18.042 22.511 72
117.07 18.110001 22.662001 60
117.084 18.181999 22.816999 52
117.078 18.250999 22.964001 54
117.117 18.325001 23.122999 50
117.056 18.385 23.261999 51
117.068 18.452 23.414 61
117.114 18.524 23.572001 55
117.08 18.582001 23.712999 49
117.167 18.655001 23.875 46
117.085 18.704 24.004999 53
117.127 18.774 24.159 50
117.101 18.829 24.298 54
117.072 18.882 24.436001 52
117.088 18.941999 24.582001 54
117.071 18.995001 24.721001 51
117.135 19.063999 24.875999 45
117.102 19.108 25.009001 49
117.09 19.16 25.143 48
117.03 19.202 25.268999 46
117.062 19.257 25.413 51
117.102 19.313 25.559 75
117.066 19.357 25.684 71
117.044 19.402 25.811001 36
0 0 0 0
0 0 0 0
0 0 0 0
0 0 0 0
0 0 0 0
0 0 0 0
0 0 0 0
0 0 0 0
0 0 0 25
117.477 19.892 27.200001 26
117.271 19.893 27.277 34
117.282 19.927 27.4 30
117.229 19.952 27.51 39
117.085 19.962999 27.597 39
117.124 19.999001 27.724001 52
117.157 20.035 27.851 52
117.11 20.056999 27.957001 53
117.125 20.091 28.077 53
117.109 20.115 28.188999 63
117.083 20.136999 28.297001 61
117.12 20.167999 28.419001 48
117.114 20.191 28.530001 43
117.183 20.226 28.658001 32
0 0 0 0
0 0 0 0
0 0 0 0
0 0 0 0
0 0 0 0
0 0 0 0
0 0 0 0
0 0 0 0
0 0 0 0
0 0 0 0
0 0 0 0
0 0 0 0
0 0 0 0
0 0 0 0
0 0 0 0
0 0 0 0
0 0 0 0
0 0 0 0
0 0 0 0
0 0 0 0
0 0 0 0
0 0 0 0
0 0 0 0
0 0 0 0
0 0 0 23
0 0 0 0
0 0 0 0
0 0 0 30
117.304 20.479 31.384001 28
117.302 20.471001 31.458 29
117.353 20.473 31.542 28
117.216 20.438999 31.577 37
117.274 20.438999 31.663 35
117.262 20.424999 31.729 47
117.229 20.406 31.788 48
117.224 20.392 31.853001 56
117.265 20.386999 31.927999 57
117.237 20.367001 31.983999 60
117.213 20.346001 32.039001 59
117.247 20.333 32.109001 57
117.254 20.319 32.168999 54
117.23 20.295 32.220001 67
117.248 20.278 32.282001 69
117.263 20.259001 32.341 61
117.233 20.233999 32.384998 51
117.273 20.216999 32.449001 49
117.249 20.188 32.493 41
117.234 20.160999 32.539001 43
117.258 20.138 32.594002 38
117.247 20.108999 32.638 35
117.379 20.104 32.720001 28
117.277 20.056999 32.736 26
117.305 20.034 32.785 27
117.206 19.986 32.798 26
0 0 0 0
0 0 0 0
0 0 0 0
0 0 0 0
0 0 0 0
0 0 0 0
0 0 0 0
0 0 0 0
0 0 0 0
0 0 0 0
0 0 0 0
0 0 0 0
0 0 0 0
0 0 0 0
0 0 0 0
0 0 0 0
0 0 0 0
0 0 0 23
117.517 19.289 33.390999 25
117.331 19.209999 33.351002 54
117.37 19.169001 33.370998 67
117.4 19.124001 33.389 59
117.415 19.075001 33.402 41
117.429 19.025 33.411999 43
117.4 18.966999 33.409 35
117.415 18.917999 33.415001 41
117.375 18.857 33.405998 45
117.461 18.816 33.431 45
117.435 18.754999 33.423 49
117.418 18.695 33.415001 45
117.439 18.641001 33.417 43
117.443 18.586 33.411999 40
117.447 18.530001 33.403999 43
117.396 18.461 33.381001 42
117.431 18.406 33.381001 45
117.468 18.35 33.380001 48
117.493 18.291 33.375 41
117.459 18.222 33.351002 44
117.474 18.16 33.339001 46
117.547 18.106001 33.341999 40
117.472 18.032 33.300999 43
117.468 17.965 33.279999 44
117.475 17.899 33.259998 42
117.489 17.833 33.241001 60
117.463 17.763 33.206001 61
117.465 17.694 33.181 40
117.506 17.628 33.167 47
117.532 17.563999 33.144001 41
117.478 17.483999 33.098 48
117.519 17.417999 33.077 44
117.528 17.35 33.046001 44
117.531 17.280001 33.009998 52
117.523 17.204 32.971001 45
117.553 17.134001 32.942001 49
117.547 17.056999 32.900002 44
117.574 16.985001 32.867001 49
117.581 16.910999 32.824001 50
117.577 16.83 32.780998 50
117.606 16.76 32.743 42
117.592 16.679001 32.692001 42
117.588 16.598 32.641998 44
117.581 16.52 32.587002 54
117.578 16.438 32.535 65
117.57 16.356001 32.48 48
117.592 16.277 32.431 41
117.619 16.198 32.382999 43
117.59 16.110001 32.317001 51
117.586 16.028 32.255001 55
117.614 15.945 32.205002 60
117.614 15.863 32.139999 71
117.607 15.776 32.075001 59
117.647 15.695 32.021 57
117.621 15.605 31.947001 55
117.633 15.519 31.882999 55
117.613 15.429 31.808001 54
117.646 15.348 31.746 49
117.635 15.258 31.671 46
117.658 15.171 31.604 38
117.694 15.089 31.539 34
117.69 14.998 31.461 37
117.698 14.908 31.385 33
117.808 14.834 31.334999 32
117.838 14.746 31.261999 32
117.938 14.666 31.205999 27
0 0 0 0
0 0 0 0
0 0 0 0
0 0 0 0
0 0 0 0
0 0 0 0
0 0 0 27
118.038 13.927 30.521999 28
118.124 13.841 30.448999 27
118.078 13.738 30.34 25
118.024 13.636 30.225 25
117.989 13.535 30.117001 27
118.212 13.462 30.073 24
118.231 13.365 29.975 23
0 0 0 0
0 0 0 0
0 0 0 26
0 0 0 0
0 0 0 0
0 0 0 27
117.984 12.645 29.159 26
117.969 12.542 29.042999 31
0 0 0 0
0 0 0 28
117.853 12.225 28.666 27
117.786 12.116 28.532 31
117.821 12.017 28.42 36
117.818 11.918 28.299 44
117.829 11.816 28.179001 64
117.768 11.707 28.041 57
117.828 11.609 27.93 70
117.823 11.507 27.799 71
117.835 11.406 27.677999 68
117.84 11.306 27.552 61
117.876 11.205 27.429001 41
117.984 11.111 27.323 47
117.874 10.999 27.165001 31
118.099 10.915 27.083 30
118.18 10.817 26.965 28
0 0 0 0
0 0 0 0
0 0 0 0
0 0 0 0
0 0 0 0
0 0 0 0
0 0 0 0
0 0 0 0
0 0 0 0
0 0 0 0
0 0 0 37
0 0 0 0
0 0 0 0
0 0 0 0
0 0 0 0
0 0 0 0
0 0 0 26
117.965 8.9020004 24.261 42
117.864 8.7880001 24.080999 60
117.904 8.684 23.929001 67
117.965 8.5830002 23.780001 64
117.947 8.4779997 23.615 68
117.962 8.3730001 23.455 59
117.959 8.2670002 23.289 44
118.088 8.1689997 23.148001 43
118.242 8.0740004 23.011 30
118.257 7.9689999 22.844999 22
0 0 0 0
0 0 0 0
0 0 0 26
0 0 0 0
0 0 0 0
0 0 0 0
0 0 0 0
0 0 0 26
118.252 7.0209999 21.273001 24
118.236 6.915 21.091 24
118.111 6.8060002 20.889999 30
0 0 0 0
0 0 0 26
118.024 6.4920001 20.327999 41
118.004 6.3870001 20.139999 50
118.022 6.2839999 19.957001 70
118.01 6.1799998 19.768999 67
118.034 6.0780001 19.584999 66
118.019 5.9749999 19.393999 57
118.063 5.8740001 19.211 48
118.208 5.7789998 19.042999 37
118.139 5.6760001 18.841999 25
118.203 5.5780001 18.656 30
118.181 5.4749999 18.459 34
118.32 5.3800001 18.285 31
118.4 5.2820001 18.101 34
118.399 5.184 17.906 28
0 0 0 0
0 0 0 0
0 0 0 0
0 0 0 0
0 0 0 0
0 0 0 29
120.778 4.5770001 16.827 27
120.669 4.473 16.604 35
120.697 4.3740001 16.398001 34
120.512 4.2690001 16.163 42
120.544 4.171 15.956 64
120.592 4.0739999 15.751 78
120.579 3.9779999 15.539 75
120.547 3.8800001 15.321 77
120.593 3.7820001 15.106 65
120.649 3.687 14.897 51
120.852 3.599 14.708 29
0 0 0 0
0 0 0 0
0 0 0 0
0 0 0 24
0 0 0 0
0 0 0 0
0 0 0 0
0 0 0 0
0 0 0 0
0 0 0 0
0 0 0 28
120.558 2.4790001 12.021 50
120.573 2.3900001 11.793 78
120.576 2.3 11.57 73
120.563 2.214 11.344 69
120.531 2.125 11.112 94
120.545 2.0380001 10.884 92
120.606 1.95 10.654 68
120.617 1.8660001 10.427 40
120.674 1.779 10.197 32
120.703 1.6950001 9.9680004 36
120.723 1.61 9.7370005 36
120.73 1.527 9.5039997 35
120.678 1.4450001 9.2650003 38
120.663 1.362 9.033 37
120.59 1.281 8.7959995 44
120.631 1.2 8.5629997 44
120.644 1.119 8.3269997 47
120.73 1.04 8.0959997 34
120.785 0.963 7.8649998 29
120.821 0.884 7.6290002 29
120.755 0.80500001 7.3860002 31
120.766 0.72799999 7.1479998 31
120.869 0.653 6.9169998 31
0 0 0 0
0 0 0 26
120.617 0.42500001 6.177 46
120.582 0.35100001 5.934 64
120.513 0.278 5.6880002 81
120.496 0.205 5.4450002 62
0 0 0 0
0 0 0 29
84.022003 -0.0040000002 3.29 22
0 0 0 0
0 0 0 29
0 0 0 0
0 0 0 0
0 0 0 31
0 0 0 0
0 0 0 33
83.560997 -0.37400001 1.914 30
0 0 0 0
0 0 0 21
86.926003 -0.52600002 1.455 14
0 0 0 11
0 0 0 0
0 0 0 25
0 0 0 35
73.056999 -0.625 0.46399999 47
72.490997 -0.65399998 0.31200001 21
0 0 0 9
0 0 0 12
0 0 0 23
73.376999 -0.79699999 -0.29100001 70
73.363998 -0.82999998 -0.44800001 79
73.323997 -0.86199999 -0.59799999 66
73.361 -0.89399999 -0.75199997 31
0 0 0 52
0 0 0 0
0 0 0 29
134.10899 -1.8559999 -2.4920001 71
0 0 0 0
0 0 0 16
73.463997 -1.102 -1.822 36
73.444 -1.13 -1.978 49
73.389999 -1.1569999 -2.1300001 35
0 0 0 19
46.287998 -0.76300001 -1.536 25
46.273998 -0.77899998 -1.633 26
46.248001 -0.79400003 -1.729 25
46.292 -0.81099999 -1.827 15
0 0 0 0
0 0 0 0
0 0 0 0
0 0 0 2
0 0 0 0
0 0 0 2
27.886 -0.54900002 -1.51 1
0 0 0 3
21.375999 -0.43200001 -1.247 5
0 0 0 0
0 0 0 1
0 0 0 2
15.719 -0.33399999 -1.048 3
15.014 -0.32300001 -1.0319999 4
14.175 -0.308 -1.0039999 3
13.463 -0.296 -0.98100001 3
12.835 -0.285 -0.96200001 3
12.235 -0.27399999 -0.94300002 3
11.677 -0.264 -0.92400002 2
11.162 -0.25400001 -0.90700001 2
10.696 -0.24600001 -0.89099997 3
10.301 -0.23899999 -0.88 3
9.9239998 -0.23199999 -0.86799997 3
9.4919996 -0.223 -0.85000002 3
9.1099997 -0.21600001 -0.83499998 3
8.7489996 -0.20900001 -0.81999999 3
8.408 -0.20200001 -0.80500001 4
8.1210003 -0.19599999 -0.79500002 4
7.8200002 -0.19 -0.78200001 4
