# .PCD v0.7 - Point Cloud Data file format
VERSION 0.7
FIELDS x y z intensity
SIZE 4 4 4 4
TYPE F F F F
COUNT 1 1 1 1
WIDTH 1806
HEIGHT 1
VIEWPOINT 0 0 0 1 0 0 0
POINTS 1806
DATA ascii
3.72 0.92000002 -0.58999997 2
3.7460001 0.93099999 -0.59500003 3
3.812 0.95200002 -0.60600001 3
3.7060001 0.93000001 -0.58999997 2
3.6589999 0.92199999 -0.583 2
3.687 0.93300003 -0.588 2
3.717 0.94400001 -0.59299999 3
3.7060001 0.94599998 -0.59200001 3
3.6930001 0.94700003 -0.59100002 2
3.684 0.94800001 -0.58999997 2
3.6700001 0.94800001 -0.588 2
3.6110001 0.93699998 -0.579 2
3.668 0.95599997 -0.58899999 2
3.5840001 0.93699998 -0.57599998 2
3.664 0.96200001 -0.58899999 2
3.6040001 0.94999999 -0.57999998 2
3.6240001 0.958 -0.583 3
3.668 0.97399998 -0.59100002 3
3.6289999 0.96700001 -0.58499998 2
3.655 0.977 -0.58899999 2
3.6630001 0.98299998 -0.59100002 2
3.625 0.97600001 -0.58499998 2
3.618 0.97799999 -0.58399999 2
3.73 1.011 -0.602 2
3.552 0.96600002 -0.574 2
3.618 0.98699999 -0.58399999 2
3.5999999 0.986 -0.58200002 2
3.549 0.97500002 -0.574 1
3.648 1.005 -0.58899999 2
3.6670001 1.013 -0.59200001 3
3.618 1.003 -0.58399999 2
3.631 1.01 -0.58700001 3
3.6300001 1.012 -0.58600003 3
3.6440001 1.0190001 -0.588 2
3.635 1.0190001 -0.58700001 3
3.6159999 1.017 -0.58399999 2
3.652 1.03 -0.58899999 3
3.6570001 1.034 -0.58999997 3
3.651 1.035 -0.58899999 3
3.6600001 1.04 -0.58999997 3
3.701 1.0549999 -0.59600002 3
3.6659999 1.0470001 -0.58999997 3
3.6229999 1.0369999 -0.583 2
3.622 1.04 -0.58200002 3
3.596 1.035 -0.57800001 2
3.582 1.033 -0.57499999 2
3.6040001 1.0420001 -0.57800001 2
3.654 1.058 -0.58600003 3
3.6240001 1.052 -0.58099997 2
3.661 1.0650001 -0.58600003 3
3.6370001 1.0599999 -0.58099997 2
3.668 1.071 -0.58600003 3
3.654 1.069 -0.583 3
3.641 1.068 -0.57999998 2
3.7030001 1.0880001 -0.58999997 2
3.655 1.076 -0.58099997 2
3.6860001 1.087 -0.58499998 3
3.7249999 1.1 -0.59100002 3
3.7520001 1.11 -0.59399998 2
3.7509999 1.112 -0.59299999 3
3.7320001 1.108 -0.58999997 3
3.737 1.1109999 -0.58999997 3
3.7509999 1.117 -0.59100002 3
3.73 1.112 -0.58700001 3
3.8039999 1.136 -0.597 3
3.7639999 1.125 -0.58999997 3
3.7119999 1.1109999 -0.58099997 2
3.7739999 1.131 -0.58999997 2
3.7909999 1.138 -0.59100002 3
3.766 1.132 -0.58700001 2
3.766 1.133 -0.58499998 2
3.8180001 1.15 -0.59200001 2
3.7820001 1.14 -0.58600003 2
3.8310001 1.156 -0.59200001 2
3.8139999 1.152 -0.588 2
3.7839999 1.1440001 -0.58200002 2
3.813 1.154 -0.58600003 2
3.813 1.155 -0.58399999 3
3.7969999 1.151 -0.58099997 2
3.8410001 1.165 -0.58600003 3
3.8889999 1.1799999 -0.59200001 3
3.888 1.181 -0.58999997 3
3.9460001 1.199 -0.59799999 3
3.858 1.173 -0.583 2
3.868 1.177 -0.583 2
3.898 1.186 -0.58600003 2
3.8959999 1.186 -0.58399999 2
3.9159999 1.193 -0.58600003 2
3.934 1.199 -0.58700001 3
3.983 1.214 -0.59299999 3
4.0029998 1.221 -0.59399998 4
3.964 1.209 -0.58700001 3
3.993 1.2180001 -0.58899999 2
4.0019999 1.221 -0.58899999 2
4.0050001 1.222 -0.588 2
4.033 1.23 -0.58999997 3
4.006 1.222 -0.58399999 3
4.0479999 1.235 -0.58899999 3
4.026 1.228 -0.58399999 2
4.0650001 1.24 -0.58700001 1
4.0599999 1.238 -0.58499998 2
4.1160002 1.255 -0.59100002 2
4.1409998 1.262 -0.59299999 2
4.151 1.265 -0.59200001 3
4.1659999 1.2690001 -0.59200001 3
4.1810002 1.273 -0.59200001 3
4.2069998 1.28 -0.59399998 3
4.23 1.2869999 -0.59500003 2
4.244 1.29 -0.59500003 3
4.2670002 1.2970001 -0.59600002 2
4.276 1.298 -0.59500003 3
4.3109999 1.308 -0.597 3
4.335 1.3150001 -0.59899998 3
4.3439999 1.316 -0.59799999 3
4.3730001 1.324 -0.59899998 3
4.3870001 1.327 -0.59899998 3
4.4089999 1.332 -0.59899998 3
4.434 1.339 -0.60000002 4
4.4629998 1.346 -0.602 2
4.474 1.348 -0.60100001 4
4.4970002 1.354 -0.60100001 4
4.526 1.3609999 -0.60299999 4
4.5380001 1.363 -0.602 4
4.5669999 1.37 -0.60299999 2
4.5960002 1.377 -0.60399997 3
4.6100001 1.3789999 -0.60299999 3
4.6459999 1.388 -0.60500002 2
4.6609998 1.391 -0.60500002 2
4.6950002 1.399 -0.60600001 3
4.724 1.405 -0.60699999 3
4.7410002 1.408 -0.60600001 2
4.7709999 1.415 -0.60699999 2
4.8000002 1.421 -0.60799998 2
4.822 1.425 -0.60799998 4
4.8540001 1.432 -0.60900003 4
4.895 1.442 -0.611 3
4.9130001 1.444 -0.61000001 4
4.9710002 1.459 -0.61400002 3
4.9840002 1.46 -0.61299998 5
5.0240002 1.469 -0.61400002 3
5.0479999 1.473 -0.61400002 5
5.085 1.48 -0.61500001 5
5.131 1.49 -0.61799997 5
5.1820002 1.502 -0.62 3
5.217 1.5089999 -0.62099999 3
5.257 1.517 -0.62300003 3
5.302 1.526 -0.62400001 3
5.3520002 1.5369999 -0.62699997 3
5.3930001 1.545 -0.62800002 3
5.4330001 1.553 -0.62900001 3
5.4650002 1.558 -0.62900001 3
5.5159998 1.568 -0.63099998 3
5.566 1.5779999 -0.63300002 3
5.6020002 1.584 -0.63300002 3
5.6539998 1.594 -0.63499999 3
5.6929998 1.601 -0.63599998 3
5.757 1.615 -0.639 3
5.7950001 1.62 -0.639 3
5.862 1.6339999 -0.64300001 3
5.8969998 1.6390001 -0.64300001 3
5.9650002 1.653 -0.64600003 3
6.0100002 1.66 -0.64600003 4
6.0609999 1.669 -0.648 4
6.0999999 1.674 -0.64700001 3
6.1589999 1.6849999 -0.64899999 4
6.2199998 1.696 -0.65100002 4
6.2740002 1.705 -0.653 3
6.3299999 1.714 -0.65399998 3
6.3899999 1.725 -0.65600002 3
6.4590001 1.737 -0.65799999 3
6.539 1.752 -0.662 4
6.5949998 1.761 -0.66299999 3
6.6620002 1.772 -0.66399997 3
6.7259998 1.7819999 -0.66600001 3
6.8000002 1.795 -0.66799998 4
6.8579998 1.803 -0.66900003 3
6.9320002 1.8150001 -0.671 3
7.0009999 1.826 -0.67299998 3
7.0669999 1.836 -0.67400002 3
7.151 1.85 -0.67699999 3
7.2360001 1.864 -0.68000001 3
7.3299999 1.88 -0.68300003 3
7.4239998 1.896 -0.68699998 3
7.5009999 1.9069999 -0.68800002 3
7.6129999 1.927 -0.69300002 3
7.7160001 1.944 -0.69700003 3
7.7880001 1.9529999 -0.69800001 3
7.8699999 1.965 -0.699 3
7.9699998 1.98 -0.70200002 3
8.0830002 1.999 -0.70599997 4
8.2030001 2.0179999 -0.71100003 4
8.3100004 2.0350001 -0.71399999 4
8.4309998 2.0539999 -0.71799999 3
8.5579996 2.0739999 -0.72299999 3
8.6709995 2.0910001 -0.72600001 4
8.7939997 2.109 -0.73000002 3
8.9230003 2.1289999 -0.73400003 4
9.0749998 2.1530001 -0.74000001 3
9.2989998 2.1949999 -0.75099999 4
9.4250002 2.2119999 -0.755 7
9.5649996 2.2320001 -0.759 7
9.7019997 2.2520001 -0.76200002 5
9.8640003 2.276 -0.76800001 5
10.031 2.3010001 -0.77399999 4
10.181 2.3210001 -0.778 3
10.325 2.3399999 -0.78100002 4
10.493 2.3629999 -0.78600001 3
10.7 2.395 -0.79400003 3
10.878 2.4200001 -0.79900002 3
11.11 2.4560001 -0.80800003 2
11.339 2.49 -0.81699997 2
11.533 2.516 -0.82200003 2
11.725 2.5409999 -0.82800001 3
11.929 2.5680001 -0.833 3
12.155 2.599 -0.83999997 3
12.342 2.6210001 -0.84399998 3
12.487 2.6329999 -0.84500003 3
12.667 2.652 -0.84799999 3
12.896 2.6800001 -0.85399997 3
13.123 2.7079999 -0.86000001 3
13.344 2.733 -0.86500001 3
13.565 2.7579999 -0.87 3
13.868 2.7980001 -0.87900001 3
14.131 2.829 -0.88599998 4
14.398 2.8599999 -0.89300001 3
14.692 2.895 -0.90100002 3
14.883 2.9089999 -0.90200001 4
15.152 2.938 -0.90799999 4
15.43 2.967 -0.91399997 3
15.886 3.029 -0.93000001 3
15.353 2.9030001 -0.88800001 4
15.616 2.927 -0.89200002 4
15.998 2.9719999 -0.903 4
16.549999 3.0480001 -0.92299998 5
16.834 3.072 -0.92699999 6
0 0 0 6
17.43 3.1229999 -0.93599999 3
17.83 3.165 -0.94599998 3
0 0 0 0
0 0 0 6
19.165001 3.3039999 -0.97899997 6
19.437 3.3169999 -0.98000002 5
19.634001 3.3169999 -0.977 4
19.972 3.3399999 -0.98000002 2
20.521 3.3959999 -0.99400002 3
0 0 0 0
0 0 0 2
0 0 0 0
0 0 0 0
0 0 0 3
25.191 3.9030001 -1.124 3
0 0 0 2
33.335999 5.0469999 -1.447 2
33.172001 4.9619999 -1.419 2
33.140999 4.8969998 -1.398 2
34.856998 5.0869999 -1.449 3
0 0 0 0
0 0 0 3
0 0 0 0
0 0 0 0
0 0 0 0
0 0 0 20
38.289001 5.0939999 -1.434 24
38.294998 5.0219998 -1.4119999 23
38.32 4.9530001 -1.391 22
38.328999 4.882 -1.37 19
38.396 4.8179998 -1.351 14
38.410999 4.7470002 -1.33 45
38.557999 4.691 -1.314 3
38.766998 4.6430001 -1.3 11
38.907001 4.585 -1.284 43
39.047001 4.526 -1.267 15
0 0 0 68
41.43 4.6420002 -1.301 67
41.418999 4.5609999 -1.28 74
41.409 4.4790001 -1.258 72
41.395 4.3969998 -1.2359999 72
41.384998 4.3140001 -1.215 74
41.383999 4.2329998 -1.1950001 72
41.365002 4.1490002 -1.174 66
41.337002 4.0640001 -1.153 69
41.362999 3.9849999 -1.133 36
41.354 3.901 -1.113 20
41.365002 3.8210001 -1.095 21
41.352001 3.737 -1.075 21
41.342999 3.651 -1.0549999 29
41.314999 3.5650001 -1.036 50
41.292999 3.4809999 -1.017 76
41.290001 3.398 -0.99900001 82
41.320999 3.3169999 -0.98100001 80
41.327 3.233 -0.96399999 85
41.327999 3.1489999 -0.94599998 69
41.356998 3.0669999 -0.92900002 74
41.448002 2.99 -0.91500002 17
41.528999 2.9130001 -0.89999998 11
41.768002 2.845 -0.88800001 8
42.116001 2.78 -0.87900001 57
0 0 0 50
87.622002 5.4250002 -1.762 70
0 0 0 0
0 0 0 80
87.643997 4.8790002 -1.664 80
87.655998 4.7010002 -1.6339999 101
87.626999 4.5170002 -1.603 153
87.697998 4.3379998 -1.574 31
87.824997 4.1609998 -1.5470001 31
87.835999 3.98 -1.518 54
0 0 0 15
94.920998 3.9030001 -1.58 28
94.982002 3.707 -1.551 42
95.022003 3.5109999 -1.523 30
91.807999 3.2019999 -1.444 15
0 0 0 0
0 0 0 22
0 0 0 0
0 0 0 0
0 0 0 0
0 0 0 0
0 0 0 0
0 0 0 0
0 0 0 0
0 0 0 0
0 0 0 0
0 0 0 0
0 0 0 32
0 0 0 0
0 0 0 0
0 0 0 0
0 0 0 0
0 0 0 57
135.686 -0.73799998 -1.541 114
0 0 0 0
0 0 0 0
0 0 0 58
0 0 0 25
74.225998 -1.196 -0.78799999 17
0 0 0 37
68.767998 -1.399 -0.713 73
68.781998 -1.5470001 -0.70499998 77
68.758003 -1.692 -0.69800001 129
68.808998 -1.8430001 -0.69099998 62
0 0 0 27
60.743999 -1.885 -0.59899998 115
60.742001 -2.0190001 -0.59500003 110
59.655998 -2.1070001 -0.57999998 77
59.652 -2.233 -0.57599998 94
57.044998 -2.26 -0.54699999 38
0 0 0 18
45.932999 -2.0150001 -0.43599999 27
46.007999 -2.118 -0.435 4
46.34 -2.234 -0.43700001 13
0 0 0 0
0 0 0 42
45.070999 -2.461 -0.42300001 42
44.784 -2.5409999 -0.41999999 49
44.823002 -2.6389999 -0.421 41
44.699001 -2.7249999 -0.41999999 53
44.526001 -2.8080001 -0.419 96
44.536999 -2.9030001 -0.421 93
42.276001 -2.845 -0.40099999 8
42.206001 -2.931 -0.40200001 19
41.188 -2.947 -0.39399999 6
40.511002 -2.9849999 -0.389 35
40.507999 -3.0699999 -0.39199999 34
0 0 0 0
0 0 0 0
0 0 0 0
0 0 0 0
0 0 0 0
0 0 0 1
0 0 0 0
0 0 0 0
0 0 0 0
0 0 0 0
0 0 0 0
0 0 0 2
20.903 -2.155 -0.23100001 154
20.82 -2.1900001 -0.233 99
20.743 -2.2249999 -0.235 2
20.676001 -2.26 -0.23800001 4
20.660999 -2.3010001 -0.241 3
20.625 -2.3399999 -0.245 2
20.614 -2.381 -0.248 2
20.563 -2.418 -0.252 2
20.516001 -2.4549999 -0.255 2
20.48 -2.4920001 -0.259 2
20.49 -2.5350001 -0.26300001 3
20.469999 -2.573 -0.26699999 3
20.434999 -2.6110001 -0.271 7
20.41 -2.6500001 -0.27500001 26
20.412001 -2.6919999 -0.28 11
20.445 -2.737 -0.28600001 6
20.431999 -2.777 -0.28999999 6
20.417 -2.816 -0.29499999 6
20.393 -2.8540001 -0.30000001 5
20.405001 -2.8970001 -0.30599999 4
20.368999 -2.9330001 -0.31099999 10
20.490999 -2.9909999 -0.31799999 5
20.51 -3.0350001 -0.32499999 5
20.542999 -3.0799999 -0.331 4
20.549999 -3.122 -0.33700001 5
20.521 -3.158 -0.34299999 5
20.455 -3.1889999 -0.34799999 4
20.528999 -3.2409999 -0.35499999 2
20.496 -3.276 -0.361 1
0 0 0 0
0 0 0 1
0 0 0 0
0 0 0 1
0 0 0 0
0 0 0 0
0 0 0 0
0 0 0 1
20.671 -3.6619999 -0.42699999 1
0 0 0 4
23.372999 -4.23 -0.5 30
23.32 -4.2639999 -0.50800002 41
23.290001 -4.3010001 -0.51599997 33
23.242001 -4.3369999 -0.52399999 32
23.233999 -4.3790002 -0.53299999 27
23.233999 -4.4219999 -0.542 7
0 0 0 32
37.097 -7.1960001 -0.89499998 31
36.853001 -7.2179999 -0.90399998 48
36.867001 -7.2870002 -0.92000002 46
0 0 0 16
20.889 -4.204 -0.53799999 22
20.816999 -4.2280002 -0.54500002 29
20.790001 -4.2600002 -0.55400002 33
20.722 -4.283 -0.56 37
20.708 -4.3169999 -0.56900001 32
20.667 -4.3449998 -0.57700002 46
20.645 -4.3769999 -0.58600003 45
20.621 -4.408 -0.59500003 48
20.613001 -4.4429998 -0.60399997 47
20.603001 -4.4770002 -0.61299998 37
20.570999 -4.5050001 -0.62099999 64
20.568001 -4.54 -0.63099998 67
0 0 0 8
18.858999 -4.2270002 -0.59600002 7
18.885 -4.2639999 -0.60500002 9
18.787001 -4.2740002 -0.611 7
18.597 -4.2620001 -0.61400002 7
18.493999 -4.2690001 -0.61900002 9
18.391001 -4.276 -0.625 7
18.292 -4.2839999 -0.63099998 4
18.17 -4.2849998 -0.63499999 22
18.152 -4.3099999 -0.64399999 35
18.16 -4.342 -0.653 36
18.162001 -4.3709998 -0.662 36
18.167999 -4.402 -0.67199999 35
18.165001 -4.4310002 -0.68099999 35
18.179001 -4.4629998 -0.69099998 36
18.166 -4.4889998 -0.69999999 35
18.174 -4.52 -0.70899999 38
18.181 -4.5500002 -0.71899998 32
18.179001 -4.5780001 -0.72799999 32
18.177999 -4.605 -0.73799998 40
18.193001 -4.6370001 -0.74800003 30
18.181999 -4.6620002 -0.75700003 41
18.187 -4.6900001 -0.76700002 40
0 0 0 0
0 0 0 3
44.903999 -11.783 -1.967 3
0 0 0 3
0 0 0 3
16.398001 -4.375 -0.745 10
16.325001 -4.3790002 -0.75099999 7
0 0 0 1
10.028 -2.7179999 -0.472 39
10.022 -2.7309999 -0.477 151
10.044 -2.7509999 -0.484 163
10.015 -2.757 -0.48800001 163
10.013 -2.77 -0.493 164
9.9860001 -2.776 -0.498 163
9.9700003 -2.786 -0.50300002 163
10.007 -2.809 -0.50999999 155
10.021 -2.826 -0.51599997 159
10.017 -2.839 -0.52200001 163
10.019 -2.852 -0.528 163
10.016 -2.865 -0.53299999 164
10.027 -2.881 -0.53899997 163
10.03 -2.8940001 -0.54500002 164
10.003 -2.8989999 -0.54900002 163
9.9960003 -2.9100001 -0.55500001 163
9.9460001 -2.9070001 -0.55800003 65
9.9610004 -2.924 -0.56400001 5
9.9879999 -2.944 -0.57099998 1
0 0 0 26
15.516 -4.6110001 -0.90600002 27
15.524 -4.632 -0.91500002 30
15.501 -4.6430001 -0.92299998 44
15.519 -4.6669998 -0.93199998 29
15.498 -4.6789999 -0.94 51
15.513 -4.6999998 -0.94999999 28
15.516 -4.7189999 -0.95899999 31
15.507 -4.7329998 -0.96799999 29
15.512 -4.7519999 -0.977 26
15.518 -4.77 -0.986 26
15.517 -4.7870002 -0.995 25
15.515 -4.803 -1.0039999 28
15.568 -4.836 -1.016 5
16.072001 -5.0089998 -1.058 1
16.146999 -5.0479999 -1.073 2
15.754 -4.9419999 -1.056 3
15.418 -4.8520002 -1.0420001 3
15.171 -4.789 -1.034 3
15.047 -4.7649999 -1.034 3
14.751 -4.6849999 -1.022 2
14.446 -4.6020002 -1.0089999 2
14.096 -4.5040002 -0.99299997 2
13.921 -4.46 -0.98900002 2
13.731 -4.4120002 -0.98299998 2
13.664 -4.4029999 -0.986 2
14.047 -4.539 -1.022 3
13.799 -4.4710002 -1.012 3
13.569 -4.408 -1.003 3
13.403 -4.3649998 -0.99800003 4
13.261 -4.3299999 -0.99400002 4
13.081 -4.2820001 -0.98799998 3
12.926 -4.2410002 -0.98400003 3
12.823 -4.217 -0.98299998 3
12.66 -4.1739998 -0.97799999 3
12.513 -4.1350002 -0.97299999 3
12.387 -4.1020002 -0.97000003 3
12.188 -4.046 -0.96200001 3
11.917 -3.964 -0.94700003 3
11.719 -3.9059999 -0.93699998 3
11.551 -3.858 -0.93000001 2
11.379 -3.809 -0.92299998 2
11.282 -3.7839999 -0.921 3
11.133 -3.7409999 -0.91500002 2
11.028 -3.7130001 -0.912 3
10.943 -3.691 -0.91100001 2
10.823 -3.6570001 -0.90700001 3
10.71 -3.625 -0.903 3
10.613 -3.598 -0.90100002 3
10.514 -3.5710001 -0.898 3
10.395 -3.536 -0.89300001 2
10.292 -3.507 -0.88999999 2
10.199 -3.4809999 -0.88700002 3
10.102 -3.4530001 -0.884 3
10.006 -3.425 -0.88099998 2
9.9130001 -3.3970001 -0.87800002 3
9.8009996 -3.3640001 -0.87300003 2
9.7189999 -3.3399999 -0.87 2
9.6110001 -3.3069999 -0.866 2
9.4750004 -3.2650001 -0.85799998 2
9.3579998 -3.2279999 -0.85299999 1
9.2309999 -3.188 -0.84500003 1
9.1420002 -3.161 -0.84200001 2
9.0600004 -3.1359999 -0.83899999 2
8.9650002 -3.1059999 -0.83399999 2
8.9219999 -3.0940001 -0.83499998 2
8.8380003 -3.0680001 -0.83099997 3
8.7740002 -3.0480001 -0.82999998 3
8.717 -3.0309999 -0.829 3
8.6429996 -3.0079999 -0.82599998 3
8.585 -2.99 -0.824 5
8.5469999 -2.9790001 -0.82499999 4
8.4750004 -2.9560001 -0.82200003 4
8.4189997 -2.938 -0.81999999 3
8.3690004 -2.9230001 -0.81900001 3
8.283 -2.895 -0.815 3
8.1639996 -2.8540001 -0.80699998 4
8.0780001 -2.826 -0.80199999 4
8.007 -2.802 -0.79799998 7
7.9380002 -2.779 -0.79500002 5
7.8850002 -2.7609999 -0.79299998 6
7.8379998 -2.7460001 -0.792 8
7.7740002 -2.724 -0.78899997 8
7.723 -2.707 -0.787 8
7.6750002 -2.691 -0.78600001 9
7.6279998 -2.675 -0.78399998 13
7.6149998 -2.6700001 -0.78600001 13
7.5770001 -2.6570001 -0.78500003 12
7.5430002 -2.645 -0.78500003 11
7.5159998 -2.6359999 -0.78500003 8
7.4780002 -2.6229999 -0.78399998 9
7.447 -2.6110001 -0.78399998 9
7.3860002 -2.589 -0.77999997 8
7.3439999 -2.575 -0.77899998 6
7.316 -2.5639999 -0.77899998 6
7.256 -2.5420001 -0.77499998 5
7.1729999 -2.513 -0.76899999 4
7.1040001 -2.487 -0.764 3
7.0430002 -2.4649999 -0.75999999 3
6.9920001 -2.4460001 -0.75800002 3
6.9250002 -2.4219999 -0.75300002 4
6.8920002 -2.4089999 -0.75199997 4
6.8540001 -2.3940001 -0.75 4
6.8280001 -2.3840001 -0.74900001 4
6.7989998 -2.372 -0.74900001 4
6.7540002 -2.355 -0.74599999 4
6.737 -2.3469999 -0.74699998 4
6.7049999 -2.3340001 -0.745 5
6.678 -2.323 -0.74400002 5
6.6440001 -2.3099999 -0.74299997 5
6.6139998 -2.2969999 -0.741 5
6.592 -2.2869999 -0.741 5
6.5560002 -2.273 -0.73900002 5
6.5310001 -2.2620001 -0.73799998 5
6.506 -2.2509999 -0.73699999 5
6.4809999 -2.24 -0.736 4
6.4590001 -2.23 -0.736 4
6.428 -2.2160001 -0.73400003 5
6.4099998 -2.207 -0.73400003 4
6.3779998 -2.194 -0.73199999 5
6.3499999 -2.181 -0.73100001 4
6.3340001 -2.1730001 -0.73100001 5
6.3109999 -2.1619999 -0.73000002 4
6.2779999 -2.148 -0.72799999 5
6.2620001 -2.1389999 -0.727 4
6.2350001 -2.1259999 -0.72600001 4
6.2140002 -2.1159999 -0.72500002 4
6.2049999 -2.109 -0.72500002 4
6.1830001 -2.099 -0.72399998 4
6.1570001 -2.0869999 -0.722 5
6.1329999 -2.075 -0.72100002 4
6.1069999 -2.062 -0.71899998 4
6.0970001 -2.0550001 -0.71899998 5
6.0650001 -2.0409999 -0.71700001 4
6.0599999 -2.0350001 -0.71700001 5
6.0450001 -2.026 -0.71700001 5
6.0229998 -2.0150001 -0.71499997 5
6.0180001 -2.0090001 -0.71600002 4
5.9920001 -1.9960001 -0.71399999 4
5.9840002 -1.989 -0.71399999 5
5.967 -1.98 -0.713 4
5.947 -1.9680001 -0.71200001 5
5.9359999 -1.96 -0.71100003 4
5.9349999 -1.956 -0.71200001 4
5.9070001 -1.942 -0.70999998 4
5.8969998 -1.934 -0.70899999 4
5.8920002 -1.927 -0.70899999 4
5.8779998 -1.918 -0.70899999 4
5.869 -1.911 -0.708 5
5.8590002 -1.902 -0.708 4
5.8400002 -1.891 -0.70599997 4
5.8369999 -1.885 -0.70599997 4
5.8340001 -1.8789999 -0.70700002 4
5.822 -1.87 -0.70599997 4
5.8080001 -1.8609999 -0.70499998 4
5.8080001 -1.855 -0.70499998 4
5.796 -1.846 -0.704 4
5.7919998 -1.839 -0.704 4
5.7859998 -1.832 -0.704 4
5.783 -1.826 -0.704 4
5.7750001 -1.818 -0.70300001 4
5.7729998 -1.811 -0.70300001 4
5.7789998 -1.807 -0.704 4
5.7639999 -1.7970001 -0.70200002 4
5.7579999 -1.789 -0.70200002 4
5.7490001 -1.78 -0.70099998 4
5.7600002 -1.778 -0.70200002 4
5.7410002 -1.766 -0.69999999 4
5.7360001 -1.758 -0.69999999 5
5.7399998 -1.753 -0.69999999 4
5.7449999 -1.749 -0.70099998 4
5.7480001 -1.743 -0.70099998 4
5.7290001 -1.7309999 -0.69800001 4
5.7329998 -1.726 -0.699 4
5.7389998 -1.721 -0.699 4
5.7350001 -1.714 -0.699 3
5.7379999 -1.7079999 -0.699 4
5.7360001 -1.701 -0.69800001 4
5.7389998 -1.6950001 -0.69800001 3
5.7459998 -1.6900001 -0.699 3
5.7589998 -1.687 -0.69999999 3
5.743 -1.675 -0.69800001 3
5.7550001 -1.6720001 -0.699 3
5.744 -1.661 -0.69700003 3
5.7740002 -1.663 -0.69999999 3
5.7800002 -1.6569999 -0.69999999 4
5.7740002 -1.649 -0.699 4
5.7779999 -1.642 -0.699 3
5.7839999 -1.636 -0.699 4
5.796 -1.633 -0.699 4
5.796 -1.625 -0.699 4
5.8119998 -1.622 -0.69999999 3
5.823 -1.617 -0.69999999 4
5.8169999 -1.608 -0.69800001 3
5.8340001 -1.605 -0.69999999 4
5.8509998 -1.601 -0.70099998 3
5.8520002 -1.594 -0.69999999 4
5.8569999 -1.587 -0.699 3
5.8730001 -1.584 -0.69999999 3
5.8940001 -1.581 -0.70099998 3
5.8930001 -1.572 -0.69999999 3
5.908 -1.568 -0.70099998 3
5.9099998 -1.5599999 -0.69999999 3
5.928 -1.557 -0.69999999 3
5.9489999 -1.554 -0.70200002 3
5.9590001 -1.548 -0.70099998 3
5.9759998 -1.543 -0.70200002 3
5.9910002 -1.538 -0.70200002 3
6.0019999 -1.5319999 -0.70200002 3
6.0040002 -1.524 -0.70099998 3
6.0370002 -1.524 -0.70300001 3
6.046 -1.517 -0.70200002 3
6.0840001 -1.517 -0.70499998 3
6.0910001 -1.51 -0.704 3
6.1069999 -1.5039999 -0.704 3
6.1350002 -1.502 -0.70499998 3
6.1389999 -1.494 -0.704 3
6.1750002 -1.493 -0.70599997 2
6.1900001 -1.487 -0.70599997 2
6.21 -1.482 -0.70599997 2
6.237 -1.479 -0.70700002 2
6.2620001 -1.475 -0.70700002 2
6.3000002 -1.474 -0.70899999 2
6.3179998 -1.4680001 -0.70899999 2
6.3559999 -1.467 -0.71100003 2
6.3959999 -1.466 -0.713 3
6.4099998 -1.459 -0.71200001 3
6.441 -1.455 -0.713 4
6.4970002 -1.4579999 -0.71700001 3
6.527 -1.454 -0.71700001 3
6.5630002 -1.451 -0.71799999 3
6.592 -1.447 -0.71899998 3
6.6430001 -1.447 -0.722 3
6.6789999 -1.444 -0.72299999 3
6.7360001 -1.4450001 -0.72600001 3
6.776 -1.442 -0.727 4
6.8150001 -1.439 -0.72799999 4
6.8590002 -1.437 -0.73000002 4
6.8959999 -1.433 -0.73000002 4
6.9439998 -1.431 -0.73199999 4
6.98 -1.427 -0.73199999 4
7.0370002 -1.426 -0.73500001 4
7.0780001 -1.423 -0.736 4
7.1430001 -1.424 -0.73900002 4
7.1939998 -1.4220001 -0.74000001 4
7.2389998 -1.418 -0.741 4
7.3010001 -1.418 -0.74400002 4
7.3509998 -1.415 -0.745 4
7.408 -1.413 -0.74599999 4
7.46 -1.41 -0.74699998 4
7.5190001 -1.408 -0.74900001 4
7.6090002 -1.4119999 -0.75400001 3
7.658 -1.4069999 -0.75400001 4
7.7319999 -1.4069999 -0.75700003 4
7.8000002 -1.406 -0.759 4
7.8779998 -1.406 -0.76200002 5
7.9390001 -1.403 -0.76300001 5
8.0209999 -1.403 -0.76599997 4
8.1110001 -1.405 -0.76899999 4
8.2060003 -1.4069999 -0.773 4
8.2709999 -1.403 -0.77399999 4
8.3529997 -1.402 -0.77600002 4
8.46 -1.405 -0.78100002 4
8.5539999 -1.405 -0.78399998 4
8.6610003 -1.4069999 -0.78799999 4
8.7550001 -1.4069999 -0.79000002 5
8.8409996 -1.405 -0.792 5
8.9709997 -1.409 -0.79699999 4
9.0740004 -1.409 -0.80000001 4
9.1850004 -1.409 -0.80299997 3
9.3260002 -1.414 -0.80900002 3
9.4759998 -1.42 -0.815 3
9.6029997 -1.421 -0.81900001 3
9.7810001 -1.4299999 -0.82700002 2
9.9160004 -1.431 -0.83099997 3
10.09 -1.438 -0.838 2
10.228 -1.439 -0.84200001 2
10.397 -1.444 -0.84799999 3
10.592 -1.452 -0.85600001 3
10.76 -1.455 -0.861 3
10.902 -1.455 -0.86400002 3
11.055 -1.455 -0.86699998 3
11.257 -1.461 -0.87400001 2
11.461 -1.466 -0.88099998 2
11.661 -1.47 -0.88599998 2
11.926 -1.482 -0.89700001 3
12.202 -1.494 -0.90700001 3
12.443 -1.5 -0.91500002 3
12.665 -1.5039999 -0.921 3
12.909 -1.5089999 -0.92699999 3
13.177 -1.516 -0.935 3
13.468 -1.525 -0.94400001 3
13.795 -1.5369999 -0.95499998 3
14.057 -1.54 -0.96100003 3
14.431 -1.554 -0.97299999 3
14.678 -1.554 -0.977 3
15.097 -1.5700001 -0.991 2
15.429 -1.577 -0.99900001 2
15.819 -1.587 -1.0089999 3
16.294001 -1.605 -1.025 5
16.639 -1.608 -1.031 2
17.179001 -1.6289999 -1.048 2
17.702999 -1.645 -1.063 2
17.503 -1.595 -1.035 2
18.094999 -1.615 -1.052 2
18.778999 -1.643 -1.074 1
19.738001 -1.6900001 -1.109 2
20.749001 -1.739 -1.146 2
21.073 -1.727 -1.143 2
0 0 0 3
23.294001 -1.823 -1.217 5
23.653 -1.808 -1.212 6
24.132 -1.799 -1.211 3
0 0 0 0
0 0 0 2
28.302999 -1.955 -1.3329999 4
28.306999 -1.904 -1.304 12
28.278 -1.85 -1.273 63
28.285999 -1.798 -1.243 162
28.337999 -1.751 -1.215 150
28.398001 -1.702 -1.187 150
0 0 0 5
42.147999 -2.372 -1.671 19
40.330002 -2.1960001 -1.554 6
40.188 -2.1159999 -1.5039999 150
0 0 0 121
32.973999 -1.6160001 -1.161 183
32.981998 -1.558 -1.125 255
33.021999 -1.501 -1.09 184
33.032001 -1.441 -1.052 10
0 0 0 48
44.773998 -1.794 -1.325 39
45.046001 -1.724 -1.281 42
45.266998 -1.649 -1.234 42
45.707001 -1.5829999 -1.193 43
45.862999 -1.507 -1.143 42
45.943001 -1.427 -1.091 43
45.943001 -1.347 -1.0369999 35
45.946999 -1.265 -0.98299998 17
46.105 -1.188 -0.93099999 10
0 0 0 83
68.75 -1.53 -1.224 83
68.747002 -1.409 -1.141 52
71.984001 -1.349 -1.107 29
0 0 0 0
0 0 0 67
0 0 0 0
0 0 0 0
0 0 0 52
0 0 0 0
0 0 0 13
0 0 0 90
135.63 -0.428 -0.57300001 75
135.565 -0.19599999 -0.40000001 55
0 0 0 0
0 0 0 0
0 0 0 0
0 0 0 0
0 0 0 0
0 0 0 25
0 0 0 0
0 0 0 0
0 0 0 0
0 0 0 0
0 0 0 0
0 0 0 0
0 0 0 0
0 0 0 0
0 0 0 13
90.202003 2.279 1.623 21
90.055 2.4219999 1.742 26
90.007004 2.569 1.865 29
89.558998 2.701 1.977 24
91.805 2.9119999 2.148 23
92.129997 3.0699999 2.2820001 27
91.833 3.2049999 2.398 32
91.886002 3.3529999 2.526 26
91.855003 3.4979999 2.652 21
91.788002 3.6400001 2.776 19
91.704002 3.779 2.8989999 16
89.788002 3.8410001 2.9630001 15
89.917999 3.987 3.092 26
90.039001 4.132 3.2219999 39
90.110001 4.2750001 3.3499999 31
92.278999 4.5180001 3.5580001 45
94.347 4.7620001 3.7690001 29
94.167 4.895 3.892 23
93.835999 5.02 4.0110002 20
0 0 0 0
0 0 0 0
0 0 0 0
0 0 0 12
0 0 0 61
119.138 7.4400001 6.1020002 56
119.108 7.6139998 6.27 41
0 0 0 0
0 0 0 51
0 0 0 0
0 0 0 16
92.116997 6.5570002 5.5110002 18
0 0 0 30
119.494 8.8450003 7.4899998 30
119.439 9.0100002 7.6589999 33
0 0 0 31
0 0 0 0
0 0 0 32
128.08501 10.375 8.9499998 38
128.03999 10.544 9.1309996 26
0 0 0 0
0 0 0 0
0 0 0 0
0 0 0 44
119.311 10.637 9.3789997 52
119.216 10.787 9.5450001 52
119.223 10.945 9.7200003 46
119.415 11.119 9.9069996 28
0 0 0 0
0 0 0 0
0 0 0 4
51.089001 5.0209999 4.5359998 23
51.004002 5.0770001 4.6030002 38
50.959999 5.138 4.6729999 39
51.014999 5.2049999 4.7509999 45
50.824001 5.25 4.8080001 50
50.839001 5.3140001 4.8829999 41
50.887001 5.382 4.961 23
50.966 5.4530001 5.0450001 13
0 0 0 78
118.83 13.002 12.107 76
118.802 13.142 12.278 81
118.811 13.288 12.453 65
0 0 0 27
73.082001 8.3459997 7.8730001 29
73.039001 8.4259996 7.9749999 20
0 0 0 0
0 0 0 29
119.121 14.15 13.524 28
118.971 14.27 13.68 27
119.028 14.406 13.856 40
119.058 14.543 14.032 29
0 0 0 0
0 0 0 0
0 0 0 0
0 0 0 0
0 0 0 0
0 0 0 0
0 0 0 26
48.082001 6.289 6.2220001 40
48.030998 6.3319998 6.2849998 49
47.967999 6.3730001 6.3449998 35
48.056999 6.4330001 6.4239998 23
0 0 0 0
0 0 0 57
118.703 16.247 16.375999 64
118.648 16.356001 16.537001 76
118.688 16.476999 16.709999 77
118.665 16.587999 16.871 68
118.69 16.705 17.042 54
118.628 16.809 17.200001 39
118.624 16.92 17.365999 84
118.662 17.035 17.538 57
118.618 17.138 17.697001 55
118.622 17.246 17.863001 55
118.633 17.355 18.025999 54
118.646 17.462 18.193001 59
118.625 17.563999 18.354 56
118.61 17.665001 18.511 53
118.578 17.763 18.669001 46
0 0 0 0
0 0 0 0
0 0 0 0
0 0 0 0
0 0 0 64
118.565 18.353001 19.632 51
118.565 18.448 19.787001 54
118.574 18.539 19.948 57
118.556 18.629 20.103001 57
118.56 18.721001 20.257999 60
118.541 18.809 20.412001 48
118.514 18.893999 20.563999 56
118.507 18.981001 20.715 54
118.561 19.077 20.879999 57
118.515 19.152 21.023001 57
118.487 19.232 21.172001 51
118.583 19.334999 21.343 51
0 0 0 0
0 0 0 13
60.945 10.061 11.202 25
60.859001 10.088 11.263 33
60.701 10.103 11.311 27
60.491001 10.107 11.348 32
60.493 10.145 11.424 40
60.551998 10.193 11.509 32
60.548 10.231 11.585 21
60.374001 10.239 11.625 15
60.334999 10.269 11.692 8
0 0 0 0
0 0 0 0
0 0 0 4
45.310001 7.816 9 9
45.257999 7.8330002 9.0419998 14
45.188999 7.8449998 9.0819998 21
45.137001 7.8610001 9.125 31
45.068001 7.8709998 9.1630001 34
44.973999 7.8800001 9.1969995 36
44.887001 7.8870001 9.2309999 36
44.833 7.9000001 9.2720003 34
44.789001 7.9130001 9.3129997 25
44.832001 7.9419999 9.3730001 20
44.896 7.9749999 9.4359999 11
44.833 7.9840002 9.474 8
0 0 0 32
118.477 21.205999 25.295 25
0 0 0 0
0 0 0 0
0 0 0 0
0 0 0 0
0 0 0 25
118.66 21.528 26.108 27
118.511 21.546 26.197001 28
118.583 21.601999 26.337 26
0 0 0 0
0 0 0 0
0 0 0 0
0 0 0 0
0 0 0 24
118.813 21.881001 27.108999 28
118.861 21.926001 27.237 32
118.9 21.966999 27.362 31
118.904 22.002001 27.475 30
118.811 22.017 27.566999 30
118.81 22.049999 27.681999 27
0 0 0 0
0 0 0 27
118.629 22.1 27.969999 29
118.561 22.115 28.059 30
0 0 0 0
0 0 0 11
46.099998 8.6269999 11.034 20
46.055 8.6280003 11.062 26
45.962002 8.6169996 11.081 28
45.875 8.6099997 11.098 28
45.740002 8.5909996 11.104 27
45.587002 8.5699997 11.104 27
45.470001 8.5539999 11.113 34
45.421001 8.5509996 11.138 36
45.448002 8.5609999 11.182 36
45.466999 8.5699997 11.222 37
45.462002 8.5740004 11.256 38
45.469002 8.5799999 11.293 37
45.497002 8.5889997 11.335 35
45.495998 8.592 11.369 31
45.491001 8.5939999 11.402 26
45.449001 8.5880003 11.425 20
45.381001 8.5769997 11.441 15
45.351002 8.573 11.466 9
45.319 8.5699997 11.489 6
0 0 0 0
0 0 0 0
0 0 0 0
0 0 0 0
0 0 0 3
44.611 8.4350004 11.487 7
44.626999 8.4359999 11.52 10
44.562 8.4209995 11.531 14
44.526001 8.4119997 11.548 18
44.519001 8.4090004 11.572 25
44.476002 8.3970003 11.587 25
44.438999 8.3870001 11.603 31
44.433998 8.382 11.627 34
44.367001 8.3649998 11.634 35
44.320999 8.3509998 11.646 32
44.290001 8.3400002 11.661 33
44.245998 8.3260002 11.673 33
44.209999 8.3140001 11.685 34
44.164001 8.2989998 11.694 33
44.139999 8.2880001 11.71 34
44.099998 8.2740002 11.719 32
44.069 8.2609997 11.732 33
44.055 8.25 11.748 31
44.022999 8.2370005 11.758 32
44.000999 8.224 11.771 31
43.963001 8.2080002 11.779 25
44.007 8.2069998 11.809 24
43.944 8.184 11.81 19
43.931 8.1719999 11.823 17
43.915001 8.1590004 11.835 14
43.911999 8.1470003 11.85 10
43.866001 8.1269999 11.853 8
0 0 0 0
0 0 0 0
0 0 0 34
118.733 21.868999 32.231998 33
118.673 21.825001 32.248001 35
118.638 21.782 32.271 39
118.689 21.750999 32.319 40
118.662 21.711 32.34 46
118.647 21.671 32.362 49
118.707 21.639 32.408001 45
118.653 21.587 32.418999 52
118.696 21.552999 32.456001 47
118.718 21.516001 32.483002 56
118.653 21.462999 32.485001 51
118.745 21.434 32.530998 56
118.677 21.375999 32.530998 57
118.716 21.336 32.558998 48
118.69 21.283001 32.568001 50
118.72 21.239 32.59 52
118.696 21.188 32.595001 61
118.744 21.145 32.619999 62
118.74 21.093 32.629002 55
118.711 21.035 32.630001 55
118.731 20.985001 32.643002 60
118.695 20.924 32.639 54
118.757 20.879 32.66 60
118.758 20.826 32.661999 65
118.738 20.764999 32.658001 63
118.741 20.707001 32.659 58
118.728 20.649 32.652 57
118.78 20.598 32.662998 57
118.744 20.531 32.648998 53
118.788 20.48 32.653999 55
118.757 20.412001 32.638 57
118.784 20.353001 32.637001 52
118.77 20.285999 32.623001 64
118.815 20.229 32.624001 57
118.814 20.163 32.610001 57
118.83 20.099001 32.599998 58
118.817 20.032 32.578999 56
118.813 19.962 32.561001 59
118.837 19.898001 32.549999 53
118.807 19.822001 32.52 57
118.834 19.754999 32.505001 63
118.845 19.684999 32.485001 54
118.842 19.612 32.459 55
118.856 19.544001 32.436001 64
118.908 19.479 32.422001 54
118.889 19.4 32.387001 53
118.857 19.319 32.348 57
118.838 19.24 32.311001 68
118.838 19.166 32.276001 49
118.908 19.099001 32.259998 44
118.918 19.021999 32.226002 42
118.822 18.927 32.161999 50
118.856 18.851999 32.132 44
118.899 18.781 32.102001 55
118.933 18.704 32.068001 48
118.965 18.627001 32.033001 53
118.917 18.537001 31.976999 45
118.932 18.455 31.934 45
118.96 18.377001 31.891001 43
118.947 18.291 31.839001 45
118.981 18.209999 31.797001 46
118.93 18.115 31.731001 47
118.956 18.035 31.683001 48
118.934 17.944 31.622 62
118.977 17.861 31.577 52
118.973 17.771999 31.518999 45
119.003 17.687 31.466999 51
119.03 17.603001 31.413 48
118.992 17.507 31.34 42
119.009 17.417 31.280001 51
119.013 17.325001 31.216 47
119.045 17.236 31.157 48
119.016 17.142 31.080999 45
119.032 17.049 31.014999 38
119.061 16.962 30.951 48
119.033 16.862 30.871 47
118.985 16.761 30.787001 47
118.991 16.665001 30.712999 50
119.081 16.58 30.659 69
119.36 16.521 30.652 29
0 0 0 0
0 0 0 0
0 0 0 0
0 0 0 0
0 0 0 0
0 0 0 0
0 0 0 0
0 0 0 0
0 0 0 0
0 0 0 0
0 0 0 0
0 0 0 0
0 0 0 0
0 0 0 0
0 0 0 0
0 0 0 0
0 0 0 30
119.176 14.654 28.947001 40
119.189 14.549 28.844999 48
119.162 14.438 28.732 59
119.197 14.334 28.632 70
119.2 14.226 28.524 68
119.214 14.121 28.413 56
119.168 14.007 28.290001 57
119.234 13.907 28.195999 64
119.222 13.796 28.079 55
119.253 13.691 27.966999 47
119.305 13.587 27.862 33
119.407 13.488 27.767 33
119.421 13.378 27.65 28
119.56 13.286 27.561001 26
119.551 13.173 27.436001 27
0 0 0 0
0 0 0 0
0 0 0 0
0 0 0 0
0 0 0 0
0 0 0 0
0 0 0 0
0 0 0 0
0 0 0 0
0 0 0 0
0 0 0 24
119.502 11.81 25.848 27
119.592 11.705 25.728001 27
0 0 0 0
0 0 0 0
0 0 0 0
0 0 0 23
119.314 11.106 24.952999 37
119.317 10.994 24.808001 35
119.344 10.878 24.664 54
119.389 10.77 24.525 69
119.368 10.654 24.375 69
119.363 10.538 24.222 70
119.412 10.427 24.079 85
119.434 10.313 23.929001 65
119.456 10.202 23.778999 69
119.475 10.085 23.621 51
119.529 9.9770002 23.475 34
119.66 9.8699999 23.344999 31
119.571 9.7480001 23.163 29
119.664 9.6379995 23.023001 26
0 0 0 0
0 0 0 0
0 0 0 24
119.576 9.1689997 22.349001 27
119.787 9.0690002 22.221001 25
119.648 8.9420004 22.027 32
119.756 8.8339996 21.877001 27
119.652 8.7119999 21.683001 30
119.682 8.5979996 21.517 31
119.624 8.4799995 21.337999 27
0 0 0 0
0 0 0 36
119.555 8.1289997 20.797001 44
119.546 8.0159998 20.622999 57
119.563 7.902 20.448 68
119.555 7.7859998 20.267 70
119.535 7.6700001 20.083 72
119.502 7.5560002 19.898001 61
119.562 7.4450002 19.725 52
119.625 7.335 19.552 40
119.692 7.224 19.377001 31
119.72 7.112 19.191999 28
119.701 6.9970002 19.002001 32
119.744 6.888 18.826 29
119.728 6.7740002 18.635 30
119.742 6.6609998 18.447001 31
119.743 6.5479999 18.256001 28
119.776 6.4369998 18.069 34
119.732 6.322 17.868999 26
119.82 6.2150002 17.687 25
119.659 6.0970001 17.471001 28
119.732 5.9889998 17.285999 25
119.747 5.8779998 17.091 29
119.684 5.7639999 16.884001 43
119.63 5.651 16.677 49
119.592 5.539 16.469 70
119.589 5.428 16.271 81
119.585 5.3189998 16.07 74
119.616 5.2129998 15.874 70
119.613 5.1040001 15.67 51
119.707 4.9990001 15.478 32
119.552 4.8870001 15.255 31
122.147 4.8829999 15.376 41
0 0 0 0
0 0 0 28
0 0 0 0
0 0 0 0
0 0 0 27
0 0 0 0
0 0 0 0
0 0 0 0
0 0 0 0
0 0 0 0
0 0 0 0
0 0 0 0
0 0 0 46
122.172 3.395 12.357 63
122.137 3.29 12.131 71
122.178 3.1900001 11.914 76
122.155 3.0869999 11.687 76
122.146 2.9849999 11.461 86
122.172 2.8840001 11.242 85
122.228 2.7839999 11.016 53
0 0 0 0
0 0 0 40
0 0 0 0
0 0 0 31
0 0 0 0
0 0 0 42
124.401 2.1370001 9.5889997 28
122.302 2.0039999 9.1940002 39
122.34 1.909 8.9639997 42
122.298 1.813 8.7270002 40
122.371 1.719 8.4969997 39
122.386 1.625 8.2629995 33
122.342 1.531 8.0240002 30
122.341 1.438 7.7880001 30
122.387 1.347 7.5539999 35
122.405 1.255 7.3169999 33
122.398 1.166 7.0809999 34
122.507 1.077 6.849 34
122.324 0.986 6.599 48
122.198 0.89700001 6.3559999 61
122.157 0.80900002 6.1139998 71
0 0 0 0
0 0 0 0
0 0 0 31
85.891998 0.32699999 3.622 37
0 0 0 20
91.172997 0.221 3.4820001 18
87.919998 0.153 3.1819999 32
87.858002 0.093999997 3.0039999 13
90.105003 0.035999998 2.901 16
88.102997 -0.023 2.6600001 25
84.980003 -0.077 2.3970001 27
85.236 -0.133 2.233 30
85.801003 -0.189 2.0739999 27
88.296997 -0.252 1.954 14
88.490997 -0.308 1.7819999 25
85.931 -0.35299999 1.556 17
0 0 0 9
0 0 0 0
0 0 0 13
74.931999 -0.49000001 0.74900001 49
74.253998 -0.52999997 0.59100002 27
0 0 0 0
0 0 0 10
75.041 -0.66600001 0.138 17
75.091003 -0.70999998 -0.014 51
75.084999 -0.75199997 -0.169 73
75.074997 -0.79299998 -0.32100001 79
75.079002 -0.83399999 -0.47299999 44
0 0 0 0
0 0 0 29
0 0 0 0
0 0 0 41
75.188004 -1.036 -1.252 39
74.474998 -1.064 -1.392 67
74.152 -1.097 -1.54 124
74.176003 -1.135 -1.696 81
74.089996 -1.17 -1.848 13
71.939003 -1.17 -1.941 41
71.921997 -1.204 -2.0899999 24
0 0 0 25
0 0 0 6
59.504002 -1.079 -2.0999999 12
59.601002 -1.108 -2.2279999 6
0 0 0 0
0 0 0 0
0 0 0 4
0 0 0 0
0 0 0 0
0 0 0 0
0 0 0 1
0 0 0 1
0 0 0 1
0 0 0 1
0 0 0 2
16.063999 -0.377 -1.001 3
15.184 -0.36199999 -0.97799999 2
14.446 -0.34900001 -0.95999998 2
13.711 -0.336 -0.93900001 3
12.974 -0.322 -0.91600001 3
12.379 -0.31200001 -0.89899999 3
11.826 -0.30199999 -0.884 2
11.253 -0.29100001 -0.86400002 2
10.719 -0.28 -0.84600002 2
10.215 -0.27000001 -0.82700002 2
9.7869997 -0.26199999 -0.81300002 3
9.3330002 -0.252 -0.79400003 3
8.9499998 -0.245 -0.77999997 4
8.6000004 -0.237 -0.76700002 4
8.257 -0.23 -0.75400001 6
7.9879999 -0.22499999 -0.74599999 6
7.7160001 -0.219 -0.736 7
7.3979998 -0.212 -0.72100002 12
7.1869998 -0.208 -0.71600002 11
7.0079999 -0.204 -0.71200001 11
6.8239999 -0.2 -0.70700002 10
6.6529999 -0.197 -0.70300001 10
6.4629998 -0.193 -0.69599998 5
6.2919998 -0.189 -0.69099998 4
6.1040001 -0.184 -0.68199998 3
5.9629998 -0.18099999 -0.67900002 3
5.8099999 -0.178 -0.67400002 3
5.6420002 -0.17399999 -0.66600001 3
5.5180001 -0.171 -0.662 3
5.3889999 -0.168 -0.65799999 3
5.2639999 -0.16500001 -0.653 3
5.1430001 -0.162 -0.64899999 4
5.052 -0.16 -0.64700001 2
4.9419999 -0.15700001 -0.64399999 2
4.8410001 -0.154 -0.63999999 2
4.7410002 -0.152 -0.63599998 2
4.6500001 -0.15000001 -0.634 4
4.5710001 -0.148 -0.63200003 2
4.4759998 -0.145 -0.62800002 4
4.3920002 -0.14300001 -0.625 4
4.3200002 -0.141 -0.62300003 2
4.223 -0.138 -0.61699998 2
4.1999998 -0.138 -0.62199998 2
4.1059999 -0.13500001 -0.61699998 2
4.0139999 -0.132 -0.611 2
3.9879999 -0.132 -0.61500001 2
3.938 -0.13 -0.61500001 2
3.8540001 -0.12800001 -0.60900003 2
3.7449999 -0.124 -0.59899998 2
3.727 -0.124 -0.60399997 2
3.664 -0.122 -0.60000002 2
3.585 -0.119 -0.59500003 4
3.559 -0.118 -0.597 5
3.526 -0.117 -0.59799999 4
3.467 -0.115 -0.59500003 3
3.411 -0.114 -0.59200001 2
3.359 -0.112 -0.58999997 2
3.309 -0.11 -0.58700001 2
3.2750001 -0.109 -0.58700001 2
3.223 -0.107 -0.58399999 2
3.184 -0.106 -0.583 2
3.1389999 -0.104 -0.58099997 2
3.105 -0.103 -0.57999998 2
3.0610001 -0.101 -0.57800001 2
3.0309999 -0.1 -0.57800001 2
2.9879999 -0.098999999 -0.57499999 2
2.9590001 -0.097999997 -0.57499999 2
2.931 -0.096000001 -0.57499999 2
2.8940001 -0.094999999 -0.57300001 2
2.858 -0.093999997 -0.57200003 2
2.8239999 -0.092 -0.56999999 2
2.8050001 -0.090999998 -0.57099998 2
2.7720001 -0.090000004 -0.56900001 1
2.7449999 -0.089000002 -0.56900001 1
2.714 -0.088 -0.56699997 1
2.674 -0.086000003 -0.56400001 1
2.6559999 -0.085000001 -0.565 1
2.6370001 -0.083999999 -0.56599998 1
2.609 -0.082999997 -0.56400001 1
2.5940001 -0.082000002 -0.56599998 1
2.5650001 -0.081 -0.56400001 1
2.546 -0.079999998 -0.56400001 1
2.5179999 -0.079000004 -0.56199998 1
2.4949999 -0.078000002 -0.56099999 1
2.5079999 -0.078000002 -0.56900001 1
2.546 -0.079000004 -0.58200002 1
2.4189999 -0.074000001 -0.55699998 1
2.3970001 -0.072999999 -0.55599999 1
2.3759999 -0.071999997 -0.55500001 1
2.3559999 -0.071000002 -0.55400002 1
2.3440001 -0.07 -0.55599999 1
2.323 -0.068999998 -0.55500001 1
2.3069999 -0.068000004 -0.55500001 1
2.283 -0.067000002 -0.55299997 1
2.263 -0.066 -0.551 1
2.2520001 -0.064999998 -0.55199999 1
2.2360001 -0.064000003 -0.55199999 1
2.221 -0.063000001 -0.55199999 1
2.1989999 -0.061999999 -0.55000001 1
2.187 -0.061999999 -0.551 1
2.168 -0.061000001 -0.54900002 1
2.154 -0.059999999 -0.54900002 1
2.135 -0.059 -0.54799998 1
2.122 -0.057999998 -0.54799998 1
2.109 -0.057 -0.54799998 1
2.0840001 -0.056000002 -0.54400003 1
2.072 -0.055 -0.54500002 1
2.059 -0.054000001 -0.54400003 1
2.0439999 -0.052999999 -0.54299998 1
2.0369999 -0.052000001 -0.54500002 1
2.0280001 -0.052000001 -0.54500002 1
2.0139999 -0.050999999 -0.54400003 1
1.993 -0.050000001 -0.542 1
1.985 -0.048999999 -0.542 1
1.978 -0.048 -0.54299998 1
1.961 -0.046999998 -0.542 1
1.951 -0.046 -0.542 1
1.943 -0.046 -0.542 1
1.929 -0.045000002 -0.54100001 1
1.914 -0.044 -0.54000002 1
1.902 -0.043000001 -0.53899997 1
1.898 -0.041999999 -0.54000002 1
1.887 -0.041999999 -0.54000002 1
1.8839999 -0.041000001 -0.54100001 1
1.867 -0.039999999 -0.53899997 1
1.864 -0.039000001 -0.54100001 1
1.86 -0.039000001 -0.542 1
1.84 -0.037999999 -0.53899997 1
1.829 -0.037 -0.53799999 1
1.83 -0.035999998 -0.54000002 1
1.8099999 -0.035 -0.537 1
1.808 -0.034000002 -0.53899997 1
1.799 -0.034000002 -0.53799999 1
1.7869999 -0.033 -0.537 1
1.78 -0.032000002 -0.537 1
1.768 -0.030999999 -0.53500003 1
1.761 -0.030999999 -0.53600001 1
1.7589999 -0.029999999 -0.537 1
1.751 -0.028999999 -0.537 1
1.739 -0.028000001 -0.53500003 1
1.734 -0.028000001 -0.53600001 1
1.735 -0.027000001 -0.53799999 1
1.707 -0.026000001 -0.53100002 1
1.707 -0.025 -0.53299999 1
1.691 -0.025 -0.52999997 1
1.6849999 -0.024 -0.52999997 1
1.677 -0.023 -0.52899998 1
1.6799999 -0.022 -0.53200001 1
1.664 -0.022 -0.52899998 1
1.658 -0.021 -0.52899998 1
1.65 -0.02 -0.528 1
1.648 -0.02 -0.52899998 1
1.645 -0.018999999 -0.52999997 1
1.6289999 -0.017999999 -0.52600002 1
1.632 -0.017000001 -0.52899998 1
1.618 -0.017000001 -0.52600002 1
1.614 -0.016000001 -0.52600002 1
1.608 -0.015 -0.52600002 1
1.604 -0.015 -0.52600002 1
1.591 -0.014 -0.523 1
1.5930001 -0.013 -0.52499998 1
1.5829999 -0.013 -0.523 1
1.569 -0.012 -0.51999998 1
1.573 -0.011 -0.523 1
1.569 -0.011 -0.523 1
1.562 -0.0099999998 -0.52200001 1
1.559 -0.0089999996 -0.52200001 1
1.561 -0.0089999996 -0.52399999 1
1.556 -0.0080000004 -0.52399999 1
1.5549999 -0.0070000002 -0.52499998 1
1.551 -0.0070000002 -0.52499998 1
1.545 -0.0060000001 -0.52399999 1
1.543 -0.0049999999 -0.52399999 1
1.544 -0.0049999999 -0.52600002 1
1.539 -0.0040000002 -0.52499998 1
1.538 -0.003 -0.52600002 1
1.527 -0.003 -0.523 1
1.527 -0.0020000001 -0.52399999 1
1.53 -0.0020000001 -0.52600002 1
1.521 -0.001 -0.52399999 1
1.516 0 -0.52399999 1
1.52 0 -0.52600002 1
1.506 0 -0.52200001 1
1.516 0.001 -0.52600002 1
1.506 0.001 -0.52399999 1
1.502 0.0020000001 -0.523 1
1.502 0.0020000001 -0.52399999 1
1.498 0.003 -0.523 1
1.494 0.0040000002 -0.523 1
1.495 0.0040000002 -0.52399999 1
1.495 0.0049999999 -0.52499998 1
1.483 0.0060000001 -0.52100003 1
1.482 0.0060000001 -0.52200001 1
1.4910001 0.0070000002 -0.52600002 1
1.4859999 0.0070000002 -0.52399999 1
1.483 0.0080000004 -0.52399999 1
1.479 0.0089999996 -0.523 1
1.478 0.0089999996 -0.52399999 1
1.4809999 0.0099999998 -0.52499998 1
1.475 0.0099999998 -0.52399999 1
1.4809999 0.011 -0.52600002 1
1.478 0.012 -0.52600002 1
1.469 0.012 -0.523 1
1.47 0.013 -0.52399999 1
1.46 0.013 -0.52100003 1
1.47 0.014 -0.52399999 1
1.46 0.015 -0.52100003 1
1.46 0.015 -0.52200001 1
1.4680001 0.016000001 -0.52499998 1
1.4630001 0.017000001 -0.52399999 1
1.457 0.017000001 -0.52200001 1
1.459 0.017999999 -0.523 1
1.459 0.017999999 -0.523 1
1.4630001 0.018999999 -0.52499998 1
1.456 0.018999999 -0.523 1
1.456 0.02 -0.523 1
1.46 0.021 -0.52399999 1
1.45 0.021 -0.52100003 1
1.456 0.022 -0.523 1
1.461 0.023 -0.52499998 1
1.45 0.023 -0.52100003 1
1.45 0.024 -0.52100003 1
1.451 0.024 -0.52200001 1
1.45 0.025 -0.52100003 1
1.451 0.025 -0.52200001 1
1.4579999 0.026000001 -0.52399999 1
1.448 0.026000001 -0.52100003 1
1.452 0.027000001 -0.52200001 1
1.45 0.028000001 -0.52100003 1
1.45 0.028000001 -0.52100003 1
1.45 0.028999999 -0.52100003 1
1.447 0.028999999 -0.51999998 1
1.449 0.029999999 -0.51999998 1
1.45 0.029999999 -0.52100003 1
1.451 0.030999999 -0.51999998 1
1.451 0.032000002 -0.51999998 1
1.456 0.032000002 -0.52200001 1
1.459 0.033 -0.523 1
1.459 0.033 -0.52200001 1
1.46 0.034000002 -0.523 1
1.457 0.035 -0.52100003 1
1.473 0.035 -0.52600002 1
1.451 0.035 -0.51800001 1
1.464 0.035999998 -0.52200001 1
1.466 0.037 -0.52200001 1
1.4630001 0.037 -0.52100003 1
1.472 0.037999999 -0.52399999 1
1.476 0.039000001 -0.52499998 1
1.469 0.039000001 -0.52200001 1
1.461 0.039000001 -0.51800001 1
1.472 0.039999999 -0.52200001 1
1.475 0.041000001 -0.52200001 1
1.474 0.041000001 -0.52100003 1
1.4809999 0.041999999 -0.523 1
1.4859999 0.043000001 -0.52399999 1
1.488 0.043000001 -0.52399999 1
1.4910001 0.044 -0.52499998 1
1.488 0.044 -0.523 1
1.4910001 0.045000002 -0.523 1
1.499 0.046 -0.52499998 1
1.5039999 0.046 -0.52600002 1
1.494 0.046999998 -0.52200001 1
1.497 0.046999998 -0.52200001 1
1.505 0.048 -0.52399999 1
1.5039999 0.048 -0.523 1
1.506 0.048999999 -0.52200001 1
1.51 0.050000001 -0.523 1
1.513 0.050000001 -0.523 1
1.516 0.050999999 -0.523 1
1.523 0.050999999 -0.52499998 1
1.524 0.052000001 -0.52399999 1
1.525 0.052000001 -0.523 1
1.527 0.052999999 -0.523 1
1.533 0.054000001 -0.52399999 1
1.526 0.054000001 -0.52100003 1
1.539 0.055 -0.52399999 1
1.543 0.055 -0.52399999 1
1.538 0.056000002 -0.52100003 1
1.545 0.056000002 -0.52200001 1
1.549 0.057 -0.52200001 1
1.557 0.057999998 -0.52399999 1
1.5599999 0.057999998 -0.52399999 1
1.566 0.059 -0.52399999 1
1.571 0.059 -0.52499998 1
1.571 0.059999999 -0.52399999 1
1.579 0.061000001 -0.52499998 1
1.587 0.061000001 -0.52600002 1
1.595 0.061999999 -0.52700001 1
1.599 0.061999999 -0.52700001 1
1.597 0.063000001 -0.52499998 1
1.604 0.063000001 -0.52600002 1
1.613 0.064000003 -0.52700001 1
1.6160001 0.064999998 -0.52700001 1
1.622 0.064999998 -0.52700001 1
1.6289999 0.066 -0.528 1
1.625 0.066 -0.52499998 1
1.64 0.067000002 -0.528 1
1.646 0.068000004 -0.528 1
1.651 0.068000004 -0.528 1
1.658 0.068999998 -0.52899998 1
1.6670001 0.07 -0.52999997 1
1.671 0.07 -0.52899998 1
1.6720001 0.071000002 -0.528 1
1.679 0.071000002 -0.528 1
1.688 0.071999997 -0.52899998 1
1.696 0.072999999 -0.52999997 1
1.699 0.072999999 -0.528 1
1.721 0.074000001 -0.53399998 1
1.727 0.075000003 -0.53299999 1
1.73 0.075000003 -0.53200001 1
1.737 0.075999998 -0.53200001 1
1.742 0.075999998 -0.53200001 1
1.753 0.077 -0.53299999 1
1.761 0.078000002 -0.53299999 1
1.771 0.078000002 -0.53399998 1
1.786 0.079000004 -0.53600001 1
1.7869999 0.079999998 -0.53500003 1
1.799 0.079999998 -0.53600001 1
1.809 0.081 -0.537 1
1.818 0.082000002 -0.537 1
1.823 0.082000002 -0.53600001 1
1.836 0.082999997 -0.537 1
1.8430001 0.083999999 -0.537 1
1.853 0.083999999 -0.53799999 1
1.865 0.085000001 -0.53899997 1
1.872 0.085000001 -0.53799999 1
1.887 0.086000003 -0.54000002 1
1.89 0.086999997 -0.53799999 1
1.899 0.086999997 -0.53799999 1
1.914 0.088 -0.54000002 1
1.927 0.089000002 -0.54100001 1
1.937 0.089000002 -0.54100001 1
1.95 0.090000004 -0.54100001 1
1.9529999 0.090000004 -0.54000002 1
1.976 0.090999998 -0.54299998 1
1.98 0.092 -0.54100001 1
2.0009999 0.093000002 -0.54400003 1
2.0090001 0.093000002 -0.54299998 1
2.02 0.093999997 -0.54299998 1
2.0280001 0.093999997 -0.542 1
2.0480001 0.094999999 -0.54500002 1
2.053 0.094999999 -0.54299998 1
2.0639999 0.096000001 -0.54299998 1
2.0799999 0.097000003 -0.54400003 1
2.1029999 0.097999997 -0.546 1
2.1099999 0.097999997 -0.54500002 1
2.1289999 0.098999999 -0.546 1
2.145 0.1 -0.54699999 1
2.158 0.1 -0.54699999 1
2.171 0.101 -0.54699999 1
2.191 0.102 -0.54900002 1
2.2079999 0.102 -0.54900002 1
2.23 0.103 -0.551 1
2.2449999 0.104 -0.551 1
2.2550001 0.104 -0.55000001 1
2.277 0.105 -0.55199999 1
2.286 0.105 -0.55000001 1
2.3099999 0.106 -0.55199999 1
2.3340001 0.107 -0.55400002 1
2.355 0.108 -0.55500001 1
2.3710001 0.108 -0.55500001 1
2.3889999 0.109 -0.55500001 1
2.4130001 0.11 -0.55599999 1
2.4300001 0.11 -0.55599999 1
2.4579999 0.111 -0.55900002 2
2.4809999 0.112 -0.55900002 2
2.5020001 0.113 -0.56 2
2.52 0.113 -0.55900002 2
2.5380001 0.113 -0.55900002 1
2.5739999 0.115 -0.56300002 1
2.5940001 0.115 -0.56199998 1
2.6040001 0.115 -0.56 1
2.6329999 0.116 -0.56099999 1
2.6600001 0.117 -0.56300002 1
2.6919999 0.118 -0.56400001 2
2.7149999 0.118 -0.56400001 2
2.7420001 0.119 -0.565 2
2.777 0.12 -0.56699997 2
2.809 0.12 -0.56900001 2
2.832 0.121 -0.56900001 2
2.8640001 0.121 -0.56999999 2
2.9170001 0.123 -0.57499999 2
2.9449999 0.124 -0.57499999 2
2.98 0.124 -0.57599998 3
3.0079999 0.125 -0.57599998 2
3.039 0.125 -0.57700002 3
3.073 0.126 -0.57800001 3
3.119 0.127 -0.58099997 3
3.1429999 0.127 -0.579 2
3.181 0.12800001 -0.57999998 3
3.2290001 0.12899999 -0.583 2
3.2690001 0.12899999 -0.58399999 2
3.312 0.13 -0.58499998 2
3.3570001 0.131 -0.58700001 2
3.4070001 0.131 -0.58899999 2
3.448 0.132 -0.58999997 2
3.477 0.132 -0.58899999 2
3.6010001 0.13500001 -0.60299999 3
3.609 0.134 -0.597 3
3.7750001 0.139 -0.61699998 3
3.786 0.138 -0.61199999 3
3.7679999 0.13600001 -0.602 3
3.8559999 0.138 -0.60799998 2
3.8870001 0.138 -0.60600001 2
4.039 0.141 -0.62199998 2
4.0450001 0.14 -0.61500001 2
4.1760001 0.14300001 -0.62699997 2
4.1789999 0.141 -0.61900002 2
4.2119999 0.141 -0.616 2
4.2969999 0.142 -0.62 2
4.3920002 0.14300001 -0.625 3
4.4569998 0.14300001 -0.62599999 3
4.5489998 0.14399999 -0.63 3
4.6079998 0.14399999 -0.62900001 3
4.7080002 0.145 -0.63300002 3
4.7930002 0.145 -0.63499999 3
4.8969998 0.146 -0.639 4
4.9850001 0.146 -0.64099997 5
5.0929999 0.147 -0.64499998 3
5.21 0.147 -0.64999998 4
5.3210001 0.148 -0.653 3
5.4530001 0.149 -0.65799999 4
5.579 0.149 -0.662 4
5.7059999 0.15000001 -0.66600001 4
5.849 0.15000001 -0.671 4
6.0089998 0.15099999 -0.67799997 4
6.1680002 0.152 -0.68300003 4
6.322 0.152 -0.68800002 4
6.5040002 0.153 -0.69499999 5
6.6500001 0.152 -0.69700003 8
6.855 0.153 -0.70499998 6
7.1040001 0.155 -0.71700001 5
7.3309999 0.155 -0.72500002 5
7.5450001 0.155 -0.73100001 6
7.757 0.155 -0.736 6
8.0080004 0.155 -0.74400002 5
8.3269997 0.156 -0.75700003 5
8.6619997 0.15700001 -0.76999998 3
9.0360003 0.15800001 -0.78500003 3
9.3710003 0.15800001 -0.796 4
9.8100004 0.15800001 -0.81300002 2
10.316 0.16 -0.83499998 2
10.759 0.15899999 -0.84899998 2
11.284 0.16 -0.86799997 2
11.867 0.16 -0.889 2
