# .PCD v0.7 - Point Cloud Data file format
VERSION 0.7
FIELDS x y z intensity
SIZE 4 4 4 4
TYPE F F F F
COUNT 1 1 1 1
WIDTH 1769
HEIGHT 1
VIEWPOINT 0 0 0 1 0 0 0
POINTS 1769
DATA ascii
1.87 0.023 -0.537 1
1.876 0.023 -0.53600001 1
1.881 0.024 -0.53500003 1
1.8890001 0.024 -0.53500003 1
1.9069999 0.025 -0.537 1
1.909 0.025 -0.53500003 1
1.919 0.026000001 -0.53500003 1
1.938 0.027000001 -0.537 1
1.949 0.027000001 -0.53799999 1
1.962 0.028000001 -0.53799999 1
1.9859999 0.028000001 -0.542 1
1.99 0.028999999 -0.54000002 1
2.0020001 0.029999999 -0.54000002 1
2.0239999 0.029999999 -0.54299998 1
2.0350001 0.030999999 -0.54299998 1
2.0469999 0.030999999 -0.54299998 1
2.056 0.032000002 -0.542 1
2.072 0.032000002 -0.54299998 1
2.0810001 0.033 -0.542 1
2.096 0.034000002 -0.54299998 1
2.1070001 0.034000002 -0.54299998 1
2.119 0.035 -0.542 1
2.1429999 0.035 -0.54500002 1
2.1530001 0.035999998 -0.54400003 1
2.1670001 0.035999998 -0.54400003 1
2.1830001 0.037 -0.54500002 1
2.198 0.037 -0.54500002 1
2.207 0.037999999 -0.54299998 1
2.233 0.039000001 -0.546 1
2.2539999 0.039000001 -0.54699999 1
2.263 0.039999999 -0.546 1
2.2809999 0.039999999 -0.54699999 1
2.3050001 0.041000001 -0.54799998 1
2.316 0.041000001 -0.54699999 1
2.339 0.041999999 -0.54799998 1
2.372 0.043000001 -0.55199999 1
2.381 0.043000001 -0.55000001 1
2.398 0.044 -0.55000001 1
2.4230001 0.044 -0.551 1
2.4449999 0.045000002 -0.55199999 1
2.473 0.046 -0.55400002 1
2.494 0.046 -0.55500001 1
2.513 0.046999998 -0.55400002 1
2.5380001 0.046999998 -0.55500001 2
2.5639999 0.048 -0.55699998 1
2.5840001 0.048 -0.55599999 1
2.6140001 0.048999999 -0.55800003 1
2.6329999 0.048999999 -0.55699998 1
2.655 0.050000001 -0.55699998 1
2.6989999 0.050999999 -0.56199998 2
2.73 0.050999999 -0.56300002 2
2.7520001 0.052000001 -0.56300002 2
2.773 0.052000001 -0.56199998 2
2.802 0.052000001 -0.56300002 2
2.842 0.052999999 -0.565 2
2.8759999 0.054000001 -0.56699997 2
2.8959999 0.054000001 -0.565 2
2.927 0.055 -0.56599998 2
0 0 0 2
3.0610001 0.057 -0.57999998 2
3.1240001 0.057999998 -0.58700001 2
3.24 0.059999999 -0.602 2
3.1270001 0.057999998 -0.57499999 2
3.161 0.057999998 -0.57499999 2
3.2060001 0.057999998 -0.57800001 3
3.2579999 0.059 -0.58099997 3
3.2920001 0.059 -0.57999998 3
3.332 0.059999999 -0.58099997 3
3.381 0.059999999 -0.583 3
3.4189999 0.061000001 -0.583 3
3.461 0.061000001 -0.583 3
3.5209999 0.061999999 -0.58700001 3
3.5580001 0.061999999 -0.58600003 3
3.612 0.061999999 -0.588 3
3.7390001 0.064000003 -0.60100001 3
3.7309999 0.063000001 -0.59299999 2
3.809 0.064000003 -0.59799999 2
3.925 0.064999998 -0.60799998 3
3.9849999 0.066 -0.60900003 3
3.97 0.064999998 -0.59899998 2
4.0599999 0.064999998 -0.60500002 2
4.1500001 0.066 -0.61000001 2
4.2049999 0.066 -0.61000001 2
4.2859998 0.067000002 -0.61299998 2
4.4039998 0.067000002 -0.62099999 3
4.4380002 0.067000002 -0.61699998 2
4.5209999 0.067000002 -0.61900002 3
4.6040001 0.067000002 -0.62099999 2
4.711 0.068000004 -0.62699997 3
4.7859998 0.068000004 -0.62699997 3
4.8870001 0.068000004 -0.63 4
4.9780002 0.068000004 -0.63200003 3
5.1020002 0.068000004 -0.63700002 3
5.2010002 0.068000004 -0.639 3
5.3189998 0.068000004 -0.64300001 3
5.4510002 0.068000004 -0.648 3
5.5760002 0.068000004 -0.65100002 4
5.7179999 0.068999998 -0.65600002 4
5.8660002 0.068999998 -0.66100001 4
5.9980001 0.068000004 -0.66399997 4
6.1750002 0.068000004 -0.671 4
6.3629999 0.068000004 -0.67799997 4
6.5089998 0.068000004 -0.68099999 3
6.6960001 0.067000002 -0.68699998 3
6.914 0.067000002 -0.69499999 3
7.131 0.067000002 -0.70200002 4
7.3709998 0.066 -0.70999998 4
7.6139998 0.066 -0.71799999 5
7.868 0.064999998 -0.72600001 6
8.1370001 0.064000003 -0.73400003 7
8.4720001 0.063000001 -0.74699998 6
8.7729998 0.061999999 -0.755 6
9.1269999 0.061000001 -0.76700002 4
9.5679998 0.059999999 -0.78399998 3
10.009 0.057999998 -0.80000001 2
10.496 0.057 -0.81699997 2
11.09 0.055 -0.83999997 2
0 0 0 9
12.316 0.050000001 -0.88200003 13
12.685 0.046 -0.88200003 7
13.268 0.041999999 -0.89499998 3
0 0 0 3
14.96 0.033 -0.94700003 3
15.804 0.027000001 -0.96700001 3
16.701 0.02 -0.98799998 3
0 0 0 2
0 0 0 1
0 0 0 1
0 0 0 1
0 0 0 0
0 0 0 1
0 0 0 0
0 0 0 0
0 0 0 0
0 0 0 0
0 0 0 17
54.236 -0.28099999 -1.867 151
54.252998 -0.31299999 -1.755 163
54.275002 -0.345 -1.6440001 197
54.308998 -0.37799999 -1.533 170
54.271 -0.41100001 -1.42 150
0 0 0 47
119.299 -1.051 -2.631 52
119.415 -1.126 -2.392 35
0 0 0 0
0 0 0 28
0 0 0 0
0 0 0 0
0 0 0 0
0 0 0 0
0 0 0 39
75.316002 -1.105 -0.27700001 74
75.366997 -1.1569999 -0.124 80
75.389 -1.21 0.028000001 101
75.396004 -1.263 0.18099999 46
0 0 0 0
0 0 0 0
0 0 0 0
0 0 0 14
0 0 0 0
0 0 0 0
0 0 0 0
0 0 0 0
0 0 0 22
61.596001 -1.484 1.388 31
59.666 -1.483 1.464 19
59.321999 -1.521 1.574 28
58.826 -1.554 1.677 20
58.346001 -1.587 1.778 15
57.860001 -1.619 1.877 23
57.941002 -1.6670001 1.993 41
58.179001 -1.722 2.1170001 37
0 0 0 0
0 0 0 10
58.997002 -1.89 2.493 30
58.286999 -1.915 2.5769999 31
57.646 -1.941 2.6589999 53
57.604 -1.988 2.7690001 69
56.477001 -1.997 2.825 66
56.303001 -2.039 2.925 82
55.883999 -2.0710001 3.0109999 53
54.955002 -2.0829999 3.0650001 60
54.957001 -2.131 3.171 75
54.228001 -2.1500001 3.233 42
53.612 -2.1719999 3.299 73
53.603001 -2.2190001 3.4000001 72
52.542 -2.221 3.431 57
52.272999 -2.256 3.513 68
52.251999 -2.302 3.6099999 60
51.147999 -2.299 3.6289999 54
50.923 -2.335 3.7090001 58
49.955002 -2.336 3.7320001 10
49.369999 -2.3540001 3.78 12
49.203999 -2.391 3.859 48
49.203999 -2.437 3.95 65
49.216999 -2.483 4.0419998 64
49.216999 -2.529 4.1329999 68
49.237999 -2.575 4.224 68
49.231998 -2.622 4.3140001 64
49.244999 -2.6689999 4.4029999 67
49.251999 -2.7149999 4.4920001 34
0 0 0 12
45.393002 -2.589 4.3049998 12
45.188999 -2.6210001 4.3670001 51
45.194 -2.665 4.447 59
44.929001 -2.6930001 4.5009999 42
44.224998 -2.6930001 4.5079999 56
44.213001 -2.7360001 4.585 58
44.224998 -2.779 4.664 56
43.370998 -2.7690001 4.651 39
42.897999 -2.7809999 4.6750002 52
42.891998 -2.823 4.7490001 52
42.880001 -2.8640001 4.8210001 51
41.952 -2.8440001 4.789 30
41.511002 -2.855 4.8099999 49
41.526001 -2.898 4.8829999 49
41.528 -2.9400001 4.954 49
40.694 -2.924 4.9250002 35
40.192001 -2.927 4.9320002 54
40.192001 -2.9679999 4.9990001 55
40.188 -3.0090001 5.066 54
39.748001 -3.017 5.0770001 33
38.847 -2.9879999 5.027 44
38.841999 -3.0280001 5.0910001 50
38.834999 -3.0669999 5.1529999 50
38.625 -3.0899999 5.1880002 25
37.5 -3.04 5.0999999 9
37.154999 -3.05 5.1129999 13
37.030998 -3.0780001 5.1560001 49
37.028 -3.1159999 5.2150002 56
37.029999 -3.155 5.2740002 56
37.026001 -3.194 5.3330002 57
37.035 -3.234 5.3930001 59
37.049999 -3.2739999 5.4530001 63
37.049 -3.313 5.5110002 59
37.050999 -3.352 5.5689998 63
37.053001 -3.391 5.6279998 62
37.060001 -3.431 5.6859999 54
37.075001 -3.4719999 5.7449999 57
37.068001 -3.5109999 5.8010001 57
37.078999 -3.5510001 5.8569999 59
37.082001 -3.5910001 5.914 57
37.088001 -3.631 5.9699998 58
37.09 -3.671 6.027 58
37.070999 -3.7079999 6.0780001 57
37.09 -3.7509999 6.1370001 56
37.091 -3.789 6.191 52
37.101002 -3.8299999 6.2459998 55
37.095001 -3.869 6.2989998 55
37.098999 -3.9089999 6.3509998 51
37.033001 -3.941 6.3920002 44
36.897999 -3.9649999 6.421 29
36.667 -3.98 6.4320002 29
36.425999 -3.993 6.441 28
36.185001 -4.0050001 6.448 28
35.956001 -4.0180001 6.4569998 28
35.741001 -4.033 6.467 22
35.505001 -4.0440001 6.473 27
35.266998 -4.0539999 6.4770002 27
35.046001 -4.066 6.4829998 26
34.838001 -4.079 6.4910002 26
34.615002 -4.0890002 6.494 26
34.417 -4.1030002 6.5029998 25
34.209999 -4.1149998 6.5079999 25
34.011002 -4.1279998 6.5139999 24
33.824001 -4.1409998 6.5229998 25
33.646999 -4.1550002 6.5300002 24
33.459 -4.1680002 6.5370002 24
33.280998 -4.1799998 6.5430002 24
33.103001 -4.1929998 6.5500002 24
32.919998 -4.2049999 6.5539999 23
32.751999 -4.2189999 6.5609999 23
32.570999 -4.2290001 6.5630002 23
32.363998 -4.2360001 6.5609999 21
32.216999 -4.2509999 6.5689998 23
32.036999 -4.2620001 6.5689998 24
31.879 -4.2740002 6.5739999 21
0 0 0 15
29.459999 -4.0120001 6.1430001 16
29.374001 -4.0300002 6.1589999 23
29.336 -4.0560002 6.184 28
29.304001 -4.0809999 6.21 31
29.273001 -4.1079998 6.2350001 35
29.249001 -4.1350002 6.2620001 37
29.222 -4.1609998 6.289 40
29.195999 -4.1869998 6.3140001 43
29.181999 -4.2150002 6.342 44
29.177999 -4.2449999 6.3720002 46
29.152 -4.27 6.3969998 46
29.141001 -4.2979999 6.4239998 48
29.128 -4.3260002 6.4510002 51
29.129 -4.3559999 6.48 56
29.112 -4.3829999 6.5050001 54
29.122 -4.4130001 6.5359998 44
29.118999 -4.4419999 6.5640001 52
29.108999 -4.4699998 6.5900002 50
29.104 -4.4980001 6.6170001 42
29.07 -4.5219998 6.6370001 41
29.017 -4.5419998 6.651 37
28.961 -4.5619998 6.664 33
28.862 -4.5739999 6.6680002 27
28.768 -4.5879998 6.6719999 30
28.665001 -4.5999999 6.6739998 29
28.551001 -4.6090002 6.6719999 27
28.454 -4.6199999 6.6739998 28
28.367001 -4.6339998 6.678 24
28.285999 -4.6479998 6.6830001 25
28.202 -4.6609998 6.6859999 29
28.117001 -4.6739998 6.6890001 28
28.030001 -4.6859999 6.691 24
27.931 -4.6960001 6.6900001 23
27.843 -4.7080002 6.6890001 27
27.761 -4.7199998 6.691 27
27.684999 -4.7329998 6.6950002 28
27.604 -4.7449999 6.6950002 28
27.546 -4.7600002 6.7010002 28
27.481001 -4.7729998 6.7059999 24
27.395 -4.7839999 6.7049999 30
27.311001 -4.7940001 6.7030001 29
27.24 -4.8049998 6.704 25
27.176001 -4.8179998 6.7069998 26
27.104 -4.8299999 6.7069998 29
27.042 -4.842 6.7090001 25
26.993 -4.8569999 6.7150002 26
26.931999 -4.869 6.7160001 30
26.870001 -4.881 6.7179999 25
26.820999 -4.8959999 6.7220001 26
26.778 -4.9109998 6.7270002 26
26.708 -4.9200001 6.7249999 30
26.639 -4.9310002 6.723 28
26.6 -4.9450002 6.7280002 25
26.552999 -4.9590001 6.7309999 25
26.49 -4.9689999 6.7290001 26
26.437 -4.9809999 6.73 30
26.389 -4.994 6.7309999 25
26.34 -5.006 6.7319999 30
26.288 -5.0180001 6.7309999 29
26.238001 -5.0289998 6.7309999 26
26.202999 -5.0430002 6.7340002 26
26.156 -5.0539999 6.7340002 26
26.087 -5.0609999 6.7280002 29
26.068001 -5.0770001 6.7350001 25
26.021999 -5.0890002 6.7329998 30
25.971001 -5.098 6.7309999 29
25.937 -5.1110001 6.7319999 29
25.917999 -5.1259999 6.737 26
25.877001 -5.1370001 6.7360001 31
25.836 -5.1479998 6.7350001 31
25.804001 -5.1599998 6.7350001 27
25.757999 -5.1690001 6.7319999 30
25.736 -5.1830001 6.7340002 31
25.725 -5.1989999 6.7389998 31
25.707001 -5.2140002 6.7420001 28
25.671 -5.2249999 6.7399998 26
0 0 0 4
21.445999 -4.3940001 5.6430001 16
21.409 -4.401 5.638 20
21.355 -4.4039998 5.6290002 18
21.332001 -4.4130001 5.6279998 21
21.305 -4.4200001 5.625 22
21.278999 -4.4289999 5.6220002 24
21.271 -4.4400001 5.625 25
21.247 -4.4489999 5.6220002 27
21.225 -4.4569998 5.6199999 27
21.215 -4.4679999 5.6199999 24
21.188999 -4.4749999 5.6160002 30
21.181 -4.4860001 5.6170001 31
21.18 -4.4980001 5.619 32
21.163 -4.506 5.6170001 33
21.141001 -4.5139999 5.6129999 34
21.139 -4.5250001 5.6139998 35
21.121 -4.533 5.6110001 35
21.101 -4.54 5.6069999 38
21.096001 -4.5500002 5.6069999 38
21.089001 -4.559 5.6059999 38
21.077999 -4.5679998 5.6030002 40
21.065001 -4.5760002 5.5999999 38
21.066999 -4.5869999 5.5999999 43
21.046 -4.5929999 5.5939999 42
21.037001 -4.6020002 5.5910001 40
21.028999 -4.6100001 5.5890002 42
21.040001 -4.6220002 5.5900002 43
21.039 -4.631 5.5890002 44
21.033001 -4.6399999 5.585 44
21.037001 -4.6500001 5.5840001 34
21.023001 -4.6560001 5.579 45
21.014999 -4.6620002 5.5749998 45
20.997 -4.6669998 5.5669999 45
21.002001 -4.677 5.566 45
21.004 -4.6859999 5.5630002 46
21.017 -4.6960001 5.5640001 36
21.004 -4.7020001 5.5560002 48
20.997 -4.7080002 5.5500002 49
20.995001 -4.7160001 5.546 47
21.01 -4.7259998 5.546 36
21.000999 -4.7309999 5.539 48
20.995001 -4.737 5.533 53
20.993 -4.743 5.527 37
20.971001 -4.7449999 5.5159998 49
20.985001 -4.7550001 5.5139999 50
20.986 -4.7610002 5.5089998 51
20.979 -4.7659998 5.5009999 53
20.982 -4.7719998 5.4959998 54
20.973 -4.7750001 5.487 51
20.973 -4.7810001 5.4809999 51
20.966 -4.7849998 5.4720001 56
20.962999 -4.789 5.4640002 49
20.962999 -4.7940001 5.4569998 48
20.973 -4.8010001 5.4520001 53
20.973 -4.8060002 5.4439998 51
20.973 -4.8099999 5.4359999 51
20.969999 -4.8140001 5.427 53
20.968 -4.816 5.4180002 53
20.973 -4.8210001 5.4099998 48
20.962999 -4.823 5.3979998 52
20.981001 -4.8309999 5.3940001 37
20.966999 -4.8309999 5.381 51
20.969 -4.8340001 5.3709998 51
20.979 -4.8390002 5.3639998 38
20.962999 -4.8379998 5.3499999 53
20.969999 -4.842 5.3410001 54
20.976 -4.8449998 5.3319998 54
20.964001 -4.8439999 5.3179998 47
20.962 -4.8460002 5.3070002 53
20.969 -4.849 5.2969999 47
20.959 -4.848 5.283 48
20.959 -4.849 5.2709999 47
20.959999 -4.8499999 5.2600002 46
20.961 -4.8509998 5.2480001 47
20.945999 -4.848 5.2319999 45
20.950001 -4.849 5.2199998 45
20.952 -4.8499999 5.2069998 44
20.959999 -4.8509998 5.197 46
20.962 -4.8520002 5.184 46
20.955999 -4.8499999 5.1690001 43
20.959999 -4.8499999 5.1570001 47
20.945999 -4.8460002 5.1389999 44
20.952999 -4.8460002 5.1269999 43
20.959999 -4.8460002 5.1139998 44
20.951 -4.8429999 5.098 46
20.955999 -4.842 5.0840001 49
20.945999 -4.8379998 5.0669999 46
20.962 -4.8390002 5.0560002 48
20.945999 -4.8330002 5.0359998 46
20.955999 -4.8330002 5.0229998 48
20.962999 -4.8319998 5.0089998 39
20.948999 -4.8249998 4.9899998 49
20.962 -4.8249998 4.9759998 39
20.952999 -4.8200002 4.9580002 49
20.955 -4.8169999 4.9419999 37
20.948999 -4.8109999 4.9239998 51
20.952 -4.8080001 4.9070001 50
20.938 -4.8000002 4.8870001 48
20.952 -4.7989998 4.8730001 52
20.945 -4.7930002 4.8530002 50
20.945 -4.789 4.835 51
20.951 -4.7849998 4.8189998 50
20.952999 -4.7800002 4.8010001 53
20.951 -4.7740002 4.7820001 51
20.943001 -4.7659998 4.7620001 54
20.955 -4.763 4.7459998 52
20.955 -4.757 4.7270002 53
20.952 -4.75 4.7080002 54
20.952 -4.744 4.6880002 40
20.941999 -4.7340002 4.6669998 52
20.954 -4.73 4.6500001 57
20.958 -4.724 4.631 53
20.952 -4.7150002 4.6100001 52
20.965 -4.71 4.592 55
20.966 -4.7030001 4.572 38
20.962 -4.6939998 4.5510001 53
20.969 -4.6869998 4.5320001 52
20.961 -4.677 4.5089998 46
20.966999 -4.6700001 4.4899998 48
20.973 -4.6620002 4.4699998 47
20.968 -4.652 4.448 47
20.962999 -4.6409998 4.4250002 48
20.976 -4.6350002 4.4060001 46
20.973 -4.6240001 4.3829999 46
20.979 -4.6160002 4.3629999 34
21.004 -4.6100001 4.3460002 34
20.999001 -4.5999999 4.322 48
20.999001 -4.5890002 4.3000002 45
21.007 -4.5799999 4.2789998 49
21.004 -4.5679998 4.256 46
21.003 -4.5570002 4.2319999 46
21.009001 -4.5469999 4.21 44
21.030001 -4.54 4.191 43
21.028 -4.527 4.1669998 44
21.025999 -4.5139999 4.1430001 42
21.037001 -4.5050001 4.1220002 41
21.059999 -4.4970002 4.1020002 31
21.09 -4.4910002 4.0840001 40
21.086 -4.4770002 4.0580001 39
21.091 -4.4650002 4.0349998 39
21.105 -4.4549999 4.013 38
21.131001 -4.447 3.994 37
21.134001 -4.4330001 3.9690001 33
21.165001 -4.4260001 3.95 33
21.174999 -4.414 3.927 30
21.195 -4.4039998 3.9059999 30
21.202 -4.3899999 3.882 27
21.242001 -4.3839998 3.8640001 26
21.261 -4.3730001 3.8410001 22
21.292 -4.3639998 3.822 20
21.323 -4.3540001 3.8010001 19
21.356001 -4.3449998 3.7809999 17
21.389 -4.336 3.76 7
0 0 0 28
36.567001 -7.3569999 6.3390002 29
36.766998 -7.369 6.3280001 30
36.941002 -7.375 6.3099999 24
37.098 -7.3769999 6.29 21
37.243999 -7.375 6.2680001 13
37.41 -7.3769999 6.2480001 8
37.581001 -7.3800001 6.2290001 4
37.723999 -7.3759999 6.204 4
37.604 -7.3210001 6.1360002 2
37.492001 -7.2670002 6.0710001 2
37.507 -7.237 6.0250001 2
37.370998 -7.178 5.9549999 2
0 0 0 0
0 0 0 2
37.373001 -7.079 5.8099999 2
37.478001 -7.0650001 5.777 2
0 0 0 0
0 0 0 2
0 0 0 0
0 0 0 0
0 0 0 3
37.285 -6.8169999 5.4520001 12
37.27 -6.7779999 5.4000001 22
37.292 -6.7449999 5.3530002 20
37.300999 -6.711 5.3060002 7
37.292 -6.6719999 5.2540002 5
37.259998 -6.6279998 5.1989999 4
0 0 0 0
0 0 0 0
0 0 0 0
0 0 0 0
0 0 0 0
0 0 0 0
0 0 0 0
0 0 0 0
0 0 0 0
0 0 0 0
0 0 0 0
0 0 0 7
29.263 -4.796 3.5650001 15
29.18 -4.7490001 3.516 24
29.141001 -4.71 3.471 28
29.117001 -4.6719999 3.427 32
29.086 -4.632 3.3829999 32
29.066999 -4.5949998 3.3410001 31
29.048 -4.5580001 3.2980001 39
29.023001 -4.5190001 3.2550001 43
29.023001 -4.4850001 3.2160001 47
29.011 -4.448 3.174 48
29.007 -4.4120002 3.1329999 45
28.997 -4.375 3.092 51
28.999001 -4.3390002 3.0510001 57
29.009001 -4.3060002 3.0120001 59
29.01 -4.27 2.973 50
29.021 -4.2350001 2.9330001 45
29.041 -4.2010002 2.895 54
29.042 -4.164 2.8540001 48
29.059999 -4.1290002 2.816 48
29.087 -4.0949998 2.777 44
29.1 -4.059 2.7379999 40
29.143999 -4.027 2.701 37
29.174 -3.993 2.664 34
29.229 -3.961 2.628 29
29.287001 -3.931 2.5929999 23
29.371 -3.902 2.559 12
0 0 0 3
37.106998 -4.8319998 3.131 12
37.098999 -4.7789998 3.079 22
37.076 -4.7259998 3.026 48
37.049999 -4.6719999 2.973 61
37.028999 -4.618 2.9200001 74
37.014999 -4.5650001 2.8670001 75
37.008999 -4.5110002 2.8150001 80
36.997002 -4.4590001 2.763 76
36.994999 -4.4060001 2.7130001 88
36.993 -4.3530002 2.661 86
36.987999 -4.3000002 2.6099999 96
36.977001 -4.2459998 2.559 93
36.987999 -4.1929998 2.5079999 96
36.98 -4.1389999 2.457 74
36.965 -4.0830002 2.405 88
36.957001 -4.0279999 2.3540001 96
36.957001 -3.973 2.303 89
36.872002 -3.9089999 2.247 77
36.853001 -3.8529999 2.197 73
36.935001 -3.806 2.151 56
36.933998 -3.7509999 2.1010001 62
36.257999 -3.6270001 2.013 59
36.168999 -3.563 1.959 93
36.209 -3.5120001 1.9119999 32
36.883999 -3.5209999 1.897 21
36.935001 -3.4690001 1.85 72
36.923 -3.4100001 1.799 75
37.091 -3.368 1.758 11
37.09 -3.3099999 1.7079999 12
37.116001 -3.2539999 1.659 13
37.081001 -3.1930001 1.608 13
37.102001 -3.1359999 1.559 9
37.089001 -3.076 1.51 6
37.174999 -3.023 1.4630001 2
0 0 0 20
40.734001 -3.184 1.497 41
40.987 -3.1389999 1.4529999 7
41.511002 -3.1110001 1.416 7
42.101002 -3.0880001 1.382 5
42.556 -3.052 1.342 14
44.741001 -3.1370001 1.353 84
44.777 -3.066 1.296 111
44.821999 -2.9949999 1.239 96
44.848 -2.925 1.183 57
45.400002 -2.8840001 1.1390001 5
47.194 -2.9200001 1.124 8
47.455002 -2.858 1.0700001 19
45.707001 -2.675 0.97100002 46
45.730999 -2.602 0.91500002 46
45.719002 -2.523 0.85600001 27
45.755001 -2.448 0.79900002 15
45.751999 -2.3699999 0.74199998 5
0 0 0 57
49.708 -2.4059999 0.68199998 18
0 0 0 50
53.584 -2.4130001 0.60299999 18
53.597 -2.3210001 0.537 24
53.557999 -2.2290001 0.472 28
0 0 0 81
60.979 -2.3280001 0.38999999 138
60.987999 -2.224 0.31600001 139
60.987 -2.1159999 0.242 109
61 -2.013 0.17 50
61.27 -1.914 0.097999997 22
0 0 0 108
69.003998 -1.9119999 -0.055 101
69.058998 -1.791 -0.13600001 81
69.038002 -1.67 -0.21699999 74
69.169998 -1.553 -0.29699999 79
69.372002 -1.434 -0.37900001 24
0 0 0 37
75.046997 -1.284 -0.58399999 34
77.711998 -1.189 -0.69599998 13
0 0 0 0
0 0 0 0
0 0 0 0
0 0 0 131
136.045 -0.86400002 -1.985 101
0 0 0 0
0 0 0 0
0 0 0 0
0 0 0 0
0 0 0 0
0 0 0 0
0 0 0 0
0 0 0 25
0 0 0 25
0 0 0 0
0 0 0 0
0 0 0 0
0 0 0 0
0 0 0 0
0 0 0 0
0 0 0 28
111.257 2.7449999 -3.6359999 32
0 0 0 28
88.299004 2.506 -3.063 19
0 0 0 0
0 0 0 17
91.441002 3.1070001 -3.4449999 27
0 0 0 0
0 0 0 0
0 0 0 0
0 0 0 0
0 0 0 0
0 0 0 0
0 0 0 0
0 0 0 0
0 0 0 0
0 0 0 1
0 0 0 0
0 0 0 1
21.629 1.258 -1.076 2
0 0 0 0
0 0 0 1
19.677 1.255 -1.0319999 1
19.160999 1.258 -1.021 1
18.547001 1.253 -1.0039999 2
18.076 1.2539999 -0.99400002 2
17.76 1.266 -0.99199998 2
17.235001 1.26 -0.977 2
16.809999 1.261 -0.96600002 2
16.363001 1.258 -0.954 2
15.965 1.257 -0.94400001 2
15.665 1.263 -0.93900001 3
15.274 1.26 -0.92799997 2
14.957 1.262 -0.92000002 2
14.646 1.263 -0.91299999 2
14.355 1.2640001 -0.90600002 2
13.957 1.255 -0.89099997 3
13.538 1.243 -0.875 3
13.269 1.243 -0.86699998 4
13.036 1.2460001 -0.86199999 7
12.878 1.2539999 -0.861 9
12.729 1.263 -0.86000001 11
12.558 1.27 -0.85799998 12
12.375 1.275 -0.85500002 15
12.143 1.273 -0.847 10
11.854 1.265 -0.83499998 4
11.697 1.27 -0.83200002 3
11.543 1.274 -0.829 6
11.407 1.28 -0.82700002 5
11.309 1.29 -0.82800001 5
11.166 1.295 -0.82499999 5
10.987 1.294 -0.81900001 2
10.668 1.276 -0.80199999 2
10.458 1.27 -0.79299998 3
10.296 1.2690001 -0.787 2
10.139 1.268 -0.78200001 3
9.9759998 1.266 -0.77499998 3
9.8360004 1.266 -0.76999998 3
9.6630001 1.261 -0.76200002 4
9.5360003 1.262 -0.75800002 6
9.4460001 1.267 -0.75700003 9
9.2959995 1.2640001 -0.75 9
9.2690001 1.277 -0.75300002 6
9.1549997 1.278 -0.74900001 7
9.0769997 1.283 -0.74800003 7
8.915 1.276 -0.74000001 4
8.8059998 1.276 -0.736 4
8.6709995 1.272 -0.72899997 4
8.5979996 1.277 -0.727 3
8.5050001 1.278 -0.72399998 4
8.4200001 1.28 -0.72100002 4
8.4099998 1.293 -0.72399998 5
8.3929996 1.306 -0.727 6
8.1739998 1.286 -0.71200001 3
8.1079998 1.289 -0.70999998 3
8.0459995 1.293 -0.70899999 3
7.9699998 1.295 -0.70599997 3
7.9260001 1.302 -0.70599997 3
7.8649998 1.306 -0.704 3
7.8010001 1.309 -0.70200002 3
7.7529998 1.314 -0.70099998 3
7.6869998 1.316 -0.69800001 3
7.6170001 1.317 -0.69499999 3
7.5760002 1.323 -0.69499999 3
7.5300002 1.327 -0.69400001 3
7.4809999 1.332 -0.69199997 3
7.4099998 1.332 -0.68900001 3
7.362 1.335 -0.68699998 3
7.3140001 1.339 -0.685 3
7.2880001 1.347 -0.68599999 4
7.2290001 1.348 -0.68300003 3
7.1810002 1.35 -0.68099999 3
7.1609998 1.358 -0.68199998 4
7.1129999 1.3609999 -0.68000001 3
7.0539999 1.362 -0.676 3
7.0430002 1.3710001 -0.67799997 4
6.993 1.373 -0.67500001 4
6.9640002 1.378 -0.67500001 3
6.934 1.383 -0.67400002 3
6.9109998 1.39 -0.67400002 4
6.8429999 1.387 -0.66900003 4
6.8070002 1.391 -0.66799998 3
6.7979999 1.4 -0.66900003 3
6.7659998 1.404 -0.66799998 3
6.7420001 1.41 -0.667 3
6.7080002 1.413 -0.66600001 3
6.671 1.416 -0.66399997 3
6.6570001 1.423 -0.66399997 4
6.631 1.428 -0.66299999 3
6.598 1.431 -0.66100001 3
6.5809999 1.437 -0.66100001 3
6.5500002 1.441 -0.66000003 3
6.5430002 1.449 -0.66000003 3
6.5209999 1.454 -0.65899998 3
6.4970002 1.4579999 -0.65799999 4
6.493 1.467 -0.65899998 4
6.454 1.4680001 -0.65700001 3
6.4520001 1.477 -0.65799999 4
6.4310002 1.482 -0.65700001 3
6.4099998 1.4859999 -0.65600002 3
6.408 1.495 -0.65700001 3
6.3909998 1.5 -0.65600002 4
6.3720002 1.505 -0.65499997 3
6.362 1.512 -0.65499997 3
6.3410001 1.516 -0.65399998 3
6.3249998 1.521 -0.653 3
6.3239999 1.53 -0.653 4
6.316 1.536 -0.65399998 3
6.303 1.5420001 -0.653 4
6.2919998 1.548 -0.65200001 3
6.2800002 1.553 -0.65200001 4
6.2810001 1.562 -0.653 4
6.256 1.564 -0.64999998 4
6.2600002 1.574 -0.65100002 4
6.244 1.5779999 -0.64999998 4
6.2329998 1.5829999 -0.64999998 4
6.2340002 1.591 -0.64999998 4
6.2379999 1.601 -0.65100002 4
6.223 1.605 -0.64999998 4
6.2220001 1.612 -0.64999998 4
6.217 1.619 -0.64999998 4
6.211 1.625 -0.64899999 3
6.2090001 1.632 -0.64899999 4
6.1900001 1.635 -0.64700001 3
6.197 1.6440001 -0.648 3
6.191 1.65 -0.648 3
6.2119999 1.663 -0.64999998 4
6.1890001 1.665 -0.64700001 3
6.1939998 1.673 -0.648 4
6.204 1.683 -0.64899999 4
6.2059999 1.691 -0.64899999 3
6.191 1.694 -0.64700001 3
6.2010002 1.7029999 -0.648 4
6.2010002 1.711 -0.648 4
6.1900001 1.714 -0.64700001 3
6.1939998 1.722 -0.64700001 4
6.2049999 1.732 -0.64700001 4
6.2150002 1.742 -0.648 3
6.2259998 1.751 -0.64899999 3
6.2210002 1.756 -0.648 3
6.2129998 1.761 -0.64700001 3
6.2290001 1.772 -0.648 3
6.2319999 1.779 -0.648 3
6.2410002 1.788 -0.648 4
6.256 1.798 -0.64899999 4
6.2719998 1.809 -0.64999998 4
6.2550001 1.8099999 -0.648 3
6.2649999 1.819 -0.648 3
6.2670002 1.826 -0.64700001 3
6.2969999 1.84 -0.64999998 3
6.2779999 1.841 -0.64700001 3
6.3039999 1.854 -0.64899999 3
6.3119998 1.862 -0.64899999 4
6.3270001 1.872 -0.64899999 3
6.3249998 1.877 -0.648 4
6.355 1.891 -0.64999998 3
6.3639998 1.899 -0.64999998 4
6.3639998 1.905 -0.64899999 3
6.388 1.9170001 -0.64999998 4
6.3930001 1.924 -0.64999998 4
6.4169998 1.936 -0.65100002 4
6.4289999 1.9450001 -0.65100002 4
6.4429998 1.954 -0.65100002 4
6.4559999 1.9630001 -0.65100002 4
6.4840002 1.977 -0.653 4
6.5019999 1.987 -0.653 4
6.5209999 1.997 -0.65399998 4
6.5310001 2.0050001 -0.65399998 4
6.5580001 2.0179999 -0.65499997 4
6.573 2.027 -0.65499997 5
6.6110001 2.043 -0.65700001 5
6.6279998 2.053 -0.65700001 5
6.6409998 2.0610001 -0.65700001 6
6.6459999 2.0669999 -0.65600002 5
6.6630001 2.076 -0.65600002 5
6.6880002 2.0880001 -0.65700001 5
6.7119999 2.099 -0.65799999 5
6.7220001 2.1070001 -0.65700001 6
6.7470002 2.118 -0.65700001 6
6.7659998 2.128 -0.65700001 5
6.777 2.135 -0.65700001 5
6.8280001 2.155 -0.66000003 5
6.855 2.1670001 -0.66000003 5
6.8730001 2.1760001 -0.66000003 5
6.902 2.188 -0.66100001 5
6.948 2.2060001 -0.66299999 5
6.9660001 2.2149999 -0.66299999 5
7.0029998 2.23 -0.66399997 5
7.0180001 2.2379999 -0.66399997 5
7.053 2.2520001 -0.66500002 5
7.0900002 2.266 -0.66600001 5
7.119 2.2780001 -0.667 5
7.1599998 2.2939999 -0.66799998 5
7.1900001 2.306 -0.66900003 5
7.2249999 2.3199999 -0.66900003 5
7.2410002 2.3280001 -0.66799998 5
7.303 2.3499999 -0.67199999 5
7.3309999 2.3610001 -0.67199999 5
7.368 2.375 -0.67299998 5
7.4029999 2.3889999 -0.67299998 5
7.4349999 2.401 -0.67400002 5
7.4720001 2.415 -0.67400002 5
7.5050001 2.427 -0.67400002 5
7.5619998 2.447 -0.67699999 5
7.6170001 2.4660001 -0.67900002 5
7.6389999 2.4749999 -0.67799997 5
7.7360001 2.5079999 -0.68400002 6
7.79 2.527 -0.68599999 6
7.8410001 2.5439999 -0.68699998 7
7.895 2.563 -0.68900001 8
7.9439998 2.5799999 -0.69 9
7.993 2.596 -0.69099998 11
8.0480003 2.615 -0.69300002 10
8.0900002 2.6289999 -0.69300002 13
8.1339998 2.6440001 -0.69400001 12
8.1549997 2.651 -0.69199997 12
8.2159996 2.671 -0.69400001 10
8.2530003 2.684 -0.69400001 12
8.276 2.691 -0.69199997 12
8.3400002 2.7119999 -0.69400001 11
8.4160004 2.737 -0.69700003 8
8.4860001 2.7590001 -0.699 7
8.566 2.7839999 -0.70200002 6
8.6210003 2.802 -0.70300001 8
8.6940002 2.825 -0.70499998 5
8.7849998 2.8540001 -0.70899999 6
8.8780003 2.8829999 -0.71200001 6
8.9490004 2.905 -0.71399999 5
9.0349998 2.931 -0.71700001 6
9.1070004 2.954 -0.71899998 5
9.177 2.9749999 -0.72000003 6
9.2609997 3 -0.72299999 5
9.3509998 3.0280001 -0.72500002 5
9.4169998 3.0469999 -0.72600001 5
9.5369997 3.0840001 -0.73100001 4
9.6560001 3.1199999 -0.736 4
9.8280001 3.1730001 -0.745 5
9.9230003 3.201 -0.74699998 6
9.9980001 3.223 -0.74800003 9
10.091 3.2490001 -0.75099999 7
10.175 3.2739999 -0.75199997 6
10.252 3.2950001 -0.75300002 6
10.323 3.3139999 -0.75300002 6
10.372 3.3269999 -0.75199997 9
10.42 3.3380001 -0.75 7
10.464 3.348 -0.74900001 8
10.514 3.3599999 -0.74699998 8
10.568 3.3729999 -0.74599999 6
10.657 3.3970001 -0.74699998 5
10.733 3.4159999 -0.74699998 4
10.801 3.4330001 -0.74599999 3
10.848 3.4430001 -0.74400002 3
10.855 3.4400001 -0.73900002 3
10.878 3.4419999 -0.736 3
10.866 3.4330001 -0.72899997 3
10.868 3.428 -0.72399998 3
10.868 3.4219999 -0.71899998 3
10.872 3.418 -0.71399999 3
10.857 3.4070001 -0.70700002 3
10.878 3.4070001 -0.70300001 3
10.86 3.395 -0.69700003 3
10.869 3.391 -0.69199997 3
10.875 3.3870001 -0.68699998 3
10.874 3.3800001 -0.68099999 3
10.862 3.369 -0.67500001 3
10.876 3.3659999 -0.67000002 3
10.884 3.3610001 -0.66500002 3
10.868 3.349 -0.65899998 3
10.879 3.345 -0.65399998 3
10.875 3.336 -0.648 4
10.88 3.3299999 -0.64200002 3
10.883 3.322 -0.63700002 3
10.888 3.316 -0.63200003 3
10.879 3.3050001 -0.62599999 3
10.899 3.302 -0.62099999 3
10.901 3.2939999 -0.616 3
10.905 3.2869999 -0.611 3
10.883 3.2709999 -0.60399997 3
10.911 3.27 -0.59899998 3
10.917 3.263 -0.59399998 3
10.924 3.256 -0.58899999 3
10.952 3.2550001 -0.58499998 3
11.118 3.2939999 -0.588 2
11.319 3.3440001 -0.59299999 2
11.452 3.3729999 -0.59399998 2
11.487 3.3729999 -0.58999997 2
11.428 3.345 -0.58099997 4
11.396 3.3239999 -0.57300001 8
11.342 3.2980001 -0.565 11
11.175 3.2379999 -0.551 12
10.972 3.1689999 -0.53500003 16
10.909 3.1400001 -0.52600002 26
10.909 3.1289999 -0.52100003 29
10.906 3.1170001 -0.51499999 22
10.91 3.1070001 -0.509 36
10.913 3.096 -0.50400001 45
10.902 3.0810001 -0.498 57
10.912 3.072 -0.493 69
10.915 3.0610001 -0.48699999 73
10.914 3.049 -0.48199999 72
10.923 3.039 -0.477 72
10.932 3.029 -0.472 72
10.922 3.0150001 -0.46599999 71
10.936 3.006 -0.461 72
10.933 2.993 -0.45500001 57
10.933 2.98 -0.44999999 32
10.948 2.971 -0.44499999 41
10.955 2.96 -0.44 56
10.95 2.9449999 -0.43399999 40
10.955 2.934 -0.42899999 27
10.966 2.9230001 -0.42399999 12
11.01 2.921 -0.41999999 6
11.029 2.9119999 -0.41499999 4
11.042 2.902 -0.41 3
11.068 2.895 -0.40599999 3
11.092 2.8870001 -0.40099999 3
11.086 2.8710001 -0.39500001 3
11.093 2.858 -0.391 3
11.097 2.8440001 -0.38499999 2
11.127 2.8369999 -0.38100001 3
11.115 2.819 -0.375 3
11.119 2.8050001 -0.37 3
11.136 2.7939999 -0.36500001 3
11.153 2.783 -0.361 2
11.153 2.7679999 -0.35499999 2
11.175 2.7579999 -0.35100001 2
11.178 2.743 -0.345 2
11.236 2.7409999 -0.34200001 2
11.211 2.7190001 -0.336 2
11.25 2.7119999 -0.33199999 2
11.275 2.7019999 -0.32800001 2
11.293 2.6900001 -0.32300001 2
11.308 2.677 -0.31799999 2
11.328 2.665 -0.31400001 2
11.366 2.6559999 -0.31 1
11.365 2.6389999 -0.30500001 1
11.407 2.632 -0.301 1
11.427 2.619 -0.296 1
11.482 2.6140001 -0.29300001 1
11.535 2.608 -0.289 1
11.622 2.6099999 -0.287 1
11.621 2.592 -0.28200001 150
11.686 2.5880001 -0.278 152
11.794 2.5929999 -0.27599999 150
11.97 2.6129999 -0.27500001 150
11.992 2.598 -0.27000001 10
0 0 0 5
13.674 2.918 -0.29800001 4
13.695 2.901 -0.292 4
13.781 2.8959999 -0.289 1
13.813 2.8800001 -0.28400001 1
13.872 2.8699999 -0.28 1
14.062 2.885 -0.278 1
14.037 2.8570001 -0.27200001 1
14.09 2.8440001 -0.26800001 18
14.162 2.835 -0.264 14
0 0 0 2
33.537998 6.5999999 -0.60100001 2
33.488998 6.5339999 -0.58899999 3
33.561001 6.4899998 -0.57800001 2
33.509998 6.4219999 -0.565 2
33.521999 6.3660002 -0.55400002 2
33.534 6.309 -0.542 2
33.558998 6.2550001 -0.53100002 2
33.745998 6.2309999 -0.523 2
33.648998 6.152 -0.50999999 1
0 0 0 0
0 0 0 0
0 0 0 1
33.598999 5.9050002 -0.46700001 5
33.535999 5.8330002 -0.456 7
33.592999 5.7820001 -0.44600001 5
33.57 5.717 -0.43599999 2
33.629002 5.6659999 -0.42699999 2
33.666 5.6100001 -0.41800001 1
0 0 0 0
0 0 0 0
0 0 0 3
0 0 0 0
0 0 0 5
0 0 0 0
0 0 0 0
0 0 0 0
0 0 0 0
0 0 0 150
45.105 6.5869999 -0.433 152
45.119999 6.5029998 -0.42300001 151
45.360001 6.4520001 -0.41600001 151
0 0 0 0
0 0 0 0
0 0 0 17
0 0 0 0
0 0 0 0
0 0 0 4
41.953999 5.3959999 -0.32699999 7
41.974998 5.3179998 -0.31999999 12
42.011002 5.2399998 -0.31299999 9
42.021 5.1570001 -0.30700001 7
41.936001 5.0630002 -0.29899999 5
42.033001 4.9910002 -0.294 5
41.973999 4.901 -0.287 5
42.006001 4.8200002 -0.28099999 5
41.945 4.7290001 -0.27599999 6
41.98 4.6500001 -0.271 5
41.921001 4.559 -0.26499999 7
41.992001 4.4819999 -0.26100001 5
41.950001 4.395 -0.25600001 6
41.924999 4.3070002 -0.252 6
41.969002 4.2270002 -0.248 6
41.941002 4.138 -0.245 6
41.922001 4.0510001 -0.242 5
42.345001 4.0050001 -0.241 10
42.466 3.9319999 -0.23800001 15
0 0 0 0
0 0 0 0
0 0 0 0
0 0 0 0
0 0 0 0
0 0 0 0
0 0 0 0
0 0 0 0
0 0 0 0
0 0 0 0
0 0 0 0
0 0 0 0
0 0 0 54
0 0 0 0
0 0 0 0
0 0 0 0
0 0 0 0
0 0 0 35
119.349 6.348 -0.667 52
119.325 6.0960002 -0.67500001 57
119.318 5.8439999 -0.68400002 37
0 0 0 26
0 0 0 30
135.345 5.7750001 -0.81099999 101
135.39 5.4899998 -0.82499999 89
135.353 5.2020001 -0.83899999 76
135.39999 4.921 -0.85500002 77
135.452 4.6360002 -0.87199998 82
0 0 0 27
0 0 0 47
0 0 0 27
0 0 0 0
0 0 0 47
135.53 2.911 -0.99199998 48
135.57899 2.6240001 -1.015 47
135.63699 2.336 -1.04 39
135.769 2.05 -1.066 89
135.653 1.7589999 -1.091 36
135.741 1.471 -1.119 37
135.752 1.182 -1.147 34
135.87801 0.898 -1.177 53
0 0 0 0
0 0 0 0
0 0 0 49
0 0 0 0
0 0 0 0
0 0 0 108
136.189 -1.125 -1.408 34
0 0 0 0
0 0 0 0
0 0 0 13
74.462997 -1.2460001 -0.85299999 89
72.216003 -1.36 -0.84799999 59
69.356003 -1.451 -0.83499998 27
69.003998 -1.5880001 -0.852 75
69.027 -1.7359999 -0.87400001 119
68.992996 -1.881 -0.89600003 126
69.038002 -2.026 -0.91900003 24
0 0 0 25
60.962002 -2.0439999 -0.85299999 114
0 0 0 16
46.823002 -1.7690001 -0.68800002 60
46.658001 -1.86 -0.70300001 45
46.137001 -1.937 -0.71200001 31
45.807999 -2.0179999 -0.72399998 43
45.964001 -2.1199999 -0.74400002 43
45.928001 -2.2149999 -0.76099998 43
45.490002 -2.29 -0.77200001 43
45.640999 -2.3929999 -0.79299998 43
44.91 -2.45 -0.79900002 32
44.575001 -2.5250001 -0.81099999 35
44.396999 -2.608 -0.82700002 32
44.32 -2.6960001 -0.84500003 34
44.620998 -2.806 -0.86900002 22
44.776001 -2.9089999 -0.89200002 81
44.783001 -3.003 -0.91299999 103
44.761002 -3.095 -0.93300003 69
0 0 0 0
0 0 0 5
0 0 0 3
24.368999 -1.8839999 -0.55299997 5
0 0 0 0
0 0 0 0
0 0 0 1
0 0 0 0
0 0 0 1
21.722 -1.946 -0.55800003 4
21.316999 -1.9529999 -0.55900002 3
21.285 -1.993 -0.56900001 3
20.944 -2.0039999 -0.57099998 1
0 0 0 0
0 0 0 1
20.917 -2.1270001 -0.60399997 67
20.927999 -2.1700001 -0.616 34
0 0 0 25
0 0 0 25
0 0 0 25
0 0 0 25
0 0 0 1
20.604 -2.3829999 -0.67799997 1
20.612 -2.425 -0.69 1
20.601999 -2.4649999 -0.70300001 2
20.614 -2.507 -0.71499997 2
20.593 -2.5439999 -0.727 4
20.669001 -2.5940001 -0.74199998 3
20.754 -2.645 -0.75800002 7
20.740999 -2.6830001 -0.77100003 7
20.766001 -2.7260001 -0.78399998 7
20.724001 -2.7609999 -0.796 7
20.763 -2.806 -0.81099999 6
20.721001 -2.8399999 -0.82300001 4
20.697001 -2.8770001 -0.83499998 3
20.672001 -2.9130001 -0.84799999 3
20.715 -2.9590001 -0.86299998 2
20.773001 -3.007 -0.88 2
20.804001 -3.0510001 -0.89499998 2
20.900999 -3.105 -0.91299999 2
21.163 -3.1830001 -0.93900001 2
21.271999 -3.24 -0.958 2
21.351 -3.2920001 -0.977 2
21.403 -3.339 -0.99400002 2
21.440001 -3.3840001 -1.01 3
21.476999 -3.4300001 -1.027 2
21.122999 -3.4119999 -1.025 1
21.284 -3.477 -1.048 3
21.282 -3.516 -1.063 3
21.275999 -3.5539999 -1.0779999 4
21.292 -3.595 -1.094 4
21.298 -3.635 -1.11 4
21.297001 -3.6719999 -1.125 4
21.353001 -3.72 -1.143 4
21.296 -3.7479999 -1.156 3
0 0 0 17
0 0 0 0
0 0 0 1
18.875999 -3.457 -1.08 1
18.441999 -3.4089999 -1.0700001 1
18.134001 -3.3829999 -1.0650001 1
18.704 -3.5220001 -1.113 1
17.594 -3.3440001 -1.0599999 2
17.955 -3.4430001 -1.095 2
0 0 0 1
16.892 -3.2969999 -1.056 2
16.448999 -3.2379999 -1.041 2
16.103001 -3.1960001 -1.0319999 2
15.845 -3.1719999 -1.027 3
15.632 -3.155 -1.026 3
15.26 -3.105 -1.013 2
14.907 -3.0580001 -1.001 2
14.575 -3.0139999 -0.99000001 2
14.299 -2.98 -0.98299998 2
13.987 -2.938 -0.97299999 3
13.708 -2.901 -0.96399999 3
13.46 -2.8699999 -0.95700002 3
13.184 -2.832 -0.94800001 3
12.93 -2.7980001 -0.94 3
12.642 -2.756 -0.92900002 3
12.375 -2.717 -0.91900003 3
12.108 -2.677 -0.90899998 3
11.872 -2.6440001 -0.90100002 2
11.634 -2.608 -0.89200002 2
11.453 -2.585 -0.88800001 3
11.247 -2.556 -0.88099998 5
11.101 -2.539 -0.87800002 7
10.978 -2.5280001 -0.87699997 9
10.846 -2.513 -0.87599999 8
10.707 -2.497 -0.87300003 8
10.552 -2.477 -0.86900002 7
10.376 -2.451 -0.86299998 6
10.2 -2.424 -0.85699999 5
10.028 -2.3970001 -0.85000002 4
9.8520002 -2.369 -0.84299999 3
9.6560001 -2.336 -0.83399999 2
9.4689999 -2.3039999 -0.82599998 4
9.3190002 -2.2809999 -0.82099998 4
9.1780005 -2.2590001 -0.815 4
9.0550003 -2.2409999 -0.81199998 3
8.9060001 -2.217 -0.80599999 4
8.7749996 -2.1960001 -0.801 3
8.6429996 -2.174 -0.796 3
8.5170002 -2.154 -0.792 3
8.3760004 -2.1300001 -0.78500003 4
8.2469997 -2.108 -0.77999997 4
8.158 -2.096 -0.778 3
8.0179996 -2.0699999 -0.77100003 4
7.8959999 -2.049 -0.76599997 4
7.823 -2.04 -0.76599997 3
7.7129998 -2.0209999 -0.76099998 3
7.6500001 -2.0139999 -0.76099998 3
7.5209999 -1.989 -0.75400001 4
7.427 -1.974 -0.75099999 4
7.3249998 -1.955 -0.74599999 4
7.2420001 -1.942 -0.74400002 3
7.1430001 -1.924 -0.73900002 3
7.0599999 -1.91 -0.736 3
6.9819999 -1.897 -0.73400003 3
6.8850002 -1.8789999 -0.72899997 3
6.809 -1.8660001 -0.727 4
6.7340002 -1.853 -0.72399998 3
6.6620002 -1.841 -0.722 3
6.5879998 -1.8279999 -0.71899998 3
6.5310001 -1.819 -0.71799999 3
6.4460001 -1.802 -0.71399999 4
6.3860002 -1.793 -0.713 4
6.3130002 -1.779 -0.70899999 3
6.25 -1.768 -0.70700002 3
6.2020001 -1.76 -0.70700002 4
6.1339998 -1.747 -0.704 6
6.0970001 -1.743 -0.704 4
6.0320001 -1.7309999 -0.70200002 4
5.9660001 -1.7180001 -0.699 4
5.9180002 -1.71 -0.69800001 4
5.8499999 -1.696 -0.69400001 3
5.8010001 -1.688 -0.69300002 4
5.7480001 -1.678 -0.69099998 3
5.7020001 -1.67 -0.69 3
5.6490002 -1.659 -0.68800002 3
5.579 -1.6440001 -0.68400002 3
5.5430002 -1.638 -0.68300003 3
5.5019999 -1.631 -0.68300003 3
5.447 -1.62 -0.68000001 3
5.3899999 -1.607 -0.67699999 3
5.3499999 -1.6 -0.676 3
5.3260002 -1.597 -0.67699999 4
5.2740002 -1.586 -0.67400002 3
5.2290001 -1.577 -0.67199999 4
5.1999998 -1.572 -0.67199999 3
5.152 -1.562 -0.67000002 3
5.1110001 -1.553 -0.66799998 3
5.0679998 -1.544 -0.667 3
5.0370002 -1.538 -0.66600001 3
4.9920001 -1.528 -0.66399997 3
4.9580002 -1.522 -0.66299999 3
4.928 -1.516 -0.662 3
4.9000001 -1.511 -0.662 3
4.8579998 -1.501 -0.66000003 3
4.8299999 -1.4960001 -0.65899998 3
4.7909999 -1.487 -0.65700001 2
4.77 -1.483 -0.65799999 3
4.7340002 -1.475 -0.65600002 3
4.7010002 -1.4680001 -0.65499997 2
4.6630001 -1.459 -0.653 3
4.6339998 -1.4529999 -0.65200001 3
4.6090002 -1.447 -0.65100002 3
4.572 -1.438 -0.64899999 3
4.54 -1.431 -0.648 3
4.507 -1.423 -0.64600003 3
4.4970002 -1.4220001 -0.648 3
4.4619999 -1.413 -0.64499998 3
4.4439998 -1.41 -0.64600003 3
4.4050002 -1.4 -0.64300001 2
4.3889999 -1.397 -0.64300001 3
4.3759999 -1.395 -0.64399999 3
4.3390002 -1.385 -0.64200002 3
4.3200002 -1.381 -0.64200002 3
4.2930002 -1.374 -0.63999999 3
4.2719998 -1.369 -0.63999999 3
4.2480001 -1.363 -0.639 2
4.2309999 -1.359 -0.639 3
4.1929998 -1.349 -0.63499999 4
4.191 -1.349 -0.63800001 2
4.204 -1.355 -0.64200002 2
4.1329999 -1.334 -0.634 2
4.1929998 -1.354 -0.64499998 4
4.131 -1.335 -0.63800001 2
4.0999999 -1.327 -0.63599998 2
4.0749998 -1.3200001 -0.634 4
4.0339999 -1.307 -0.63 2
4.0170002 -1.303 -0.63 2
4.0089998 -1.301 -0.63 2
3.98 -1.293 -0.62800002 2
3.9949999 -1.299 -0.63300002 2
3.9979999 -1.3 -0.63499999 2
3.9430001 -1.283 -0.62900001 2
3.9319999 -1.28 -0.62900001 3
3.934 -1.281 -0.63099998 2
3.8870001 -1.267 -0.62599999 2
3.8959999 -1.27 -0.62900001 2
3.839 -1.252 -0.62199998 2
3.9159999 -1.278 -0.63599998 3
3.8340001 -1.251 -0.625 2
3.8280001 -1.249 -0.625 2
3.869 -1.263 -0.634 2
3.779 -1.234 -0.62099999 2
3.7609999 -1.228 -0.62 2
3.7460001 -1.223 -0.61900002 2
3.743 -1.222 -0.62 2
3.744 -1.223 -0.62199998 2
3.7980001 -1.24 -0.63300002 2
3.7650001 -1.229 -0.62900001 2
3.72 -1.214 -0.62300003 2
3.7179999 -1.2130001 -0.62400001 2
3.6900001 -1.204 -0.62099999 3
3.7679999 -1.229 -0.63499999 2
3.714 -1.211 -0.62800002 2
3.6670001 -1.1950001 -0.62099999 2
3.6619999 -1.193 -0.62199998 2
3.7160001 -1.211 -0.63200003 3
3.668 -1.194 -0.62599999 3
3.7019999 -1.205 -0.63300002 3
3.6059999 -1.173 -0.61799997 2
3.612 -1.174 -0.62 2
3.6059999 -1.171 -0.62 2
3.661 -1.188 -0.63099998 2
3.5669999 -1.1569999 -0.616 2
3.6029999 -1.168 -0.62300003 2
3.602 -1.1670001 -0.62400001 3
3.552 -1.149 -0.616 2
3.553 -1.148 -0.61799997 2
3.526 -1.1390001 -0.61400002 2
3.559 -1.149 -0.62099999 3
3.5480001 -1.1440001 -0.62 2
3.549 -1.143 -0.62099999 2
3.5090001 -1.1289999 -0.61500001 3
3.5699999 -1.147 -0.62599999 2
3.5380001 -1.135 -0.62199998 2
3.53 -1.131 -0.62099999 3
3.527 -1.1289999 -0.62099999 2
3.54 -1.132 -0.62400001 2
3.437 -1.097 -0.60699999 2
3.484 -1.1109999 -0.616 2
3.4519999 -1.099 -0.611 2
3.4189999 -1.087 -0.60600001 2
3.506 -1.113 -0.62199998 3
3.4660001 -1.098 -0.61500001 2
3.441 -1.089 -0.61199999 2
3.4389999 -1.086 -0.61199999 2
3.434 -1.0829999 -0.61199999 2
3.4219999 -1.077 -0.61000001 2
3.425 -1.076 -0.611 2
3.4419999 -1.08 -0.61400002 3
3.427 -1.073 -0.61199999 2
3.3970001 -1.062 -0.60699999 2
3.438 -1.072 -0.61500001 3
3.4360001 -1.0700001 -0.61500001 1
3.398 -1.056 -0.60900003 2
3.414 -1.058 -0.61199999 2
3.4000001 -1.052 -0.60900003 1
3.418 -1.0549999 -0.61299998 1
3.381 -1.041 -0.60600001 2
3.4389999 -1.057 -0.61699998 2
3.4030001 -1.043 -0.611 2
3.3940001 -1.038 -0.60900003 2
3.3989999 -1.0369999 -0.61000001 2
3.414 -1.039 -0.61299998 2
3.3570001 -1.0190001 -0.60299999 2
3.3529999 -1.016 -0.602 2
3.3789999 -1.021 -0.60699999 2
3.3499999 -1.01 -0.602 2
3.3770001 -1.015 -0.60600001 2
3.4089999 -1.022 -0.61199999 2
3.431 -1.026 -0.616 2
3.382 -1.008 -0.60699999 2
3.4660001 -1.03 -0.62199998 2
3.358 -0.995 -0.602 2
3.3570001 -0.99199998 -0.602 2
3.3829999 -0.99699998 -0.60600001 2
3.378 -0.99199998 -0.60500002 2
3.3870001 -0.99199998 -0.60699999 2
3.388 -0.98900002 -0.60600001 2
3.3959999 -0.98799998 -0.60699999 2
3.3870001 -0.98299998 -0.60600001 2
3.3610001 -0.972 -0.60000002 2
3.46 -0.99699998 -0.61799997 2
3.4030001 -0.977 -0.60699999 2
3.4219999 -0.97899997 -0.61000001 2
3.3770001 -0.963 -0.60100001 2
3.438 -0.977 -0.61199999 2
3.428 -0.97100002 -0.60900003 2
3.484 -0.98299998 -0.61900002 3
3.4879999 -0.98100001 -0.61900002 3
3.4119999 -0.95599997 -0.60500002 1
3.4389999 -0.95999998 -0.60900003 2
3.405 -0.94700003 -0.602 1
3.4590001 -0.958 -0.611 2
3.4189999 -0.94300002 -0.60299999 1
3.536 -0.972 -0.62300003 3
3.447 -0.94400001 -0.60600001 2
3.425 -0.93400002 -0.60100001 1
3.4530001 -0.93800002 -0.60600001 2
3.4460001 -0.93199998 -0.60299999 2
3.5079999 -0.94499999 -0.61299998 2
3.5090001 -0.94099998 -0.61199999 2
3.51 -0.93699998 -0.61199999 2
3.4809999 -0.92500001 -0.60500002 2
3.5090001 -0.92799997 -0.60900003 2
3.5309999 -0.93000001 -0.61199999 3
3.569 -0.93599999 -0.61699998 3
3.5510001 -0.92699999 -0.61299998 2
3.4979999 -0.90899998 -0.60299999 1
3.533 -0.91299999 -0.60699999 1
3.6300001 -0.93400002 -0.62300003 3
3.562 -0.912 -0.61000001 2
3.5829999 -0.91299999 -0.61199999 3
3.6159999 -0.917 -0.616 2
3.6289999 -0.91600001 -0.61699998 2
3.635 -0.91299999 -0.616 3
3.72 -0.92900002 -0.62900001 3
3.619 -0.89899999 -0.611 2
3.6530001 -0.903 -0.61500001 3
3.675 -0.90399998 -0.61699998 2
3.684 -0.90100002 -0.61699998 2
3.74 -0.91000003 -0.625 3
3.73 -0.90200001 -0.62099999 3
3.7249999 -0.89600003 -0.61900002 2
3.766 -0.90100002 -0.62400001 2
3.767 -0.89600003 -0.62199998 2
3.7609999 -0.88999999 -0.61900002 2
3.8050001 -0.89499998 -0.62400001 3
3.8199999 -0.89300001 -0.625 2
3.7869999 -0.88 -0.61699998 2
3.8610001 -0.89200002 -0.62699997 2
3.881 -0.89099997 -0.62900001 2
3.823 -0.87199998 -0.61699998 4
3.8369999 -0.87 -0.61699998 4
3.858 -0.87 -0.61799997 4
3.8710001 -0.86699998 -0.61799997 5
3.8759999 -0.86299998 -0.61699998 5
3.892 -0.861 -0.61699998 4
3.9070001 -0.85799998 -0.61699998 4
3.964 -0.86500001 -0.62400001 3
3.9909999 -0.86500001 -0.625 2
4.0110002 -0.86400002 -0.62599999 2
4.0710001 -0.87099999 -0.63300002 3
4.0450001 -0.85900003 -0.62599999 3
4.1459999 -0.875 -0.639 3
4.0900002 -0.85699999 -0.62800002 4
4.118 -0.85699999 -0.62900001 4
4.131 -0.85299999 -0.62800002 4
4.2360001 -0.86799997 -0.64200002 3
4.1950002 -0.85399997 -0.63200003 2
4.2189999 -0.852 -0.63300002 2
4.2290001 -0.84799999 -0.63200003 2
4.2649999 -0.84799999 -0.634 2
4.276 -0.84399998 -0.63200003 2
4.309 -0.84399998 -0.634 2
4.3369999 -0.84299999 -0.63499999 4
4.3720002 -0.84299999 -0.63700002 2
4.3979998 -0.84100002 -0.63700002 4
4.427 -0.83999997 -0.63800001 3
4.4530001 -0.838 -0.63800001 3
4.4879999 -0.838 -0.63999999 3
4.513 -0.83499998 -0.63999999 3
4.5489998 -0.83499998 -0.64099997 3
4.572 -0.83200002 -0.64099997 3
4.6170001 -0.833 -0.64300001 2
4.6420002 -0.82999998 -0.64300001 3
4.6919999 -0.83200002 -0.64600003 2
4.7259998 -0.82999998 -0.64700001 2
4.7639999 -0.829 -0.648 3
4.7969999 -0.82700002 -0.648 3
4.8299999 -0.82499999 -0.648 3
4.8520002 -0.82099998 -0.64700001 3
4.8870001 -0.81900001 -0.648 3
4.9460001 -0.82099998 -0.65100002 3
4.9949999 -0.82200003 -0.653 3
5.0469999 -0.82200003 -0.65499997 3
5.0929999 -0.82099998 -0.65600002 3
5.145 -0.82099998 -0.65799999 4
5.1799998 -0.81900001 -0.65799999 4
5.2389998 -0.81900001 -0.66000003 4
5.2670002 -0.815 -0.65899998 4
5.3449998 -0.81900001 -0.66299999 3
5.395 -0.81800002 -0.66399997 3
5.473 -0.81999999 -0.66900003 3
5.533 -0.82099998 -0.671 3
5.5830002 -0.81900001 -0.671 3
5.6399999 -0.81800002 -0.67199999 3
5.7069998 -0.81800002 -0.67400002 4
5.7810001 -0.81900001 -0.67699999 3
5.8699999 -0.82200003 -0.68199998 3
5.9429998 -0.82300001 -0.68400002 3
6.0110002 -0.82300001 -0.68599999 4
6.086 -0.82300001 -0.68800002 3
6.1560001 -0.82200003 -0.68900001 3
6.2360001 -0.82300001 -0.69199997 2
6.3530002 -0.82800001 -0.69800001 2
6.4419999 -0.829 -0.69999999 2
6.5500002 -0.83200002 -0.70499998 2
6.6209998 -0.82999998 -0.70599997 3
6.73 -0.83200002 -0.70999998 3
6.8369999 -0.83399999 -0.713 3
6.9320002 -0.83399999 -0.71499997 3
7.0320001 -0.83499998 -0.71799999 3
7.1690001 -0.83999997 -0.72399998 3
7.2930002 -0.84200001 -0.72799999 3
7.4190001 -0.84500003 -0.73199999 3
7.5560002 -0.84799999 -0.73699999 3
7.7030001 -0.85100001 -0.74199998 3
7.862 -0.85600001 -0.74800003 3
7.9889998 -0.85699999 -0.75099999 3
8.158 -0.86199999 -0.75700003 3
8.3409996 -0.86799997 -0.76499999 6
8.4569998 -0.866 -0.76499999 13
8.5609999 -0.86299998 -0.764 11
8.8050003 -0.87199998 -0.77499998 4
9.0699997 -0.88300002 -0.787 4
9.2889996 -0.88999999 -0.79500002 2
9.5380001 -0.898 -0.80400002 3
9.8109999 -0.90799999 -0.815 3
10.072 -0.91600001 -0.824 2
10.374 -0.926 -0.83600003 3
10.653 -0.93400002 -0.84500003 3
10.985 -0.94499999 -0.85799998 2
11.287 -0.95300001 -0.86699998 2
11.707 -0.96899998 -0.884 2
12.02 -0.97600001 -0.89200002 3
12.388 -0.98500001 -0.90399998 3
12.917 -1.006 -0.92500001 3
13.116 -1.001 -0.92199999 3
13.569 -1.013 -0.93599999 3
14.075 -1.028 -0.95200002 3
14.577 -1.0420001 -0.96700001 2
15.034 -1.05 -0.977 2
15.695 -1.071 -0.99900001 3
16.201 -1.08 -1.01 4
16.910999 -1.1 -1.031 2
17.643999 -1.119 -1.051 2
18.326 -1.133 -1.067 2
19.106001 -1.151 -1.086 1
19.968 -1.171 -1.107 1
21.016001 -1.199 -1.136 1
21.996 -1.22 -1.159 1
22.802 -1.229 -1.169 1
0 0 0 2
28.167 -1.429 -1.364 3
0 0 0 0
0 0 0 4
33.189999 -1.528 -1.466 6
0 0 0 33
44.763 -1.9220001 -1.848 35
44.643002 -1.848 -1.778 48
44.720001 -1.781 -1.715 41
44.969002 -1.721 -1.659 49
45.011002 -1.654 -1.595 59
45.102001 -1.5880001 -1.533 42
45.569 -1.534 -1.48 41
46.139999 -1.483 -1.431 44
46.308998 -1.418 -1.367 28
46.301998 -1.346 -1.296 17
46.282001 -1.277 -1.228 24
46.332001 -1.207 -1.158 20
0 0 0 18
68.976997 -1.591 -1.517 45
68.984001 -1.489 -1.414 11
72.190002 -1.45 -1.369 88
74.401001 -1.383 -1.2970001 24
74.611 -1.276 -1.186 86
75.5 -1.1799999 -1.0829999 34
0 0 0 56
0 0 0 0
0 0 0 37
0 0 0 0
0 0 0 12
0 0 0 92
135.88499 -0.73900002 -0.47 56
0 0 0 0
0 0 0 0
0 0 0 0
0 0 0 0
0 0 0 0
0 0 0 16
87.344002 0.391 0.66600001 21
0 0 0 25
0 0 0 0
0 0 0 0
0 0 0 0
0 0 0 0
0 0 0 16
0 0 0 0
0 0 0 15
91.415001 1.5420001 2.0309999 16
0 0 0 0
0 0 0 25
89.713997 1.874 2.4349999 39
89.509003 1.988 2.5769999 25
0 0 0 0
0 0 0 0
0 0 0 15
90.734001 2.4890001 3.21 30
90.648003 2.602 3.355 38
90.176003 2.7030001 3.4860001 24
89.811996 2.8069999 3.6210001 15
89.453003 2.908 3.753 15
0 0 0 0
0 0 0 26
91.945999 3.336 4.3189998 21
92.528999 3.471 4.4990001 21
91.750999 3.5550001 4.6149998 25
91.642998 3.664 4.763 20
91.155998 3.756 4.8909998 32
91.223 3.868 5.046 25
0 0 0 0
0 0 0 28
92.262001 4.2449999 5.5700002 33
92.195999 4.3509998 5.7210002 28
0 0 0 0
0 0 0 0
0 0 0 16
0 0 0 0
0 0 0 0
0 0 0 15
0 0 0 32
119.771 6.7589998 9.0489998 45
119.692 6.8860002 9.243 47
119.822 7.0289998 9.4589996 41
119.7 7.1500001 9.6459999 23
0 0 0 0
0 0 0 0
0 0 0 0
0 0 0 0
0 0 0 0
0 0 0 27
0 0 0 0
0 0 0 52
119.446 8.276 11.436 89
119.427 8.3970003 11.636 100
119.406 8.5170002 11.837 87
119.434 8.6400003 12.041 87
119.462 8.7650003 12.248 79
119.413 8.8800001 12.445 76
119.423 8.9980001 12.644 73
119.443 9.1169996 12.847 43
119.441 9.2329998 13.049 24
0 0 0 0
0 0 0 0
0 0 0 26
119.624 9.7019997 13.874 22
119.787 9.8269997 14.094 37
119.66 9.927 14.279 29
0 0 0 0
0 0 0 0
0 0 0 0
0 0 0 0
0 0 0 31
119.637 10.567 15.472 29
119.537 10.662 15.654 52
119.408 10.753 15.838 66
119.395 10.853 16.031 74
119.355 10.953 16.224001 70
119.34 11.048 16.414 76
119.376 11.153 16.621 68
119.364 11.249 16.812 59
119.383 11.348 17.014 43
119.499 11.454 17.223 28
0 0 0 0
0 0 0 25
119.493 11.731 17.802 28
119.451 11.822 17.990999 33
119.559 11.92 18.200001 28
119.521 12.01 18.388 30
119.509 12.097 18.579 32
119.573 12.192 18.782 31
119.501 12.271 18.962 30
119.424 12.349 19.141001 40
119.551 12.447 19.349001 26
119.447 12.52 19.521999 32
119.352 12.593 19.695999 44
119.39 12.678 19.892 55
119.349 12.755 20.073 55
119.311 12.83 20.254 76
119.277 12.905 20.436001 68
119.354 12.991 20.636 72
119.349 13.068 20.816999 50
119.28 13.136 20.990999 34
0 0 0 0
0 0 0 0
0 0 0 32
