# .PCD v0.7 - Point Cloud Data file format
VERSION 0.7
FIELDS x y z intensity
SIZE 4 4 4 4
TYPE F F F F
COUNT 1 1 1 1
WIDTH 1780
HEIGHT 1
VIEWPOINT 0 0 0 1 0 0 0
POINTS 1780
DATA ascii
21.618 1.516 -1.163 1
0 0 0 0
0 0 0 1
0 0 0 0
0 0 0 0
0 0 0 0
0 0 0 0
0 0 0 0
0 0 0 0
0 0 0 0
0 0 0 0
0 0 0 0
0 0 0 3
39.332001 1.836 -1.575 13
39.530998 1.772 -1.5420001 23
39.514 1.698 -1.501 32
39.437 1.622 -1.4579999 30
39.463001 1.549 -1.419 27
39.518002 1.478 -1.381 26
39.603001 1.4069999 -1.344 23
39.705002 1.334 -1.308 22
39.830002 1.2640001 -1.272 19
39.981998 1.193 -1.238 18
40.148998 1.122 -1.2029999 17
40.362999 1.052 -1.17 11
0 0 0 0
0 0 0 0
0 0 0 0
0 0 0 0
0 0 0 0
0 0 0 0
0 0 0 0
0 0 0 25
0 0 0 45
0 0 0 0
0 0 0 0
0 0 0 54
0 0 0 0
0 0 0 0
0 0 0 0
0 0 0 119
134.661 -0.89999998 -1.795 30
134.48801 -1.166 -1.674 47
134.349 -1.429 -1.557 43
0 0 0 24
73.038002 -1.063 -0.722 79
70.695999 -1.1670001 -0.63999999 13
67.661003 -1.249 -0.55699998 42
67.452003 -1.377 -0.49900001 75
67.474998 -1.511 -0.44400001 79
67.444 -1.6440001 -0.38800001 150
67.455002 -1.779 -0.33399999 90
0 0 0 23
59.445999 -1.806 -0.198 60
59.411999 -1.923 -0.15099999 114
59.425999 -2.039 -0.105 135
59.282001 -2.151 -0.059 73
58.411999 -2.237 -0.014 74
0 0 0 0
0 0 0 43
51.334 -2.2709999 0.103 45
51.312 -2.3729999 0.141 99
48.251999 -2.329 0.168 6
47.633999 -2.395 0.20100001 29
47.540001 -2.4860001 0.235 38
47.474998 -2.5780001 0.26899999 35
0 0 0 9
44.167 -2.579 0.31299999 18
44.047001 -2.6589999 0.34299999 20
43.722 -2.7279999 0.37099999 7
43.249001 -2.786 0.396 90
43.243999 -2.8710001 0.42500001 112
43.251999 -2.9590001 0.454 111
40.841999 -2.8770001 0.456 16
40.422001 -2.928 0.477 6
39.782001 -2.9619999 0.495 5
39.182999 -2.9960001 0.51300001 66
39.186001 -3.076 0.53799999 86
39.207001 -3.1559999 0.56199998 83
37.48 -3.0929999 0.56099999 3
37.019001 -3.1289999 0.57599998 8
36.532001 -3.161 0.59100002 8
36.018002 -3.1919999 0.60500002 8
35.502998 -3.2160001 0.61699998 9
35.292 -3.27 0.634 106
35.305 -3.342 0.65399998 116
35.292999 -3.4130001 0.67500001 106
35.296001 -3.483 0.69400001 108
35.328999 -3.5569999 0.71399999 83
35.334 -3.6300001 0.73400003 76
35.338001 -3.701 0.75300002 86
35.342999 -3.7709999 0.77100003 91
35.344002 -3.842 0.79000002 81
35.341 -3.9130001 0.80800003 100
35.354 -3.9860001 0.82700002 103
35.360001 -4.0570002 0.84500003 105
35.332001 -4.125 0.861 105
35.368 -4.1989999 0.88 98
35.366001 -4.27 0.89700001 105
35.352001 -4.3379998 0.91299999 101
35.380001 -4.4109998 0.93000001 110
35.384998 -4.4829998 0.94599998 93
35.403 -4.5549998 0.963 90
35.764999 -4.6729999 0.98900002 3
0 0 0 0
0 0 0 8
27.674 -3.78 0.801 26
27.584 -3.822 0.80900002 36
27.531 -3.868 0.81900001 42
27.483 -3.9159999 0.829 47
27.445 -3.964 0.838 47
27.417 -4.0139999 0.84799999 49
27.384001 -4.0650001 0.85799998 55
27.356001 -4.1129999 0.86699998 60
27.358 -4.1669998 0.87699997 60
27.358 -4.2199998 0.88700002 52
27.368999 -4.276 0.89700001 47
27.381001 -4.3309999 0.90700001 47
27.393 -4.3860002 0.917 43
27.426001 -4.4450002 0.92699999 38
27.459999 -4.5029998 0.93699998 34
27.514 -4.5650001 0.94800001 27
27.618 -4.6350002 0.95999998 17
0 0 0 2
0 0 0 0
0 0 0 6
35.911999 -6.3010001 1.291 9
35.882 -6.3639998 1.3 10
35.868 -6.4299998 1.309 11
35.874001 -6.4990001 1.318 13
35.865002 -6.5650001 1.327 17
35.789001 -6.618 1.3329999 36
35.803001 -6.6880002 1.342 17
35.847 -6.7620001 1.353 9
35.847 -6.829 1.3609999 10
35.841 -6.895 1.368 9
35.859001 -6.9660001 1.377 11
35.844002 -7.0289998 1.3839999 12
35.841 -7.0949998 1.391 14
35.844002 -7.1609998 1.398 17
35.810001 -7.2199998 1.404 19
35.617001 -7.2449999 1.403 33
35.591999 -7.3039999 1.409 52
35.553001 -7.3600001 1.413 109
35.553001 -7.4250002 1.419 113
35.571999 -7.493 1.425 85
0 0 0 16
19.629 -4.2049999 0.792 21
19.58 -4.2290001 0.792 28
19.518999 -4.2509999 0.79299998 33
19.466999 -4.2740002 0.79299998 26
19.43 -4.3000002 0.79400003 39
19.405001 -4.3280001 0.79500002 40
19.375999 -4.355 0.796 32
19.35 -4.3829999 0.79699999 49
19.336 -4.4120002 0.79799998 35
19.329 -4.4439998 0.80000001 38
19.297001 -4.4699998 0.80000001 62
19.282 -4.4990001 0.801 59
19.283001 -4.533 0.80299997 44
19.273001 -4.5630002 0.80299997 45
19.257999 -4.592 0.80400002 67
19.264 -4.625 0.80500001 63
19.280001 -4.6609998 0.80699998 41
19.275 -4.6919999 0.80800003 36
19.263 -4.7210002 0.80800003 56
19.27 -4.7540002 0.80800003 36
19.288 -4.79 0.80900002 36
19.297001 -4.8239999 0.81 34
19.292999 -4.8540001 0.81 45
19.299 -4.8860002 0.81099999 42
19.332001 -4.9250002 0.81199998 38
19.346001 -4.9590001 0.81300002 33
19.403 -5.0040002 0.815 28
19.444 -5.0450001 0.81699997 23
19.502001 -5.0910001 0.81900001 15
19.607 -5.1490002 0.82200003 1
0 0 0 2
35.860001 -9.5279999 1.502 2
35.804001 -9.5670004 1.499 2
35.851002 -9.6339998 1.499 3
35.834 -9.684 1.497 2
35.891998 -9.7530003 1.497 2
35.743999 -9.7670002 1.489 2
0 0 0 0
0 0 0 2
35.859001 -9.9560003 1.485 2
35.868999 -10.012 1.484 2
0 0 0 0
0 0 0 2
35.908001 -10.175 1.475 2
35.793999 -10.193 1.467 2
35.854 -10.26 1.465 2
35.945999 -10.337 1.466 2
35.917 -10.378 1.46 2
35.873001 -10.414 1.454 2
0 0 0 0
0 0 0 2
35.842999 -10.55 1.439 2
35.948002 -10.629 1.439 2
35.886002 -10.658 1.4299999 2
35.963001 -10.726 1.428 2
35.992001 -10.783 1.424 2
0 0 0 0
0 0 0 0
0 0 0 0
0 0 0 2
0 0 0 0
0 0 0 0
0 0 0 2
35.903 -11.111 1.372 2
36.050999 -11.199 1.37 11
35.998001 -11.225 1.3609999 58
35.971001 -11.257 1.353 63
35.933998 -11.287 1.345 72
35.830002 -11.295 1.334 11
35.757999 -11.312 1.324 65
35.761002 -11.353 1.316 78
35.761002 -11.393 1.309 82
35.762001 -11.432 1.301 78
35.773998 -11.474 1.293 90
35.775002 -11.512 1.285 70
35.777 -11.551 1.276 85
35.766998 -11.585 1.267 84
35.768002 -11.622 1.2589999 85
35.772999 -11.66 1.25 87
35.771 -11.695 1.242 83
35.775002 -11.731 1.233 87
35.772999 -11.765 1.224 85
35.775002 -11.8 1.215 84
35.769001 -11.832 1.205 82
35.782001 -11.87 1.196 87
35.779999 -11.902 1.187 84
35.783001 -11.935 1.178 82
35.785 -11.968 1.168 82
35.775002 -11.996 1.1569999 78
35.789001 -12.032 1.149 67
35.798 -12.065 1.1390001 77
35.780998 -12.09 1.128 79
35.798 -12.125 1.118 80
35.797001 -12.154 1.107 80
35.799999 -12.184 1.096 81
35.798 -12.211 1.086 83
35.797001 -12.238 1.075 81
35.805 -12.268 1.064 64
35.794998 -12.291 1.054 82
35.797001 -12.318 1.043 83
35.801998 -12.345 1.0319999 76
35.807999 -12.372 1.02 78
35.799999 -12.394 1.008 63
35.797001 -12.417 0.99699998 75
35.794998 -12.44 0.986 76
35.803001 -12.466 0.97399998 78
35.803001 -12.488 0.96200001 78
35.805 -12.511 0.95099998 78
35.810001 -12.535 0.94 77
35.817001 -12.558 0.92900002 76
35.806 -12.575 0.91600001 78
35.813999 -12.597 0.90399998 77
35.82 -12.619 0.89200002 77
35.813 -12.636 0.88 76
35.811001 -12.653 0.86699998 74
35.818001 -12.675 0.85500002 59
35.805 -12.687 0.84299999 32
35.834 -12.715 0.82999998 33
35.834 -12.731 0.81800002 41
0 0 0 2
31.664 -11.277 0.699 3
31.673 -11.294 0.68800002 3
31.698999 -11.315 0.67799997 4
31.653999 -11.312 0.66600001 3
31.726 -11.349 0.65499997 2
31.667999 -11.34 0.64200002 2
0 0 0 5
36.141998 -12.966 0.70700002 5
0 0 0 0
0 0 0 0
0 0 0 5
32.536999 -11.711 0.58899999 6
32.512001 -11.71 0.57599998 7
32.525002 -11.722 0.56300002 7
32.508999 -11.724 0.55000001 7
32.467999 -11.716 0.53799999 8
32.466 -11.722 0.52499998 7
32.453999 -11.723 0.51200002 7
32.424999 -11.718 0.49900001 7
32.408001 -11.717 0.48699999 7
32.417999 -11.725 0.47400001 6
0 0 0 1
29.115999 -10.537 0.40400001 1
29.110001 -10.538 0.391 1
0 0 0 0
0 0 0 0
0 0 0 0
0 0 0 0
0 0 0 0
0 0 0 0
0 0 0 2
32.389999 -11.732 0.33399999 2
32.355999 -11.718 0.31999999 2
32.380001 -11.725 0.308 3
32.345001 -11.71 0.29499999 3
32.387001 -11.723 0.28200001 3
32.323002 -11.696 0.26800001 3
32.389999 -11.717 0.25600001 3
32.423 -11.724 0.243 3
32.383999 -11.706 0.23 3
32.394001 -11.704 0.21699999 3
32.445 -11.717 0.204 2
32.402 -11.695 0.191 3
32.432999 -11.7 0.178 3
32.474998 -11.708 0.16500001 3
32.459 -11.694 0.152 3
32.487999 -11.696 0.138 3
32.548 -11.709 0.125 2
32.521999 -11.691 0.111 2
32.548 -11.691 0.098999999 1
0 0 0 0
0 0 0 0
0 0 0 0
0 0 0 0
0 0 0 0
0 0 0 0
0 0 0 0
0 0 0 2
0 0 0 0
0 0 0 1
29.094999 -10.328 -0.041000001 4
29.104 -10.318 -0.052999999 6
29.136 -10.315 -0.064000003 5
0 0 0 0
0 0 0 6
35.806 -12.622 -0.123 8
35.814999 -12.605 -0.138 9
35.808998 -12.584 -0.15099999 10
35.797001 -12.559 -0.16599999 9
35.803001 -12.54 -0.18099999 10
35.801998 -12.519 -0.19400001 9
35.833 -12.507 -0.20900001 10
35.807999 -12.476 -0.223 10
35.782001 -12.444 -0.23800001 9
35.806 -12.429 -0.252 9
35.799999 -12.403 -0.26699999 9
35.779999 -12.372 -0.28 10
35.768002 -12.343 -0.294 10
35.769001 -12.318 -0.308 9
35.771 -12.293 -0.322 10
35.778 -12.269 -0.336 10
35.777 -12.242 -0.34900001 9
35.786999 -12.217 -0.36500001 10
35.786999 -12.189 -0.37799999 10
35.750999 -12.148 -0.391 10
35.765999 -12.125 -0.405 9
35.736 -12.085 -0.41800001 10
35.748001 -12.059 -0.43200001 9
35.784 -12.041 -0.447 10
35.741001 -11.996 -0.45899999 9
35.765999 -11.973 -0.47299999 8
0 0 0 1
14.43 -4.8049998 -0.20200001 1
14.462 -4.802 -0.207 1
14.427 -4.777 -0.212 3
14.427 -4.763 -0.21799999 9
14.354 -4.7259998 -0.222 20
14.335 -4.7059999 -0.227 20
14.364 -4.7010002 -0.23199999 14
0 0 0 1
8.7019997 -2.8310001 -0.147 1
8.6739998 -2.813 -0.149 2
8.6859999 -2.8080001 -0.153 3
8.6870003 -2.799 -0.156 4
8.6780005 -2.7869999 -0.15899999 4
8.6800003 -2.7780001 -0.162 3
8.684 -2.77 -0.16500001 3
8.6820002 -2.76 -0.168 3
8.6879997 -2.7520001 -0.171 2
0 0 0 0
0 0 0 7
14.474 -4.5359998 -0.30000001 48
14.416 -4.5009999 -0.30399999 51
14.43 -4.4889998 -0.30899999 52
14.336 -4.4429998 -0.31099999 47
14.333 -4.4250002 -0.31600001 59
14.382 -4.4229999 -0.322 51
14.43 -4.4200001 -0.32699999 51
14.491 -4.421 -0.333 52
14.547 -4.4200001 -0.33899999 44
14.583 -4.4130001 -0.345 43
14.579 -4.3930001 -0.34900001 40
14.63 -4.3899999 -0.35499999 53
14.761 -4.4099998 -0.36199999 54
14.831 -4.4120002 -0.368 43
14.851 -4.3990002 -0.373 46
14.889 -4.3909998 -0.37799999 45
14.878 -4.3670001 -0.38299999 41
14.922 -4.3610001 -0.38800001 36
15.005 -4.3639998 -0.39399999 28
15.06 -4.3600001 -0.40000001 22
15.073 -4.3429999 -0.405 15
15.078 -4.323 -0.40900001 1
0 0 0 3
0 0 0 0
0 0 0 1
16.858999 -4.7389998 -0.47499999 22
16.868999 -4.717 -0.47999999 32
16.867001 -4.6919999 -0.484 40
16.891001 -4.6739998 -0.48899999 36
16.872 -4.6440001 -0.493 42
16.907 -4.6290002 -0.49700001 47
16.931 -4.6100001 -0.50199997 54
17.021 -4.6090002 -0.509 57
17.055 -4.592 -0.514 43
17.063999 -4.5689998 -0.51800001 29
16.99 -4.5229998 -0.51999998 59
17.080999 -4.5219998 -0.52600002 46
17.065001 -4.4910002 -0.52899998 26
17.021 -4.4520001 -0.53200001 43
16.945999 -4.4060001 -0.53299999 49
16.915001 -4.3720002 -0.53500003 43
16.917999 -4.3449998 -0.53899997 43
17.041 -4.3499999 -0.546 50
16.993999 -4.3099999 -0.54699999 34
16.957001 -4.2740002 -0.54900002 33
16.988001 -4.2540002 -0.55299997 32
17.073999 -4.2480001 -0.55900002 32
17.171 -4.243 -0.565 19
17.474001 -4.289 -0.57800001 11
17.525 -4.2740002 -0.583 15
17.384001 -4.21 -0.58099997 6
17.541 -4.2179999 -0.58899999 6
17.735001 -4.2350001 -0.597 12
0 0 0 41
19.205 -4.5209999 -0.65200001 64
19.246 -4.4980001 -0.65700001 44
19.240999 -4.4640002 -0.65899998 59
19.252001 -4.434 -0.662 59
19.267 -4.4039998 -0.66500002 54
19.285999 -4.3740001 -0.667 35
19.306 -4.3449998 -0.67000002 48
19.337 -4.3179998 -0.67299998 47
19.362 -4.289 -0.676 31
19.386 -4.2600002 -0.67799997 36
19.421 -4.2329998 -0.68099999 27
19.462 -4.2069998 -0.68400002 32
19.527 -4.1869998 -0.68800002 23
19.617001 -4.171 -0.69300002 18
19.721001 -4.1570001 -0.69700003 3
0 0 0 40
35.514999 -7.3569999 -1.261 45
35.492001 -7.2870002 -1.262 38
35.438 -7.2119999 -1.261 38
35.327999 -7.125 -1.2589999 19
0 0 0 24
21.806999 -4.3169999 -0.778 67
21.816 -4.2789998 -0.77899998 44
21.790001 -4.2329998 -0.77899998 39
21.795 -4.1929998 -0.77899998 43
0 0 0 1
19.440001 -3.6659999 -0.69499999 12
19.452 -3.632 -0.69499999 12
19.441999 -3.5929999 -0.69400001 18
19.205999 -3.513 -0.68599999 1
0 0 0 0
0 0 0 0
0 0 0 1
19.106001 -3.348 -0.67900002 1
19.058001 -3.302 -0.67699999 1
19.039 -3.2620001 -0.67500001 1
18.999001 -3.2190001 -0.67199999 1
19.011 -3.184 -0.67199999 1
19.021999 -3.148 -0.671 1
18.947001 -3.099 -0.66600001 61
19.021 -3.0739999 -0.667 194
19.014999 -3.036 -0.66500002 194
19.007999 -2.997 -0.66299999 194
18.993999 -2.957 -0.66100001 194
19.01 -2.9219999 -0.65899998 194
19 -2.8829999 -0.65600002 194
18.976999 -2.842 -0.65399998 194
18.982 -2.8050001 -0.65100002 194
18.987 -2.7679999 -0.648 194
18.983999 -2.73 -0.64600003 194
19.007999 -2.6960001 -0.64399999 194
18.995001 -2.6559999 -0.63999999 194
18.975 -2.6159999 -0.63700002 12
19.007999 -2.582 -0.63499999 12
18.997 -2.5420001 -0.63099998 15
18.997999 -2.5039999 -0.62699997 20
18.976 -2.4630001 -0.62300003 8
18.989 -2.4260001 -0.62 7
19.004 -2.3900001 -0.616 5
19.040001 -2.3559999 -0.61400002 4
19.041 -2.3169999 -0.61000001 3
19.069 -2.2809999 -0.60600001 3
19.084999 -2.244 -0.602 2
19.146999 -2.2130001 -0.60000002 2
19.225 -2.1830001 -0.59799999 1
19.261 -2.148 -0.59399998 1
19.318001 -2.115 -0.59100002 33
19.367001 -2.0799999 -0.58700001 51
19.392 -2.043 -0.58200002 15
0 0 0 25
0 0 0 25
0 0 0 1
19.757999 -1.918 -0.57099998 3
19.917999 -1.893 -0.56900001 4
20.271 -1.885 -0.57300001 2
20.711 -1.882 -0.579 1
0 0 0 0
0 0 0 0
0 0 0 1
0 0 0 0
0 0 0 1
22.913 -1.799 -0.59399998 8
0 0 0 61
39.557999 -2.9419999 -0.99599999 5
40.25 -2.9100001 -0.99800003 5
41.000999 -2.8789999 -1.001 4
43.196999 -2.9449999 -1.038 103
43.187 -2.8559999 -1.021 103
43.191002 -2.7679999 -1.0039999 87
42.924999 -2.6600001 -0.97899997 30
42.709 -2.5580001 -0.95599997 34
42.794998 -2.474 -0.94 17
43.174999 -2.4070001 -0.93000001 33
43.652 -2.3440001 -0.921 39
44.125 -2.2780001 -0.91100001 40
44.040001 -2.1819999 -0.889 40
44.396999 -2.109 -0.87599999 39
44.414001 -2.017 -0.85600001 41
44.307999 -1.921 -0.833 40
44.592999 -1.84 -0.81699997 31
45.151001 -1.77 -0.80500001 42
45.233002 -1.679 -0.78399998 61
45.238998 -1.586 -0.76099998 21
0 0 0 123
59.374001 -1.834 -0.93800002 72
0 0 0 0
0 0 0 150
67.436996 -1.6670001 -0.95899999 150
67.428001 -1.528 -0.92199999 74
67.444 -1.3890001 -0.88599998 62
67.867996 -1.26 -0.85399997 26
0 0 0 52
73.863998 -1.067 -0.84600002 23
0 0 0 73
0 0 0 0
0 0 0 21
73.779999 -0.458 -0.67199999 16
0 0 0 95
134.258 -0.289 -1.062 92
134.24699 -0.015 -0.98000002 87
134.17999 0.25 -0.898 60
134.16499 0.52600002 -0.81300002 47
134.099 0.79900002 -0.72799999 33
0 0 0 0
0 0 0 0
0 0 0 0
0 0 0 0
0 0 0 0
0 0 0 0
0 0 0 0
0 0 0 12
0 0 0 0
0 0 0 18
89.049004 2.4960001 0.168 24
88.991997 2.674 0.23199999 30
88.928001 2.8469999 0.294 25
89.217003 3.033 0.359 23
89.073997 3.2049999 0.42300001 19
89.350998 3.392 0.48899999 14
89.352997 3.5680001 0.55500001 17
0 0 0 0
0 0 0 0
0 0 0 0
0 0 0 0
0 0 0 18
88.662003 4.5780001 0.949 14
0 0 0 27
117.828 6.5409999 1.443 29
118.062 6.7820001 1.538 26
0 0 0 0
0 0 0 13
89.801003 5.6750002 1.382 17
89.796997 5.8460002 1.455 18
90.057999 6.0349998 1.5319999 23
90.303001 6.223 1.609 19
90.676003 6.421 1.6900001 15
0 0 0 0
0 0 0 0
0 0 0 0
0 0 0 0
0 0 0 0
0 0 0 0
0 0 0 0
0 0 0 0
0 0 0 0
0 0 0 35
76.567001 6.9860001 2.1359999 44
75.716003 7.046 2.1789999 33
0 0 0 4
0 0 0 0
0 0 0 4
47.542 4.7670002 1.534 18
47.485001 4.8470001 1.576 19
47.226002 4.9070001 1.609 19
47.176998 4.9860001 1.65 32
47.132 5.0630002 1.6900001 35
47.282001 5.1630001 1.739 34
47.243 5.2420001 1.78 42
47.444 5.348 1.831 41
47.536999 5.441 1.8789999 33
47.771999 5.5510001 1.932 38
47.679001 5.6230001 1.972 47
47.737999 5.7119999 2.0179999 40
47.743999 5.7940001 2.063 44
47.671001 5.8670001 2.1040001 39
47.106998 5.8769999 2.1229999 26
47.215 5.9710002 2.1719999 33
47.09 6.033 2.21 32
47.229 6.1300001 2.26 26
0 0 0 16
44.127998 5.875 2.1949999 19
44.148998 5.9510002 2.2390001 21
44.157001 6.0250001 2.2809999 16
44.196999 6.1030002 2.326 15
0 0 0 0
0 0 0 6
44.235001 6.323 2.4549999 6
46.466 6.7160001 2.6229999 25
46.234001 6.757 2.654 26
46.313999 6.842 2.704 26
0 0 0 0
0 0 0 19
43.417 6.619 2.661 19
43.508999 6.7010002 2.71 29
0 0 0 2
0 0 0 0
0 0 0 18
34.055 5.454 2.2539999 12
33.421001 5.4029999 2.2449999 14
33.375 5.4460001 2.2739999 22
33.798 5.5650001 2.3369999 25
33.660999 5.5929999 2.3599999 28
0 0 0 9
31.211 5.2779999 2.25 24
31.327999 5.3429999 2.289 20
31.323 5.388 2.3199999 43
31.289 5.427 2.348 36
31.386 5.4889998 2.3870001 40
31.285999 5.5159998 2.411 38
31.142 5.5349998 2.431 44
31.07 5.5669999 2.4560001 32
31.073 5.6110001 2.4860001 33
31.024 5.645 2.513 43
31.041 5.6900001 2.546 31
31.075001 5.7379999 2.579 35
31.113001 5.7880001 2.6129999 30
31.177 5.8429999 2.6500001 20
31.275 5.902 2.6900001 14
31.339001 5.9559999 2.7260001 4
31.021 5.9369998 2.7290001 1
0 0 0 23
33.525002 6.5040002 3.016 23
33.465 6.5359998 3.0439999 43
33.487999 6.5830002 3.0799999 31
33.353001 6.599 3.0999999 27
33.338001 6.638 3.131 23
33.532001 6.7189999 3.1830001 19
33.652 6.7839999 3.227 18
33.651001 6.8260002 3.2609999 14
33.994999 6.9369998 3.3269999 17
0 0 0 0
0 0 0 0
0 0 0 23
32.981998 6.8889999 3.359 23
33.110001 6.9549999 3.404 22
32.955002 6.96 3.421 22
32.887001 6.9829998 3.4449999 22
32.894001 7.0219998 3.4779999 22
32.826 7.0440001 3.503 22
32.826 7.0809999 3.5350001 22
32.803001 7.1129999 3.5639999 22
32.743999 7.1360002 3.5899999 22
32.970001 7.2210002 3.6470001 22
32.993 7.2610002 3.681 22
33.021 7.303 3.7149999 22
33.018002 7.3369999 3.747 22
32.944 7.355 3.77 22
33.007 7.4039998 3.809 22
31.082001 7.0029998 3.6159999 6
31.326 7.0890002 3.674 21
30.719999 6.9840002 3.632 9
30.583 6.9819999 3.645 10
30.620001 7.02 3.6789999 9
30.635 7.053 3.7090001 20
30.662001 7.0890002 3.7409999 19
30.603001 7.1040001 3.763 19
30.476 7.1030002 3.7750001 19
30.291 7.0879998 3.78 19
30.393999 7.1389999 3.8199999 33
30.24 7.1300001 3.829 31
0 0 0 2
26.816999 6.3699999 3.444 9
26.813 6.3930001 3.4679999 9
26.820999 6.4169998 3.493 5
26.767 6.427 3.51 4
26.688 6.4299998 3.5239999 3
26.865 6.4949999 3.572 2
26.813999 6.5040002 3.589 3
0 0 0 0
0 0 0 0
0 0 0 0
0 0 0 5
26.625 6.5609999 3.681 9
26.587999 6.572 3.698 11
26.539 6.579 3.714 23
26.531 6.5960002 3.7360001 21
26.538 6.6160002 3.76 23
26.542999 6.6360002 3.7839999 33
26.499001 6.6440001 3.799 45
26.419001 6.6409998 3.8099999 49
26.371 6.6469998 3.825 45
26.256001 6.6339998 3.8310001 38
26.153 6.625 3.8369999 22
26.056 6.6170001 3.8440001 22
26.077 6.638 3.868 24
26.16 6.6739998 3.902 24
26.156 6.6890001 3.9230001 26
26.172001 6.7080002 3.9460001 22
26.091999 6.7030001 3.954 18
26.068001 6.71 3.9719999 19
26.052999 6.7210002 3.99 22
26.027 6.7280002 4.0050001 32
25.982 6.73 4.0190001 38
25.959999 6.737 4.0349998 39
25.923 6.7399998 4.0500002 38
25.841999 6.7309999 4.0560002 39
25.805 6.7329998 4.0700002 39
25.756001 6.7329998 4.0809999 42
25.716999 6.7329998 4.0939999 42
25.735001 6.75 4.1149998 33
25.766001 6.7680001 4.1389999 31
25.757999 6.776 4.1560001 27
25.726 6.7779999 4.1700001 29
25.688999 6.7779999 4.1810002 31
25.67 6.783 4.1960001 35
25.643999 6.7849998 4.21 36
25.615 6.7870002 4.223 34
25.565001 6.7820001 4.2319999 30
25.528999 6.7810001 4.244 33
25.502001 6.7810001 4.257 34
25.476 6.7820001 4.2690001 36
25.457001 6.7839999 4.2820001 35
25.427 6.783 4.2940001 31
25.427999 6.79 4.3109999 28
25.389999 6.7859998 4.3210001 24
25.382 6.7909999 4.335 20
25.384001 6.7969999 4.3509998 15
25.372 6.7989998 4.3639998 10
25.378 6.8060002 4.381 6
25.410999 6.8189998 4.402 3
25.384001 6.816 4.4130001 1
0 0 0 45
35.183998 9.4589996 6.158 37
35.122002 9.4469995 6.1680002 31
0 0 0 1
27.250999 7.3369999 4.816 3
27.283001 7.348 4.8369999 5
27.296 7.3540001 4.8540001 7
27.280001 7.3520002 4.8649998 10
27.273001 7.3520002 4.8790002 16
27.273001 7.3530002 4.8930001 20
27.245001 7.3470001 4.902 24
27.24 7.3460002 4.915 29
27.216 7.3410001 4.9239998 33
27.205999 7.3379998 4.9359999 39
0 0 0 2
25.17 6.7880001 4.5910001 3
25.194 6.7940001 4.6069999 5
25.204 6.7950001 4.6199999 6
25.114 6.77 4.6149998 7
25.127001 6.7719998 4.6290002 11
25.141001 6.7740002 4.6420002 18
25.159 6.776 4.6570001 27
25.239 6.7950001 4.6820002 33
25.162001 6.7709999 4.678 13
25.115 6.756 4.6789999 13
25.417999 6.8340001 4.7459998 14
25.424999 6.8319998 4.757 14
25.419001 6.8260002 4.7649999 14
25.472 6.836 4.7849998 14
25.539 6.849 4.8070002 14
25.6 6.8600001 4.8280001 21
25.677 6.8759999 4.8509998 28
25.797001 6.902 4.8829999 24
25.889 6.921 4.9089999 36
25.969 6.9359999 4.9320002 38
26.023001 6.9429998 4.9510002 36
26.070999 6.9489999 4.967 39
26.101999 6.9499998 4.9809999 36
26.139999 6.9530001 4.9959998 37
26.177999 6.9549999 5.0100002 43
26.153999 6.9400001 5.013 43
26.148001 6.9299998 5.0190001 45
26.136999 6.9190001 5.0229998 41
26.146999 6.9120002 5.0320001 49
26.16 6.9060001 5.04 39
26.162001 6.8969998 5.0469999 36
26.18 6.8909998 5.0560002 45
26.207001 6.888 5.066 37
26.209999 6.8790002 5.073 44
26.200001 6.8649998 5.0760002 44
26.207001 6.8559999 5.0819998 42
26.212 6.8449998 5.0869999 37
26.216999 6.835 5.0929999 32
26.223 6.8249998 5.098 27
26.243 6.8169999 5.1059999 22
26.257 6.8070002 5.1129999 17
26.268999 6.7979999 5.118 10
26.243999 6.7789998 5.1160002 7
26.257 6.7680001 5.1209998 3
26.179001 6.7340002 5.1100001 1
0 0 0 31
34.332001 8.7939997 6.7069998 35
34.311001 8.7690001 6.7059999 35
34.311001 8.75 6.7069998 34
34.319 8.7320004 6.711 39
34.316002 8.7110004 6.7119999 33
34.347 8.698 6.7189999 38
34.32 8.6700001 6.7150002 38
34.313 8.6470003 6.7150002 36
34.264999 8.6129999 6.7049999 37
34.257999 8.5889997 6.704 35
34.243 8.5629997 6.7010002 33
34.238998 8.5389996 6.6989999 35
34.223 8.5120001 6.6960001 37
34.199001 8.4829998 6.6890001 41
34.153 8.4469995 6.6789999 42
34.118 8.4139996 6.6700001 38
34.109001 8.3879995 6.6669998 34
34.109001 8.3629999 6.664 37
34.133999 8.3439999 6.6659999 26
34.158001 8.3240004 6.6680002 27
34.075001 8.2779999 6.6479998 35
34.028999 8.2410002 6.6350002 31
34.007999 8.2089996 6.6269999 36
33.956001 8.1700001 6.6129999 44
34.007999 8.1549997 6.618 36
34.105 8.151 6.632 33
34.111 8.125 6.6279998 25
34.129002 8.1009998 6.6259999 27
34.247002 8.1000004 6.6430001 29
34.173 8.0539999 6.6230001 26
34.049 7.9959998 6.592 24
34.021 7.96 6.579 22
33.969002 7.9180002 6.5619998 15
33.999001 7.895 6.5599999 11
34.036999 7.8730001 6.5599999 5
0 0 0 25
43.756001 10.043 8.4110003 31
43.700001 9.9899998 8.3889999 25
43.751999 9.9610004 8.3870001 25
43.759998 9.9209995 8.3760004 28
43.744999 9.8769999 8.3599997 27
43.778999 9.842 8.3529997 24
43.766998 9.7969999 8.3380003 29
43.618999 9.7209997 8.2959995 33
43.493 9.651 8.257 33
43.709999 9.6560001 8.2840004 34
43.724998 9.6149998 8.2709999 32
43.77 9.5810003 8.2639999 23
43.798 9.5430002 8.2530003 28
43.801998 9.4989996 8.2370005 23
43.804001 9.4540005 8.2200003 28
43.832001 9.4139996 8.2080002 28
43.835999 9.3690004 8.1920004 35
43.872002 9.3299999 8.1800003 35
43.873001 9.283 8.1610003 36
43.903999 9.243 8.1470003 38
43.928001 9.1999998 8.132 38
43.903999 9.1479998 8.1090002 43
43.946999 9.1090002 8.0970001 43
44.013 9.073 8.0880003 30
44.040001 9.0299997 8.0710001 31
44.041 8.9809999 8.0489998 36
44.060001 8.9350004 8.0310001 34
44.063999 8.8859997 8.0089998 39
44.074001 8.8369999 7.9879999 40
44.056 8.783 7.961 43
44.041 8.7290001 7.9349999 43
44.051998 8.6820002 7.9109998 43
43.952 8.6099997 7.869 35
43.995998 8.5670004 7.8520002 41
44.102001 8.5369997 7.8449998 43
44.188999 8.5010004 7.8340001 42
44.264999 8.4610004 7.822 37
44.325001 8.4189997 7.8049998 31
44.310001 8.3640003 7.7750001 26
44.292999 8.3070002 7.7449999 32
44.324001 8.2589998 7.7220001 37
44.388 8.2159996 7.704 43
44.376999 8.1590004 7.6729999 43
44.403999 8.1090002 7.6469998 39
44.557999 8.0819998 7.6440001 31
44.626999 8.0380001 7.625 28
44.671001 7.9899998 7.6020002 14
44.736 7.9450002 7.5799999 10
0 0 0 35
57.991001 10.152 9.743 38
57.977001 10.075 9.698 37
58.138 10.028 9.6809998 43
58.268002 9.9759998 9.6599998 42
58.292 9.9040003 9.6199999 42
58.441002 9.8529997 9.6000004 43
58.574001 9.8009996 9.5760002 39
58.661999 9.7390003 9.5439997 40
58.709 9.6700001 9.5030003 43
58.867001 9.618 9.4809999 44
58.922001 9.5489998 9.4420004 43
59.032001 9.4879999 9.4110003 42
59.112999 9.4239998 9.3739996 42
59.358002 9.3839998 9.3629999 36
59.375 9.3070002 9.3149996 20
0 0 0 40
117.271 18.066 18.195 47
117.263 17.91 18.091 51
117.328 17.76 17.996 51
117.313 17.598 17.888 59
117.322 17.440001 17.783001 54
117.325 17.283001 17.676001 46
117.313 17.120001 17.565001 55
117.346 16.966999 17.459999 46
117.467 16.823 17.367001 23
117.534 16.67 17.264999 26
0 0 0 0
0 0 0 28
117.477 16.173 16.913 36
117.44 16.007 16.792 43
117.43 15.842 16.673 47
117.441 15.679 16.556 61
117.423 15.515 16.434 70
117.477 15.357 16.320999 77
117.458 15.193 16.197001 71
117.454 15.027 16.073999 68
117.504 14.868 15.957 63
117.507 14.705 15.833 60
117.55 14.544 15.713 58
117.622 14.386 15.595 42
117.67 14.229 15.474 39
117.817 14.075 15.363 28
117.847 13.915 15.237 30
0 0 0 0
0 0 0 0
0 0 0 0
0 0 0 0
0 0 0 0
0 0 0 34
0 0 0 0
0 0 0 0
0 0 0 0
0 0 0 0
0 0 0 0
0 0 0 0
0 0 0 0
0 0 0 0
0 0 0 0
0 0 0 0
0 0 0 0
0 0 0 41
117.738 10.715 12.562 46
117.723 10.544 12.411 64
117.739 10.379 12.262 67
117.75 10.208 12.11 67
117.769 10.043 11.96 82
117.768 9.8730001 11.802 73
117.798 9.7060003 11.65 85
117.79 9.5360003 11.493 91
117.767 9.3649998 11.333 120
117.811 9.2030001 11.181 110
117.821 9.0340004 11.023 74
117.78 8.8620005 10.859 34
0 0 0 0
0 0 0 0
0 0 0 24
119.224 8.2919998 10.337 26
0 0 0 0
0 0 0 0
0 0 0 0
0 0 0 0
0 0 0 24
118.318 7.2249999 9.2609997 34
118.105 7.0450001 9.0740004 30
118.207 6.8870001 8.9130001 43
118.242 6.7220001 8.743 27
118.257 6.5580001 8.573 22
0 0 0 14
0 0 0 0
0 0 0 36
0 0 0 0
0 0 0 24
90.035004 4.237 5.7249999 28
90.218002 4.1199999 5.6009998 38
90.319 3.9979999 5.4699998 34
90.264999 3.8729999 5.3299999 19
0 0 0 0
0 0 0 25
120.701 4.6799998 6.573 33
120.726 4.5149999 6.3870001 37
120.625 4.348 6.1960001 29
0 0 0 0
0 0 0 23
90.903999 2.9030001 4.2399998 26
92.016998 2.8099999 4.1420002 15
91.709999 2.6789999 3.984 17
92.870003 2.5869999 3.8870001 31
93.255997 2.471 3.753 25
93.416 2.3499999 3.609 20
0 0 0 0
0 0 0 0
0 0 0 0
0 0 0 0
0 0 0 14
87.838997 1.505 2.533 15
85.570999 1.355 2.3280001 32
85.688004 1.244 2.1889999 36
86.040001 1.137 2.0550001 30
86.648003 1.0319999 1.925 23
86.902 0.92199999 1.786 31
86.856003 0.80800003 1.6390001 25
86.988998 0.699 1.497 15
0 0 0 0
0 0 0 11
84.617996 0.354 1.027 30
84.686996 0.245 0.88099998 34
0 0 0 0
0 0 0 0
0 0 0 28
86.385002 -0.18099999 0.31200001 18
89.706001 -0.30000001 0.169 13
0 0 0 0
0 0 0 36
73.736 -0.51899999 -0.242 64
73.728996 -0.61000001 -0.37099999 78
73.737999 -0.70099998 -0.50199997 56
73.751999 -0.79100001 -0.63099998 31
0 0 0 0
0 0 0 36
73.063004 -1.0470001 -1.01 65
72.831001 -1.131 -1.136 59
70.602997 -1.1799999 -1.226 102
70.627998 -1.2640001 -1.352 15
67.441002 -1.2869999 -1.411 12
67.393997 -1.3660001 -1.5319999 66
67.398003 -1.4450001 -1.653 40
0 0 0 6
44.785 -1.063 -1.2589999 21
44.73 -1.113 -1.336 18
44.749001 -1.164 -1.4170001 11
44.650002 -1.212 -1.494 6
44.659 -1.263 -1.575 26
44.506001 -1.308 -1.649 59
44.469002 -1.3559999 -1.729 66
44.183998 -1.398 -1.799 68
43.821999 -1.433 -1.862 44
43.540001 -1.473 -1.931 36
43.252998 -1.511 -1.997 13
0 0 0 1
31.282 -1.16 -1.558 2
0 0 0 0
0 0 0 9
24.278999 -0.97799999 -1.342 1
0 0 0 1
19.474001 -0.82499999 -1.148 1
18.346001 -0.796 -1.115 1
17.245001 -0.76599997 -1.08 2
16.336 -0.74299997 -1.053 2
15.518 -0.72100002 -1.029 2
14.802 -0.70300001 -1.0089999 2
14.053 -0.68099999 -0.98299998 2
13.403 -0.66299999 -0.963 2
12.911 -0.65200001 -0.95099998 3
12.361 -0.63599998 -0.93400002 3
11.824 -0.62 -0.91500002 2
11.354 -0.60600001 -0.89999998 2
10.935 -0.59500003 -0.88700002 3
10.531 -0.583 -0.87400001 3
10.157 -0.57200003 -0.861 2
9.79 -0.56 -0.84799999 2
9.4530001 -0.55000001 -0.83700001 3
9.0900002 -0.537 -0.82099998 3
8.776 -0.52600002 -0.80900002 3
8.4870005 -0.51700002 -0.79799998 3
8.2189999 -0.50800002 -0.78799999 3
7.9310002 -0.49700001 -0.77499998 3
7.7069998 -0.49000001 -0.76800001 4
7.461 -0.48100001 -0.75700003 4
7.263 -0.47499999 -0.75 4
7.0650001 -0.46799999 -0.74299997 5
6.8699999 -0.461 -0.73500001 6
6.6849999 -0.454 -0.72799999 7
6.5489998 -0.44999999 -0.72500002 4
6.4050002 -0.44600001 -0.72100002 3
6.2059999 -0.43700001 -0.70999998 2
6.0669999 -0.43200001 -0.70499998 2
5.941 -0.428 -0.70200002 2
5.7989998 -0.42300001 -0.69599998 2
5.6750002 -0.419 -0.69199997 3
5.5640001 -0.41499999 -0.68800002 2
5.4219999 -0.40799999 -0.68099999 2
5.323 -0.405 -0.67799997 2
5.23 -0.40200001 -0.676 2
5.1009998 -0.396 -0.66900003 3
5.0149999 -0.39300001 -0.667 2
4.9250002 -0.38999999 -0.66399997 2
4.8390002 -0.38699999 -0.66100001 2
4.744 -0.38299999 -0.65700001 2
4.671 -0.38 -0.65499997 2
4.5900002 -0.377 -0.65200001 3
4.5089998 -0.37400001 -0.64899999 2
4.4200001 -0.36899999 -0.64399999 3
4.3499999 -0.36700001 -0.64200002 3
4.2870002 -0.36399999 -0.64099997 3
4.1880002 -0.359 -0.63300002 1
4.1069999 -0.35499999 -0.62900001 2
4.0510001 -0.35299999 -0.62699997 3
3.9949999 -0.34999999 -0.62599999 2
3.9360001 -0.34799999 -0.62400001 2
3.9449999 -0.35100001 -0.63200003 3
3.8239999 -0.34299999 -0.62 1
3.7969999 -0.34299999 -0.62199998 2
3.717 -0.338 -0.616 3
3.753 -0.34299999 -0.62800002 3
3.6700001 -0.338 -0.62099999 3
3.5929999 -0.333 -0.61500001 3
3.546 -0.331 -0.61299998 1
3.5039999 -0.329 -0.61199999 1
3.4319999 -0.324 -0.60500002 1
3.461 -0.329 -0.61699998 1
3.4449999 -0.33000001 -0.62 1
3.3870001 -0.32600001 -0.61500001 2
3.3540001 -0.32499999 -0.61500001 2
3.233 -0.315 -0.59899998 4
3.2119999 -0.31400001 -0.60100001 7
3.1889999 -0.31400001 -0.602 8
3.148 -0.31099999 -0.60000002 8
3.1140001 -0.31 -0.59899998 9
3.089 -0.30899999 -0.59899998 9
3.0550001 -0.30700001 -0.59799999 8
3.0220001 -0.30500001 -0.59600002 6
2.994 -0.30399999 -0.59600002 5
2.9660001 -0.30199999 -0.59600002 4
2.938 -0.301 -0.59500003 3
2.898 -0.29800001 -0.59200001 2
2.8640001 -0.296 -0.58999997 2
2.832 -0.294 -0.588 2
2.8010001 -0.292 -0.58600003 2
2.7720001 -0.28999999 -0.58499998 2
2.743 -0.28799999 -0.583 2
2.721 -0.287 -0.583 2
2.6949999 -0.28600001 -0.58200002 2
2.6730001 -0.28400001 -0.58200002 2
2.648 -0.28299999 -0.58099997 2
2.6289999 -0.28200001 -0.58099997 2
2.608 -0.28 -0.57999998 1
2.5799999 -0.278 -0.57800001 1
2.5550001 -0.27700001 -0.57700002 1
2.5339999 -0.27500001 -0.57599998 1
2.5090001 -0.273 -0.57499999 1
2.483 -0.271 -0.57200003 1
2.4690001 -0.271 -0.57300001 1
2.4519999 -0.27000001 -0.57300001 1
2.428 -0.26800001 -0.57099998 1
2.405 -0.266 -0.56999999 1
2.3870001 -0.26499999 -0.56900001 1
2.3759999 -0.264 -0.56999999 1
2.358 -0.26300001 -0.56999999 1
2.332 -0.26100001 -0.56699997 1
2.319 -0.25999999 -0.56699997 1
2.29 -0.25799999 -0.56400001 1
2.279 -0.257 -0.565 1
2.2639999 -0.25600001 -0.56400001 1
2.2460001 -0.25400001 -0.56300002 1
2.2320001 -0.25299999 -0.56300002 2
2.22 -0.25299999 -0.56300002 3
2.214 -0.252 -0.565 3
2.21 -0.252 -0.56699997 3
2.1960001 -0.25099999 -0.56699997 3
2.181 -0.25 -0.56599998 2
2.1589999 -0.248 -0.56300002 2
2.142 -0.24699999 -0.56199998 1
2.1240001 -0.245 -0.56 1
2.112 -0.244 -0.56 1
2.098 -0.243 -0.55900002 1
2.0829999 -0.241 -0.55800003 1
2.082 -0.242 -0.56099999 1
2.0680001 -0.23999999 -0.56 2
2.0550001 -0.23899999 -0.55900002 2
2.039 -0.23800001 -0.55800003 2
2.0339999 -0.237 -0.55900002 2
2.02 -0.236 -0.55800003 2
2.0090001 -0.235 -0.55800003 2
1.994 -0.233 -0.55599999 1
1.987 -0.233 -0.55699998 1
1.972 -0.23100001 -0.55500001 1
1.964 -0.23100001 -0.55500001 1
1.955 -0.23 -0.55500001 1
1.943 -0.228 -0.55400002 1
1.928 -0.227 -0.55199999 1
1.926 -0.227 -0.55400002 1
1.899 -0.22400001 -0.54900002 1
1.895 -0.223 -0.55000001 1
1.8839999 -0.222 -0.54900002 1
1.876 -0.221 -0.54900002 1
1.872 -0.221 -0.55000001 1
1.858 -0.219 -0.54799998 1
1.854 -0.219 -0.54900002 1
1.848 -0.21799999 -0.55000001 1
1.8380001 -0.21699999 -0.54900002 1
1.834 -0.21699999 -0.55000001 1
1.822 -0.215 -0.54799998 1
1.813 -0.214 -0.54799998 1
1.801 -0.213 -0.546 1
1.7920001 -0.212 -0.54500002 1
1.791 -0.212 -0.54699999 1
1.783 -0.211 -0.546 1
1.773 -0.20999999 -0.54500002 1
1.768 -0.20900001 -0.546 1
1.765 -0.208 -0.546 1
1.752 -0.207 -0.54400003 1
1.75 -0.206 -0.54500002 1
1.734 -0.205 -0.542 1
1.738 -0.205 -0.54500002 1
1.727 -0.204 -0.54299998 1
1.7180001 -0.20200001 -0.542 1
1.717 -0.20200001 -0.54299998 1
1.715 -0.20200001 -0.54400003 1
1.7 -0.2 -0.54100001 1
1.7 -0.2 -0.54299998 1
1.693 -0.199 -0.542 1
1.687 -0.198 -0.54100001 1
1.6849999 -0.197 -0.54299998 1
1.679 -0.19599999 -0.542 1
1.674 -0.19599999 -0.542 1
1.664 -0.19400001 -0.54000002 1
1.664 -0.19400001 -0.54100001 1
1.6569999 -0.193 -0.54000002 1
1.655 -0.192 -0.54100001 1
1.649 -0.192 -0.54000002 1
1.643 -0.191 -0.54000002 1
1.636 -0.19 -0.53899997 1
1.638 -0.189 -0.54100001 1
1.633 -0.189 -0.54000002 1
1.64 -0.189 -0.54400003 1
1.6210001 -0.18700001 -0.53899997 1
1.6210001 -0.186 -0.54000002 1
1.607 -0.184 -0.53600001 1
1.605 -0.184 -0.537 1
1.608 -0.184 -0.53799999 1
1.607 -0.183 -0.53899997 1
1.6 -0.182 -0.53799999 1
1.589 -0.18099999 -0.53500003 1
1.594 -0.18099999 -0.53799999 1
1.5880001 -0.18000001 -0.537 1
1.5829999 -0.17900001 -0.53600001 1
1.585 -0.17900001 -0.53799999 1
1.59 -0.17900001 -0.54000002 1
1.574 -0.177 -0.53600001 1
1.587 -0.178 -0.54100001 1
1.569 -0.175 -0.53600001 1
1.569 -0.175 -0.53600001 1
1.567 -0.17399999 -0.53600001 1
1.561 -0.17299999 -0.53500003 1
1.561 -0.17299999 -0.53600001 1
1.559 -0.17200001 -0.53600001 1
1.561 -0.17200001 -0.537 1
1.556 -0.171 -0.53600001 1
1.562 -0.171 -0.53899997 1
1.562 -0.171 -0.53899997 1
1.564 -0.17 -0.54100001 1
1.549 -0.168 -0.53600001 1
1.551 -0.168 -0.537 1
1.556 -0.168 -0.53899997 1
1.55 -0.167 -0.53799999 1
1.549 -0.16599999 -0.53799999 1
1.5420001 -0.16500001 -0.53600001 1
1.54 -0.164 -0.53600001 1
1.544 -0.164 -0.53799999 1
1.535 -0.163 -0.53500003 1
1.539 -0.163 -0.537 1
1.5369999 -0.162 -0.53600001 1
1.54 -0.162 -0.53799999 1
1.5369999 -0.161 -0.537 1
1.5369999 -0.16 -0.537 1
1.543 -0.16 -0.53899997 1
1.534 -0.15899999 -0.53600001 1
1.531 -0.15800001 -0.53500003 1
1.5369999 -0.15800001 -0.53799999 1
1.539 -0.15800001 -0.53899997 1
1.539 -0.15700001 -0.53899997 1
1.533 -0.156 -0.537 1
1.539 -0.156 -0.53899997 1
1.539 -0.155 -0.53899997 1
1.536 -0.154 -0.53799999 1
1.53 -0.153 -0.53600001 1
1.53 -0.152 -0.53600001 1
1.528 -0.152 -0.53500003 1
1.53 -0.15099999 -0.53600001 1
1.53 -0.15000001 -0.53600001 1
1.543 -0.15099999 -0.54000002 1
1.536 -0.15000001 -0.53799999 1
1.5369999 -0.149 -0.53799999 1
1.523 -0.147 -0.53299999 1
1.5319999 -0.147 -0.53600001 1
1.538 -0.147 -0.53799999 1
1.531 -0.146 -0.53500003 1
1.538 -0.146 -0.537 1
1.531 -0.145 -0.53500003 1
1.541 -0.145 -0.53799999 1
1.538 -0.14399999 -0.53600001 1
1.541 -0.14300001 -0.537 1
1.544 -0.14300001 -0.53799999 1
1.544 -0.142 -0.537 1
1.544 -0.141 -0.537 1
1.55 -0.141 -0.53899997 1
1.545 -0.14 -0.53600001 1
1.5549999 -0.14 -0.54000002 1
1.557 -0.14 -0.54000002 1
1.562 -0.139 -0.54100001 1
1.564 -0.139 -0.54100001 1
1.562 -0.138 -0.54000002 1
1.546 -0.13600001 -0.53399998 1
1.563 -0.13600001 -0.53899997 1
1.562 -0.13500001 -0.53799999 1
1.557 -0.134 -0.53600001 1
1.563 -0.134 -0.537 1
1.564 -0.133 -0.537 1
1.573 -0.133 -0.53899997 1
1.5650001 -0.132 -0.53500003 1
1.568 -0.131 -0.53600001 1
1.569 -0.131 -0.53500003 1
1.573 -0.13 -0.53600001 1
1.574 -0.12899999 -0.53500003 1
1.576 -0.12899999 -0.53500003 1
1.592 -0.12899999 -0.54000002 1
1.59 -0.12800001 -0.53799999 1
1.592 -0.12800001 -0.53799999 1
1.5930001 -0.127 -0.537 1
1.599 -0.126 -0.53799999 1
1.605 -0.126 -0.53899997 1
1.609 -0.125 -0.53899997 1
1.615 -0.125 -0.54000002 1
1.613 -0.124 -0.53899997 1
1.613 -0.123 -0.537 1
1.6289999 -0.124 -0.542 1
1.62 -0.122 -0.53799999 1
1.626 -0.122 -0.53799999 1
1.63 -0.121 -0.53899997 1
1.631 -0.12 -0.53799999 1
1.635 -0.12 -0.53799999 1
1.656 -0.12 -0.54299998 1
1.6569999 -0.119 -0.542 1
1.665 -0.119 -0.54299998 1
1.6619999 -0.118 -0.54100001 1
1.665 -0.117 -0.54100001 1
1.671 -0.117 -0.54100001 1
1.6799999 -0.116 -0.54299998 1
1.6900001 -0.116 -0.54500002 1
1.689 -0.115 -0.54299998 1
1.694 -0.115 -0.54299998 1
1.7029999 -0.114 -0.54400003 1
1.706 -0.114 -0.54400003 1
1.71 -0.113 -0.54299998 1
1.72 -0.112 -0.54500002 1
1.725 -0.112 -0.54500002 1
1.729 -0.111 -0.54400003 1
1.737 -0.111 -0.54500002 1
1.739 -0.11 -0.54400003 1
1.749 -0.11 -0.54500002 1
1.758 -0.109 -0.546 1
1.7589999 -0.108 -0.54500002 1
1.776 -0.108 -0.54799998 1
1.775 -0.107 -0.546 1
1.777 -0.106 -0.54400003 1
1.791 -0.106 -0.54699999 1
1.796 -0.105 -0.546 1
1.809 -0.105 -0.54799998 1
1.824 -0.105 -0.551 1
1.823 -0.104 -0.54799998 1
1.832 -0.104 -0.54900002 1
1.836 -0.103 -0.54799998 1
1.849 -0.102 -0.55000001 1
1.859 -0.102 -0.55000001 1
1.8660001 -0.101 -0.55000001 1
1.878 -0.101 -0.55199999 1
1.8839999 -0.1 -0.551 1
1.888 -0.098999999 -0.55000001 1
1.909 -0.1 -0.55400002 1
1.919 -0.098999999 -0.55400002 1
1.926 -0.097999997 -0.55400002 1
1.931 -0.097000003 -0.55199999 1
1.942 -0.097000003 -0.55299997 1
1.957 -0.097000003 -0.55500001 1
1.967 -0.096000001 -0.55500001 1
1.979 -0.096000001 -0.55599999 1
1.988 -0.094999999 -0.55599999 1
2.0009999 -0.093999997 -0.55699998 1
2.0150001 -0.093999997 -0.55800003 1
2.027 -0.093999997 -0.55800003 1
2.0339999 -0.093000002 -0.55800003 1
2.046 -0.092 -0.55800003 1
2.059 -0.092 -0.55900002 1
2.073 -0.090999998 -0.56 1
2.089 -0.090999998 -0.56099999 1
2.092 -0.090000004 -0.55900002 1
2.1140001 -0.090000004 -0.56099999 1
2.132 -0.089000002 -0.56300002 1
2.141 -0.089000002 -0.56199998 1
2.164 -0.088 -0.565 2
2.1819999 -0.088 -0.56699997 3
2.197 -0.088 -0.56699997 4
2.2090001 -0.086999997 -0.56699997 5
2.2149999 -0.086000003 -0.565 4
2.224 -0.085000001 -0.56400001 3
2.233 -0.083999999 -0.56300002 2
2.25 -0.083999999 -0.56400001 1
2.2739999 -0.083999999 -0.56599998 1
2.2820001 -0.082999997 -0.56400001 1
2.2969999 -0.082000002 -0.56400001 1
2.3180001 -0.082000002 -0.56599998 1
2.3440001 -0.082000002 -0.56900001 1
2.3570001 -0.081 -0.56800002 1
2.378 -0.081 -0.56900001 1
2.3970001 -0.079999998 -0.56999999 1
2.414 -0.079999998 -0.56999999 1
2.4289999 -0.079000004 -0.56999999 1
2.46 -0.079000004 -0.57300001 1
2.4779999 -0.078000002 -0.57300001 1
2.5 -0.078000002 -0.574 1
2.5339999 -0.078000002 -0.57700002 2
2.5599999 -0.077 -0.579 2
2.575 -0.077 -0.57800001 2
2.5969999 -0.075999998 -0.57800001 2
2.6210001 -0.075999998 -0.579 1
2.6440001 -0.075000003 -0.57999998 1
2.6760001 -0.075000003 -0.58200002 2
2.6960001 -0.074000001 -0.58200002 2
2.7179999 -0.074000001 -0.58200002 2
2.7520001 -0.074000001 -0.58399999 1
2.7820001 -0.072999999 -0.58600003 1
2.809 -0.072999999 -0.58600003 2
2.835 -0.071999997 -0.58700001 2
2.8599999 -0.071999997 -0.58700001 2
2.8889999 -0.071000002 -0.588 2
2.927 -0.071000002 -0.58999997 2
2.96 -0.071000002 -0.59100002 2
3.0020001 -0.071000002 -0.59399998 1
3.043 -0.07 -0.597 2
3.062 -0.07 -0.59500003 2
3.1059999 -0.07 -0.59799999 2
3.145 -0.068999998 -0.59899998 1
3.306 -0.071999997 -0.62400001 2
3.2179999 -0.068999998 -0.60100001 2
3.247 -0.068000004 -0.60100001 2
3.29 -0.068000004 -0.60299999 2
0 0 0 2
3.4330001 -0.068000004 -0.616 2
3.586 -0.07 -0.63599998 2
3.49 -0.067000002 -0.61299998 2
3.5409999 -0.067000002 -0.61500001 2
3.586 -0.067000002 -0.616 3
3.6270001 -0.066 -0.616 1
3.687 -0.066 -0.61900002 2
3.7360001 -0.066 -0.62 2
3.8210001 -0.066 -0.62699997 2
3.8629999 -0.066 -0.62599999 2
3.8770001 -0.064999998 -0.62099999 2
3.948 -0.064999998 -0.625 2
4.0250001 -0.064999998 -0.62900001 2
4.105 -0.066 -0.63300002 2
4.2059999 -0.066 -0.64099997 2
4.2210002 -0.064999998 -0.63499999 2
4.3060002 -0.064999998 -0.639 2
4.4070001 -0.066 -0.64499998 2
4.494 -0.066 -0.64899999 3
4.5900002 -0.066 -0.653 2
4.678 -0.067000002 -0.65700001 2
4.7649999 -0.067000002 -0.65899998 2
4.8569999 -0.067000002 -0.662 3
4.9400001 -0.067000002 -0.66399997 4
5.0599999 -0.068000004 -0.67000002 3
5.1690001 -0.068000004 -0.67299998 3
5.283 -0.068000004 -0.67699999 3
5.4159999 -0.068999998 -0.68400002 3
5.5440001 -0.07 -0.68900001 4
5.6700001 -0.07 -0.69300002 4
5.8309999 -0.071000002 -0.69999999 4
5.9520001 -0.071999997 -0.70200002 4
6.1069999 -0.072999999 -0.708 4
6.2839999 -0.074000001 -0.71600002 5
6.4369998 -0.075000003 -0.72000003 5
6.605 -0.075999998 -0.72500002 6
6.8179998 -0.077 -0.73500001 5
7.0560002 -0.079000004 -0.745 7
7.323 -0.081 -0.75800002 6
7.6329999 -0.083999999 -0.77499998 13
7.862 -0.085000001 -0.78200001 14
8.0780001 -0.086999997 -0.78600001 15
8.3319998 -0.089000002 -0.79400003 15
8.6459999 -0.090999998 -0.80500001 7
9.0710001 -0.094999999 -0.82499999 4
9.4709997 -0.097999997 -0.84200001 4
9.9060001 -0.102 -0.86000001 4
10.359 -0.106 -0.87699997 4
10.775 -0.11 -0.88999999 4
11.241 -0.114 -0.90499997 3
11.748 -0.119 -0.921 4
12.326 -0.124 -0.94 3
12.942 -0.13 -0.95999998 3
13.626 -0.13699999 -0.98100001 3
14.312 -0.14300001 -1 3
15.061 -0.15099999 -1.021 2
0 0 0 3
0 0 0 2
0 0 0 2
0 0 0 1
0 0 0 1
0 0 0 1
0 0 0 1
0 0 0 0
0 0 0 0
0 0 0 10
46.583 -0.48300001 -2.0639999 157
46.591999 -0.486 -1.966 180
46.615002 -0.49000001 -1.867 203
46.627998 -0.495 -1.768 206
46.633999 -0.49900001 -1.668 193
46.638 -0.50400001 -1.569 164
46.646 -0.509 -1.47 150
0 0 0 0
0 0 0 40
0 0 0 25
0 0 0 38
134.50101 -1.554 -2.8050001 92
134.569 -1.575 -2.5179999 90
134.55499 -1.596 -2.23 58
134.487 -1.617 -1.9400001 64
134.47701 -1.64 -1.652 53
0 0 0 35
73.747002 -0.92500001 -0.59200001 74
73.744003 -0.93900001 -0.435 86
73.755997 -0.954 -0.27900001 63
73.758003 -0.96899998 -0.121 31
73.721001 -0.98400003 0.035 9
0 0 0 0
0 0 0 0
0 0 0 0
0 0 0 0
0 0 0 23
65.057999 -0.95999998 0.861 47
64.772003 -0.97299999 0.995 45
64.431999 -0.98500001 1.127 34
64.157997 -0.99800003 1.256 23
64.424004 -1.02 1.398 37
64.746002 -1.044 1.54 62
64.897003 -1.0650001 1.681 48
64.859001 -1.084 1.813 17
67.175003 -1.143 2.02 55
66.886002 -1.159 2.1500001 93
66.871002 -1.1799999 2.2909999 82
66.808998 -1.2 2.4289999 92
66.446999 -1.216 2.553 64
65.985001 -1.23 2.674 53
65.582001 -1.244 2.793 70
65.508003 -1.266 2.925 66
65.516998 -1.289 3.0610001 60
65.339996 -1.3099999 3.1889999 64
64.760002 -1.322 3.2950001 51
64.292999 -1.337 3.405 69
64.216003 -1.36 3.5339999 75
64.183998 -1.385 3.668 70
63.922001 -1.404 3.783 63
63.308998 -1.416 3.878 56
62.919998 -1.433 3.984 78
62.888 -1.459 4.1110001 70
62.874001 -1.484 4.237 68
62.441002 -1.501 4.336 47
61.777 -1.512 4.4159999 61
61.554001 -1.533 4.526 66
61.563999 -1.5599999 4.651 63
61.419998 -1.585 4.7649999 62
60.741001 -1.595 4.835 45
60.240002 -1.61 4.9169998 59
60.210999 -1.637 5.033 53
60.188 -1.665 5.152 58
59.638 -1.678 5.2249999 43
58.966999 -1.688 5.2849998 56
58.889 -1.715 5.3969998 52
58.872002 -1.744 5.513 40
58.312 -1.756 5.5749998 21
57.568001 -1.7640001 5.6199999 27
57.381001 -1.7869999 5.7140002 16
56.894001 -1.801 5.7779999 11
56.347 -1.814 5.8330002 9
56.154999 -1.837 5.9229999 9
55.797001 -1.855 5.993 10
55.525002 -1.876 6.072 9
55.207001 -1.895 6.145 9
54.886002 -1.915 6.2160001 10
54.618 -1.9349999 6.29 9
54.261002 -1.9529999 6.3530002 9
53.91 -1.971 6.4159999 9
53.540001 -1.988 6.4749999 7
53.324001 -2.01 6.5489998 5
0 0 0 0
0 0 0 0
0 0 0 6
52.084999 -2.086 6.7919998 11
51.827999 -2.1059999 6.8540001 32
51.799999 -2.1359999 6.947 47
51.766998 -2.1670001 7.04 54
51.387001 -2.181 7.0819998 44
50.875999 -2.191 7.1059999 46
50.868999 -2.223 7.1989999 42
50.869999 -2.2550001 7.2919998 44
50.623001 -2.276 7.3499999 42
49.736 -2.2679999 7.3119998 39
49.514 -2.289 7.3699999 42
49.492001 -2.319 7.454 41
49.514 -2.352 7.5469999 42
48.901001 -2.355 7.5409999 29
48.168999 -2.3510001 7.5139999 41
48.161999 -2.382 7.5970001 38
48.168999 -2.414 7.684 40
48.118 -2.444 7.7610002 49
47.248001 -2.431 7.704 32
46.830002 -2.441 7.7179999 39
46.827999 -2.4719999 7.7989998 37
46.834 -2.5039999 7.8800001 38
46.701 -2.529 7.9390001 46
45.768002 -2.51 7.8590002 35
45.495998 -2.527 7.8899999 35
45.485001 -2.5569999 7.967 43
45.493 -2.5880001 8.0439997 34
45.320999 -2.6099999 8.0900002 35
44.396 -2.589 7.9980001 34
44.140999 -2.605 8.0249996 35
44.148998 -2.6359999 8.099 40
44.141998 -2.6670001 8.1700001 33
44.139 -2.698 8.2419996 39
43.397999 -2.6830001 8.1750002 23
42.819 -2.678 8.1359997 30
42.799999 -2.7079999 8.2010002 32
42.818001 -2.7390001 8.2720003 32
42.811001 -2.77 8.3389997 33
42.397999 -2.7739999 8.3260002 28
41.525002 -2.747 8.2200003 37
41.466999 -2.7739999 8.2729998 39
41.466 -2.8039999 8.3369999 39
41.462002 -2.8340001 8.401 38
41.470001 -2.8640001 8.4659996 37
40.846001 -2.8499999 8.3999996 21
40.122002 -2.8299999 8.3120003 26
40.083 -2.8570001 8.3640003 28
40.095001 -2.8870001 8.427 28
40.111 -2.918 8.4879999 27
40.104 -2.947 8.5459995 27
39.429001 -2.927 8.46 19
38.792999 -2.908 8.3789997 28
38.764999 -2.9349999 8.4289999 37
38.764 -2.9630001 8.4840002 34
38.786999 -2.994 8.5450001 33
38.761002 -3.0220001 8.5939999 31
38.305 -3.0150001 8.5469999 22
37.455002 -2.9760001 8.4099998 29
37.426998 -3.0020001 8.4560003 29
37.389 -3.027 8.4989996 33
37.414001 -3.0580001 8.5559998 31
37.410999 -3.085 8.6049995 30
37.404999 -3.1129999 8.6540003 27
36.661999 -3.079 8.5310001 19
36.077999 -3.0569999 8.4429998 24
36.047001 -3.082 8.4829998 32
36.050999 -3.109 8.5319996 32
36.063 -3.138 8.5810003 31
36.063 -3.165 8.6269999 32
36.068001 -3.1930001 8.6739998 30
35.591 -3.178 8.6040001 20
34.755001 -3.1300001 8.4460001 25
34.702 -3.1500001 8.4759998 32
34.695999 -3.177 8.5170002 32
34.710999 -3.204 8.5629997 33
34.703999 -3.2290001 8.6020002 33
34.73 -3.2579999 8.6499996 33
34.703999 -3.2820001 8.6850004 30
33.986 -3.2390001 8.5450001 17
33.386002 -3.207 8.4309998 26
33.346001 -3.2279999 8.4589996 33
33.368 -3.2550001 8.5019999 32
33.370998 -3.279 8.54 32
33.380001 -3.306 8.5799999 30
33.366001 -3.329 8.6129999 31
33.377998 -3.3559999 8.6520004 28
32.998001 -3.342 8.5889997 24
32.126999 -3.2780001 8.3959999 23
32.007 -3.289 8.3979998 28
32.001999 -3.312 8.4300003 28
31.997999 -3.335 8.4619999 29
32.009998 -3.3610001 8.4969997 29
32.005001 -3.3840001 8.5279999 29
32.006001 -3.408 8.5600004 28
32.011002 -3.431 8.5930004 30
32.004002 -3.454 8.6219997 21
31.188 -3.3889999 8.4320002 17
30.687 -3.3570001 8.3260002 24
30.646 -3.3740001 8.3430004 27
30.643 -3.3959999 8.3699999 28
30.653999 -3.4189999 8.401 28
30.646999 -3.4400001 8.4259996 28
30.674 -3.4649999 8.46 27
30.653999 -3.4849999 8.4820004 26
30.662001 -3.5079999 8.5100002 26
30.663 -3.53 8.5360003 26
30.098 -3.4860001 8.4040003 14
29.378 -3.4230001 8.2259998 18
29.299 -3.434 8.2279997 25
29.290001 -3.454 8.2480001 27
29.302999 -3.4749999 8.2749996 26
29.301001 -3.4960001 8.2969999 27
29.306999 -3.517 8.3199997 26
29.302999 -3.5369999 8.3409996 27
29.311001 -3.5580001 8.3649998 26
29.313 -3.5769999 8.3859997 26
29.312 -3.5969999 8.4060001 25
29.294001 -3.615 8.4209995 22
28.613001 -3.55 8.2449999 15
28.018 -3.4960001 8.092 18
27.943001 -3.5050001 8.0880003 22
27.940001 -3.523 8.1059999 25
27.947001 -3.5420001 8.125 24
27.954 -3.5610001 8.1440001 25
27.945 -3.579 8.158 26
27.944 -3.5969999 8.1739998 24
27.961 -3.6170001 8.1949997 24
27.954 -3.6340001 8.2089996 25
27.952999 -3.652 8.224 24
27.951 -3.668 8.2379999 22
27.950001 -3.687 8.2530003 22
27.645 -3.6630001 8.1759996 17
26.968 -3.5899999 7.9899998 16
26.643 -3.5639999 7.9060001 21
26.597 -3.5739999 7.9050002 23
26.587 -3.589 7.914 26
26.582001 -3.6040001 7.9239998 24
26.593 -3.6210001 7.9380002 26
26.6 -3.638 7.9510002 26
26.587 -3.652 7.9580002 26
26.59 -3.668 7.9689999 25
26.608999 -3.6860001 7.9850001 25
26.589001 -3.6989999 7.9879999 25
26.6 -3.7160001 8.0010004 24
26.59 -3.73 8.0059996 23
26.610001 -3.747 8.0209999 22
26.596001 -3.76 8.0249996 21
26.591 -3.7739999 8.0310001 21
26.250999 -3.74 7.9359999 15
25.634001 -3.6659999 7.756 14
25.319 -3.6340001 7.6669998 19
25.249001 -3.638 7.652 21
25.238001 -3.6500001 7.6539998 24
25.239 -3.6630001 7.6599998 25
25.232 -3.675 7.6620002 24
25.219999 -3.6860001 7.664 24
25.202 -3.697 7.6620002 22
25.145 -3.701 7.6490002 22
25.087 -3.7049999 7.6350002 19
24.981001 -3.701 7.6059999 14
24.875 -3.698 7.5760002 14
24.719999 -3.687 7.5310001 13
24.530001 -3.6700001 7.4759998 11
