# .PCD v0.7 - Point Cloud Data file format
VERSION 0.7
FIELDS x y z intensity
SIZE 4 4 4 4
TYPE F F F F
COUNT 1 1 1 1
WIDTH 1800
HEIGHT 1
VIEWPOINT 0 0 0 1 0 0 0
POINTS 1800
DATA ascii
0 0 0 0
0 0 0 5
33.993999 -2.563 3.2809999 18
33.990002 -2.5339999 3.2190001 35
33.969002 -2.5039999 3.1559999 45
33.944 -2.473 3.092 47
33.91 -2.441 3.027 46
33.896999 -2.4100001 2.964 52
33.893002 -2.3800001 2.902 49
33.886002 -2.349 2.8410001 49
33.890999 -2.319 2.78 50
33.866001 -2.2869999 2.717 49
33.873001 -2.257 2.6559999 51
33.860001 -2.2249999 2.5940001 52
33.858002 -2.1930001 2.5309999 49
33.855999 -2.161 2.4690001 52
33.834999 -2.1289999 2.408 51
33.848 -2.0969999 2.3469999 38
33.866001 -2.066 2.286 18
33.981998 -2.04 2.233 12
34.028 -2.01 2.174 11
33.938 -1.972 2.1070001 18
33.938 -1.938 2.0450001 20
33.965 -1.906 1.985 17
34.000999 -1.874 1.925 16
34.022999 -1.841 1.865 18
34.063999 -1.808 1.804 25
34.067001 -1.774 1.743 14
0 0 0 9
25.698999 -1.285 1.222 18
25.638 -1.256 1.174 23
25.596001 -1.226 1.124 28
25.561001 -1.197 1.077 31
25.542999 -1.169 1.03 34
25.511 -1.141 0.98199999 35
25.481001 -1.112 0.935 38
25.472 -1.084 0.88999999 40
25.454 -1.056 0.84299999 35
25.458 -1.028 0.79799998 10
0 0 0 1
19.021 -0.72600001 0.528 1
0 0 0 0
0 0 0 0
0 0 0 0
0 0 0 0
0 0 0 0
0 0 0 0
0 0 0 0
0 0 0 0
0 0 0 0
0 0 0 1
17.785999 -0.456 0.148 1
17.481001 -0.428 0.115 1
0 0 0 0
0 0 0 0
0 0 0 1
17.030001 -0.33500001 -0.0060000001 2
17.018999 -0.31400001 -0.035999998 3
17.044001 -0.294 -0.066 3
17.091999 -0.27399999 -0.096000001 4
16.993999 -0.25099999 -0.125 1
16.937 -0.23 -0.153 1
16.976 -0.20900001 -0.183 1
17.021 -0.189 -0.212 1
16.892 -0.16599999 -0.23999999 1
16.825001 -0.14399999 -0.26800001 1
16.943001 -0.124 -0.29800001 1
16.941 -0.102 -0.32699999 4
16.941999 -0.081 -0.35600001 6
16.948999 -0.059999999 -0.38499999 3
16.907 -0.037999999 -0.41299999 1
17.007999 -0.016000001 -0.44400001 1
16.944 0.0049999999 -0.47099999 1
16.965 0.027000001 -0.5 1
17.007999 0.048999999 -0.52899998 1
17.004999 0.071000002 -0.55800003 1
17.040001 0.093999997 -0.58700001 1
17.105 0.117 -0.61799997 1
17.242001 0.141 -0.65200001 3
17.302999 0.164 -0.68199998 4
17.398001 0.18799999 -0.71499997 5
17.552 0.213 -0.75 6
17.681999 0.23899999 -0.78399998 6
17.525 0.25999999 -0.80599999 6
17.5 0.28400001 -0.833 3
17.542999 0.308 -0.86299998 3
17.558001 0.33199999 -0.89200002 3
17.518 0.35499999 -0.91799998 6
17.344 0.375 -0.93699998 7
16.995001 0.391 -0.94499999 6
0 0 0 5
15.23 0.39199999 -0.89600003 2
14.597 0.396 -0.88099998 2
14.04 0.40000001 -0.86900002 3
13.466 0.40200001 -0.85500002 3
12.901 0.403 -0.83899999 3
12.445 0.40599999 -0.829 3
12.014 0.40900001 -0.81900001 2
11.654 0.41299999 -0.81199998 2
11.273 0.41499999 -0.80299997 2
10.931 0.41800001 -0.79500002 3
10.622 0.421 -0.78899997 3
10.285 0.42199999 -0.77899998 2
9.9540005 0.42300001 -0.76899999 3
9.7110004 0.426 -0.76499999 3
9.4329996 0.42699999 -0.75700003 3
9.177 0.42899999 -0.75 3
8.9569998 0.43099999 -0.745 3
8.7270002 0.43200001 -0.73900002 3
8.5240002 0.435 -0.73500001 3
8.3369999 0.43700001 -0.73100001 3
8.1269999 0.43799999 -0.72399998 3
7.9549999 0.44 -0.72100002 3
7.7540002 0.44 -0.713 3
7.5739999 0.44100001 -0.70700002 4
7.4060001 0.44100001 -0.70200002 3
7.2779999 0.44400001 -0.70099998 4
7.1370001 0.44600001 -0.69700003 3
6.9629998 0.44499999 -0.69 3
6.8099999 0.44600001 -0.68400002 3
6.677 0.447 -0.68000001 3
6.5489998 0.44800001 -0.676 3
6.448 0.44999999 -0.67500001 4
6.336 0.45100001 -0.67199999 3
6.2179999 0.45199999 -0.66799998 3
6.112 0.45300001 -0.66399997 3
6.0089998 0.454 -0.66100001 2
5.9050002 0.45500001 -0.65799999 2
5.8099999 0.456 -0.65499997 2
5.7270002 0.458 -0.653 3
5.638 0.45899999 -0.64999998 3
5.5469999 0.46000001 -0.64700001 3
5.4530001 0.46000001 -0.64300001 3
5.3670001 0.46000001 -0.63999999 3
5.2709999 0.46000001 -0.63499999 3
5.2059999 0.46200001 -0.634 3
5.112 0.461 -0.62900001 5
5.04 0.46200001 -0.62699997 5
4.9980001 0.465 -0.62800002 3
4.9330001 0.46599999 -0.62599999 3
4.8530002 0.46599999 -0.62099999 3
4.7979999 0.46799999 -0.62 3
4.7480001 0.47 -0.62 3
4.6680002 0.46900001 -0.61500001 3
4.6020002 0.46900001 -0.61199999 2
4.559 0.47099999 -0.611 3
4.5 0.472 -0.60900003 3
4.4460001 0.472 -0.60699999 4
4.3959999 0.47299999 -0.60500002 2
4.3979998 0.47999999 -0.611 2
4.322 0.47799999 -0.60500002 3
4.2810001 0.47999999 -0.60399997 3
4.2090001 0.47799999 -0.59899998 3
4.198 0.48300001 -0.602 3
4.1929998 0.48800001 -0.60600001 3
4.184 0.493 -0.60900003 3
4.092 0.48800001 -0.60100001 2
4.0190001 0.486 -0.59399998 2
4.026 0.49200001 -0.60000002 2
4.0430002 0.5 -0.60699999 3
3.9419999 0.493 -0.59600002 2
3.9519999 0.5 -0.60100001 2
3.8429999 0.49200001 -0.58899999 2
3.8440001 0.498 -0.59299999 2
3.8499999 0.50400001 -0.59799999 2
3.8469999 0.509 -0.602 3
3.79 0.50700003 -0.59600002 2
3.6989999 0.5 -0.58600003 2
3.6849999 0.50300002 -0.58700001 2
3.632 0.50099999 -0.58200002 3
3.668 0.51200002 -0.59200001 2
3.6670001 0.51700002 -0.59500003 2
3.645 0.51899999 -0.59500003 2
3.6059999 0.51800001 -0.59200001 3
3.5580001 0.51599997 -0.588 3
3.526 0.51700002 -0.58600003 1
3.4649999 0.51300001 -0.579 1
3.415 0.50999999 -0.574 2
3.457 0.52100003 -0.58399999 2
3.3889999 0.51499999 -0.57599998 3
3.388 0.51999998 -0.57800001 5
3.3699999 0.52200001 -0.57800001 7
3.3529999 0.52399999 -0.57800001 5
3.3310001 0.52499998 -0.57800001 4
3.289 0.523 -0.57300001 2
3.3329999 0.53399998 -0.583 2
3.332 0.53899997 -0.58600003 2
3.2780001 0.53399998 -0.579 2
3.313 0.54500002 -0.588 2
3.3169999 0.55000001 -0.59200001 2
3.244 0.542 -0.58099997 2
3.283 0.55299997 -0.59100002 2
3.211 0.54500002 -0.57999998 1
3.1849999 0.54500002 -0.57800001 1
3.1689999 0.546 -0.57800001 2
3.217 0.55900002 -0.58899999 1
3.089 0.54100001 -0.56800002 1
3.2279999 0.56900001 -0.59600002 2
3.0569999 0.54299998 -0.56599998 1
3.0799999 0.551 -0.57300001 1
3.135 0.565 -0.58499998 2
3.0929999 0.56199998 -0.57999998 2
3.1340001 0.57300001 -0.58999997 2
3.072 0.56599998 -0.57999998 2
3.0120001 0.55900002 -0.57099998 1
3.1400001 0.58600003 -0.597 2
3.063 0.57599998 -0.58499998 2
2.927 0.55400002 -0.56099999 2
2.911 0.55400002 -0.55900002 3
2.895 0.55500001 -0.55800003 4
2.8940001 0.55800003 -0.56 5
2.882 0.56 -0.55900002 4
2.8770001 0.56199998 -0.56 3
2.8759999 0.565 -0.56099999 2
2.859 0.565 -0.56 2
2.842 0.56599998 -0.55800003 2
2.927 0.58600003 -0.57599998 2
2.8989999 0.58399999 -0.57200003 1
2.905 0.588 -0.57499999 1
2.869 0.58499998 -0.56999999 1
2.7880001 0.57099998 -0.55500001 1
2.773 0.57099998 -0.55299997 2
2.756 0.57099998 -0.551 1
2.757 0.57499999 -0.55299997 1
2.7479999 0.57599998 -0.55199999 1
2.8510001 0.60000002 -0.57499999 1
2.737 0.57999998 -0.55299997 1
2.7279999 0.58099997 -0.55199999 1
2.7179999 0.58200002 -0.551 1
2.7160001 0.58399999 -0.55199999 2
2.704 0.58499998 -0.551 2
2.7049999 0.588 -0.55199999 2
2.694 0.588 -0.551 2
2.6930001 0.59100002 -0.55199999 2
2.678 0.59100002 -0.55000001 2
2.6830001 0.59399998 -0.55199999 2
2.6800001 0.59600002 -0.55299997 2
2.661 0.59500003 -0.55000001 2
2.661 0.59799999 -0.551 2
2.654 0.59899998 -0.55000001 2
2.652 0.60100001 -0.55000001 2
2.641 0.60100001 -0.54900002 1
2.6389999 0.60299999 -0.55000001 1
2.6289999 0.60399997 -0.54799998 2
2.6300001 0.60699999 -0.54900002 2
2.6270001 0.60799998 -0.55000001 2
2.619 0.60900003 -0.54900002 1
2.615 0.611 -0.54799998 1
2.6159999 0.61299998 -0.54900002 1
2.596 0.611 -0.546 1
2.598 0.61400002 -0.54699999 1
2.602 0.61699998 -0.54799998 2
2.5969999 0.61799997 -0.54799998 2
2.5899999 0.61900002 -0.54699999 2
2.595 0.62300003 -0.54799998 2
2.5929999 0.62400001 -0.54900002 2
2.5929999 0.62699997 -0.54900002 2
2.586 0.62699997 -0.54799998 2
2.582 0.62800002 -0.54799998 2
2.5780001 0.62900001 -0.54699999 2
2.5799999 0.63200003 -0.54799998 2
2.5699999 0.63200003 -0.546 2
2.5769999 0.63599998 -0.54799998 2
2.566 0.63499999 -0.546 2
2.576 0.639 -0.54799998 2
2.5650001 0.639 -0.546 2
2.5680001 0.64099997 -0.54699999 2
2.5680001 0.64300001 -0.54699999 2
2.5650001 0.64399999 -0.54699999 2
2.562 0.64600003 -0.54699999 2
2.5610001 0.64700001 -0.546 2
2.559 0.64899999 -0.546 2
2.559 0.64999998 -0.546 2
2.562 0.653 -0.54699999 2
2.55 0.65100002 -0.54400003 2
2.5550001 0.65499997 -0.54500002 2
2.5550001 0.65600002 -0.54500002 2
2.556 0.65799999 -0.546 2
2.563 0.662 -0.54699999 2
2.5639999 0.66299999 -0.54699999 2
2.5680001 0.66600001 -0.54799998 2
2.562 0.66600001 -0.54699999 2
2.562 0.66799998 -0.54699999 2
2.5680001 0.671 -0.54799998 2
2.569 0.67199999 -0.54799998 2
2.562 0.67199999 -0.546 2
2.572 0.676 -0.54799998 2
2.5639999 0.67500001 -0.546 2
2.5680001 0.67799997 -0.546 2
2.569 0.67900002 -0.546 2
2.563 0.67900002 -0.54500002 1
2.573 0.68300003 -0.54699999 2
2.5639999 0.68199998 -0.54400003 1
2.572 0.685 -0.546 2
2.5780001 0.68800002 -0.546 2
2.5739999 0.68800002 -0.54500002 1
2.5799999 0.69099998 -0.546 2
2.5780001 0.69099998 -0.54500002 2
2.585 0.69400001 -0.546 2
2.5880001 0.69599998 -0.546 2
2.5869999 0.69700003 -0.54500002 2
2.595 0.69999999 -0.546 2
2.5969999 0.70200002 -0.546 2
2.5929999 0.70200002 -0.54500002 1
2.6040001 0.70499998 -0.546 2
2.5999999 0.70499998 -0.54500002 1
2.6110001 0.70899999 -0.54699999 1
2.6059999 0.708 -0.54500002 1
2.6199999 0.713 -0.54699999 2
2.6170001 0.713 -0.54500002 1
2.619 0.71399999 -0.54500002 2
2.6210001 0.71499997 -0.54500002 1
2.6400001 0.72100002 -0.54799998 2
2.6370001 0.72100002 -0.54699999 2
2.6440001 0.72399998 -0.54699999 2
2.6489999 0.72500002 -0.54699999 2
2.652 0.727 -0.54699999 2
2.6559999 0.72799999 -0.54699999 2
2.6659999 0.73199999 -0.54799998 2
2.6700001 0.73299998 -0.54799998 2
2.6730001 0.73400003 -0.54699999 2
2.678 0.736 -0.54699999 2
2.6830001 0.73799998 -0.54699999 2
2.694 0.741 -0.54799998 2
2.6949999 0.74199998 -0.54699999 2
2.707 0.745 -0.54799998 2
2.7090001 0.74599999 -0.54799998 2
2.7119999 0.74699998 -0.54699999 1
2.846 0.78399998 -0.57300001 1
2.846 0.78399998 -0.57200003 1
2.7780001 0.76599997 -0.55699998 1
2.8150001 0.77600002 -0.56300002 1
2.7869999 0.76800001 -0.55599999 1
2.8410001 0.78299999 -0.565 1
2.905 0.801 -0.57700002 1
2.842 0.78299999 -0.56300002 1
2.9100001 0.80199999 -0.57499999 1
2.954 0.81400001 -0.58200002 2
2.954 0.81300002 -0.57999998 2
2.849 0.78399998 -0.55800003 1
2.915 0.80199999 -0.56900001 1
2.947 0.81099999 -0.574 1
2.8900001 0.79500002 -0.56099999 1
2.967 0.815 -0.57499999 1
2.9389999 0.80699998 -0.56800002 1
2.9389999 0.80699998 -0.56599998 1
3.0339999 0.83200002 -0.58200002 1
2.9849999 0.81800002 -0.57099998 1
2.9560001 0.81 -0.56400001 1
2.983 0.81699997 -0.56699997 1
3.0179999 0.82599998 -0.57200003 1
3.017 0.82499999 -0.56999999 1
3.052 0.833 -0.57499999 1
3.0469999 0.83099997 -0.57200003 2
3.089 0.84200001 -0.57800001 2
3.122 0.85000002 -0.58200002 2
3.096 0.84200001 -0.57499999 1
3.05 0.829 -0.56400001 1
3.072 0.83399999 -0.56699997 1
3.154 0.85500002 -0.579 2
3.0840001 0.83499998 -0.565 1
3.247 0.87800002 -0.59200001 2
3.131 0.84500003 -0.56900001 1
3.201 0.86299998 -0.579 2
3.2290001 0.86900002 -0.58200002 1
3.2060001 0.86199999 -0.57599998 1
3.207 0.861 -0.574 2
3.3080001 0.88599998 -0.58899999 2
3.256 0.87099999 -0.57800001 2
3.2509999 0.86799997 -0.574 1
3.382 0.90200001 -0.59500003 2
3.352 0.89200002 -0.58700001 2
3.3139999 0.88 -0.57800001 2
3.372 0.89399999 -0.58600003 2
3.326 0.88 -0.57499999 2
3.348 0.884 -0.57599998 2
3.4489999 0.90899998 -0.59100002 2
3.3499999 0.88099998 -0.57099998 2
3.3859999 0.88800001 -0.57499999 2
3.3740001 0.88300002 -0.56999999 2
3.4000001 0.88800001 -0.57200003 1
3.391 0.884 -0.56800002 1
3.4679999 0.90200001 -0.57800001 2
3.586 0.93000001 -0.59500003 3
3.477 0.89999998 -0.574 3
3.493 0.90100002 -0.57300001 3
3.5150001 0.90499997 -0.574 3
3.5320001 0.90700001 -0.574 3
3.543 0.90700001 -0.57300001 3
3.5580001 0.90899998 -0.57200003 3
3.5680001 0.90899998 -0.57099998 3
3.6789999 0.93400002 -0.58600003 2
3.697 0.93599999 -0.58499998 2
3.697 0.93300003 -0.58200002 2
3.744 0.94199997 -0.58600003 3
3.776 0.94800001 -0.588 2
3.7709999 0.94300002 -0.58399999 2
3.8670001 0.96399999 -0.59600002 3
3.8499999 0.95700002 -0.58899999 2
3.947 0.97799999 -0.60100001 2
3.967 0.98000002 -0.60000002 3
3.8970001 0.95899999 -0.58600003 2
3.9300001 0.96399999 -0.588 2
4.0229998 0.98299998 -0.59799999 2
3.948 0.96100003 -0.583 3
4.0469999 0.98199999 -0.59399998 3
4.0970001 0.99000001 -0.59799999 3
4.0939999 0.986 -0.59399998 3
4.2030001 1.008 -0.60600001 3
4.0929999 0.97799999 -0.58600003 2
4.151 0.98799998 -0.59100002 3
4.1739998 0.98900002 -0.58999997 2
4.2449999 1.002 -0.59600002 4
4.2389998 0.99599999 -0.59200001 2
4.2750001 1.001 -0.59299999 4
4.3039999 1.003 -0.59299999 4
4.3559999 1.011 -0.59600002 2
4.3870001 1.013 -0.59600002 2
4.421 1.017 -0.59600002 4
4.4749999 1.025 -0.59899998 2
4.5110002 1.028 -0.60000002 2
4.573 1.0369999 -0.60399997 2
4.599 1.038 -0.60299999 4
4.6479998 1.044 -0.60500002 3
4.704 1.052 -0.60799998 3
4.7470002 1.056 -0.60900003 3
4.7820001 1.058 -0.60799998 2
4.8460002 1.067 -0.61199999 3
4.8920002 1.072 -0.61299998 2
4.9299998 1.075 -0.61299998 4
4.9899998 1.082 -0.616 2
5.0419998 1.087 -0.61699998 3
5.1160002 1.097 -0.62199998 2
5.1560001 1.099 -0.62099999 4
5.2160001 1.1059999 -0.62400001 2
5.2729998 1.112 -0.625 3
5.3369999 1.119 -0.62800002 3
5.401 1.125 -0.63 3
5.4780002 1.135 -0.634 3
5.5409999 1.14 -0.63599998 3
5.5949998 1.145 -0.63599998 3
5.6630001 1.151 -0.639 3
5.7470002 1.161 -0.64200002 3
5.8049998 1.165 -0.64300001 3
5.8660002 1.17 -0.64399999 3
5.9460001 1.178 -0.64700001 3
6.0159998 1.183 -0.64899999 3
6.1069999 1.193 -0.653 3
6.1789999 1.199 -0.65399998 3
6.2519999 1.205 -0.65600002 3
6.3709998 1.219 -0.662 3
6.4330001 1.222 -0.662 3
6.5009999 1.225 -0.66299999 3
6.6100001 1.237 -0.667 3
6.697 1.244 -0.66900003 3
6.8140001 1.256 -0.67400002 3
6.9029999 1.262 -0.67699999 3
7.0100002 1.272 -0.68000001 3
7.1209998 1.2819999 -0.68400002 3
7.2160001 1.288 -0.68599999 3
7.349 1.301 -0.69199997 3
7.473 1.312 -0.69599998 3
7.5419998 1.313 -0.69499999 3
7.6750002 1.325 -0.69999999 4
7.8130002 1.337 -0.70499998 3
7.941 1.347 -0.70899999 4
8.0430002 1.352 -0.70999998 4
8.1529999 1.358 -0.71200001 4
8.2790003 1.3660001 -0.71499997 5
8.3970003 1.373 -0.71700001 5
8.5489998 1.3839999 -0.722 4
8.665 1.39 -0.72299999 4
8.8389997 1.404 -0.72899997 3
8.9899998 1.414 -0.73299998 4
9.1440001 1.423 -0.73699999 4
9.2620001 1.427 -0.73699999 5
9.401 1.433 -0.73900002 4
9.5640001 1.442 -0.74299997 4
9.7480001 1.454 -0.74800003 3
9.9580002 1.469 -0.755 3
10.18 1.485 -0.76200002 3
10.381 1.497 -0.76700002 3
10.559 1.505 -0.76999998 3
10.735 1.513 -0.773 3
10.949 1.525 -0.778 3
11.149 1.534 -0.78200001 3
11.385 1.5470001 -0.78799999 3
11.57 1.553 -0.79000002 2
11.828 1.568 -0.79699999 2
12.021 1.573 -0.79900002 3
12.253 1.582 -0.80299997 3
12.559 1.6 -0.81199998 3
12.82 1.6109999 -0.81699997 3
13.162 1.631 -0.82700002 3
13.434 1.642 -0.83200002 3
13.775 1.659 -0.84100002 2
14.118 1.676 -0.84899998 2
14.468 1.692 -0.85699999 2
14.809 1.705 -0.86400002 2
15.169 1.72 -0.87199998 2
15.615 1.743 -0.884 2
16.110001 1.7690001 -0.898 2
16.618999 1.795 -0.912 1
17.084 1.814 -0.92199999 1
17.655001 1.8430001 -0.93800002 1
17.094999 1.753 -0.89300001 1
0 0 0 1
0 0 0 0
0 0 0 0
0 0 0 1
0 0 0 0
0 0 0 1
22.427 2.01 -1.039 5
0 0 0 0
0 0 0 3
0 0 0 3
0 0 0 0
0 0 0 0
0 0 0 4
29.207001 2.2320001 -1.187 3
29.129 2.1700001 -1.16 1
0 0 0 0
0 0 0 24
0 0 0 0
0 0 0 4
0 0 0 44
24.782 1.5599999 -0.87199998 153
24.75 1.51 -0.852 165
24.766001 1.462 -0.833 159
24.799999 1.416 -0.81599998 162
24.788 1.367 -0.79699999 155
24.790001 1.318 -0.77899998 1
0 0 0 92
35.674999 1.757 -1.0700001 92
36.067001 1.705 -1.056 25
0 0 0 4
20.441999 0.88499999 -0.56900001 4
20.059 0.82800001 -0.54400003 3
19.662001 0.773 -0.51999998 1
19.341 0.722 -0.498 1
19.073999 0.67299998 -0.47799999 1
18.823 0.62599999 -0.45899999 1
18.542999 0.57999998 -0.43900001 1
18.326 0.53600001 -0.42199999 1
17.971001 0.49000001 -0.40200001 4
17.568001 0.44299999 -0.38100001 3
17.579 0.40700001 -0.37 3
17.530001 0.37099999 -0.35800001 2
17.374001 0.33199999 -0.34299999 1
0 0 0 0
0 0 0 0
0 0 0 1
17.171 0.18799999 -0.29699999 1
17.164 0.152 -0.28600001 1
17.153 0.117 -0.27599999 1
0 0 0 0
0 0 0 0
0 0 0 0
0 0 0 0
0 0 0 0
0 0 0 1
16.988001 -0.12800001 -0.205 1
16.993 -0.164 -0.19599999 1
16.948999 -0.198 -0.186 1
16.958 -0.234 -0.177 1
17.066 -0.27000001 -0.17 5
17.087 -0.30599999 -0.161 13
17.084999 -0.34099999 -0.152 11
17.082001 -0.377 -0.14300001 8
17.094 -0.41299999 -0.13500001 6
17.096001 -0.44800001 -0.127 5
17.108999 -0.484 -0.118 3
17.106001 -0.51999998 -0.11 4
17.025999 -0.55299997 -0.102 5
17.007 -0.588 -0.093999997 4
17.024 -0.62400001 -0.086000003 6
17.038 -0.66000003 -0.078000002 4
17.011999 -0.69499999 -0.071000002 7
17.065001 -0.73299998 -0.063000001 3
17.059999 -0.76800001 -0.056000002 3
17.068001 -0.80400002 -0.048999999 3
17.087999 -0.84100002 -0.041999999 2
17.108 -0.87800002 -0.035 1
17.101 -0.91299999 -0.028000001 1
17.171 -0.95200002 -0.021 1
0 0 0 0
0 0 0 1
0 0 0 0
0 0 0 0
0 0 0 0
0 0 0 0
0 0 0 0
0 0 0 4
0 0 0 0
0 0 0 6
0 0 0 20
34.139 -2.753 0.098999999 33
33.916 -2.806 0.109 53
33.924 -2.8789999 0.12 89
33.918999 -2.9489999 0.12899999 123
33.928001 -3.0190001 0.139 130
33.939999 -3.092 0.148 114
33.958 -3.165 0.15800001 117
33.976002 -3.237 0.167 84
33.972 -3.3069999 0.175 114
33.991001 -3.3800001 0.184 110
34.014 -3.4530001 0.192 119
0 0 0 13
17.718 -1.872 0.108 20
17.646999 -1.901 0.111 26
17.586 -1.9299999 0.115 32
17.565001 -1.964 0.118 42
17.531 -1.997 0.121 43
17.5 -2.029 0.125 45
17.473 -2.062 0.12800001 45
17.468 -2.0969999 0.131 33
17.440001 -2.1300001 0.134 55
17.436001 -2.164 0.13600001 37
17.429001 -2.1989999 0.139 40
17.402 -2.2320001 0.142 70
17.396999 -2.266 0.14399999 70
17.389999 -2.3010001 0.146 68
17.400999 -2.3380001 0.149 60
17.405001 -2.3740001 0.15099999 59
17.424999 -2.4119999 0.153 46
17.438 -2.4489999 0.155 36
17.437 -2.484 0.15700001 46
17.444 -2.52 0.15899999 40
17.476 -2.5599999 0.161 31
17.499001 -2.598 0.162 39
17.532 -2.638 0.164 22
17.573 -2.6789999 0.16599999 21
17.632 -2.723 0.167 20
17.718 -2.7720001 0.169 13
0 0 0 0
0 0 0 0
0 0 0 0
0 0 0 4
38.537998 -6.4089999 0.377 4
38.539001 -6.4840002 0.377 4
38.618 -6.5739999 0.37900001 4
38.549 -6.6370001 0.37799999 5
0 0 0 12
34.806 -6.1259999 0.34099999 43
34.796001 -6.1929998 0.34099999 20
0 0 0 0
0 0 0 2
39.335999 -7.2249999 0.38299999 3
39.370998 -7.3080001 0.382 4
39.355 -7.3790002 0.38100001 3
0 0 0 4
0 0 0 1
30.289 -5.8509998 0.28799999 2
30.311001 -5.9120002 0.287 1
30.242001 -5.9559999 0.28400001 1
0 0 0 14
34.647999 -6.9530001 0.31999999 18
34.679001 -7.0240002 0.317 17
34.686001 -7.0890002 0.31400001 15
0 0 0 9
0 0 0 20
34.703999 -7.283 0.30399999 27
34.709 -7.348 0.30000001 25
34.748001 -7.4190001 0.296 21
0 0 0 2
27.832001 -6.0419998 0.23 1
27.858999 -6.098 0.226 2
27.898001 -6.1570001 0.223 1
27.738001 -6.171 0.21699999 1
0 0 0 8
34.838001 -7.8740001 0.26300001 9
34.839001 -7.9359999 0.257 9
34.868 -8.0030003 0.252 10
34.877998 -8.066 0.24600001 9
34.875 -8.1260004 0.23999999 8
0 0 0 0
0 0 0 0
0 0 0 0
0 0 0 6
0 0 0 0
0 0 0 1
31.356001 -7.677 0.17299999 2
31.193001 -7.6890001 0.16500001 2
31.044001 -7.7020001 0.15800001 2
30.978001 -7.7360001 0.15099999 4
30.929001 -7.7750001 0.14399999 5
30.761 -7.7820001 0.13600001 7
30.650999 -7.8039999 0.12800001 8
30.583 -7.836 0.121 9
30.551001 -7.8759999 0.114 10
30.556999 -7.9250002 0.106 13
30.556 -7.974 0.097999997 14
30.570999 -8.026 0.090999998 14
30.559999 -8.0699997 0.082999997 15
30.577 -8.1230001 0.074000001 13
30.579 -8.1700001 0.067000002 14
30.604 -8.224 0.057999998 15
30.6 -8.2690001 0.050000001 15
30.607 -8.3170004 0.041000001 11
0 0 0 1
28.149 -7.7329998 0.022 4
28.094 -7.7600002 0.014 10
28.013 -7.7789998 0.0049999999 9
0 0 0 1
6.7399998 -1.891 -0.0020000001 1
6.7420001 -1.901 -0.0040000002 2
6.6999998 -1.899 -0.0060000001 4
6.7360001 -1.919 -0.0080000004 3
6.7490001 -1.932 -0.0099999998 2
6.743 -1.9400001 -0.012 1
0 0 0 11
28.030001 -8.1409998 -0.071999997 32
28.047001 -8.184 -0.081 40
28.055 -8.224 -0.090000004 45
28.052 -8.2620001 -0.098999999 50
28.065001 -8.3030005 -0.109 51
28.068001 -8.3409996 -0.118 50
28.080999 -8.3809996 -0.12800001 52
28.094 -8.4200001 -0.138 49
28.086 -8.4540005 -0.147 47
28.1 -8.493 -0.15700001 50
28.09 -8.526 -0.167 50
27.674999 -8.434 -0.17399999 17
27.297001 -8.3529997 -0.182 19
27.219999 -8.3620005 -0.191 26
27.174999 -8.3809996 -0.20100001 28
27.131001 -8.3999996 -0.20999999 31
27.1 -8.4230003 -0.22 29
27.063 -8.4429998 -0.229 37
27.042999 -8.4680004 -0.23899999 38
27.003 -8.4860001 -0.248 40
26.997 -8.5150003 -0.25799999 45
26.976 -8.5389996 -0.26800001 39
26.955999 -8.5620003 -0.27900001 50
26.940001 -8.5869999 -0.289 43
26.922001 -8.6099997 -0.29899999 59
26.889 -8.6289997 -0.30899999 63
26.907 -8.6630001 -0.31999999 63
26.882999 -8.6829996 -0.329 63
26.891001 -8.7130003 -0.34 59
26.884001 -8.7390003 -0.35100001 53
26.877001 -8.7639999 -0.361 39
26.874001 -8.7889996 -0.37200001 47
26.875999 -8.8170004 -0.382 46
26.888 -8.8459997 -0.39199999 43
26.886 -8.8719997 -0.403 40
26.879 -8.8940001 -0.41499999 39
26.893 -8.9239998 -0.426 40
26.899 -8.9510002 -0.43599999 37
26.910999 -8.9790001 -0.447 34
0 0 0 3
9.9809999 -3.3469999 -0.17399999 8
9.9320002 -3.339 -0.177 11
9.9189997 -3.3440001 -0.18099999 10
9.8719997 -3.336 -0.184 16
9.8529997 -3.3369999 -0.18700001 18
9.849 -3.3440001 -0.191 12
9.8140001 -3.3399999 -0.19499999 22
9.8100004 -3.346 -0.199 14
9.7959995 -3.349 -0.20200001 16
9.7720003 -3.348 -0.206 15
9.7399998 -3.3440001 -0.20999999 24
9.7399998 -3.3510001 -0.214 16
9.7329998 -3.3559999 -0.21799999 17
9.7209997 -3.359 -0.221 19
9.7159996 -3.3640001 -0.22499999 19
9.7139997 -3.369 -0.229 25
9.698 -3.3699999 -0.233 27
9.6969995 -3.3759999 -0.237 27
9.6940002 -3.381 -0.241 28
9.6730003 -3.3800001 -0.245 28
9.6719999 -3.385 -0.249 28
9.6560001 -3.385 -0.252 28
9.6689997 -3.395 -0.257 28
9.651 -3.3940001 -0.25999999 28
9.6370001 -3.3940001 -0.264 28
9.6350002 -3.3989999 -0.26800001 29
9.6350002 -3.404 -0.27200001 28
9.6389999 -3.4100001 -0.27599999 28
9.6269999 -3.4100001 -0.28 29
9.6269999 -3.415 -0.28400001 29
9.6169996 -3.4159999 -0.28799999 29
9.6099997 -3.4170001 -0.292 30
9.6110001 -3.4219999 -0.296 30
9.6049995 -3.424 -0.30000001 31
9.5889997 -3.4219999 -0.303 30
9.6009998 -3.4300001 -0.308 30
9.5959997 -3.431 -0.31099999 29
9.5950003 -3.4349999 -0.31600001 30
9.5819998 -3.4330001 -0.31900001 29
9.5860004 -3.437 -0.32300001 29
9.5880003 -3.441 -0.32800001 30
9.5839996 -3.4430001 -0.331 30
9.5670004 -3.4389999 -0.33500001 31
9.5769997 -3.4449999 -0.33899999 31
9.5819998 -3.4489999 -0.34400001 30
9.5679998 -3.4460001 -0.347 30
9.5710001 -3.4489999 -0.35100001 30
9.5640001 -3.4489999 -0.35499999 30
9.5710001 -3.4530001 -0.359 30
9.5579996 -3.45 -0.36199999 30
9.5679998 -3.4549999 -0.36700001 30
9.5579996 -3.4530001 -0.37 30
9.5539999 -3.4530001 -0.37400001 30
9.5579996 -3.4549999 -0.37799999 30
9.552 -3.454 -0.382 30
9.559 -3.4579999 -0.38600001 31
9.5489998 -3.4549999 -0.389 31
9.5550003 -3.457 -0.39300001 32
9.5550003 -3.4579999 -0.39700001 32
9.5500002 -3.4560001 -0.40099999 32
9.552 -3.457 -0.405 33
9.5600004 -3.46 -0.40900001 33
9.5509996 -3.4560001 -0.412 32
9.5489998 -3.4549999 -0.41600001 33
9.5649996 -3.46 -0.41999999 32
9.559 -3.4579999 -0.42399999 33
9.5620003 -3.4579999 -0.428 32
9.559 -3.4560001 -0.43200001 32
9.5559998 -3.454 -0.435 31
9.5539999 -3.4519999 -0.43900001 32
9.5570002 -3.4519999 -0.442 31
9.5600004 -3.451 -0.44600001 31
9.5579996 -3.4489999 -0.44999999 31
9.5609999 -3.448 -0.45300001 30
9.5780001 -3.4519999 -0.458 30
9.559 -3.444 -0.461 30
9.5629997 -3.4430001 -0.465 30
9.5670004 -3.4419999 -0.46799999 29
9.5810003 -3.4449999 -0.472 30
9.5690002 -3.438 -0.47499999 29
9.5799999 -3.4389999 -0.47999999 29
9.5799999 -3.4360001 -0.48300001 29
9.5780001 -3.4319999 -0.486 29
9.573 -3.427 -0.48899999 29
9.5900002 -3.4300001 -0.49399999 29
9.5839996 -3.424 -0.49700001 29
9.592 -3.424 -0.50099999 29
9.5909996 -3.4200001 -0.50400001 29
9.6029997 -3.4200001 -0.50800002 29
9.5950003 -3.4130001 -0.51099998 28
9.5939999 -3.4089999 -0.514 28
9.6129999 -3.411 -0.51800001 28
9.6120005 -3.4059999 -0.52200001 28
9.6210003 -3.405 -0.52499998 28
9.6149998 -3.398 -0.528 28
9.625 -3.3970001 -0.53200001 28
9.625 -3.392 -0.53500003 28
9.6389999 -3.391 -0.53899997 27
9.6370001 -3.385 -0.542 27
9.6529999 -3.3859999 -0.546 27
9.6529999 -3.3800001 -0.54900002 27
9.6639996 -3.378 -0.55299997 27
9.6630001 -3.372 -0.55599999 26
9.6809998 -3.3729999 -0.56 26
9.6920004 -3.3699999 -0.56300002 27
9.6780005 -3.359 -0.56599998 25
9.6949997 -3.359 -0.56900001 18
9.698 -3.3529999 -0.57300001 18
9.7080002 -3.3499999 -0.57599998 19
9.7200003 -3.3469999 -0.579 15
9.7270002 -3.342 -0.583 14
9.7449999 -3.342 -0.58700001 23
9.7609997 -3.3399999 -0.59100002 13
9.7729998 -3.3369999 -0.59399998 13
9.783 -3.332 -0.597 23
9.8100004 -3.3340001 -0.60100001 13
9.8199997 -3.329 -0.60500002 17
9.8430004 -3.329 -0.60900003 18
9.8640003 -3.3280001 -0.61299998 15
9.882 -3.326 -0.61699998 14
9.9239998 -3.332 -0.62199998 12
9.9350004 -3.3269999 -0.625 8
9.9809999 -3.3340001 -0.63 3
0 0 0 0
0 0 0 1
17.348 -5.7480001 -1.109 1
17.33 -5.7249999 -1.112 1
17.042999 -5.6149998 -1.097 1
16.777 -5.5110002 -1.084 1
16.687 -5.4650002 -1.082 1
16.638 -5.4330001 -1.082 1
16.437 -5.3509998 -1.073 1
16.243999 -5.2719998 -1.064 1
16.237 -5.2529998 -1.066 2
15.97 -5.1500001 -1.052 1
15.934 -5.1220002 -1.053 2
15.662 -5.0180001 -1.038 1
15.592 -4.9780002 -1.036 1
15.492 -4.9299998 -1.033 2
15.145 -4.803 -1.013 1
15.01 -4.743 -1.006 2
14.847 -4.6750002 -0.99800003 2
14.755 -4.6300001 -0.99400002 2
14.941 -4.671 -1.0089999 2
14.588 -4.5440001 -0.98799998 2
14.822 -4.5999999 -1.006 2
14.821 -4.5819998 -1.008 2
14.714 -4.5310001 -1.003 2
15.207 -4.665 -1.039 3
0 0 0 0
0 0 0 3
6.684 -2.026 -0.45899999 150
6.6849999 -2.0179999 -0.46000001 156
6.698 -2.013 -0.46200001 156
6.7140002 -2.01 -0.46399999 156
6.6960001 -1.9960001 -0.463 156
6.704 -1.989 -0.465 156
6.691 -1.977 -0.46399999 156
6.7189999 -1.976 -0.46700001 156
6.7220001 -1.9680001 -0.46799999 157
6.7290001 -1.961 -0.46900001 158
6.7280002 -1.952 -0.47 159
6.7350001 -1.9450001 -0.47099999 159
6.7249999 -1.933 -0.47 160
6.7090001 -1.919 -0.47 159
6.7449999 -1.92 -0.47299999 162
6.7329998 -1.9069999 -0.472 169
6.6950002 -1.887 -0.47 171
6.717 -1.8839999 -0.472 170
6.7059999 -1.8710001 -0.47099999 186
6.71 -1.862 -0.472 178
6.704 -1.851 -0.472 159
6.7090001 -1.8430001 -0.472 156
6.6849999 -1.827 -0.47099999 156
6.7410002 -1.832 -0.47499999 156
6.743 -1.822 -0.47499999 156
6.7360001 -1.8099999 -0.47499999 122
6.7729998 -1.8099999 -0.477 29
6.8049998 -1.808 -0.479 13
0 0 0 4
13.648 -3.585 -0.96200001 4
13.635 -3.5599999 -0.96100003 4
13.612 -3.533 -0.95899999 4
12.957 -3.3429999 -0.91299999 3
12.446 -3.1919999 -0.87599999 3
12.421 -3.1659999 -0.87400001 19
12.419 -3.1459999 -0.87300003 24
12.41 -3.1240001 -0.87199998 27
12.403 -3.1029999 -0.87099999 30
12.407 -3.0840001 -0.87 30
12.398 -3.062 -0.86900002 32
12.387 -3.039 -0.86699998 30
12.401 -3.0220001 -0.86699998 30
12.395 -3 -0.86500001 42
12.387 -2.977 -0.86400002 20
12.386 -2.957 -0.86199999 26
12.377 -2.934 -0.861 24
12.389 -2.9159999 -0.86000001 32
12.38 -2.8929999 -0.85799998 28
12.372 -2.8699999 -0.85600001 26
12.361 -2.8469999 -0.85399997 25
12.356 -2.825 -0.852 26
12.361 -2.8039999 -0.85000002 29
12.353 -2.7809999 -0.84799999 24
12.409 -2.773 -0.85000002 10
12.439 -2.7579999 -0.85000002 13
12.526 -2.7550001 -0.85399997 9
12.561 -2.7409999 -0.85399997 11
12.63 -2.734 -0.85600001 12
12.68 -2.7219999 -0.85799998 10
12.749 -2.7149999 -0.86000001 10
12.816 -2.7060001 -0.86199999 9
12.861 -2.6930001 -0.86199999 9
12.895 -2.677 -0.86199999 15
13.001 -2.675 -0.866 10
13.038 -2.6600001 -0.866 12
13.109 -2.6500001 -0.86699998 13
13.186 -2.642 -0.87 8
13.23 -2.6270001 -0.86900002 11
13.332 -2.6229999 -0.87300003 3
0 0 0 3
14.448 -2.789 -0.93800002 3
0 0 0 4
14.679 -2.78 -0.94499999 3
14.746 -2.766 -0.94499999 3
14.945 -2.7750001 -0.954 4
14.932 -2.7449999 -0.949 4
15.18 -2.763 -0.95999998 4
15.088 -2.7179999 -0.949 23
15.026 -2.678 -0.94099998 27
15.034 -2.651 -0.93599999 25
15.019 -2.6199999 -0.93000001 24
15.018 -2.592 -0.926 28
15.019 -2.5639999 -0.92000002 27
14.997 -2.5320001 -0.91399997 29
14.999 -2.503 -0.90899998 30
15.003 -2.4749999 -0.903 27
15.009 -2.448 -0.898 27
14.974 -2.414 -0.89099997 30
14.973 -2.385 -0.88499999 26
14.981 -2.3570001 -0.87900001 29
14.968 -2.326 -0.87300003 36
15.027 -2.306 -0.87 9
15.105 -2.29 -0.86799997 9
15.191 -2.273 -0.86699998 9
15.287 -2.2579999 -0.866 10
15.366 -2.24 -0.86400002 12
15.456 -2.223 -0.86199999 10
15.538 -2.2049999 -0.86000001 13
15.639 -2.188 -0.85799998 10
15.732 -2.171 -0.85600001 11
15.845 -2.1559999 -0.85500002 10
0 0 0 0
0 0 0 37
17.381001 -2.263 -0.91299999 37
17.379999 -2.2290001 -0.90399998 38
17.389 -2.1949999 -0.89600003 34
17.4 -2.1619999 -0.88800001 37
17.402 -2.128 -0.87900001 50
17.427999 -2.0969999 -0.87099999 34
17.452999 -2.066 -0.86299998 30
17.464001 -2.033 -0.85399997 29
17.476999 -2 -0.84600002 39
17.513 -1.97 -0.838 34
17.535999 -1.938 -0.829 27
17.58 -1.9069999 -0.82099998 27
17.653 -1.88 -0.81400001 25
17.716999 -1.851 -0.80699998 18
17.834 -1.8279999 -0.80199999 4
0 0 0 23
33.926998 -3.3440001 -1.485 30
33.5 -3.2349999 -1.446 12
33.539001 -3.1719999 -1.427 13
33.502998 -3.1029999 -1.405 9
33.849998 -3.0669999 -1.398 23
0 0 0 15
19.919001 -1.726 -0.79699999 64
19.913 -1.686 -0.78399998 44
19.922001 -1.648 -0.77200001 31
0 0 0 1
17.379 -1.368 -0.64999998 1
17.27 -1.326 -0.634 1
17.268 -1.291 -0.62199998 1
17.187 -1.251 -0.60799998 1
17.150999 -1.214 -0.59399998 2
17.145 -1.179 -0.58200002 1
17.152 -1.146 -0.56999999 1
17.082001 -1.108 -0.55500001 1
17.098 -1.075 -0.54400003 1
17.063999 -1.039 -0.52999997 1
17.023001 -1.003 -0.51599997 1
17.059 -0.97100002 -0.505 1
17.061001 -0.93699998 -0.49200001 1
16.969 -0.898 -0.47600001 9
16.952 -0.86400002 -0.463 184
16.990999 -0.833 -0.45100001 185
16.961 -0.79799998 -0.43700001 185
16.974001 -0.76499999 -0.42399999 185
16.936001 -0.72899997 -0.40900001 185
16.929001 -0.69599998 -0.396 184
16.926001 -0.66299999 -0.382 184
16.943001 -0.63 -0.36899999 184
16.952 -0.597 -0.35499999 174
16.931 -0.56300002 -0.34099999 160
16.927 -0.52999997 -0.32699999 153
16.976 -0.498 -0.31299999 152
16.889 -0.46200001 -0.29699999 95
17.040001 -0.433 -0.285 8
17.066 -0.40099999 -0.271 11
17.039 -0.36700001 -0.25600001 12
17.039 -0.333 -0.241 9
17.023001 -0.30000001 -0.226 4
16.934 -0.266 -0.20999999 1
16.955999 -0.233 -0.19499999 1
17.023001 -0.20200001 -0.18099999 1
17.028 -0.169 -0.16599999 1
17.075001 -0.13600001 -0.15099999 1
17.132 -0.104 -0.13500001 1
17.167 -0.071000002 -0.12 1
17.16 -0.037999999 -0.104 1
17.195999 -0.0049999999 -0.088 3
17.237 0.026000001 -0.071999997 2
17.231001 0.059 -0.056000002 2
17.337 0.093000002 -0.039999999 88
17.403 0.127 -0.023 158
17.333 0.15899999 -0.0070000002 14
17.337999 0.192 0.0089999996 2
17.319 0.22499999 0.026000001 1
0 0 0 0
0 0 0 0
0 0 0 1
18.360001 0.37599999 0.1 3
18.395 0.41100001 0.118 5
18.434 0.44600001 0.13699999 5
18.452 0.48100001 0.156 4
18.472 0.51499999 0.17399999 3
18.570999 0.55199999 0.19400001 1
0 0 0 1
20.239 0.676 0.25299999 1
0 0 0 6
34.049999 1.263 0.49700001 9
34.495998 1.3430001 0.54000002 11
34.922001 1.423 0.583 8
0 0 0 0
0 0 0 94
37.013 1.7079999 0.73500001 75
36.984001 1.773 0.77399999 94
37.055 1.8430001 0.815 14
37.622002 1.939 0.86799997 6
38.217999 2.0369999 0.92299998 7
38.467999 2.119 0.97100002 54
38.790001 2.2049999 1.021 13
40.998001 2.4030001 1.124 95
41.002998 2.473 1.168 120
40.985001 2.5439999 1.2130001 104
41.423 2.6429999 1.271 5
41.893002 2.7460001 1.332 8
43.515999 2.928 1.432 22
41.854 2.8870001 1.423 40
41.853001 2.9590001 1.47 48
41.859001 3.0320001 1.518 71
41.818001 3.098 1.563 111
41.819 3.1719999 1.6109999 152
41.801998 3.2409999 1.6569999 150
41.797001 3.3110001 1.705 120
41.805 3.382 1.753 86
41.819 3.4530001 1.802 12
0 0 0 28
0 0 0 0
0 0 0 0
0 0 0 0
0 0 0 0
0 0 0 19
49.202 4.6290002 2.517 22
0 0 0 0
0 0 0 19
54.894001 5.4310002 3.0020001 63
56.16 5.6459999 3.138 71
56.912998 5.8119998 3.247 40
57.830002 5.9959998 3.3670001 55
58.937 6.204 3.5009999 73
60.214001 6.4330001 3.648 74
61.563 6.6719999 3.802 62
62.862999 6.9109998 3.957 55
64.213997 7.1589999 4.119 67
65.549004 7.4089999 4.283 59
66.884003 7.6620002 4.4510002 62
68.261002 7.9239998 4.625 57
69.894997 8.2189999 4.8189998 55
71.877998 8.5609999 5.0430002 61
73.511002 8.8649998 5.2459998 68
0 0 0 44
117.948 14.579 8.7030001 42
0 0 0 0
0 0 0 37
117.97 15.101 9.1330004 39
117.965 15.271 9.276 39
117.834 15.423 9.4060001 44
117.709 15.575 9.5389996 50
117.715 15.742 9.6789999 54
117.701 15.908 9.8240004 53
117.58 16.056 9.9540005 37
117.605 16.224001 10.1 38
117.503 16.372999 10.234 40
117.623 16.552 10.388 37
117.512 16.698 10.521 38
117.516 16.858999 10.665 37
117.506 17.017 10.807 35
117.424 17.162001 10.94 32
117.498 17.33 11.09 26
0 0 0 0
0 0 0 36
123.097 18.643 12.069 38
0 0 0 0
0 0 0 37
117.173 18.204 11.916 53
117.117 18.343 12.049 83
117.051 18.476999 12.185 91
117.056 18.625 12.328 79
116.997 18.764999 12.464 83
116.948 18.902 12.6 76
116.914 19.040001 12.738 72
116.924 19.184 12.881 72
116.87 19.316999 13.016 75
116.891 19.459999 13.16 74
116.863 19.594 13.294 61
116.828 19.726 13.431 50
116.753 19.85 13.563 31
116.76 19.987 13.705 37
0 0 0 0
0 0 0 0
0 0 0 0
0 0 0 0
0 0 0 0
0 0 0 0
0 0 0 40
114.437 20.615 14.521 36
114.306 20.714001 14.64 27
114.255 20.827 14.768 31
114.285 20.952999 14.907 28
114.353 21.084999 15.05 28
114.25 21.184 15.17 24
114.261 21.302999 15.306 27
114.227 21.412001 15.435 26
0 0 0 0
0 0 0 0
0 0 0 0
0 0 0 0
0 0 0 23
114.057 22.049 16.195999 28
113.901 22.129999 16.306999 39
113.935 22.243 16.441999 43
113.811 22.323999 16.552999 63
113.78 22.421 16.677999 66
113.712 22.51 16.792999 81
113.685 22.606001 16.917 69
113.716 22.712 17.049 59
113.685 22.805 17.167999 61
113.668 22.899 17.292 67
113.639 22.99 17.414 65
113.658 23.089001 17.542 49
113.642 23.18 17.665001 45
113.675 23.280001 17.794001 38
113.699 23.377001 17.922001 33
113.703 23.468 18.042999 28
113.642 23.545 18.157 23
113.864 23.679001 18.315001 23
113.817 23.757 18.429001 22
113.75 23.829 18.535999 22
113.631 23.888 18.641001 26
113.678 23.982 18.766001 27
113.694 24.068001 18.885 26
113.632 24.135 18.993 39
113.666 24.223 19.117001 27
113.624 24.292 19.228001 29
113.504 24.344 19.325001 25
113.629 24.447001 19.462 28
113.624 24.52 19.577 28
113.611 24.591 19.690001 28
113.537 24.646999 19.792 36
113.46 24.702 19.892 29
113.475 24.775 20.004999 28
113.54 24.858 20.129 31
113.463 24.909 20.226999 31
113.46 24.974001 20.337 34
113.387 25.023001 20.434 43
113.302 25.070999 20.527 51
113.265 25.125 20.629 58
113.226 25.177999 20.726 55
113.239 25.24 20.839001 60
113.209 25.292 20.940001 79
113.246 25.358999 21.049 63
113.212 25.407 21.148001 57
113.184 25.455999 21.247 64
113.179 25.509001 21.346001 68
113.181 25.562 21.448999 62
113.209 25.620001 21.556 55
113.171 25.660999 21.65 56
113.201 25.714001 21.754 44
113.209 25.767 21.853001 40
113.198 25.806999 21.951 37
113.153 25.843 22.037001 32
113.185 25.896 22.142 33
113.282 25.962 22.254 29
113.227 25.988001 22.336 31
113.217 26.025999 22.429001 26
0 0 0 0
0 0 0 0
0 0 0 0
0 0 0 0
0 0 0 0
0 0 0 0
0 0 0 0
0 0 0 0
0 0 0 0
0 0 0 0
0 0 0 0
0 0 0 0
0 0 0 0
0 0 0 0
0 0 0 0
0 0 0 0
0 0 0 0
0 0 0 0
0 0 0 0
0 0 0 0
0 0 0 0
0 0 0 0
0 0 0 25
113.175 26.612 24.396999 25
113.196 26.625 24.473 29
113.217 26.638 24.547001 31
113.063 26.608 24.583 36
113.078 26.618999 24.650999 38
113.05 26.615999 24.712 41
113.081 26.628 24.785 43
113.029 26.617001 24.837999 53
113.026 26.618 24.899 50
113.007 26.613001 24.957001 61
113.026 26.615999 25.023001 55
113.015 26.608999 25.08 59
113.014 26.604 25.139999 55
113.042 26.608 25.202 65
113 26.591 25.25 55
113.026 26.589001 25.312 64
113.032 26.580999 25.368999 72
113.042 26.573 25.424999 60
113.078 26.569 25.486 62
113.09 26.559 25.541 57
113.03 26.533001 25.575001 56
113.027 26.516001 25.624001 51
113.07 26.51 25.683001 44
113.158 26.511999 25.75 41
113.067 26.472 25.775999 35
113.047 26.450001 25.813999 32
113.06 26.431 25.861 29
113.117 26.422001 25.917 25
113.062 26.388 25.944 23
0 0 0 0
0 0 0 0
0 0 0 0
0 0 0 0
0 0 0 0
0 0 0 0
0 0 0 0
0 0 0 0
0 0 0 0
0 0 0 0
0 0 0 23
113.392 26.091999 26.43 21
113.415 26.058001 26.462999 24
0 0 0 0
0 0 0 0
0 0 0 0
0 0 0 0
0 0 0 0
0 0 0 0
0 0 0 0
0 0 0 0
0 0 0 0
0 0 0 0
0 0 0 0
0 0 0 0
0 0 0 0
0 0 0 0
0 0 0 0
0 0 0 0
0 0 0 0
0 0 0 0
0 0 0 0
0 0 0 0
0 0 0 0
0 0 0 0
0 0 0 0
0 0 0 0
0 0 0 0
0 0 0 0
0 0 0 26
113.917 24.641001 26.84 31
113.963 24.582001 26.84 22
0 0 0 0
0 0 0 0
0 0 0 0
0 0 0 0
0 0 0 0
0 0 0 0
0 0 0 0
0 0 0 0
0 0 0 0
0 0 0 0
0 0 0 0
0 0 0 0
0 0 0 0
0 0 0 0
0 0 0 0
0 0 0 0
0 0 0 0
0 0 0 0
0 0 0 0
0 0 0 0
0 0 0 0
0 0 0 0
0 0 0 0
0 0 0 0
0 0 0 0
0 0 0 0
0 0 0 0
0 0 0 0
0 0 0 0
0 0 0 0
0 0 0 0
0 0 0 31
0 0 0 0
0 0 0 0
0 0 0 0
0 0 0 23
114.105 21.339001 25.691999 25
114.197 21.250999 25.657 29
114.207 21.146 25.603001 32
114.269 21.054001 25.558001 37
114.295 20.947001 25.504999 50
114.328 20.844 25.452 54
114.369 20.742001 25.4 50
114.372 20.632999 25.337 57
114.341 20.518999 25.266001 62
114.39 20.416 25.211 65
114.416 20.312 25.149 71
114.456 20.205999 25.09 69
114.464 20.093 25.023001 63
114.455 19.976999 24.950001 66
114.524 19.874001 24.893999 65
114.54 19.764 24.823999 68
114.528 19.645 24.747 58
0 0 0 69
147.953 25.073999 31.773001 76
147.924 24.921 31.666 61
148.00301 24.775 31.580999 76
148.052 24.632999 31.487 66
148.189 24.5 31.410999 53
148.186 24.343 31.302999 40
0 0 0 0
0 0 0 0
0 0 0 0
0 0 0 45
153.95799 24.466 31.937 57
153.955 24.298 31.815001 45
153.93401 24.127001 31.688999 59
154.108 23.99 31.6 47
156.50101 24.190001 31.962999 41
0 0 0 0
0 0 0 0
0 0 0 49
156.84 23.546 31.497999 73
156.87199 23.372999 31.372 93
156.936 23.207001 31.242001 63
156.98801 23.037001 31.113001 59
0 0 0 0
0 0 0 0
0 0 0 31
117.591 16.719 22.874001 42
117.668 16.594 22.778 57
117.747 16.469999 22.681 76
117.735 16.332001 22.566 73
117.792 16.207001 22.459 87
117.84 16.076 22.351999 85
117.858 15.941 22.242001 95
117.871 15.808 22.127001 78
117.886 15.672 22.01 82
117.931 15.539 21.898001 87
117.935 15.401 21.777 90
117.951 15.263 21.657 87
118.005 15.131 21.542999 79
118.034 14.998 21.423 84
118.059 14.861 21.301001 72
118.086 14.727 21.179001 71
118.102 14.588 21.052999 76
118.113 14.448 20.924999 76
118.185 14.318 20.806999 62
118.158 14.17 20.669001 70
118.28 14.046 20.556999 75
118.278 13.903 20.422001 66
118.276 13.763 20.290001 53
118.363 13.63 20.164 50
118.429 13.495 20.037001 26
0 0 0 0
0 0 0 0
0 0 0 0
0 0 0 0
0 0 0 0
0 0 0 0
0 0 0 0
0 0 0 0
0 0 0 0
0 0 0 0
0 0 0 24
0 0 0 0
0 0 0 27
0 0 0 0
0 0 0 38
115.944 10.965 17.309999 27
115.957 10.824 17.159 35
116.096 10.695 17.024 23
115.946 10.539 16.847 37
116.057 10.407 16.705999 40
0 0 0 8
49.314999 4.302 6.9640002 38
48.983002 4.2129998 6.8499999 42
48.373001 4.1020002 6.698 41
48.162998 4.026 6.6020002 49
47.009998 3.872 6.3779998 51
46.459999 3.77 6.2389998 11
45.372002 3.628 6.0289998 19
45.305 3.5669999 5.9549999 48
45.317001 3.5139999 5.8920002 56
45.323002 3.4590001 5.8280001 57
45.341 3.405 5.7639999 54
45.333 3.3499999 5.697 54
45.355 3.2969999 5.6329999 52
0 0 0 11
41.418999 2.9100001 5.0219998 15
41.299 2.852 4.9450002 58
41.296001 2.8010001 4.8829999 55
40.358002 2.6889999 4.711 50
40.341 2.6389999 4.6479998 49
40.337002 2.5899999 4.586 56
39.096001 2.4630001 4.3850002 30
39.018002 2.411 4.3150001 55
39.015999 2.365 4.256 55
38.530998 2.29 4.1430001 31
37.652 2.1930001 3.9890001 52
37.665001 2.148 3.931 52
37.657001 2.1029999 3.8699999 50
36.646999 2.003 3.7079999 26
36.325001 1.942 3.618 63
36.327999 1.9 3.5599999 38
0 0 0 6
33.110001 1.654 3.138 54
33.117001 1.6160001 3.086 46
33.125999 1.5779999 3.0339999 46
33.133999 1.54 2.98 46
33.144001 1.502 2.927 47
33.160999 1.464 2.8729999 48
33.150002 1.425 2.8180001 45
33.134998 1.386 2.7620001 84
33.127998 1.348 2.7060001 88
33.152 1.311 2.652 87
33.153999 1.273 2.596 81
33.153999 1.235 2.5409999 87
33.164001 1.197 2.4849999 87
33.165001 1.159 2.428 81
33.198002 1.124 2.3740001 56
33.224998 1.087 2.319 48
33.216999 1.05 2.2620001 61
33.202 1.012 2.204 107
33.209 0.97500002 2.1459999 78
33.216 0.93800002 2.089 37
33.057999 0.898 2.0220001 9
32.542 0.84799999 1.933 30
32.852001 0.81900001 1.8940001 40
33.111 0.79000002 1.851 128
33.236 0.75700003 1.799 105
33.224998 0.72000003 1.739 105
33.230999 0.68400002 1.6799999 105
33.252998 0.648 1.6210001 118
33.242001 0.61199999 1.561 113
33.252998 0.57700002 1.502 101
33.244999 0.542 1.442 101
33.263 0.50700003 1.383 107
33.278999 0.47099999 1.322 106
33.272999 0.43599999 1.261 98
33.292999 0.40200001 1.201 87
33.306999 0.36700001 1.14 65
33.318001 0.33199999 1.08 31
0 0 0 0
0 0 0 0
0 0 0 0
0 0 0 0
0 0 0 0
0 0 0 0
0 0 0 0
0 0 0 0
0 0 0 0
0 0 0 0
0 0 0 25
0 0 0 1
17.702999 -0.052999999 0.14399999 1
17.434999 -0.068999998 0.108 1
0 0 0 0
0 0 0 0
0 0 0 1
17.106001 -0.132 -0.022 2
17.082001 -0.147 -0.054000001 2
17.051001 -0.163 -0.086999997 1
16.937 -0.178 -0.119 1
17.094 -0.19499999 -0.153 1
16.992001 -0.20900001 -0.185 1
16.978001 -0.22400001 -0.21699999 1
16.938999 -0.23899999 -0.249 1
16.917 -0.25400001 -0.28200001 1
16.940001 -0.26899999 -0.315 1
16.916 -0.28299999 -0.34799999 2
16.9 -0.29800001 -0.38 29
16.934999 -0.31299999 -0.414 2
16.907 -0.32699999 -0.44600001 9
16.92 -0.34200001 -0.47999999 4
16.988001 -0.35800001 -0.51499999 2
17.099001 -0.37400001 -0.55199999 7
17.103001 -0.389 -0.58600003 11
17.086 -0.40200001 -0.61799997 8
17.073 -0.41600001 -0.65100002 4
17.111 -0.43099999 -0.68599999 3
17.406 -0.45300001 -0.73199999 4
17.611 -0.472 -0.77499998 3
17.687 -0.48800001 -0.81300002 2
0 0 0 0
0 0 0 1
0 0 0 2
0 0 0 2
0 0 0 0
0 0 0 2
0 0 0 2
14.737 -0.49700001 -0.91100001 2
0 0 0 3
13.227 -0.465 -0.87 3
12.774 -0.458 -0.86500001 4
12.227 -0.447 -0.85299999 3
11.664 -0.435 -0.83700001 3
11.158 -0.42399999 -0.82300001 3
10.695 -0.414 -0.80900002 4
10.299 -0.40599999 -0.80000001 3
9.9300003 -0.398 -0.79100001 4
9.5950003 -0.391 -0.78299999 4
9.2810001 -0.384 -0.77600002 3
8.96 -0.37599999 -0.76700002 3
8.6309996 -0.368 -0.75599998 3
8.3450003 -0.361 -0.74699998 3
8.0749998 -0.35499999 -0.73900002 4
7.8319998 -0.34900001 -0.73199999 5
7.5700002 -0.34200001 -0.72299999 11
7.349 -0.33700001 -0.71600002 12
7.178 -0.333 -0.71399999 11
7.0159998 -0.33000001 -0.71100003 11
6.8569999 -0.32600001 -0.70899999 10
6.6810002 -0.322 -0.704 6
6.448 -0.31400001 -0.69199997 4
6.2670002 -0.30899999 -0.685 3
6.125 -0.30599999 -0.68099999 3
5.987 -0.30199999 -0.67799997 4
5.8429999 -0.29800001 -0.67299998 3
5.691 -0.29300001 -0.667 3
5.5749998 -0.28999999 -0.66399997 3
5.4320002 -0.28600001 -0.65799999 3
5.2989998 -0.28200001 -0.65200001 3
5.1859999 -0.278 -0.648 3
5.0949998 -0.27599999 -0.64700001 3
5.0040002 -0.27399999 -0.64499998 3
4.8829999 -0.26899999 -0.639 3
4.7969999 -0.26699999 -0.63700002 3
4.704 -0.264 -0.634 2
4.6100001 -0.26100001 -0.63 2
4.5190001 -0.25799999 -0.62699997 4
4.4400001 -0.255 -0.62400001 2
4.3649998 -0.25299999 -0.62199998 3
4.2950001 -0.25099999 -0.62 2
4.2399998 -0.25 -0.62099999 3
4.2020001 -0.249 -0.62300003 3
4.0819998 -0.244 -0.61299998 2
4.0089998 -0.241 -0.61000001 2
3.925 -0.23800001 -0.60500002 2
3.9219999 -0.23899999 -0.61199999 3
3.9170001 -0.23999999 -0.61900002 3
3.7809999 -0.233 -0.60399997 1
3.723 -0.23100001 -0.602 2
3.691 -0.23100001 -0.60399997 3
3.6630001 -0.23 -0.60600001 1
3.6129999 -0.228 -0.60500002 2
3.5209999 -0.22400001 -0.59600002 2
3.48 -0.222 -0.59600002 2
3.4560001 -0.222 -0.59799999 2
3.4449999 -0.223 -0.60299999 2
3.454 -0.22400001 -0.611 2
3.3080001 -0.21600001 -0.59100002 2
3.273 -0.215 -0.59100002 1
3.2279999 -0.213 -0.58899999 1
3.25 -0.215 -0.59899998 1
3.2550001 -0.21600001 -0.60600001 2
3.1199999 -0.208 -0.58700001 1
3.1129999 -0.20900001 -0.59100002 1
3.1140001 -0.20999999 -0.597 1
3.0450001 -0.206 -0.58899999 1
2.9890001 -0.20299999 -0.58399999 1
2.9979999 -0.204 -0.59100002 1
2.9760001 -0.20299999 -0.59200001 1
2.918 -0.2 -0.58600003 1
2.8699999 -0.197 -0.58099997 1
2.8169999 -0.19400001 -0.57499999 1
2.796 -0.19400001 -0.57599998 1
2.7520001 -0.191 -0.57200003 1
2.733 -0.19 -0.57300001 1
2.7279999 -0.191 -0.57700002 1
2.72 -0.191 -0.57999998 1
2.7190001 -0.191 -0.58399999 1
2.7190001 -0.192 -0.58899999 1
2.6059999 -0.184 -0.56900001 1
2.5669999 -0.182 -0.565 1
2.539 -0.18000001 -0.56300002 1
2.52 -0.17900001 -0.56300002 1
2.493 -0.178 -0.56199998 1
2.471 -0.176 -0.56099999 1
2.4549999 -0.176 -0.56199998 1
2.4719999 -0.177 -0.56999999 1
2.404 -0.17299999 -0.55800003 1
2.3940001 -0.17200001 -0.56 1
2.362 -0.17 -0.55599999 1
2.346 -0.169 -0.55599999 1
2.3239999 -0.168 -0.55500001 1
2.3099999 -0.167 -0.55500001 1
2.2909999 -0.16599999 -0.55500001 1
2.277 -0.16500001 -0.55500001 1
2.266 -0.16500001 -0.55599999 1
2.2390001 -0.163 -0.55299997 1
2.2219999 -0.162 -0.55199999 1
2.2 -0.16 -0.55000001 1
2.187 -0.15899999 -0.551 1
2.1719999 -0.15800001 -0.55000001 1
2.1559999 -0.15700001 -0.54900002 1
2.1429999 -0.15700001 -0.55000001 1
2.125 -0.155 -0.54799998 1
2.1110001 -0.154 -0.54799998 1
2.099 -0.153 -0.54799998 1
2.082 -0.152 -0.54699999 1
2.075 -0.152 -0.54799998 1
2.0580001 -0.15099999 -0.54699999 1
2.0450001 -0.15000001 -0.546 1
2.033 -0.149 -0.546 1
2.0179999 -0.148 -0.54500002 1
2.007 -0.147 -0.54500002 1
2.003 -0.146 -0.54699999 1
1.99 -0.145 -0.546 1
1.983 -0.145 -0.54699999 1
1.956 -0.14300001 -0.542 1
1.943 -0.142 -0.542 1
1.933 -0.141 -0.542 1
1.9170001 -0.14 -0.54000002 1
1.913 -0.139 -0.54100001 1
1.899 -0.138 -0.54000002 1
1.8839999 -0.13699999 -0.53799999 1
1.872 -0.13600001 -0.537 1
1.87 -0.13600001 -0.54000002 1
1.8609999 -0.13500001 -0.53899997 1
1.853 -0.134 -0.53899997 1
1.8430001 -0.133 -0.53899997 1
1.83 -0.132 -0.53799999 1
1.819 -0.131 -0.537 1
1.822 -0.131 -0.54000002 1
1.806 -0.13 -0.537 1
1.795 -0.12899999 -0.537 1
1.78 -0.12800001 -0.53399998 1
1.78 -0.127 -0.53600001 1
1.772 -0.126 -0.53600001 1
1.7640001 -0.126 -0.53600001 1
1.757 -0.125 -0.53600001 1
1.751 -0.124 -0.53600001 1
1.728 -0.122 -0.53100002 1
1.722 -0.122 -0.53100002 1
1.722 -0.121 -0.53299999 1
1.714 -0.121 -0.53299999 1
1.704 -0.12 -0.53200001 1
1.698 -0.119 -0.53200001 1
1.689 -0.118 -0.53100002 1
1.692 -0.118 -0.53399998 1
1.682 -0.117 -0.53200001 1
1.676 -0.116 -0.53200001 1
1.665 -0.115 -0.53100002 1
1.665 -0.115 -0.53200001 1
1.656 -0.114 -0.53100002 1
1.651 -0.113 -0.53100002 1
1.641 -0.112 -0.52999997 1
1.6339999 -0.111 -0.52899998 1
1.632 -0.111 -0.52999997 1
1.6289999 -0.11 -0.53100002 1
1.614 -0.109 -0.52700001 1
1.62 -0.109 -0.53100002 1
1.607 -0.108 -0.528 1
1.604 -0.107 -0.52899998 1
1.6 -0.106 -0.52899998 1
1.599 -0.106 -0.52999997 1
1.5880001 -0.105 -0.52700001 1
1.587 -0.104 -0.52899998 1
1.5779999 -0.103 -0.52700001 1
1.579 -0.103 -0.52899998 1
1.569 -0.102 -0.52700001 1
1.566 -0.101 -0.52700001 1
1.557 -0.1 -0.52499998 1
1.5549999 -0.1 -0.52600002 1
1.553 -0.098999999 -0.52600002 1
1.554 -0.098999999 -0.528 1
1.543 -0.097999997 -0.52499998 1
1.538 -0.097000003 -0.52499998 1
1.539 -0.097000003 -0.52600002 1
1.5420001 -0.096000001 -0.528 1
1.534 -0.094999999 -0.52600002 1
1.528 -0.094999999 -0.52499998 1
1.527 -0.093999997 -0.52600002 1
1.526 -0.093999997 -0.52700001 1
1.517 -0.093000002 -0.52499998 1
1.523 -0.092 -0.528 1
1.516 -0.092 -0.52600002 1
1.511 -0.090999998 -0.52499998 1
1.516 -0.090999998 -0.528 1
1.505 -0.089000002 -0.52499998 1
1.495 -0.088 -0.52200001 1
1.4960001 -0.088 -0.523 1
1.4960001 -0.086999997 -0.52399999 1
1.495 -0.086999997 -0.52499998 1
1.493 -0.086000003 -0.52499998 1
1.488 -0.086000003 -0.52399999 1
1.4910001 -0.085000001 -0.52600002 1
1.4910001 -0.085000001 -0.52600002 1
1.4910001 -0.083999999 -0.52700001 1
1.483 -0.082999997 -0.52499998 1
1.4809999 -0.082999997 -0.52499998 1
1.483 -0.082000002 -0.52600002 1
1.474 -0.081 -0.523 1
1.473 -0.081 -0.523 1
1.484 -0.081 -0.528 1
1.473 -0.079999998 -0.52399999 1
1.482 -0.079999998 -0.528 1
1.473 -0.079000004 -0.52499998 1
