# .PCD v0.7 - Point Cloud Data file format
VERSION 0.7
FIELDS x y z intensity
SIZE 4 4 4 4
TYPE F F F F
COUNT 1 1 1 1
WIDTH 1866
HEIGHT 1
VIEWPOINT 0 0 0 1 0 0 0
POINTS 1866
DATA ascii
116.938 17.461 24.101 52
116.945 17.521 24.254 49
116.963 17.580999 24.408001 43
116.943 17.635 24.554001 60
116.935 17.688999 24.701 52
116.965 17.747999 24.855 48
116.915 17.795 24.990999 46
116.935 17.851 25.138 61
116.925 17.900999 25.281 58
116.933 17.952999 25.427 43
116.885 17.995001 25.559999 44
116.92 18.049999 25.707001 46
116.951 18.101999 25.855 48
116.914 18.143 25.988001 45
116.915 18.188 26.127001 48
117.048 18.253 26.296 48
116.945 18.280001 26.410999 54
116.991 18.33 26.558001 51
116.919 18.360001 26.677 52
116.921 18.4 26.813 49
116.895 18.437 26.937 56
116.995 18.490999 27.093 43
116.95 18.521 27.214001 46
116.984 18.563999 27.35 46
117.008 18.603001 27.486 53
116.96 18.629 27.603001 49
116.986 18.667999 27.733999 54
116.978 18.698 27.858 51
116.922 18.722 27.966999 54
116.946 18.756001 28.097 50
116.971 18.789 28.226999 48
116.992 18.822001 28.351 45
116.949 18.841999 28.462 48
116.984 18.872999 28.591 54
116.95 18.893 28.701 46
116.991 18.923 28.829 48
116.938 18.938 28.933001 50
116.975 18.966 29.058001 46
116.939 18.981001 29.163 45
117 19.011999 29.289 48
116.979 19.028 29.396 48
116.984 19.046 29.507999 55
116.97 19.061001 29.614 53
116.946 19.076 29.716 70
116.978 19.096001 29.832001 66
116.956 19.107 29.931999 63
116.951 19.117001 30.034 66
116.988 19.135 30.146999 58
116.952 19.139999 30.24 57
117.012 19.16 30.357 38
117.009 19.17 30.454 28
0 0 0 0
0 0 0 0
0 0 0 0
0 0 0 0
0 0 0 0
0 0 0 0
0 0 0 0
0 0 0 0
0 0 0 0
0 0 0 0
0 0 0 0
0 0 0 0
0 0 0 0
0 0 0 0
0 0 0 26
117.205 19.222 31.927999 25
0 0 0 0
0 0 0 28
117.078 19.174999 32.124001 32
117.121 19.174999 32.208 35
117.015 19.143 32.254002 44
117.06 19.141001 32.335999 47
117.037 19.122999 32.398998 47
117.067 19.115999 32.473999 58
117.047 19.098 32.535999 59
117.01 19.076 32.591 60
116.977 19.056 32.644001 64
117.021 19.046 32.720001 75
117.021 19.027 32.782001 70
117.036 19.01 32.847 70
117.047 18.993 32.907001 61
117.086 18.975 32.977001 59
117.116 18.961 33.040001 51
117.105 18.936001 33.091999 53
117.002 18.895 33.117001 47
117.119 18.889 33.202 49
117.092 18.858 33.244999 45
117.098 18.832001 33.296001 49
117.125 18.811001 33.348999 57
117.081 18.775999 33.382999 41
117.104 18.75 33.435001 46
117.132 18.724001 33.486 42
117.088 18.684999 33.514999 42
117.131 18.663 33.567001 45
117.168 18.636 33.616001 44
117.149 18.599001 33.647999 46
117.147 18.563 33.683998 45
117.159 18.533001 33.720001 43
117.207 18.504 33.768002 43
117.089 18.448 33.764999 47
117.111 18.413 33.801998 53
117.136 18.381001 33.835999 45
117.144 18.341999 33.866001 46
117.17 18.305 33.898998 42
117.16 18.261999 33.921001 47
117.146 18.216999 33.939999 42
117.099 18.17 33.945999 44
117.218 18.143999 34.000999 44
117.208 18.098 34.015999 46
117.161 18.045 34.019001 43
117.146 17.996 34.030998 42
117.132 17.950001 34.039001 45
117.222 17.915001 34.077999 45
117.236 17.868 34.092999 44
117.155 17.806 34.078999 40
117.216 17.768 34.103001 41
117.2 17.714001 34.105 47
117.153 17.655001 34.096001 58
117.233 17.614 34.123001 56
117.211 17.556999 34.118 49
117.237 17.51 34.125 41
117.3 17.464001 34.141998 39
117.237 17.399 34.122002 38
117.253 17.348 34.122002 45
117.254 17.291 34.116001 39
117.277 17.236 34.116001 41
117.269 17.179001 34.103001 41
117.232 17.114 34.082001 40
117.287 17.062 34.085999 48
117.31 17.004 34.080002 44
117.275 16.937 34.055 44
117.292 16.877001 34.043999 42
117.273 16.813999 34.02 50
117.237 16.742001 33.992001 43
117.367 16.700001 34.007999 46
117.255 16.622 33.952999 41
117.377 16.573 33.964001 46
117.273 16.492001 33.909 53
117.26 16.426001 33.877998 44
117.311 16.365 33.863998 51
117.303 16.295 33.832001 68
117.311 16.226999 33.803001 49
117.454 16.177 33.811001 26
117.48 16.113001 33.784 25
117.472 16.041 33.747002 23
0 0 0 0
0 0 0 0
0 0 0 0
0 0 0 0
0 0 0 0
0 0 0 0
0 0 0 0
0 0 0 23
117.316 15.362 33.311001 25
117.343 15.288 33.268002 27
117.367 15.213 33.222 28
117.329 15.13 33.158001 32
117.407 15.061 33.125 41
117.332 14.975 33.046001 43
117.378 14.901 33.000999 47
117.383 14.824 32.942001 50
117.355 14.74 32.873001 52
117.42 14.666 32.828999 60
117.422 14.584 32.764999 63
117.476 14.508 32.714001 51
117.426 14.419 32.632999 64
117.476 14.341 32.577999 64
117.404 14.248 32.487999 58
117.459 14.173 32.431 63
117.402 14.078 32.342999 53
117.415 13.994 32.271 49
117.401 13.912 32.188999 42
117.523 13.836 32.144001 35
117.508 13.747 32.061001 35
117.554 13.665 31.993 30
117.62 13.588 31.929001 31
117.568 13.494 31.832001 27
117.755 13.429 31.797001 31
0 0 0 0
0 0 0 0
0 0 0 23
0 0 0 0
0 0 0 0
0 0 0 0
0 0 0 0
0 0 0 0
0 0 0 0
0 0 0 0
0 0 0 0
0 0 0 0
0 0 0 0
0 0 0 24
0 0 0 0
0 0 0 0
0 0 0 0
0 0 0 0
0 0 0 26
117.717 11.578 29.787001 25
117.736 11.484 29.677 26
0 0 0 0
0 0 0 26
0 0 0 0
0 0 0 26
117.615 10.993 29.051001 32
117.572 10.892 28.917 39
117.614 10.798 28.802999 46
117.663 10.705 28.690001 64
117.606 10.602 28.549 62
117.599 10.503 28.419001 55
117.659 10.41 28.304001 55
117.664 10.315 28.174999 49
117.67 10.217 28.045 44
117.731 10.123 27.926001 44
117.711 10.026 27.787001 46
117.845 9.9379997 27.683001 33
117.988 9.8500004 27.577999 27
0 0 0 0
0 0 0 0
0 0 0 28
118.104 9.4639997 27.042 34
0 0 0 0
0 0 0 0
0 0 0 0
0 0 0 0
0 0 0 0
0 0 0 0
0 0 0 0
0 0 0 0
0 0 0 0
0 0 0 0
0 0 0 0
0 0 0 0
0 0 0 43
117.739 8.0450001 24.84 50
117.717 7.947 24.676001 56
117.742 7.848 24.518999 69
117.788 7.7519999 24.365999 58
117.761 7.6529999 24.197001 55
117.757 7.553 24.031 60
117.82 7.46 23.878 48
117.912 7.3629999 23.726999 44
118.043 7.2750001 23.584999 31
118.001 7.1729999 23.406 23
0 0 0 0
0 0 0 26
118.051 6.8800001 22.899 25
117.984 6.777 22.711 26
0 0 0 0
0 0 0 0
0 0 0 0
0 0 0 0
0 0 0 0
0 0 0 0
0 0 0 30
118.036 5.9959998 21.282 25
117.897 5.895 21.075001 43
117.866 5.796 20.882999 48
117.879 5.6999998 20.698999 58
117.834 5.6009998 20.503 61
117.828 5.5050001 20.313999 66
117.866 5.4130001 20.132999 56
117.816 5.3150001 19.933001 47
117.946 5.2249999 19.763 49
118.126 5.138 19.6 34
118.302 5.053 19.437 25
0 0 0 0
0 0 0 0
0 0 0 0
0 0 0 0
0 0 0 0
0 0 0 31
120.555 4.4829998 18.396999 28
120.563 4.3889999 18.191999 29
120.473 4.2919998 17.972 32
120.683 4.2080002 17.798 29
120.577 4.1110001 17.573999 33
120.528 4.0159998 17.360001 31
120.44 3.9230001 17.139999 36
120.428 3.8310001 16.923 45
120.433 3.74 16.712 56
120.408 3.6470001 16.499001 77
120.426 3.559 16.290001 74
120.366 3.4679999 16.063999 71
120.404 3.378 15.857 64
120.476 3.2909999 15.65 44
120.54 3.204 15.437 37
120.678 3.119 15.236 27
120.561 3.0280001 15.002 26
0 0 0 0
0 0 0 0
0 0 0 0
0 0 0 0
0 0 0 0
0 0 0 0
0 0 0 0
0 0 0 0
0 0 0 0
0 0 0 43
120.401 2.0969999 12.531 71
120.391 2.0150001 12.302 78
120.38 1.933 12.072 78
120.36 1.853 11.84 81
120.407 1.773 11.615 78
120.389 1.694 11.382 73
120.415 1.617 11.156 50
120.522 1.54 10.933 40
120.602 1.464 10.707 34
120.534 1.388 10.47 36
120.526 1.311 10.235 40
120.484 1.235 9.9969997 37
120.44 1.159 9.7580004 37
120.419 1.085 9.5200005 41
120.443 1.011 9.2849998 48
120.448 0.93800002 9.0480003 40
120.534 0.866 8.8129997 34
120.527 0.79400003 8.5740004 35
120.626 0.72299999 8.342 34
120.579 0.65200001 8.0979996 32
120.653 0.58399999 7.8660002 34
120.589 0.51499999 7.6209998 25
0 0 0 0
0 0 0 35
120.512 0.31099999 6.8909998 47
120.392 0.244 6.6409998 59
120.389 0.18000001 6.401 71
120.335 0.115 6.1550002 63
0 0 0 0
0 0 0 24
83.842003 -0.052000001 3.7780001 23
0 0 0 13
86.177002 -0.141 3.5339999 25
0 0 0 0
0 0 0 0
0 0 0 0
0 0 0 30
0 0 0 0
0 0 0 33
84.014999 -0.42300001 2.234 22
86.253998 -0.47400001 2.1159999 24
86.640999 -0.51499999 1.946 19
83.990997 -0.537 1.715 22
0 0 0 0
0 0 0 0
0 0 0 0
0 0 0 23
73.602997 -0.62699997 0.74199998 19
0 0 0 0
0 0 0 0
0 0 0 24
73.213997 -0.741 0.124 52
73.237999 -0.76899999 -0.026000001 78
73.191002 -0.79500002 -0.178 70
73.232002 -0.82300001 -0.33399999 39
0 0 0 0
0 0 0 30
0 0 0 0
0 0 0 0
0 0 0 0
0 0 0 0
0 0 0 0
0 0 0 29
0 0 0 0
0 0 0 152
46.215 -0.68599999 -1.279 169
46.191002 -0.699 -1.376 208
46.144001 -0.71200001 -1.472 234
46.133999 -0.72399998 -1.566 234
46.140999 -0.736 -1.664 192
46.106998 -0.74800003 -1.7589999 160
46.075001 -0.759 -1.852 150
0 0 0 0
0 0 0 2
0 0 0 1
28.429001 -0.495 -1.382 1
0 0 0 0
0 0 0 1
0 0 0 1
0 0 0 2
0 0 0 2
15.734 -0.29300001 -0.96399999 3
14.831 -0.27900001 -0.94 2
14.048 -0.266 -0.91900003 3
13.421 -0.257 -0.90700001 3
12.77 -0.24600001 -0.889 3
12.181 -0.237 -0.87400001 3
11.641 -0.228 -0.86000001 2
11.094 -0.219 -0.84299999 3
10.634 -0.211 -0.82999998 3
10.268 -0.205 -0.82300001 3
9.8549995 -0.198 -0.81 4
9.4499998 -0.191 -0.79699999 3
9.0690002 -0.184 -0.78299999 4
8.7329998 -0.178 -0.773 3
8.3620005 -0.171 -0.75700003 4
8.0790005 -0.16599999 -0.74800003 5
7.77 -0.161 -0.736 10
7.527 -0.156 -0.72899997 13
7.3709998 -0.153 -0.72899997 12
7.1729999 -0.15000001 -0.72399998 8
6.8800001 -0.14399999 -0.70899999 5
6.6440001 -0.139 -0.69800001 5
6.4549999 -0.13600001 -0.69199997 5
6.2719998 -0.132 -0.685 5
6.098 -0.12800001 -0.67900002 5
5.948 -0.125 -0.67400002 4
5.8189998 -0.123 -0.671 3
5.6719999 -0.12 -0.66600001 4
5.539 -0.117 -0.662 4
5.4180002 -0.114 -0.65799999 4
5.3130002 -0.112 -0.65600002 4
5.1729999 -0.109 -0.64999998 3
5.0580001 -0.106 -0.64600003 4
4.9580002 -0.104 -0.64300001 3
4.8439999 -0.101 -0.63800001 2
4.7610002 -0.098999999 -0.63700002 2
4.6550002 -0.097000003 -0.63200003 4
4.579 -0.094999999 -0.63099998 2
4.4980001 -0.093000002 -0.62900001 2
4.3990002 -0.090999998 -0.62400001 3
4.2800002 -0.088 -0.61500001 3
4.2199998 -0.086999997 -0.61500001 2
4.2020001 -0.086000003 -0.62099999 2
4.138 -0.083999999 -0.62 2
4.0739999 -0.082000002 -0.61799997 2
4.0229998 -0.081 -0.61799997 2
3.918 -0.078000002 -0.61000001 2
3.8659999 -0.077 -0.60900003 2
3.796 -0.075000003 -0.60600001 2
3.8050001 -0.075000003 -0.61500001 2
3.6789999 -0.071999997 -0.60100001 2
3.6029999 -0.07 -0.59600002 1
3.5599999 -0.068000004 -0.59600002 1
3.4849999 -0.066 -0.58999997 1
3.52 -0.067000002 -0.60299999 2
3.4779999 -0.064999998 -0.602 2
3.4619999 -0.064000003 -0.60600001 2
3.372 -0.061999999 -0.597 1
3.3069999 -0.059999999 -0.59200001 1
3.2609999 -0.059 -0.58899999 1
3.2 -0.057 -0.58399999 1
3.227 -0.057 -0.59600002 1
3.2130001 -0.056000002 -0.59899998 2
3.1530001 -0.054000001 -0.59399998 1
3.132 -0.052999999 -0.59600002 2
3.082 -0.052000001 -0.59200001 2
2.9679999 -0.048999999 -0.57499999 2
2.9389999 -0.048 -0.57499999 2
2.908 -0.046999998 -0.574 2
2.8729999 -0.046 -0.57300001 2
2.839 -0.045000002 -0.57099998 1
2.8080001 -0.043000001 -0.56999999 2
2.7809999 -0.041999999 -0.56999999 2
2.7639999 -0.041000001 -0.57099998 2
2.73 -0.039999999 -0.56900001 2
2.704 -0.039000001 -0.56800002 2
2.6800001 -0.037999999 -0.56800002 2
2.6470001 -0.037 -0.56599998 1
2.6210001 -0.035999998 -0.565 1
2.6010001 -0.035 -0.565 1
2.5739999 -0.034000002 -0.56400001 1
2.5550001 -0.033 -0.56400001 1
2.5220001 -0.030999999 -0.56099999 1
2.5120001 -0.030999999 -0.56300002 1
2.487 -0.028999999 -0.56199998 1
2.4549999 -0.028000001 -0.55900002 1
2.4360001 -0.027000001 -0.55900002 1
2.424 -0.026000001 -0.56 1
2.4030001 -0.025 -0.55900002 1
2.381 -0.024 -0.55800003 1
2.359 -0.023 -0.55699998 1
2.339 -0.022 -0.55599999 1
2.3269999 -0.022 -0.55699998 1
2.306 -0.021 -0.55599999 1
2.29 -0.02 -0.55599999 1
2.273 -0.018999999 -0.55599999 1
2.25 -0.017999999 -0.55299997 1
2.2379999 -0.017000001 -0.55400002 1
2.2190001 -0.016000001 -0.55299997 1
2.21 -0.015 -0.55400002 1
2.197 -0.014 -0.55500001 1
2.174 -0.013 -0.55199999 1
2.1559999 -0.012 -0.551 1
2.145 -0.011 -0.551 1
2.1270001 -0.011 -0.55000001 1
2.1129999 -0.0099999998 -0.55000001 1
2.1010001 -0.0089999996 -0.55000001 1
2.089 -0.0080000004 -0.55000001 1
2.076 -0.0070000002 -0.54900002 1
2.0680001 -0.0060000001 -0.55000001 1
2.0510001 -0.0049999999 -0.54900002 1
2.0280001 -0.0049999999 -0.546 1
2.0220001 -0.0040000002 -0.54699999 1
2.013 -0.003 -0.54799998 1
1.992 -0.0020000001 -0.54500002 1
1.9809999 -0.001 -0.54400003 1
1.967 0 -0.54299998 1
1.947 0 -0.54100001 1
1.943 0 -0.542 1
1.926 0.001 -0.54000002 1
1.92 0.0020000001 -0.54100001 1
1.905 0.003 -0.54000002 1
1.903 0.003 -0.54100001 1
1.893 0.0040000002 -0.54100001 1
1.883 0.0049999999 -0.54100001 1
1.873 0.0060000001 -0.54000002 1
1.87 0.0070000002 -0.542 1
1.854 0.0070000002 -0.54000002 1
1.846 0.0080000004 -0.54000002 1
1.836 0.0089999996 -0.53899997 1
1.88 0.0099999998 -0.55500001 1
1.886 0.011 -0.55900002 1
1.801 0.011 -0.53600001 1
1.809 0.012 -0.54000002 1
1.798 0.013 -0.53899997 1
1.79 0.013 -0.53899997 1
1.783 0.014 -0.53899997 1
1.773 0.015 -0.53799999 1
1.753 0.015 -0.53399998 1
1.749 0.016000001 -0.53500003 1
1.745 0.017000001 -0.53600001 1
1.732 0.017999999 -0.53399998 1
1.729 0.017999999 -0.53399998 1
1.723 0.018999999 -0.53500003 1
1.72 0.02 -0.53500003 1
1.707 0.021 -0.53299999 1
1.704 0.021 -0.53399998 1
1.696 0.022 -0.53399998 1
1.6900001 0.023 -0.53299999 1
1.6900001 0.024 -0.53500003 1
1.682 0.024 -0.53399998 1
1.67 0.025 -0.53200001 1
1.67 0.026000001 -0.53399998 1
1.668 0.026000001 -0.53500003 1
1.658 0.027000001 -0.53299999 1
1.654 0.028000001 -0.53399998 1
1.641 0.028000001 -0.53100002 1
1.638 0.028999999 -0.53100002 1
1.632 0.029999999 -0.53100002 1
1.63 0.029999999 -0.53200001 1
1.622 0.030999999 -0.53100002 1
1.62 0.032000002 -0.53100002 1
1.612 0.032000002 -0.52999997 1
1.615 0.033 -0.53200001 1
1.607 0.034000002 -0.53100002 1
1.604 0.034000002 -0.53200001 1
1.591 0.035 -0.528 1
1.59 0.035999998 -0.52999997 1
1.585 0.035999998 -0.52899998 1
1.586 0.037 -0.52999997 1
1.581 0.037999999 -0.52999997 1
1.58 0.037999999 -0.53100002 1
1.574 0.039000001 -0.52999997 1
1.567 0.039999999 -0.52899998 1
1.5700001 0.039999999 -0.53100002 1
1.562 0.041000001 -0.52899998 1
1.569 0.041999999 -0.53299999 1
1.544 0.041999999 -0.52499998 1
1.549 0.043000001 -0.528 1
1.546 0.043000001 -0.528 1
1.548 0.044 -0.52999997 1
1.552 0.045000002 -0.53200001 1
1.538 0.045000002 -0.528 1
1.538 0.046 -0.52899998 1
1.533 0.046999998 -0.528 1
1.531 0.046999998 -0.528 1
1.52 0.048 -0.52499998 1
1.524 0.048 -0.52700001 1
1.523 0.048999999 -0.528 1
1.52 0.050000001 -0.52700001 1
1.5089999 0.050000001 -0.52399999 1
1.511 0.050999999 -0.52600002 1
1.5140001 0.052000001 -0.528 1
1.516 0.052000001 -0.52899998 1
1.51 0.052999999 -0.52700001 1
1.508 0.054000001 -0.52700001 1
1.5089999 0.054000001 -0.528 1
1.503 0.055 -0.52700001 1
1.502 0.055 -0.52700001 1
1.5 0.056000002 -0.52700001 1
1.503 0.057 -0.528 1
1.493 0.057 -0.52499998 1
1.494 0.057999998 -0.52600002 1
1.492 0.057999998 -0.52600002 1
1.498 0.059 -0.528 1
1.4910001 0.059999999 -0.52600002 1
1.492 0.059999999 -0.52700001 1
1.4960001 0.061000001 -0.52899998 1
1.485 0.061000001 -0.52499998 1
1.4910001 0.061999999 -0.528 1
1.489 0.063000001 -0.52700001 1
1.48 0.063000001 -0.52399999 1
1.485 0.064000003 -0.52600002 1
1.4859999 0.064999998 -0.52700001 1
1.4859999 0.064999998 -0.52700001 1
1.4809999 0.066 -0.52600002 1
1.4809999 0.066 -0.52600002 1
1.4809999 0.067000002 -0.52600002 1
1.483 0.068000004 -0.52700001 1
1.477 0.068000004 -0.52499998 1
1.479 0.068999998 -0.52499998 1
1.4809999 0.068999998 -0.52600002 1
1.48 0.07 -0.52600002 1
1.478 0.07 -0.52499998 1
1.477 0.071000002 -0.52499998 1
1.479 0.071999997 -0.52499998 1
1.479 0.071999997 -0.52499998 1
1.479 0.072999999 -0.52499998 1
1.474 0.072999999 -0.523 1
1.4859999 0.074000001 -0.52700001 1
1.479 0.075000003 -0.52499998 1
1.4859999 0.075000003 -0.52700001 1
1.479 0.075999998 -0.52399999 1
1.477 0.075999998 -0.52399999 1
1.4910001 0.077 -0.528 1
1.485 0.078000002 -0.52600002 1
1.4859999 0.078000002 -0.52600002 1
1.4809999 0.079000004 -0.52399999 1
1.4859999 0.079000004 -0.52499998 1
1.487 0.079999998 -0.52499998 1
1.49 0.081 -0.52600002 1
1.49 0.081 -0.52600002 1
1.489 0.082000002 -0.52499998 1
1.4910001 0.082000002 -0.52499998 1
1.498 0.082999997 -0.52700001 1
1.5 0.083999999 -0.52700001 1
1.5 0.083999999 -0.52700001 1
1.489 0.083999999 -0.52200001 1
1.503 0.085000001 -0.52700001 1
1.499 0.086000003 -0.52499998 1
1.501 0.086000003 -0.52499998 1
1.507 0.086999997 -0.52600002 1
1.518 0.088 -0.52999997 1
1.513 0.088 -0.52700001 1
1.512 0.089000002 -0.52600002 1
1.526 0.090000004 -0.52999997 1
1.524 0.090999998 -0.52899998 1
1.52 0.090999998 -0.52700001 1
1.531 0.092 -0.52999997 1
1.526 0.092 -0.52700001 1
1.526 0.092 -0.52600002 1
1.529 0.093000002 -0.52600002 1
1.53 0.093999997 -0.52600002 1
1.545 0.094999999 -0.52999997 1
1.545 0.094999999 -0.52899998 1
1.544 0.096000001 -0.528 1
1.534 0.094999999 -0.52399999 1
1.5470001 0.097000003 -0.52700001 1
1.5599999 0.097999997 -0.52999997 1
1.548 0.097000003 -0.52499998 1
1.558 0.098999999 -0.528 1
1.55 0.097999997 -0.52399999 1
1.562 0.1 -0.52700001 1
1.568 0.1 -0.528 1
1.574 0.101 -0.52899998 1
1.574 0.101 -0.528 1
1.573 0.102 -0.52600002 1
1.575 0.102 -0.52499998 1
1.5880001 0.103 -0.528 1
1.5880001 0.104 -0.52700001 1
1.595 0.105 -0.528 1
1.598 0.105 -0.528 1
1.598 0.105 -0.52700001 1
1.595 0.106 -0.52399999 1
1.613 0.107 -0.52899998 1
1.624 0.108 -0.53100002 1
1.624 0.108 -0.52999997 1
1.632 0.109 -0.53100002 1
1.631 0.109 -0.52899998 1
1.633 0.11 -0.528 1
1.642 0.111 -0.52899998 1
1.655 0.112 -0.53200001 1
1.6569999 0.112 -0.53100002 1
1.669 0.113 -0.53299999 1
1.678 0.114 -0.53500003 1
1.674 0.114 -0.53200001 1
1.687 0.115 -0.53399998 1
1.6799999 0.115 -0.52999997 1
1.686 0.116 -0.52999997 1
1.691 0.116 -0.52999997 1
1.701 0.117 -0.53200001 1
1.707 0.118 -0.53100002 1
1.716 0.118 -0.53200001 1
1.722 0.119 -0.53200001 1
1.723 0.119 -0.53100002 1
1.743 0.121 -0.53500003 1
1.751 0.121 -0.53600001 1
1.758 0.122 -0.53500003 1
1.76 0.122 -0.53399998 1
1.7690001 0.123 -0.53500003 1
1.775 0.124 -0.53500003 1
1.781 0.124 -0.53399998 1
1.793 0.125 -0.53600001 1
1.799 0.126 -0.53500003 1
1.806 0.126 -0.53500003 1
1.821 0.127 -0.53799999 1
1.8329999 0.12800001 -0.53899997 1
1.829 0.12800001 -0.53500003 1
1.837 0.12899999 -0.53500003 1
1.858 0.13 -0.53899997 1
1.868 0.131 -0.53899997 1
1.875 0.131 -0.53899997 1
1.882 0.132 -0.53899997 1
1.895 0.133 -0.54000002 1
1.902 0.133 -0.53899997 1
1.913 0.134 -0.54000002 1
1.924 0.13500001 -0.54000002 1
1.936 0.13500001 -0.54100001 1
1.951 0.13600001 -0.542 1
1.957 0.13699999 -0.542 1
1.966 0.13699999 -0.54100001 1
1.98 0.138 -0.542 1
1.989 0.139 -0.542 1
2.0039999 0.14 -0.54299998 1
2.017 0.14 -0.54400003 1
2.029 0.141 -0.54400003 1
2.043 0.142 -0.54500002 1
2.0569999 0.14300001 -0.546 1
2.0699999 0.14300001 -0.546 1
2.082 0.14399999 -0.546 1
2.1010001 0.145 -0.54799998 1
2.118 0.146 -0.55000001 1
2.1300001 0.146 -0.54900002 1
2.1440001 0.147 -0.55000001 1
2.1570001 0.148 -0.55000001 1
2.171 0.148 -0.55000001 1
2.184 0.149 -0.55000001 1
2.2030001 0.15000001 -0.551 1
2.22 0.15099999 -0.55199999 1
2.227 0.15099999 -0.55000001 1
2.2520001 0.152 -0.55299997 1
2.267 0.153 -0.55299997 1
2.276 0.153 -0.55199999 1
2.302 0.154 -0.55400002 1
2.3139999 0.155 -0.55299997 1
2.335 0.155 -0.55500001 1
2.3540001 0.156 -0.55500001 1
2.378 0.15700001 -0.55699998 1
2.3970001 0.15800001 -0.55800003 1
2.4130001 0.15899999 -0.55699998 1
2.434 0.15899999 -0.55800003 1
2.4549999 0.16 -0.55900002 1
2.4749999 0.161 -0.55900002 1
2.49 0.161 -0.55900002 1
2.5150001 0.162 -0.56 1
2.5439999 0.163 -0.56199998 1
2.5599999 0.164 -0.56199998 1
2.5780001 0.164 -0.56099999 1
2.596 0.164 -0.56099999 1
2.635 0.16599999 -0.565 2
2.661 0.167 -0.565 2
2.6919999 0.168 -0.56699997 2
2.717 0.169 -0.56800002 2
2.743 0.169 -0.56900001 2
2.7679999 0.17 -0.56900001 2
2.793 0.17 -0.56900001 2
2.826 0.17200001 -0.57099998 2
2.849 0.17200001 -0.56999999 2
2.881 0.17299999 -0.57200003 2
2.915 0.17399999 -0.57300001 2
2.9419999 0.17399999 -0.57300001 2
2.977 0.175 -0.57499999 2
3.013 0.176 -0.57599998 2
3.0469999 0.177 -0.57700002 2
3.073 0.177 -0.57700002 2
3.1129999 0.178 -0.579 2
3.2309999 0.184 -0.59500003 2
3.2609999 0.184 -0.59399998 2
3.2639999 0.183 -0.58899999 2
3.3299999 0.185 -0.59500003 2
3.382 0.186 -0.59799999 2
3.352 0.183 -0.58600003 2
3.385 0.183 -0.58600003 2
3.4979999 0.18799999 -0.59899998 2
3.497 0.186 -0.59200001 2
3.5409999 0.18700001 -0.59299999 2
3.658 0.191 -0.60600001 2
3.707 0.192 -0.60699999 2
3.7249999 0.191 -0.60299999 2
3.892 0.197 -0.62300003 3
3.8099999 0.191 -0.60299999 2
3.9260001 0.19499999 -0.61400002 2
3.9790001 0.19499999 -0.61500001 2
3.9949999 0.19400001 -0.61000001 3
4.052 0.19499999 -0.611 2
4.105 0.19499999 -0.611 2
4.2059999 0.197 -0.61900002 4
4.2550001 0.197 -0.61799997 2
4.3520002 0.199 -0.62400001 2
4.3899999 0.198 -0.62099999 2
4.4720001 0.199 -0.62400001 2
4.5469999 0.2 -0.62599999 4
4.6500001 0.20100001 -0.63099998 2
4.7290001 0.20200001 -0.63300002 3
4.802 0.20200001 -0.63300002 3
4.9029999 0.20299999 -0.63700002 3
5.0139999 0.205 -0.64200002 3
5.1209998 0.206 -0.64600003 3
5.2319999 0.207 -0.64999998 3
5.3410001 0.207 -0.653 3
5.4520001 0.208 -0.65700001 4
5.5700002 0.20900001 -0.66000003 5
5.6900001 0.20900001 -0.66299999 4
5.8239999 0.20999999 -0.66799998 5
5.9400001 0.20999999 -0.67000002 4
6.098 0.212 -0.676 5
6.2649999 0.213 -0.68199998 4
6.4349999 0.214 -0.68800002 4
6.6139998 0.215 -0.69499999 4
6.7989998 0.21600001 -0.70099998 4
7.0100002 0.21799999 -0.70899999 4
7.2160001 0.219 -0.71600002 3
7.4590001 0.22 -0.72600001 4
7.6859999 0.221 -0.73299998 4
7.9330001 0.222 -0.74199998 5
8.2139997 0.22400001 -0.75199997 5
8.526 0.22499999 -0.764 3
8.868 0.227 -0.778 4
9.1470003 0.227 -0.78500003 4
9.5010004 0.228 -0.79699999 4
9.8889999 0.23 -0.81099999 4
10.217 0.229 -0.81800002 4
10.602 0.229 -0.82800001 3
11.039 0.229 -0.84100002 4
11.609 0.23100001 -0.861 3
12.193 0.23199999 -0.88200003 5
12.72 0.23100001 -0.89499998 11
13.055 0.226 -0.89399999 13
13.467 0.221 -0.89600003 4
14.075 0.219 -0.91000003 4
0 0 0 2
15.883 0.219 -0.96499997 3
16.812 0.21600001 -0.98900002 2
17.004999 0.20299999 -0.96799999 2
0 0 0 1
0 0 0 1
21.410999 0.19599999 -1.096 1
0 0 0 1
0 0 0 0
0 0 0 0
0 0 0 0
0 0 0 0
0 0 0 6
60.949001 0.148 -2.303 152
60.977001 0.086999997 -2.188 159
61.004002 0.027000001 -2.073 161
61.061001 -0.033 -1.959 17
0 0 0 25
0 0 0 25
0 0 0 25
0 0 0 25
0 0 0 42
117.199 -0.778 -2.4449999 51
0 0 0 0
0 0 0 0
0 0 0 0
0 0 0 0
0 0 0 0
0 0 0 0
0 0 0 70
0 0 0 21
73.293999 -1.189 -0.30700001 72
72.667 -1.2589999 -0.17 89
72.345001 -1.3329999 -0.035999998 81
0 0 0 39
67.68 -1.399 0.21600001 34
67.632004 -1.474 0.33899999 28
66.975998 -1.536 0.458 74
66.926003 -1.61 0.57999998 40
0 0 0 0
0 0 0 0
0 0 0 0
0 0 0 0
0 0 0 0
0 0 0 0
0 0 0 0
0 0 0 0
0 0 0 0
0 0 0 0
0 0 0 0
0 0 0 0
0 0 0 0
0 0 0 0
0 0 0 0
0 0 0 0
0 0 0 0
0 0 0 0
0 0 0 32
47.036999 -2.2490001 2.0710001 98
0 0 0 16
43.153 -2.1700001 2.0469999 50
43.122002 -2.2219999 2.118 48
43.104 -2.2750001 2.191 21
42.219002 -2.2820001 2.217 42
41.923 -2.319 2.2720001 62
41.320999 -2.3380001 2.309 77
40.771 -2.358 2.346 41
40.542999 -2.3970001 2.401 92
40.466 -2.444 2.4630001 15
39.450001 -2.4319999 2.4660001 8
39.021 -2.4560001 2.503 26
38.818001 -2.4920001 2.553 27
38.313999 -2.51 2.5829999 24
37.787998 -2.523 2.609 19
37.487 -2.552 2.6489999 24
37.001999 -2.5669999 2.674 27
36.636002 -2.5880001 2.7060001 21
36.271 -2.6099999 2.737 38
35.900002 -2.6300001 2.766 18
35.48 -2.645 2.7880001 20
35.098999 -2.6630001 2.8139999 19
35.015999 -2.7030001 2.862 13
34.799999 -2.7320001 2.9000001 53
34.813999 -2.779 2.9549999 45
34.909 -2.832 3.017 24
34.833 -2.8729999 3.0639999 24
34.98 -2.931 3.131 20
34.876999 -2.9690001 3.175 30
34.863998 -3.0150001 3.227 56
34.856998 -3.0599999 3.2780001 57
34.867001 -3.108 3.332 59
34.858002 -3.1530001 3.3829999 58
34.883999 -3.2030001 3.438 60
34.886002 -3.2490001 3.49 57
34.890999 -3.2969999 3.5420001 58
34.893002 -3.3429999 3.5929999 54
34.896 -3.391 3.6440001 56
34.902 -3.438 3.6949999 59
34.898998 -3.4849999 3.7449999 59
34.900002 -3.533 3.7950001 64
34.91 -3.5810001 3.846 59
34.917999 -3.628 3.8959999 61
34.907001 -3.6730001 3.9430001 59
34.917 -3.7219999 3.993 61
34.924999 -3.77 4.0430002 60
34.93 -3.8180001 4.092 61
34.936001 -3.865 4.1399999 54
34.943001 -3.914 4.1890001 59
34.958 -3.9630001 4.2389998 52
34.941002 -4.0089998 4.2839999 54
34.962002 -4.059 4.3330002 60
34.956001 -4.1040001 4.3790002 28
35.053001 -4.164 4.4380002 4
35.178001 -4.2249999 4.5 2
35.144001 -4.2690001 4.5419998 2
0 0 0 0
0 0 0 0
0 0 0 3
0 0 0 0
0 0 0 0
0 0 0 0
0 0 0 2
0 0 0 0
0 0 0 0
0 0 0 0
0 0 0 0
0 0 0 0
0 0 0 0
0 0 0 0
0 0 0 3
27.309 -3.908 4.0689998 16
27.231001 -3.9330001 4.0890002 24
27.159 -3.9590001 4.1100001 29
27.128 -3.9909999 4.1360002 32
27.091999 -4.0219998 4.1609998 34
27.055 -4.052 4.1849999 39
27.024 -4.0830002 4.21 40
27.014999 -4.118 4.2389998 38
26.987 -4.1500001 4.2639999 43
26.972 -4.1830001 4.2909999 46
26.972 -4.2189999 4.3200002 52
26.948999 -4.2509999 4.3449998 54
26.943001 -4.2849998 4.3730001 53
26.929001 -4.3179998 4.3990002 54
26.941 -4.355 4.4289999 52
26.944 -4.3920002 4.4569998 47
26.941 -4.4250002 4.4840002 47
26.941999 -4.461 4.5110002 48
26.957001 -4.4990001 4.5409999 45
26.976999 -4.5370002 4.5710001 36
26.990999 -4.5749998 4.5999999 42
26.996 -4.6100001 4.6269999 39
27.035 -4.651 4.6599998 35
27.065001 -4.691 4.691 31
27.105 -4.7319999 4.723 27
27.153999 -4.776 4.757 20
27.232 -4.8239999 4.796 11
0 0 0 21
35.202999 -6.3260002 6.2639999 21
35.235001 -6.375 6.3010001 21
35.212002 -6.4159999 6.3280001 21
35.182999 -6.4549999 6.3540001 24
35.117001 -6.487 6.3720002 24
35.026001 -6.5139999 6.3860002 25
34.917 -6.5370002 6.395 27
34.794998 -6.5560002 6.402 24
34.655998 -6.573 6.4050002 26
34.506001 -6.5869999 6.4060001 26
34.436001 -6.6149998 6.421 26
34.307999 -6.632 6.4239998 26
34.209999 -6.6539998 6.4330001 26
34.083 -6.671 6.4349999 25
33.953999 -6.6859999 6.4369998 25
33.848999 -6.7059999 6.4429998 25
33.709 -6.7179999 6.441 25
33.605999 -6.737 6.4460001 25
33.487 -6.7529998 6.448 25
33.362999 -6.7670002 6.448 24
33.254002 -6.7839999 6.4499998 26
33.153999 -6.802 6.454 24
33.073002 -6.823 6.461 23
32.950001 -6.836 6.4590001 25
32.882999 -6.8600001 6.4679999 24
32.768002 -6.8730001 6.4660001 23
32.678001 -6.8899999 6.4699998 22
32.580002 -6.9060001 6.4710002 23
32.509998 -6.928 6.4780002 23
32.421001 -6.9450002 6.48 23
32.339001 -6.9629998 6.4829998 23
32.257 -6.9809999 6.4860001 25
32.169998 -6.9959998 6.4860001 24
32.085999 -7.0139999 6.4879999 24
31.995001 -7.0279999 6.4879999 24
31.927999 -7.0479999 6.4920001 22
31.848 -7.0640001 6.493 24
0 0 0 3
19.27 -4.3140001 3.9489999 17
19.212999 -4.3210001 3.947 19
19.174999 -4.3330002 3.9489999 18
19.132999 -4.3429999 3.95 24
19.103001 -4.3559999 3.9530001 28
19.080999 -4.3699999 3.957 29
19.051001 -4.382 3.96 30
19.021 -4.395 3.9619999 32
18.981001 -4.4039998 3.9619999 35
18.962 -4.4180002 3.9660001 36
18.952999 -4.4349999 3.9719999 37
18.941 -4.4499998 3.977 40
18.940001 -4.4679999 3.9849999 42
18.927999 -4.4829998 3.9890001 42
18.919001 -4.4990001 3.9949999 43
18.908001 -4.5139999 3.9990001 46
18.893999 -4.5279999 4.0029998 49
18.9 -4.546 4.0110002 36
18.877001 -4.5580001 4.013 51
18.878 -4.5749998 4.0190001 35
18.862 -4.5879998 4.0209999 55
18.861 -4.605 4.027 50
18.848 -4.618 4.0300002 58
18.846001 -4.6329999 4.0349998 63
18.84 -4.6479998 4.039 59
18.834 -4.6630001 4.0430002 56
18.843 -4.6810002 4.0489998 61
18.841 -4.6960001 4.053 59
18.827999 -4.7080002 4.0549998 58
18.825001 -4.723 4.0580001 58
18.819 -4.7360001 4.0609999 52
18.827 -4.7529998 4.0669999 53
18.816999 -4.7649999 4.0679998 51
18.830999 -4.7839999 4.0749998 37
18.827 -4.7969999 4.0770001 51
18.822001 -4.8099999 4.079 48
18.806999 -4.8200002 4.0780001 38
18.829 -4.8390002 4.086 42
18.816999 -4.8499999 4.086 48
18.826 -4.8660002 4.0900002 46
18.825001 -4.8790002 4.092 48
18.830999 -4.8940001 4.0949998 47
18.829 -4.9060001 4.0960002 47
18.841 -4.9219999 4.0999999 45
18.837 -4.9330001 4.0999999 41
18.855 -4.9499998 4.105 46
18.841 -4.9580002 4.1040001 44
18.846001 -4.9720001 4.105 42
18.865999 -4.9889998 4.1100001 39
18.85 -4.9959998 4.1069999 37
18.862 -5.0110002 4.1090002 35
18.879 -5.026 4.1129999 36
18.885 -5.039 4.1139998 35
18.882999 -5.0489998 4.1129999 34
18.888 -5.0609999 4.1139998 33
18.910999 -5.0780001 4.118 31
18.924999 -5.092 4.1199999 29
18.941 -5.1059999 4.1220002 28
18.952 -5.119 4.1230001 27
18.961 -5.132 4.1240001 25
18.969999 -5.1440001 4.1240001 24
18.995001 -5.1599998 4.1269999 22
19.000999 -5.1700001 4.1259999 21
19.017 -5.184 4.1269999 19
19.034 -5.197 4.1290002 17
19.065001 -5.2140002 4.1329999 16
19.077 -5.2249999 4.1329999 15
19.101999 -5.2399998 4.1350002 9
19.108999 -5.25 4.1329999 4
19.171 -5.2750001 4.1430001 1
0 0 0 22
30.181999 -8.3280001 6.5100002 24
30.184 -8.3400002 6.5050001 26
30.193001 -8.3529997 6.5 26
30.198999 -8.3649998 6.494 26
30.172001 -8.368 6.4809999 26
30.16 -8.3739996 6.4720001 25
30.152 -8.382 6.4619999 27
30.143 -8.3879995 6.4520001 28
30.110001 -8.3870001 6.4369998 27
30.087999 -8.3900003 6.4229999 25
30.052 -8.3889999 6.4060001 25
30.041 -8.3929996 6.395 24
30.014999 -8.3929996 6.3800001 26
29.987 -8.3920002 6.3639998 24
29.957001 -8.3909998 6.3470001 25
29.91 -8.3839998 6.3270001 24
29.844999 -8.3719997 6.302 24
29.746 -8.3500004 6.27 21
29.634001 -8.3240004 6.2360001 20
29.549999 -8.3050003 6.2069998 20
29.497999 -8.2950001 6.1849999 20
29.400999 -8.2720003 6.152 20
29.336 -8.257 6.1259999 19
29.271 -8.2419996 6.1009998 19
29.211 -8.2279997 6.0770001 18
29.202 -8.2279997 6.0619998 19
29.195 -8.2290001 6.0469999 24
29.228001 -8.2399998 6.0409999 23
29.282 -8.257 6.0380001 23
29.361 -8.2819996 6.0409999 25
29.399 -8.2930002 6.0339999 23
29.476999 -8.316 6.0349998 24
29.541 -8.3339996 6.0339999 24
29.589001 -8.3479996 6.0289998 24
29.660999 -8.368 6.0279999 24
29.719999 -8.3850002 6.0250001 26
29.771 -8.3970003 6.02 31
29.853001 -8.4189997 6.02 26
29.914 -8.4350004 6.0159998 26
29.990999 -8.4549999 6.0139999 26
30.055 -8.4700003 6.0100002 31
30.134001 -8.4899998 6.0079999 27
30.205 -8.507 6.0050001 26
30.289 -8.5270004 6.0040002 26
30.377001 -8.5480003 6.0029998 27
30.427 -8.5579996 5.994 27
30.52 -8.5790005 5.994 27
30.601999 -8.5970001 5.9910002 28
30.672001 -8.6120005 5.9850001 26
30.756001 -8.6300001 5.9819999 26
30.863001 -8.6529999 5.9829998 26
30.959999 -8.6739998 5.9809999 23
31.034 -8.6879997 5.9749999 24
31.150999 -8.7139997 5.9770002 24
31.233 -8.7290001 5.9710002 22
31.337999 -8.75 5.9699998 22
31.437 -8.7700005 5.967 26
31.534 -8.7880001 5.9640002 23
31.613001 -8.8009996 5.9559999 23
31.719999 -8.8210001 5.954 23
31.83 -8.842 5.9520001 22
31.917999 -8.8559999 5.9450002 22
32.033001 -8.8769999 5.9419999 23
32.118 -8.8889999 5.934 23
32.238998 -8.9110003 5.9320002 22
32.372002 -8.9359999 5.9310002 24
32.487999 -8.9549999 5.928 24
32.584999 -8.9689999 5.921 24
32.68 -8.9820004 5.9120002 24
0 0 0 1
19.118999 -5.2379999 3.4289999 4
19.091999 -5.2220001 3.408 10
19.062 -5.2049999 3.388 13
19.027 -5.1869998 3.3659999 15
18.996 -5.1700001 3.345 17
18.989 -5.1589999 3.3280001 19
18.976999 -5.1459999 3.3099999 20
18.938 -5.1259999 3.2869999 21
18.934 -5.1149998 3.2709999 24
18.937 -5.105 3.2550001 27
18.924 -5.0910001 3.2360001 22
18.900999 -5.0739999 3.2160001 30
18.889999 -5.0599999 3.198 30
18.879999 -5.0469999 3.1800001 30
18.874001 -5.0339999 3.1619999 31
18.847 -5.0149999 3.1400001 36
18.841999 -5.0029998 3.1229999 33
18.827999 -4.987 3.1029999 36
18.841999 -4.9790001 3.0880001 39
18.83 -4.9629998 3.0699999 41
18.83 -4.9510002 3.052 40
18.816999 -4.9349999 3.033 42
18.809999 -4.9200001 3.0139999 45
18.804001 -4.9050002 2.9960001 48
18.811001 -4.8940001 2.9790001 45
18.795 -4.8759999 2.9590001 46
18.796 -4.8629999 2.9419999 47
18.799 -4.849 2.924 44
18.796 -4.835 2.9059999 44
18.799 -4.8210001 2.888 47
18.795 -4.8049998 2.869 29
18.795 -4.7909999 2.8510001 43
18.783001 -4.7719998 2.8310001 47
18.773001 -4.7550001 2.8110001 51
18.794001 -4.7449999 2.796 58
18.778999 -4.7249999 2.7750001 54
18.775999 -4.7090001 2.756 54
18.790001 -4.6960001 2.7390001 59
18.796 -4.6820002 2.721 37
18.796 -4.6659999 2.7019999 59
18.794001 -4.6490002 2.6830001 60
18.785 -4.6300001 2.6619999 56
18.805 -4.6170001 2.6459999 60
18.804001 -4.599 2.6259999 55
18.806999 -4.5830002 2.608 55
18.816999 -4.5679998 2.5899999 59
18.823999 -4.552 2.5710001 56
18.826 -4.5339999 2.552 54
18.827 -4.5159998 2.533 50
18.858999 -4.5050001 2.517 35
18.861 -4.487 2.4979999 51
18.858 -4.467 2.477 47
18.875 -4.4520001 2.46 45
18.889999 -4.4369998 2.441 46
18.896999 -4.4190001 2.4230001 44
18.926001 -4.4050002 2.4059999 41
18.923 -4.3850002 2.3859999 39
18.945999 -4.3699999 2.368 38
18.962999 -4.3540001 2.3499999 35
18.973 -4.336 2.3310001 35
19.021 -4.3260002 2.316 32
19.056999 -4.3130002 2.3 28
19.101999 -4.302 2.286 28
19.128 -4.2859998 2.2679999 23
19.186001 -4.277 2.2539999 18
19.247 -4.2690001 2.24 10
0 0 0 0
0 0 0 0
0 0 0 0
0 0 0 0
0 0 0 0
0 0 0 0
0 0 0 0
0 0 0 0
0 0 0 0
0 0 0 0
0 0 0 0
0 0 0 0
0 0 0 0
0 0 0 0
0 0 0 0
0 0 0 0
0 0 0 0
0 0 0 0
0 0 0 0
0 0 0 0
0 0 0 0
0 0 0 0
0 0 0 3
35.108002 -6.717 3.1559999 17
35.091 -6.665 3.115 37
35.077999 -6.6139998 3.075 34
35.084999 -6.566 3.036 39
35.085999 -6.5170002 2.9979999 47
35.074001 -6.4650002 2.9579999 47
35.050999 -6.4099998 2.9170001 50
35.034 -6.3569999 2.878 50
35.021 -6.3039999 2.8369999 50
35.018002 -6.2529998 2.7980001 51
35.006001 -6.1999998 2.7590001 51
0 0 0 4
27.08 -4.7160001 2.0739999 18
27.016001 -4.665 2.04 25
26.976 -4.618 2.007 30
26.93 -4.5700002 1.974 34
26.914 -4.5250001 1.942 37
26.891001 -4.48 1.911 40
26.870001 -4.4359999 1.88 44
26.858 -4.3930001 1.85 46
26.851999 -4.3509998 1.8200001 48
26.843 -4.3070002 1.79 55
26.839001 -4.2649999 1.761 48
26.832001 -4.2220001 1.7309999 63
26.843 -4.1810002 1.702 61
26.878 -4.1440001 1.676 50
26.898001 -4.105 1.648 41
26.921 -4.0650001 1.62 48
26.927 -4.0229998 1.591 41
26.978001 -3.987 1.5650001 37
27.014 -3.948 1.538 35
27.063999 -3.911 1.512 31
27.101999 -3.872 1.485 25
27.202 -3.842 1.461 16
27.343 -3.8169999 1.4400001 1
0 0 0 17
35.132 -4.7870002 1.775 20
35.046001 -4.717 1.734 21
34.875 -4.6360002 1.689 92
34.872002 -4.5760002 1.652 94
34.834999 -4.5120001 1.614 95
34.835999 -4.4530001 1.577 99
34.855 -4.3959999 1.5420001 94
34.823002 -4.3319998 1.5039999 95
34.838001 -4.2740002 1.469 90
34.832001 -4.2140002 1.433 98
34.812 -4.152 1.396 100
34.823002 -4.092 1.3609999 99
34.821999 -4.0300002 1.325 99
34.827999 -3.9719999 1.29 95
34.798 -3.9070001 1.2539999 97
34.784 -3.845 1.2180001 99
34.771999 -3.7809999 1.183 104
34.773998 -3.72 1.148 99
34.772999 -3.6570001 1.113 99
34.764999 -3.5940001 1.0779999 99
34.777 -3.5339999 1.044 103
34.756001 -3.4690001 1.0089999 102
34.772999 -3.4070001 0.97500002 100
34.776001 -3.345 0.94099998 93
35.077 -3.309 0.91500002 9
35.557999 -3.29 0.89300001 8
35.939999 -3.2590001 0.86699998 8
36.412998 -3.2349999 0.84399998 7
36.873001 -3.2090001 0.81999999 8
38.674999 -3.2939999 0.82300001 79
38.667 -3.2219999 0.78600001 80
38.667 -3.1500001 0.74900001 79
38.733002 -3.0840001 0.71499997 14
39.351002 -3.0599999 0.68900001 5
39.976002 -3.033 0.66299999 6
40.298 -2.983 0.63099998 13
40.445 -2.918 0.59600002 3
42.712002 -3.0009999 0.59100002 105
42.679001 -2.9170001 0.551 91
42.998001 -2.858 0.51599997 13
43.487 -2.8080001 0.484 26
43.52 -2.7279999 0.44499999 37
43.542 -2.6459999 0.40700001 43
0 0 0 16
46.973 -2.674 0.35600001 63
47.055 -2.5880001 0.315 53
47.133999 -2.5020001 0.27500001 20
47.881001 -2.4489999 0.23800001 23
0 0 0 91
50.875999 -2.4059999 0.16599999 70
50.973999 -2.312 0.123 31
0 0 0 13
0 0 0 8
58.015999 -2.2920001 -0.0040000002 66
58.856998 -2.2119999 -0.050999999 118
58.884998 -2.0969999 -0.1 107
58.886002 -1.98 -0.148 87
59.115002 -1.8710001 -0.19599999 31
59.971001 -1.7819999 -0.24600001 16
0 0 0 136
66.936996 -1.727 -0.38 74
66.928001 -1.594 -0.43200001 80
67.153999 -1.466 -0.486 71
67.810997 -1.346 -0.542 12
0 0 0 97
73.43 -1.166 -0.699 35
0 0 0 0
0 0 0 0
0 0 0 0
0 0 0 128
134.048 -0.80199999 -1.766 63
0 0 0 0
0 0 0 0
0 0 0 68
0 0 0 0
0 0 0 0
0 0 0 0
0 0 0 0
0 0 0 0
0 0 0 0
0 0 0 13
39.365002 0.63200003 -0.81400001 39
39.202 0.708 -0.83600003 152
39.066002 0.78399998 -0.85799998 152
38.970001 0.861 -0.88 151
38.880001 0.93599999 -0.90200001 38
38.751999 1.012 -0.92299998 37
38.664001 1.0880001 -0.94499999 74
38.584999 1.164 -0.96600002 46
38.551998 1.2410001 -0.98799998 67
38.535999 1.317 -1.01 95
38.556999 1.395 -1.033 64
38.573002 1.474 -1.056 58
38.594002 1.552 -1.0779999 53
38.605 1.63 -1.1 50
38.672001 1.71 -1.123 23
38.727001 1.79 -1.145 4
38.834 1.874 -1.17 6
38.914001 1.957 -1.193 6
38.944 2.0369999 -1.215 6
38.986 2.118 -1.2359999 6
39.021999 2.2 -1.258 9
39.080002 2.2820001 -1.28 23
39.133999 2.365 -1.301 36
39.202 2.447 -1.322 35
39.27 2.529 -1.3430001 32
39.355 2.6159999 -1.3660001 23
39.439999 2.701 -1.387 25
39.488998 2.783 -1.4069999 23
39.584 2.8710001 -1.429 19
39.634998 2.954 -1.448 14
39.692001 3.0369999 -1.4680001 11
39.757 3.122 -1.488 7
0 0 0 0
0 0 0 0
0 0 0 0
0 0 0 0
0 0 0 0
0 0 0 0
0 0 0 0
0 0 0 0
0 0 0 0
0 0 0 0
0 0 0 1
0 0 0 0
0 0 0 0
0 0 0 0
0 0 0 0
0 0 0 0
0 0 0 0
0 0 0 0
0 0 0 0
0 0 0 1
0 0 0 0
0 0 0 3
26.238001 3.2479999 -1.194 2
26.257999 3.302 -1.201 3
26.187 3.3440001 -1.205 3
0 0 0 0
0 0 0 0
0 0 0 0
0 0 0 0
0 0 0 2
0 0 0 0
0 0 0 2
21.482 3.0699999 -1.028 2
21.59 3.1270001 -1.038 2
21.277 3.122 -1.028 2
21.155001 3.1429999 -1.025 2
20.228001 3.0439999 -0.98400003 1
20.136 3.0669999 -0.98299998 1
20.309 3.132 -0.995 1
19.32 3.0139999 -0.94999999 1
19.139999 3.0220001 -0.94400001 1
19.089001 3.05 -0.94499999 2
19.063 3.0810001 -0.94599998 1
19.112 3.1240001 -0.95099998 2
19.184999 3.171 -0.95700002 4
19.104 3.1930001 -0.95599997 1
0 0 0 0
0 0 0 0
0 0 0 0
0 0 0 0
0 0 0 2
18.145 3.23 -0.91900003 3
18.365 3.302 -0.93199998 4
18.094 3.2850001 -0.91900003 4
18.014 3.303 -0.91600001 5
17.981001 3.329 -0.91600001 5
17.903 3.346 -0.91299999 5
17.868 3.3699999 -0.912 6
17.832001 3.395 -0.91100001 6
17.757999 3.4119999 -0.90799999 5
17.879999 3.4660001 -0.91500002 4
17.785999 3.4790001 -0.91100001 4
17.646999 3.4820001 -0.90399998 3
17.777 3.5380001 -0.91100001 3
0 0 0 3
16.847 3.411 -0.86400002 5
0 0 0 0
0 0 0 3
17.705999 3.674 -0.90799999 3
17.737 3.71 -0.90899998 3
17.479 3.6849999 -0.89499998 3
17.542 3.727 -0.898 6
17.659 3.7809999 -0.903 3
17.641001 3.806 -0.90200001 3
17.535999 3.812 -0.89499998 3
17.671 3.8699999 -0.90100002 4
17.629 3.8889999 -0.89899999 3
17.74 3.9419999 -0.903 4
17.676001 3.9560001 -0.89899999 4
17.681999 3.9849999 -0.898 3
17.743999 4.027 -0.89999998 4
17.739 4.0539999 -0.898 3
17.759001 4.086 -0.898 3
17.799999 4.1230001 -0.898 4
17.797001 4.1500001 -0.89600003 4
17.797001 4.177 -0.89399999 4
17.782 4.1999998 -0.89200002 4
18.009001 4.2810001 -0.90100002 6
17.927999 4.289 -0.89499998 3
17.591999 4.2350001 -0.87599999 2
17.923 4.3410001 -0.89099997 4
0 0 0 1
11.924 2.9230001 -0.58899999 1
11.864 2.9260001 -0.58399999 1
11.864 2.9430001 -0.583 1
11.849 2.9560001 -0.57999998 1
11.759 2.95 -0.574 1
11.724 2.9579999 -0.57099998 1
11.69 2.9660001 -0.56699997 1
11.644 2.97 -0.56300002 1
11.63 2.983 -0.56 1
11.925 3.075 -0.57300001 2
11.832 3.0669999 -0.56599998 3
11.761 3.0639999 -0.56 2
11.69 3.0610001 -0.55500001 2
11.605 3.0539999 -0.54900002 3
11.533 3.0510001 -0.54299998 3
11.496 3.056 -0.53899997 4
11.435 3.0550001 -0.53399998 4
11.268 3.0239999 -0.523 4
0 0 0 2
10.557 2.8599999 -0.486 2
0 0 0 2
9.7930002 2.678 -0.44600001 3
9.8190002 2.697 -0.44600001 2
9.8059998 2.7049999 -0.44299999 2
9.7969999 2.714 -0.44 2
9.8249998 2.734 -0.43900001 2
9.8070002 2.74 -0.43599999 2
9.6569996 2.71 -0.42699999 2
9.5959997 2.704 -0.42199999 2
9.5889997 2.7130001 -0.419 2
9.5380001 2.7090001 -0.414 2
9.5979996 2.737 -0.41499999 2
9.5229998 2.7260001 -0.40900001 1
9.5710001 2.75 -0.40799999 1
9.618 2.7739999 -0.40799999 2
9.6890001 2.8050001 -0.40799999 2
9.6700001 2.8099999 -0.40400001 3
9.493 2.7690001 -0.39500001 2
9.2550001 2.7090001 -0.382 10
9.2130003 2.7060001 -0.37799999 21
9.2200003 2.717 -0.375 21
9.217 2.7260001 -0.37200001 10
9.2250004 2.737 -0.37 9
9.2309999 2.7479999 -0.368 4
9.2180004 2.753 -0.36399999 4
9.2040005 2.7579999 -0.361 6
9.1949997 2.7639999 -0.35800001 8
9.2150002 2.7780001 -0.35600001 6
9.2010002 2.783 -0.352 4
9.2040005 2.7920001 -0.34900001 3
9.2030001 2.8 -0.34599999 4
9.1859999 2.803 -0.34299999 3
9.1870003 2.8110001 -0.34 3
9.1709995 2.8139999 -0.336 3
9.1400003 2.812 -0.33199999 2
9.1140003 2.8110001 -0.329 2
9.092 2.812 -0.324 2
9.0790005 2.8150001 -0.32100001 2
9.0629997 2.8169999 -0.317 3
9.0530005 2.8210001 -0.31400001 3
9.0430002 2.825 -0.31099999 3
9.0279999 2.8269999 -0.30700001 3
9.0019999 2.826 -0.303 4
9.0100002 2.8340001 -0.30000001 4
8.9890003 2.8340001 -0.296 4
8.9899998 2.8410001 -0.29300001 4
8.9870005 2.846 -0.28999999 5
8.9729996 2.8469999 -0.28600001 5
8.9659996 2.8510001 -0.28299999 5
8.9610004 2.855 -0.27900001 6
8.9650002 2.862 -0.27599999 7
8.9320002 2.8570001 -0.27200001 7
8.9289999 2.8610001 -0.26899999 8
8.9259996 2.865 -0.26499999 9
8.9239998 2.8699999 -0.26199999 9
8.9180002 2.8729999 -0.25799999 10
8.9189997 2.878 -0.255 11
8.9160004 2.882 -0.252 13
8.915 2.8859999 -0.248 14
8.8999996 2.8859999 -0.244 16
8.8800001 2.8829999 -0.241 16
8.8920002 2.891 -0.23800001 19
8.8870001 2.8940001 -0.234 19
8.8929996 2.9000001 -0.23100001 14
8.8900003 2.902 -0.227 16
8.875 2.901 -0.22400001 23
8.8889999 2.9089999 -0.221 24
8.8859997 2.9119999 -0.21699999 26
8.8769999 2.9119999 -0.213 28
8.8699999 2.9130001 -0.20999999 30
8.8730001 2.9170001 -0.206 32
8.8690004 2.9189999 -0.20299999 34
8.8669996 2.921 -0.199 36
8.8629999 2.9219999 -0.19599999 39
8.8559999 2.9219999 -0.192 42
8.8640003 2.927 -0.189 46
8.8620005 2.9289999 -0.185 49
8.8629999 2.931 -0.182 52
8.868 2.9349999 -0.178 58
8.8549995 2.9319999 -0.175 60
8.8710003 2.9400001 -0.17200001 63
8.868 2.9400001 -0.168 65
8.8660002 2.941 -0.164 69
8.8640003 2.9419999 -0.16 71
8.8780003 2.948 -0.15700001 74
8.8690004 2.9460001 -0.153 75
8.8599997 2.944 -0.15000001 75
8.8660002 2.947 -0.146 76
8.8660002 2.947 -0.14300001 79
8.8649998 2.948 -0.139 79
8.8739996 2.951 -0.13500001 83
8.8730001 2.951 -0.132 80
8.8640003 2.948 -0.12800001 82
8.8640003 2.9489999 -0.124 78
8.8649998 2.9489999 -0.121 79
8.8620005 2.948 -0.117 76
8.8739996 2.951 -0.114 77
8.8739996 2.951 -0.11 75
8.8669996 2.948 -0.106 75
8.8710003 2.9489999 -0.103 72
8.8699999 2.947 -0.098999999 69
8.8660002 2.9449999 -0.096000001 68
8.8669996 2.944 -0.092 65
8.8620005 2.9419999 -0.088 63
8.8669996 2.9419999 -0.085000001 62
8.8719997 2.9419999 -0.081 59
8.8660002 2.9389999 -0.078000002 56
8.8780003 2.941 -0.074000001 54
8.8730001 2.937 -0.071000002 52
8.8719997 2.9349999 -0.067000002 48
8.8780003 2.9349999 -0.064000003 46
8.8719997 2.931 -0.059999999 41
8.8739996 2.9289999 -0.056000002 39
8.8800001 2.928 -0.052999999 34
8.8859997 2.928 -0.048999999 31
8.8809996 2.9230001 -0.046 27
8.8809996 2.921 -0.041999999 24
8.8699999 2.914 -0.039000001 19
8.8719997 2.911 -0.035 19
8.8889999 2.914 -0.030999999 19
8.8990002 2.9130001 -0.028000001 14
8.9040003 2.9119999 -0.024 11
8.901 2.9070001 -0.021 7
8.941 2.9159999 -0.017000001 5
8.9359999 2.911 -0.014 4
8.9580002 2.914 -0.011 7
9.0010004 2.924 -0.0070000002 81
9.0249996 2.927 -0.0040000002 152
9.0150003 2.9200001 0 152
9.0209999 2.9170001 0.0020000001 153
9.0279999 2.914 0.0060000001 153
9.0279999 2.9100001 0.0089999996 150
8.9820004 2.8900001 0.013 25
9.0019999 2.891 0.016000001 27
9.0530005 2.9030001 0.02 150
9.0369997 2.892 0.023 150
9.0649996 2.895 0.027000001 150
9.0649996 2.8900001 0.029999999 150
9.0699997 2.8859999 0.033 57
9.1639996 2.9100001 0.037 150
9.1829996 2.9100001 0.041000001 150
9.1719999 2.9000001 0.044 150
9.1330004 2.881 0.046999998 38
9.158 2.8829999 0.050999999 14
9.1890001 2.8859999 0.054000001 6
9.1879997 2.8789999 0.057999998 3
0 0 0 0
0 0 0 0
0 0 0 0
0 0 0 1
9.2110004 2.8510001 0.074000001 1
0 0 0 0
0 0 0 1
9.184 2.8199999 0.082999997 3
9.1789999 2.8110001 0.086000003 4
9.1809998 2.803 0.090000004 5
9.1969995 2.8 0.093000002 4
9.1949997 2.7909999 0.096000001 2
9.2139997 2.789 0.098999999 2
9.2349997 2.786 0.102 3
9.2550001 2.7839999 0.106 4
9.2480001 2.773 0.109 3
9.2910004 2.777 0.112 1
9.2950001 2.7690001 0.115 2
9.3219995 2.7679999 0.119 2
9.3479996 2.767 0.122 2
9.349 2.7579999 0.125 3
9.382 2.7579999 0.12800001 3
9.427 2.7609999 0.132 4
9.441 2.756 0.13500001 8
9.5459995 2.776 0.139 150
9.5410004 2.7650001 0.142 152
9.5489998 2.757 0.145 152
9.5439997 2.7449999 0.147 104
9.5819998 2.7449999 0.15099999 29
9.6049995 2.7409999 0.154 24
9.6009998 2.7290001 0.15700001 24
9.6289997 2.7260001 0.16 7
9.7139997 2.7390001 0.164 1
0 0 0 0
0 0 0 0
0 0 0 14
55.852001 15.488 1.007 19
55.471001 15.314 1.013 17
54.82 15.069 1.016 13
54.688999 14.966 1.027 28
54.772999 14.921 1.041 33
55.258999 14.984 1.0650001 33
0 0 0 3
41.688 11.198 0.82300001 45
41.693001 11.146 0.83200002 53
0 0 0 6
36.624001 9.6949997 0.74800003 21
36.701 9.6669998 0.75800002 10
36.671001 9.6099997 0.76599997 7
36.591999 9.5410004 0.77100003 22
36.734001 9.5279999 0.78200001 11
0 0 0 24
55.798 14.321 1.21 24
55.938999 14.28 1.225 27
56.055 14.231 1.238 22
55.928001 14.12 1.2460001 5
0 0 0 0
0 0 0 34
45.716 11.347 1.044 76
45.713001 11.279 1.051 69
45.794998 11.233 1.061 29
0 0 0 26
72.023003 17.454 1.692 16
74.225998 17.879 1.7539999 14
74.092003 17.737 1.7640001 13
0 0 0 0
0 0 0 0
0 0 0 0
0 0 0 0
0 0 0 42
50.360001 11.596 1.237 14
0 0 0 30
65.603996 14.9 1.627 35
65.785004 14.837 1.6390001 22
67.144997 15.036 1.6799999 30
0 0 0 9
54.034 11.929 1.362 37
54.085999 11.853 1.369 31
0 0 0 25
46.686001 10.08 1.188 5
46.686001 10.004 1.191 23
46.839001 9.9589996 1.198 8
46.867001 9.8870001 1.202 46
46.886002 9.8140001 1.204 75
46.882 9.7329998 1.207 53
0 0 0 8
36.919998 7.5409999 0.95300001 19
36.924999 7.48 0.954 37
37.039001 7.4400001 0.958 25
37.046001 7.3769999 0.95899999 29
37.091999 7.3239999 0.95999998 17
36.876999 7.217 0.95499998 27
36.837002 7.145 0.954 30
36.701 7.0549998 0.95099998 37
36.66 6.9829998 0.94999999 32
36.601002 6.9070001 0.94800001 16
36.584999 6.8400002 0.94599998 4
0 0 0 19
50.907001 9.3380003 1.313 13
50.902 9.2460003 1.311 8
0 0 0 0
0 0 0 19
54.426998 9.592 1.3940001 25
54.493 9.5059996 1.392 25
53.000999 9.151 1.351 9
53.154999 9.0799999 1.351 31
53.223 8.9940004 1.349 33
53.597 8.96 1.353 26
53.873001 8.9069996 1.355 25
0 0 0 18
46.507999 7.5159998 1.161 24
46.290001 7.395 1.15 26
46.058998 7.27 1.138 33
46.301998 7.224 1.1390001 34
46.493999 7.164 1.137 26
46.658001 7.1040001 1.135 7
46.651001 7.0159998 1.128 18
46.669998 6.9299998 1.1210001 10
0 0 0 0
0 0 0 14
46.369999 6.6220002 1.091 21
46.353001 6.5300002 1.082 15
0 0 0 32
67.478996 9.25 1.551 22
67.511002 9.1239996 1.538 11
0 0 0 0
0 0 0 11
0 0 0 13
70.643997 8.9969997 1.548 15
71.274002 8.9379997 1.545 36
71.163002 8.7849998 1.526 27
0 0 0 0
0 0 0 36
75.197998 8.842 1.5549999 29
78.859001 9.1160002 1.61 12
0 0 0 0
0 0 0 37
78.089996 8.5640001 1.529 43
77.995003 8.3979998 1.5039999 40
0 0 0 0
0 0 0 24
0 0 0 0
0 0 0 0
0 0 0 28
73.709 7.0570002 1.28 28
73.625999 6.902 1.253 26
73.601997 6.7509999 1.227 38
73.802002 6.619 1.202 26
73.730003 6.4640002 1.174 10
0 0 0 94
150.033 12.544 2.277 64
150.07401 12.249 2.22 48
0 0 0 0
0 0 0 0
0 0 0 0
0 0 0 0
0 0 0 0
0 0 0 0
0 0 0 15
88.321999 5.777 1.01 18
0 0 0 0
0 0 0 0
0 0 0 12
0 0 0 0
0 0 0 15
87.191002 4.6409998 0.75099999 15
87.234001 4.4650002 0.708 17
87.466003 4.2979999 0.66600001 22
87.481003 4.1199999 0.62199998 16
87.334 3.9400001 0.57700002 14
87.527 3.7690001 0.53299999 17
0 0 0 0
0 0 0 18
88.181 3.256 0.39399999 12
0 0 0 0
0 0 0 18
0 0 0 0
0 0 0 25
86.047997 2.303 0.142 23
0 0 0 0
0 0 0 0
0 0 0 0
0 0 0 28
133.476 2.221 -0.177 35
133.45 1.948 -0.26100001 46
133.573 1.681 -0.34400001 57
133.59 1.409 -0.42899999 68
133.59801 1.137 -0.51499999 78
133.67999 0.86900002 -0.60100001 91
133.60201 0.597 -0.68900001 90
133.69 0.32499999 -0.778 77
133.746 0.054000001 -0.86799997 79
133.772 -0.21699999 -0.95899999 63
133.79601 -0.48500001 -1.05 52
133.916 -0.75700003 -1.143 104
133.856 -1.02 -1.233 104
0 0 0 0
0 0 0 0
0 0 0 47
0 0 0 33
72.295998 -1.279 -0.92500001 81
70.083 -1.38 -0.94800001 84
66.910004 -1.452 -0.95499998 24
