# .PCD v0.7 - Point Cloud Data file format
VERSION 0.7
FIELDS x y z intensity
SIZE 4 4 4 4
TYPE F F F F
COUNT 1 1 1 1
WIDTH 1722
HEIGHT 1
VIEWPOINT 0 0 0 1 0 0 0
POINTS 1722
DATA ascii
57.775002 5.9640002 4.3439999 51
56.451 5.7319999 4.1890001 52
55.132999 5.5050001 4.0370002 54
54.069 5.3070002 3.904 46
53.544998 5.165 3.813 60
52.438 4.9689999 3.6800001 68
51.106998 4.756 3.5339999 60
50.354 4.6020002 3.431 41
49.768002 4.4640002 3.339 70
48.438999 4.2639999 3.1989999 58
47.919998 4.1360002 3.1140001 34
45.535 3.852 2.911 15
45.382 3.763 2.8529999 53
0 0 0 28
41.514 3.3010001 2.5190001 48
41.123001 3.2 2.451 18
40.353001 3.072 2.3599999 71
39.875 2.967 2.2880001 17
39.166 2.848 2.204 14
38.546001 2.7379999 2.125 34
38.183998 2.6470001 2.0610001 6
37.778999 2.5539999 1.9960001 7
37.643002 2.4809999 1.946 5
37.817001 2.4289999 1.911 4
38.998001 2.438 1.925 4
40.502998 2.4649999 1.9529999 11
39.908001 2.3610001 1.877 4
39.369999 2.263 1.8049999 5
38.884998 2.1689999 1.737 5
38.432999 2.079 1.67 6
37.966999 1.99 1.604 6
37.453999 1.899 1.536 5
37.195 1.823 1.48 89
37.207001 1.762 1.436 90
37.221001 1.701 1.391 88
37.229 1.637 1.344 88
35.326 1.495 1.2309999 7
34.945 1.421 1.174 8
34.556999 1.346 1.117 8
34.153999 1.274 1.061 8
33.744999 1.2029999 1.005 9
33.396 1.136 0.95300001 35
33.352001 1.079 0.90799999 100
33.355 1.023 0.86500001 104
33.396 0.96899998 0.82300001 62
0 0 0 1
19.976999 0.514 0.43900001 1
19.542 0.47099999 0.40400001 1
0 0 0 0
0 0 0 0
0 0 0 0
0 0 0 0
0 0 0 1
0 0 0 0
0 0 0 0
0 0 0 1
18.164 0.17 0.154 1
18.062 0.14 0.12800001 1
17.971001 0.111 0.103 1
17.784 0.081 0.077 1
0 0 0 0
0 0 0 0
0 0 0 1
17.329 -0.030999999 -0.022 1
17.358 -0.059 -0.046999998 2
17.316999 -0.086000003 -0.071000002 2
17.290001 -0.114 -0.096000001 2
17.292 -0.14 -0.121 1
17.128 -0.16599999 -0.14399999 1
17.132999 -0.193 -0.169 1
17.163 -0.219 -0.19400001 1
17.243 -0.24699999 -0.22 2
17.224001 -0.27399999 -0.245 8
17.215 -0.30000001 -0.27000001 8
17.243 -0.32800001 -0.29699999 14
17.212999 -0.35299999 -0.32100001 9
17.267 -0.38100001 -0.34799999 9
17.101999 -0.40400001 -0.37 152
17.110001 -0.43000001 -0.396 185
17.124001 -0.456 -0.42199999 185
17.120001 -0.48100001 -0.447 185
17.115999 -0.50700003 -0.472 185
17.125 -0.53399998 -0.49900001 185
17.106001 -0.55900002 -0.52499998 167
17.120001 -0.58499998 -0.551 163
17.118 -0.61000001 -0.57700002 152
17.136999 -0.63599998 -0.60399997 6
17.191999 -0.66399997 -0.63300002 4
17.33 -0.69400001 -0.66399997 5
17.326 -0.72000003 -0.69099998 3
17.337999 -0.745 -0.71799999 3
17.417 -0.77499998 -0.74900001 2
17.731001 -0.815 -0.79000002 2
18.009001 -0.85299999 -0.82999998 2
18.101999 -0.88300002 -0.86299998 2
18.169001 -0.91299999 -0.89499998 1
0 0 0 33
0 0 0 0
0 0 0 4
20.219999 -1.13 -1.123 4
0 0 0 1
16.683001 -0.98000002 -0.98000002 2
0 0 0 2
15.773 -0.97000003 -0.977 3
15.136 -0.95200002 -0.96100003 2
14.544 -0.93400002 -0.94700003 3
14.02 -0.92000002 -0.935 4
13.369 -0.89499998 -0.91299999 3
12.782 -0.87300003 -0.89399999 3
12.295 -0.85600001 -0.87900001 3
11.858 -0.84100002 -0.86699998 3
11.493 -0.83099997 -0.85900003 4
11.193 -0.824 -0.85500002 6
10.909 -0.81699997 -0.85000002 8
10.622 -0.81 -0.84500003 7
10.243 -0.79400003 -0.83200002 4
9.8850002 -0.77899998 -0.81900001 4
9.6090002 -0.76999998 -0.81099999 4
9.3269997 -0.759 -0.80299997 3
9.0249996 -0.74599999 -0.79100001 3
8.7650003 -0.736 -0.78299999 3
8.5080004 -0.72500002 -0.77399999 4
8.3000002 -0.71799999 -0.76899999 4
8.085 -0.70899999 -0.76200002 4
7.908 -0.70300001 -0.75800002 4
7.71 -0.69499999 -0.75199997 4
7.5019999 -0.68599999 -0.74299997 3
7.3379998 -0.68000001 -0.73900002 3
7.1890001 -0.67400002 -0.736 3
7.0110002 -0.66600001 -0.72899997 4
6.8600001 -0.66000003 -0.72500002 4
6.7069998 -0.653 -0.71899998 3
6.5549998 -0.64600003 -0.71399999 3
6.3909998 -0.63700002 -0.70700002 3
6.2740002 -0.63300002 -0.704 3
6.138 -0.62599999 -0.699 3
6.0159998 -0.62099999 -0.69400001 3
5.9060001 -0.616 -0.69099998 3
5.7909999 -0.61000001 -0.68699998 3
5.6599998 -0.60299999 -0.68099999 4
5.5539999 -0.59799999 -0.67699999 3
5.4429998 -0.59200001 -0.67299998 3
5.369 -0.58999997 -0.67199999 3
5.2639999 -0.58399999 -0.66799998 3
5.1739998 -0.57999998 -0.66500002 4
5.0939999 -0.57599998 -0.66299999 3
4.9400001 -0.56800002 -0.65700001 3
4.8400002 -0.56199998 -0.65200001 5
4.7820001 -0.56 -0.65200001 3
4.7030001 -0.55599999 -0.64899999 3
4.638 -0.55299997 -0.64700001 2
4.5650001 -0.54900002 -0.64399999 2
4.4990001 -0.546 -0.64300001 2
4.4200001 -0.54000002 -0.63800001 3
4.3499999 -0.53600001 -0.63499999 3
4.296 -0.53399998 -0.634 2
4.2979999 -0.53799999 -0.64200002 3
4.1560001 -0.52499998 -0.62699997 2
4.098 -0.52100003 -0.625 2
4.1030002 -0.52600002 -0.63300002 2
4.0250001 -0.51999998 -0.62699997 2
3.944 -0.51300001 -0.62099999 1
3.8800001 -0.50800002 -0.61699998 1
3.845 -0.50700003 -0.61699998 2
3.8010001 -0.505 -0.616 2
3.7539999 -0.50199997 -0.61500001 2
3.6989999 -0.498 -0.61199999 2
3.7019999 -0.50199997 -0.61799997 1
3.6400001 -0.49599999 -0.61299998 1
3.582 -0.49200001 -0.60900003 3
3.536 -0.48800001 -0.60699999 1
3.494 -0.486 -0.60500002 1
3.4530001 -0.48300001 -0.60399997 1
3.4489999 -0.48500001 -0.60799998 1
3.4219999 -0.484 -0.60900003 1
3.368 -0.47999999 -0.60500002 1
3.3829999 -0.484 -0.61299998 2
3.3529999 -0.48300001 -0.61199999 1
3.2850001 -0.47600001 -0.60500002 1
3.279 -0.477 -0.60900003 1
3.2650001 -0.47799999 -0.61199999 1
3.1470001 -0.463 -0.59399998 1
3.142 -0.465 -0.59799999 1
3.1730001 -0.472 -0.60900003 1
3.066 -0.458 -0.59299999 1
3.155 -0.47400001 -0.61500001 2
3.016 -0.45500001 -0.59299999 1
3.0569999 -0.46399999 -0.60500002 1
2.994 -0.456 -0.597 1
2.9579999 -0.45300001 -0.59500003 1
2.9119999 -0.44800001 -0.58999997 1
2.901 -0.44800001 -0.59200001 1
2.8789999 -0.447 -0.59200001 1
2.8150001 -0.43900001 -0.583 1
2.786 -0.43599999 -0.58099997 1
2.8 -0.44 -0.588 1
2.8429999 -0.449 -0.60100001 1
2.7479999 -0.435 -0.58499998 1
2.707 -0.43099999 -0.57999998 1
2.7290001 -0.43599999 -0.58899999 1
2.6719999 -0.428 -0.57999998 1
2.661 -0.428 -0.58200002 1
2.6470001 -0.428 -0.58200002 1
2.642 -0.428 -0.58499998 1
2.6229999 -0.42699999 -0.58499998 1
2.566 -0.419 -0.57499999 1
2.5339999 -0.41499999 -0.57200003 1
2.513 -0.41299999 -0.57099998 1
2.503 -0.41299999 -0.57200003 1
2.4890001 -0.412 -0.57200003 1
2.4619999 -0.40900001 -0.56900001 1
2.45 -0.40799999 -0.56999999 1
2.431 -0.40599999 -0.56900001 1
2.418 -0.405 -0.56900001 1
2.398 -0.403 -0.56699997 1
2.3759999 -0.40099999 -0.565 1
2.3559999 -0.398 -0.56400001 1
2.349 -0.398 -0.565 1
2.3280001 -0.396 -0.56300002 1
2.3080001 -0.39300001 -0.56099999 1
2.2909999 -0.391 -0.56 1
2.2809999 -0.391 -0.56099999 1
2.273 -0.38999999 -0.56199998 1
2.253 -0.38800001 -0.56 1
2.243 -0.38699999 -0.56 1
2.2290001 -0.38600001 -0.55900002 1
2.2179999 -0.384 -0.55900002 1
2.197 -0.382 -0.55699998 1
2.188 -0.38100001 -0.55699998 1
2.177 -0.38 -0.55699998 1
2.164 -0.37799999 -0.55599999 1
2.154 -0.377 -0.55599999 1
2.1389999 -0.37599999 -0.55500001 1
2.1229999 -0.373 -0.55299997 1
2.112 -0.37200001 -0.55299997 1
2.108 -0.37200001 -0.55400002 1
2.0929999 -0.37 -0.55299997 1
2.0829999 -0.36899999 -0.55299997 1
2.082 -0.36899999 -0.55500001 1
2.0680001 -0.368 -0.55400002 1
2.062 -0.36700001 -0.55400002 1
2.049 -0.36500001 -0.55299997 1
2.043 -0.36500001 -0.55400002 1
2.033 -0.36399999 -0.55299997 1
2.02 -0.36199999 -0.55199999 1
2.006 -0.36000001 -0.55000001 1
2.0050001 -0.36000001 -0.55199999 1
1.994 -0.35800001 -0.551 1
1.989 -0.35800001 -0.55199999 1
1.975 -0.35600001 -0.55000001 1
1.964 -0.354 -0.54900002 1
1.9579999 -0.35299999 -0.54900002 1
1.956 -0.35299999 -0.551 1
1.949 -0.352 -0.551 1
1.942 -0.352 -0.551 1
1.932 -0.34999999 -0.55000001 1
1.9299999 -0.34999999 -0.551 1
1.925 -0.34900001 -0.551 1
1.908 -0.34599999 -0.54799998 1
1.904 -0.34599999 -0.54900002 1
1.892 -0.34400001 -0.54699999 1
1.8890001 -0.34299999 -0.54799998 1
1.883 -0.34299999 -0.54799998 1
1.872 -0.34099999 -0.546 1
1.869 -0.34 -0.54699999 1
1.8609999 -0.33899999 -0.54699999 1
1.853 -0.338 -0.546 1
1.849 -0.33700001 -0.546 1
1.84 -0.33500001 -0.54500002 1
1.842 -0.336 -0.54699999 1
1.827 -0.333 -0.54400003 1
1.829 -0.33399999 -0.546 1
1.821 -0.33199999 -0.54500002 1
1.8150001 -0.331 -0.54500002 1
1.814 -0.331 -0.546 1
1.801 -0.32800001 -0.54299998 1
1.798 -0.32800001 -0.54400003 1
1.791 -0.32699999 -0.54299998 1
1.79 -0.32600001 -0.54400003 1
1.7819999 -0.32499999 -0.54299998 1
1.774 -0.32300001 -0.542 1
1.776 -0.324 -0.54299998 1
1.774 -0.32300001 -0.54400003 1
1.765 -0.32100001 -0.542 1
1.76 -0.31999999 -0.542 1
1.755 -0.31900001 -0.542 1
1.7539999 -0.31900001 -0.542 1
1.747 -0.317 -0.54100001 1
1.7460001 -0.317 -0.542 1
1.743 -0.31600001 -0.542 1
1.74 -0.315 -0.542 1
1.7359999 -0.31400001 -0.542 1
1.734 -0.31400001 -0.542 1
1.729 -0.31299999 -0.542 1
1.722 -0.31099999 -0.54000002 1
1.722 -0.31099999 -0.54100001 1
1.712 -0.30899999 -0.53899997 1
1.717 -0.30899999 -0.54100001 1
1.711 -0.308 -0.54000002 1
1.714 -0.308 -0.542 1
1.707 -0.30599999 -0.54000002 1
1.704 -0.30599999 -0.54000002 1
1.7029999 -0.30500001 -0.54100001 1
1.698 -0.30399999 -0.54000002 1
1.7 -0.30399999 -0.54100001 1
1.693 -0.30199999 -0.53899997 1
1.6950001 -0.30199999 -0.54100001 1
1.686 -0.30000001 -0.53899997 1
1.688 -0.30000001 -0.54000002 1
1.689 -0.30000001 -0.54100001 1
1.689 -0.29899999 -0.54100001 1
1.688 -0.29800001 -0.54100001 1
1.686 -0.29800001 -0.54100001 1
1.6799999 -0.296 -0.54000002 1
1.679 -0.29499999 -0.54000002 1
1.684 -0.296 -0.542 1
1.67 -0.29300001 -0.53799999 1
1.659 -0.28999999 -0.53500003 1
1.66 -0.28999999 -0.53500003 1
1.671 -0.29100001 -0.53899997 1
1.659 -0.289 -0.53600001 1
1.67 -0.28999999 -0.53899997 1
1.6569999 -0.287 -0.53600001 1
1.659 -0.287 -0.53600001 1
1.656 -0.285 -0.53500003 1
1.656 -0.285 -0.53600001 1
1.666 -0.28600001 -0.53899997 1
1.663 -0.285 -0.53799999 1
1.656 -0.28299999 -0.53600001 1
1.65 -0.28099999 -0.53500003 1
1.674 -0.28400001 -0.542 1
1.656 -0.28099999 -0.537 1
1.656 -0.28 -0.537 1
1.656 -0.27900001 -0.537 1
1.664 -0.28 -0.53899997 1
1.655 -0.278 -0.53600001 1
1.6569999 -0.27700001 -0.537 1
1.659 -0.27700001 -0.537 1
1.656 -0.27599999 -0.53600001 1
1.6569999 -0.27500001 -0.537 1
1.661 -0.27500001 -0.53799999 1
1.659 -0.27399999 -0.537 1
1.6619999 -0.273 -0.53799999 1
1.66 -0.27200001 -0.537 1
1.663 -0.27200001 -0.537 1
1.663 -0.271 -0.537 1
1.6619999 -0.27000001 -0.537 1
1.6619999 -0.26899999 -0.537 1
1.677 -0.271 -0.54100001 1
1.659 -0.26699999 -0.53500003 1
1.683 -0.27000001 -0.542 1
1.679 -0.26800001 -0.54100001 1
1.681 -0.26800001 -0.54100001 1
1.684 -0.26699999 -0.54100001 1
1.681 -0.266 -0.54000002 1
1.684 -0.26499999 -0.54000002 1
1.686 -0.26499999 -0.54000002 1
1.6900001 -0.264 -0.54100001 1
1.689 -0.26300001 -0.54000002 1
1.698 -0.26300001 -0.54299998 1
1.699 -0.26199999 -0.542 1
1.691 -0.25999999 -0.53899997 1
1.696 -0.25999999 -0.54000002 1
1.7029999 -0.25999999 -0.542 1
1.7 -0.25799999 -0.54000002 1
1.696 -0.257 -0.53799999 1
1.709 -0.25799999 -0.54100001 1
1.709 -0.257 -0.54100001 1
1.7079999 -0.255 -0.54000002 1
1.719 -0.25600001 -0.542 1
1.7130001 -0.25400001 -0.54000002 1
1.724 -0.255 -0.542 1
1.722 -0.25299999 -0.54100001 1
1.724 -0.252 -0.54000002 1
1.728 -0.252 -0.54100001 1
1.732 -0.25099999 -0.54100001 1
1.728 -0.249 -0.53899997 1
1.7410001 -0.25 -0.542 1
1.74 -0.249 -0.54100001 1
1.743 -0.248 -0.54000002 1
1.75 -0.248 -0.54100001 1
1.761 -0.248 -0.54400003 1
1.761 -0.24699999 -0.54299998 1
1.766 -0.24600001 -0.54299998 1
1.762 -0.244 -0.54100001 1
1.773 -0.245 -0.54299998 1
1.771 -0.243 -0.54100001 1
1.779 -0.243 -0.542 1
1.78 -0.242 -0.54100001 1
1.7819999 -0.241 -0.54000002 1
1.79 -0.241 -0.54100001 1
1.801 -0.241 -0.54299998 1
1.801 -0.23899999 -0.542 1
1.8099999 -0.23899999 -0.54299998 1
1.8200001 -0.23899999 -0.54500002 1
1.827 -0.23899999 -0.54500002 1
1.824 -0.237 -0.54299998 1
1.836 -0.237 -0.54500002 1
1.841 -0.236 -0.54500002 1
1.844 -0.235 -0.54400003 1
1.85 -0.235 -0.54400003 1
1.8609999 -0.235 -0.546 1
1.8609999 -0.233 -0.54400003 1
1.87 -0.233 -0.54500002 1
1.885 -0.233 -0.54799998 1
1.885 -0.23199999 -0.546 1
1.897 -0.23199999 -0.54799998 1
1.898 -0.23100001 -0.546 1
1.905 -0.23 -0.54699999 1
1.9069999 -0.229 -0.54500002 1
1.928 -0.23 -0.54900002 1
1.9299999 -0.228 -0.54799998 1
1.934 -0.227 -0.54699999 1
1.944 -0.227 -0.54799998 1
1.955 -0.227 -0.54900002 1
1.961 -0.226 -0.54900002 1
1.965 -0.22499999 -0.54799998 1
1.982 -0.22499999 -0.55000001 1
1.994 -0.22499999 -0.55199999 1
1.9910001 -0.223 -0.54900002 1
2.0039999 -0.223 -0.55000001 1
2.016 -0.222 -0.551 1
2.023 -0.222 -0.55000001 1
2.0350001 -0.221 -0.551 1
2.039 -0.22 -0.55000001 1
2.049 -0.219 -0.551 1
2.0650001 -0.219 -0.55199999 1
2.0710001 -0.21799999 -0.551 1
2.082 -0.21799999 -0.55199999 1
2.099 -0.21799999 -0.55400002 1
2.1010001 -0.21600001 -0.55199999 1
2.1240001 -0.21699999 -0.55500001 1
2.1199999 -0.215 -0.55199999 1
2.1459999 -0.21600001 -0.55599999 1
2.165 -0.21600001 -0.55800003 1
2.175 -0.215 -0.55800003 1
2.1919999 -0.215 -0.55900002 1
2.2019999 -0.214 -0.55900002 1
2.217 -0.214 -0.56 1
2.227 -0.213 -0.55900002 1
2.247 -0.213 -0.56099999 1
2.2539999 -0.212 -0.56 1
2.2679999 -0.211 -0.56 1
2.279 -0.20999999 -0.56 1
2.2969999 -0.20999999 -0.56099999 1
2.313 -0.20999999 -0.56199998 1
2.3280001 -0.20900001 -0.56199998 1
2.3429999 -0.208 -0.56199998 1
2.369 -0.20900001 -0.565 1
2.3800001 -0.208 -0.565 1
2.3929999 -0.207 -0.56400001 1
2.414 -0.207 -0.56599998 1
2.4289999 -0.206 -0.56599998 1
2.4530001 -0.206 -0.56800002 1
2.4719999 -0.206 -0.56800002 1
2.4809999 -0.204 -0.56699997 1
2.51 -0.205 -0.56999999 1
2.5280001 -0.204 -0.56999999 1
2.5580001 -0.205 -0.57300001 1
2.5699999 -0.20299999 -0.57200003 1
2.687 -0.20999999 -0.59299999 1
2.694 -0.20900001 -0.59100002 1
2.7160001 -0.208 -0.59200001 1
2.733 -0.208 -0.59100002 1
2.799 -0.20999999 -0.60100001 1
2.7390001 -0.204 -0.58399999 1
2.76 -0.20299999 -0.58399999 1
2.7969999 -0.20299999 -0.58700001 1
2.8770001 -0.207 -0.59899998 1
2.835 -0.20200001 -0.58600003 1
2.865 -0.20100001 -0.58700001 1
2.934 -0.204 -0.597 1
2.9749999 -0.204 -0.60000002 1
2.9960001 -0.204 -0.60000002 1
2.9549999 -0.198 -0.58600003 1
3.0829999 -0.205 -0.60699999 1
3.0910001 -0.20299999 -0.60299999 1
3.132 -0.20299999 -0.60600001 1
3.109 -0.199 -0.59600002 1
3.2019999 -0.20299999 -0.60900003 2
3.1760001 -0.199 -0.59799999 1
3.2309999 -0.2 -0.60299999 1
3.237 -0.197 -0.59899998 1
3.398 -0.205 -0.62199998 2
3.316 -0.197 -0.602 1
3.3329999 -0.19599999 -0.59899998 1
3.4389999 -0.199 -0.61199999 2
3.461 -0.198 -0.61000001 1
3.4349999 -0.19400001 -0.59899998 1
3.4960001 -0.19499999 -0.60399997 2
3.5409999 -0.19499999 -0.60500002 2
3.573 -0.19400001 -0.60399997 1
3.664 -0.19599999 -0.61299998 3
3.6819999 -0.19400001 -0.60900003 2
3.75 -0.19499999 -0.61299998 3
3.7909999 -0.19499999 -0.61299998 1
3.862 -0.19599999 -0.61799997 2
3.914 -0.19499999 -0.61900002 3
3.973 -0.19599999 -0.62099999 3
4.0219998 -0.19499999 -0.62099999 2
4.1009998 -0.19599999 -0.62599999 2
4.145 -0.19499999 -0.62400001 2
4.2090001 -0.19499999 -0.62599999 3
4.2659998 -0.19499999 -0.62699997 2
4.368 -0.197 -0.634 4
4.447 -0.197 -0.63700002 4
4.5190001 -0.198 -0.63800001 4
4.605 -0.198 -0.64200002 2
4.6760001 -0.198 -0.64300001 2
4.7529998 -0.198 -0.64399999 3
4.8179998 -0.198 -0.64399999 5
4.9070001 -0.198 -0.64600003 5
5.0380001 -0.2 -0.65399998 4
5.152 -0.20200001 -0.65899998 3
5.256 -0.20299999 -0.662 3
5.3829999 -0.204 -0.667 3
5.493 -0.205 -0.67000002 4
5.6399999 -0.207 -0.67699999 4
5.77 -0.208 -0.68099999 3
5.9159999 -0.20999999 -0.68699998 4
6.0669999 -0.211 -0.69199997 4
6.2290001 -0.213 -0.69800001 4
6.3860002 -0.215 -0.70300001 4
6.5710001 -0.21699999 -0.71100003 4
6.7379999 -0.219 -0.71499997 4
6.9489999 -0.222 -0.72399998 5
7.243 -0.227 -0.74000001 7
7.448 -0.229 -0.74599999 12
7.5939999 -0.229 -0.74599999 14
7.802 -0.23100001 -0.75 15
7.9899998 -0.23199999 -0.75199997 14
8.2580004 -0.236 -0.76099998 11
8.5699997 -0.23999999 -0.77200001 7
8.9139996 -0.245 -0.78500003 4
9.2390003 -0.249 -0.79500002 3
9.5819998 -0.25299999 -0.80500001 4
9.9429998 -0.25799999 -0.815 4
10.331 -0.26300001 -0.82499999 3
10.761 -0.26800001 -0.838 4
11.154 -0.27200001 -0.84500003 4
11.707 -0.28 -0.86299998 3
12.228 -0.287 -0.87699997 3
12.946 -0.29699999 -0.90100002 3
13.61 -0.30599999 -0.91900003 4
14.152 -0.31200001 -0.926 3
14.966 -0.32300001 -0.94800001 3
0 0 0 3
0 0 0 2
17.437 -0.35299999 -0.99699998 2
0 0 0 1
0 0 0 1
0 0 0 0
0 0 0 26
0 0 0 1
17.563999 -0.31200001 -0.78299999 3
17.299 -0.30000001 -0.73500001 3
17.257999 -0.29300001 -0.69599998 5
17.263 -0.28600001 -0.66000003 9
17.181999 -0.27900001 -0.62 6
17.121 -0.271 -0.58200002 3
17.111 -0.26499999 -0.54500002 2
17.072001 -0.25799999 -0.50800002 66
17.073999 -0.252 -0.472 32
17.091 -0.24699999 -0.43700001 4
17.099001 -0.241 -0.40000001 3
17.098 -0.236 -0.36399999 1
17.145 -0.23100001 -0.329 1
17.159 -0.226 -0.29300001 1
17.159 -0.221 -0.25600001 1
17.146 -0.215 -0.22 1
17.181 -0.211 -0.184 1
17.174999 -0.206 -0.147 1
17.223 -0.20200001 -0.111 3
17.232 -0.197 -0.074000001 2
17.257 -0.193 -0.037 1
0 0 0 0
0 0 0 0
0 0 0 1
18.156 -0.185 0.114 1
18.48 -0.184 0.156 1
18.535999 -0.18000001 0.19599999 1
0 0 0 0
0 0 0 0
0 0 0 0
0 0 0 0
0 0 0 0
0 0 0 0
0 0 0 0
0 0 0 0
0 0 0 0
0 0 0 0
0 0 0 2
33.976002 -0.25999999 1.224 2
33.931 -0.255 1.295 3
33.953999 -0.25099999 1.3660001 4
33.993 -0.24699999 1.4400001 5
33.972 -0.243 1.511 6
33.973 -0.23999999 1.5829999 6
33.958 -0.237 1.653 8
33.910999 -0.233 1.722 13
33.873001 -0.23 1.7920001 23
33.825001 -0.228 1.86 26
33.771 -0.22499999 1.929 27
33.721001 -0.222 1.9960001 32
33.678001 -0.22 2.0639999 40
33.655998 -0.219 2.1329999 45
33.658001 -0.21699999 2.204 56
33.657001 -0.21600001 2.2739999 63
33.647999 -0.215 2.345 72
33.661999 -0.215 2.4159999 77
33.651001 -0.214 2.4860001 80
33.660999 -0.214 2.556 85
33.631001 -0.214 2.6229999 91
33.650002 -0.214 2.6949999 88
33.643002 -0.215 2.7639999 94
33.651001 -0.215 2.8340001 93
33.664001 -0.21600001 2.905 99
33.644001 -0.21699999 2.9719999 98
33.679001 -0.219 3.0450001 96
33.678001 -0.221 3.1140001 84
33.716999 -0.223 3.187 60
33.747002 -0.22499999 3.2590001 29
33.755001 -0.227 3.3280001 6
0 0 0 5
0 0 0 0
0 0 0 0
0 0 0 0
0 0 0 0
0 0 0 0
0 0 0 0
0 0 0 0
0 0 0 2
38.408001 -0.29800001 4.559 2
38.389999 -0.30199999 4.632 2
0 0 0 0
0 0 0 2
38.34 -0.31900001 4.855 2
38.414001 -0.32600001 4.9400001 2
0 0 0 0
0 0 0 0
0 0 0 2
0 0 0 0
0 0 0 0
0 0 0 2
38.424 -0.375 5.4650002 2
38.463001 -0.384 5.5450001 2
38.466999 -0.39199999 5.6199999 2
38.548 -0.40099999 5.7059999 2
0 0 0 0
0 0 0 0
0 0 0 0
0 0 0 0
0 0 0 2
0 0 0 0
0 0 0 0
0 0 0 0
0 0 0 2
34.049999 -0.43900001 5.6820002 2
34.049999 -0.44800001 5.7449999 2
0 0 0 0
0 0 0 0
0 0 0 0
0 0 0 0
0 0 0 2
0 0 0 0
0 0 0 0
0 0 0 2
35.066002 -0.55599999 6.4860001 2
34.598 -0.56 6.461 3
34.457001 -0.56900001 6.4959998 3
34.136002 -0.57599998 6.4949999 3
33.863998 -0.583 6.5029998 10
33.714001 -0.59100002 6.5320001 15
0 0 0 3
26.139999 -0.477 5.1550002 7
26.128 -0.48500001 5.198 10
26.122999 -0.495 5.2420001 12
26.077999 -0.50300002 5.277 16
26.049 -0.51300001 5.3140001 18
26.032 -0.52200001 5.3540001 19
26.018999 -0.53200001 5.395 20
25.997 -0.54100001 5.4330001 23
25.986 -0.55000001 5.474 24
25.972 -0.56 5.513 25
25.965 -0.56999999 5.5539999 26
25.944 -0.57999998 5.592 28
25.929001 -0.58999997 5.631 29
25.944 -0.60100001 5.6750002 24
25.915001 -0.61000001 5.71 31
25.917999 -0.62099999 5.7509999 30
25.914 -0.63099998 5.7909999 31
25.884001 -0.64099997 5.8249998 32
25.891001 -0.653 5.8670001 33
25.881001 -0.66299999 5.9050002 34
25.867001 -0.67400002 5.9419999 35
25.875 -0.685 5.9829998 35
25.856001 -0.69599998 6.0180001 35
25.846001 -0.70700002 6.0549998 37
25.857 -0.71799999 6.0970001 39
25.83 -0.72899997 6.1290002 39
25.837 -0.741 6.1690001 34
25.833 -0.75199997 6.2049999 43
25.823999 -0.76300001 6.2410002 41
25.823 -0.77499998 6.2779999 42
25.816999 -0.78600001 6.3150001 44
25.813999 -0.79900002 6.3499999 44
25.809 -0.81 6.3860002 43
25.812 -0.82200003 6.4239998 45
25.792 -0.833 6.454 43
25.799 -0.84500003 6.4910002 44
25.798 -0.85699999 6.526 42
25.802999 -0.86900002 6.5619998 46
25.792 -0.88099998 6.5949998 46
25.794001 -0.89300001 6.6290002 38
25.788 -0.90600002 6.6620002 47
25.791 -0.91799998 6.697 47
25.794001 -0.93099999 6.7309999 39
25.792999 -0.94300002 6.7639999 42
25.761 -0.954 6.789 41
25.721001 -0.96499997 6.8109999 32
25.649 -0.97500002 6.8249998 29
25.534 -0.98299998 6.8260002 30
25.444 -0.99199998 6.8340001 28
25.33 -1 6.835 30
25.225 -1.008 6.8369999 29
25.129 -1.017 6.842 26
25.025999 -1.026 6.8439999 25
24.927999 -1.034 6.8460002 28
24.851 -1.043 6.8540001 29
24.740999 -1.051 6.8530002 30
24.639 -1.0599999 6.8530002 29
24.552 -1.068 6.8559999 28
24.471001 -1.077 6.8610001 25
24.368999 -1.084 6.8600001 31
24.294001 -1.094 6.8649998 26
24.214001 -1.102 6.869 32
24.134001 -1.11 6.8730001 27
24.041 -1.118 6.8720002 26
23.948 -1.126 6.8699999 27
23.875 -1.135 6.8740001 27
23.791 -1.1440001 6.8740001 28
23.716 -1.152 6.8769999 32
23.642 -1.16 6.8800001 32
23.59 -1.17 6.8870001 27
23.504 -1.178 6.8850002 33
23.450001 -1.187 6.8920002 32
23.371 -1.1950001 6.8909998 26
23.301001 -1.204 6.8920002 30
23.231001 -1.212 6.8930001 31
23.177999 -1.221 6.8979998 32
23.099001 -1.229 6.895 32
23.037001 -1.238 6.8969998 27
22.989 -1.247 6.9029999 29
22.926001 -1.255 6.9029999 34
22.858999 -1.263 6.9029999 27
22.804001 -1.272 6.9050002 32
22.764999 -1.2819999 6.9120002 27
22.695 -1.289 6.9089999 27
22.615 -1.296 6.902 29
22.584 -1.306 6.9099998 26
22.524 -1.314 6.9099998 26
22.478001 -1.323 6.9120002 26
22.424 -1.331 6.9120002 28
22.378 -1.339 6.914 28
22.348 -1.349 6.921 30
22.298 -1.357 6.921 28
22.254999 -1.3660001 6.9229999 29
22.205999 -1.374 6.9219999 34
22.162001 -1.382 6.9229999 32
22.124001 -1.391 6.9250002 32
22.080999 -1.4 6.9260001 31
22.045 -1.409 6.928 25
21.990999 -1.416 6.9239998 31
21.955999 -1.425 6.9260001 30
21.917 -1.433 6.9260001 32
21.892 -1.442 6.9310002 25
21.851999 -1.451 6.9299998 30
21.819 -1.459 6.9310002 31
21.785 -1.4680001 6.9310002 31
21.75 -1.476 6.9310002 32
21.726 -1.485 6.934 34
21.697001 -1.494 6.9349999 28
21.67 -1.503 6.9359999 29
21.636999 -1.511 6.9359999 29
21.594999 -1.5190001 6.9320002 34
21.584999 -1.528 6.9369998 28
21.555 -1.5369999 6.9359999 36
21.535 -1.546 6.9380002 35
21.524 -1.5549999 6.9429998 29
21.497 -1.563 6.9419999 28
21.469999 -1.571 6.941 37
21.438 -1.579 6.9369998 38
21.429001 -1.589 6.941 35
21.405001 -1.596 6.9400001 33
21.375999 -1.604 6.9369998 34
21.355 -1.613 6.9359999 27
21.325001 -1.62 6.9320002 33
21.327 -1.63 6.9380002 27
21.302999 -1.638 6.9349999 25
21.305 -1.648 6.941 31
21.282 -1.656 6.9369998 24
21.266001 -1.664 6.9359999 30
21.254 -1.6720001 6.9359999 32
21.249001 -1.681 6.9380002 32
21.235001 -1.6900001 6.9369998 30
21.225 -1.698 6.9359999 30
21.224001 -1.7079999 6.9380002 26
21.219999 -1.717 6.9390001 33
21.209999 -1.725 6.9380002 31
21.204 -1.734 6.9369998 33
21.202 -1.742 6.9380002 32
21.195999 -1.751 6.9369998 30
21.201 -1.76 6.9400001 27
21.198999 -1.7690001 6.9400001 32
21.181 -1.776 6.9330001 31
21.194 -1.786 6.9380002 32
21.197001 -1.795 6.9380002 32
21.201 -1.804 6.9390001 26
21.205 -1.813 6.9390001 33
21.209999 -1.822 6.9390001 26
21.212 -1.83 6.9380002 26
21.212 -1.8380001 6.9359999 33
21.207001 -1.846 6.9320002 32
21.224001 -1.8559999 6.9349999 26
21.235001 -1.865 6.9349999 32
21.235001 -1.874 6.9320002 31
21.249001 -1.883 6.9330001 25
21.246 -1.89 6.9289999 25
21.261 -1.899 6.9289999 30
21.273001 -1.908 6.9289999 32
21.295 -1.918 6.9310002 33
21.306 -1.926 6.9299998 26
21.316 -1.9349999 6.928 25
21.336 -1.944 6.9289999 33
21.349001 -1.9529999 6.927 31
21.365999 -1.962 6.9260001 32
21.385 -1.971 6.9250002 26
21.391001 -1.979 6.921 32
21.424999 -1.989 6.9250002 32
21.451 -1.998 6.9250002 32
21.476 -2.0079999 6.9260001 27
21.497999 -2.017 6.9239998 33
21.525999 -2.027 6.9250002 27
21.552 -2.036 6.9250002 28
21.57 -2.0439999 6.921 27
21.580999 -2.052 6.9159999 33
21.621 -2.062 6.9190001 32
21.65 -2.0710001 6.9180002 32
21.684999 -2.0810001 6.9190001 32
21.719 -2.0910001 6.9190001 25
21.742001 -2.099 6.915 25
21.768 -2.108 6.9130001 31
21.806 -2.1170001 6.9130001 26
21.823999 -2.125 6.9070001 32
21.855 -2.1340001 6.9050002 31
21.906 -2.145 6.908 30
21.93 -2.1530001 6.9029999 29
21.974001 -2.1630001 6.9039998 31
22.007 -2.171 6.901 30
22.056999 -2.1819999 6.902 29
22.091 -2.191 6.8990002 30
22.132999 -2.2 6.8979998 31
22.191 -2.211 6.901 26
22.228001 -2.2190001 6.8979998 34
22.278999 -2.23 6.8979998 29
22.309999 -2.2379999 6.8920002 27
22.361 -2.2479999 6.8920002 27
22.407 -2.257 6.8899999 27
22.431 -2.2639999 6.8800001 27
22.476999 -2.273 6.8779998 32
22.535 -2.283 6.8779998 31
22.597 -2.2939999 6.8790002 26
22.636999 -2.302 6.8740001 31
22.681 -2.3099999 6.869 30
22.756001 -2.322 6.8730001 25
22.790001 -2.3299999 6.8639998 25
22.858999 -2.3410001 6.8660002 29
22.924999 -2.3510001 6.8660002 26
22.981001 -2.3599999 6.8629999 26
23.047001 -2.3699999 6.862 33
23.118999 -2.381 6.8629999 32
23.188999 -2.392 6.8629999 30
23.243999 -2.401 6.8579998 25
23.330999 -2.4130001 6.862 25
23.389 -2.421 6.8569999 25
23.459 -2.431 6.855 25
23.527 -2.441 6.8520002 30
23.603001 -2.451 6.8520002 29
23.676001 -2.461 6.849 29
23.743 -2.471 6.8439999 27
23.799999 -2.4790001 6.8369999 32
23.882 -2.49 6.836 32
23.948 -2.4990001 6.8299999 27
24.024 -2.5079999 6.8260002 24
24.101999 -2.5179999 6.823 28
24.204 -2.5309999 6.8260002 24
24.284 -2.54 6.822 30
24.377001 -2.5510001 6.822 25
24.469999 -2.562 6.8210001 26
24.539 -2.5710001 6.8119998 32
24.632999 -2.5810001 6.8109999 27
24.709 -2.589 6.803 30
24.819 -2.602 6.8049998 23
24.898001 -2.6110001 6.7979999 28
25.016001 -2.6229999 6.8000002 23
25.108999 -2.6329999 6.796 28
25.207001 -2.6429999 6.7930002 28
25.291 -2.6530001 6.7849998 27
25.396 -2.6630001 6.783 25
25.521 -2.6760001 6.7849998 22
25.601999 -2.6830001 6.7740002 25
25.718 -2.6960001 6.7729998 22
25.815001 -2.7049999 6.7659998 24
25.931999 -2.7160001 6.7639999 21
26.066 -2.7290001 6.7649999 22
26.169001 -2.7379999 6.7579999 25
26.285 -2.7479999 6.7550001 25
26.392 -2.7579999 6.7480001 23
26.506001 -2.7679999 6.7420001 23
26.622 -2.7780001 6.7360001 22
26.743 -2.7880001 6.7309999 24
26.885 -2.8010001 6.73 27
27.02 -2.812 6.7280002 26
27.162001 -2.8239999 6.7259998 28
27.299999 -2.836 6.7220001 23
27.444 -2.848 6.7199998 24
27.566999 -2.8570001 6.711 24
27.728001 -2.8699999 6.7119999 23
27.857 -2.8800001 6.704 26
28.009001 -2.892 6.7010002 22
28.118999 -2.8989999 6.6869998 25
28.283001 -2.911 6.6859999 23
28.444 -2.924 6.6830001 24
28.597 -2.9349999 6.677 25
28.76 -2.947 6.6729999 23
28.899 -2.9560001 6.6630001 23
29.054001 -2.9660001 6.6560001 26
29.24 -2.98 6.6550002 23
29.409 -2.9909999 6.6500001 24
29.552 -3 6.6370001 23
29.705999 -3.0090001 6.6269999 24
29.889999 -3.0209999 6.6220002 23
30.098 -3.0350001 6.6230001 23
30.271999 -3.046 6.6139998 23
30.454 -3.0569999 6.6069999 24
30.645 -3.069 6.6009998 25
30.834 -3.0799999 6.5929999 22
31.034 -3.0910001 6.5869999 22
31.24 -3.1040001 6.5809999 21
31.448 -3.1159999 6.5749998 21
31.645 -3.1259999 6.566 22
31.841 -3.1370001 6.5560002 21
32.070999 -3.151 6.552 22
32.275002 -3.161 6.5419998 21
32.493999 -3.1719999 6.533 23
32.742001 -3.1860001 6.5310001 23
32.976002 -3.1989999 6.5229998 23
33.214001 -3.211 6.5159998 24
33.441002 -3.221 6.506 23
33.679001 -3.233 6.4970002 24
33.895 -3.2420001 6.4819999 24
34.119999 -3.25 6.4679999 25
34.279999 -3.253 6.4400001 18
34.518002 -3.263 6.427 10
34.717999 -3.2690001 6.4060001 4
34.845001 -3.2679999 6.3699999 3
34.811001 -3.2509999 6.3049998 2
35.067001 -3.2609999 6.2909999 2
0 0 0 0
0 0 0 0
0 0 0 0
0 0 0 2
34.759998 -3.1589999 5.9380002 3
34.724998 -3.141 5.8709998 3
34.867001 -3.138 5.836 2
0 0 0 0
0 0 0 0
0 0 0 0
0 0 0 0
0 0 0 2
0 0 0 0
0 0 0 0
0 0 0 0
0 0 0 2
0 0 0 0
0 0 0 0
0 0 0 0
0 0 0 0
0 0 0 0
0 0 0 0
0 0 0 0
0 0 0 0
0 0 0 0
0 0 0 0
0 0 0 0
0 0 0 0
0 0 0 0
0 0 0 0
0 0 0 0
0 0 0 0
0 0 0 0
0 0 0 0
0 0 0 0
0 0 0 0
0 0 0 0
0 0 0 0
0 0 0 0
0 0 0 0
0 0 0 0
0 0 0 0
0 0 0 0
0 0 0 0
0 0 0 0
0 0 0 2
34.125999 -2.2520001 3.23 13
34.118 -2.2260001 3.165 34
34.116001 -2.2 3.1010001 46
34.096001 -2.1730001 3.0350001 46
34.056999 -2.1440001 2.9679999 46
34.042999 -2.1170001 2.9030001 51
34.036999 -2.089 2.8380001 52
34.036999 -2.062 2.7739999 52
34.016998 -2.033 2.7079999 51
34.014999 -2.006 2.6440001 52
34.007 -1.978 2.5810001 53
34.006001 -1.95 2.517 53
34.004002 -1.921 2.4530001 51
33.967999 -1.891 2.3859999 49
33.995998 -1.864 2.3239999 43
34.02 -1.836 2.2620001 32
34.214001 -1.817 2.211 24
34.471001 -1.801 2.1619999 14
34.449001 -1.77 2.096 24
0 0 0 2
25.959999 -1.2869999 1.482 10
25.874001 -1.26 1.428 17
25.849001 -1.235 1.378 23
25.806 -1.21 1.329 26
25.77 -1.1849999 1.278 30
25.746 -1.16 1.229 31
25.724001 -1.135 1.1799999 33
25.698999 -1.11 1.131 34
25.681 -1.085 1.082 39
25.665001 -1.0599999 1.034 44
25.65 -1.035 0.98400003 45
25.632 -1.0089999 0.93599999 45
25.594 -0.98299998 0.88700002 53
25.589001 -0.958 0.83899999 52
25.625 -0.93400002 0.792 26
25.594 -0.90799999 0.74400002 8
0 0 0 0
0 0 0 1
0 0 0 0
0 0 0 0
0 0 0 0
0 0 0 0
0 0 0 0
0 0 0 0
0 0 0 0
0 0 0 0
0 0 0 1
18.149 -0.41999999 0.127 1
17.940001 -0.396 0.093000002 1
0 0 0 0
0 0 0 0
0 0 0 0
0 0 0 1
17.197001 -0.28600001 -0.066 2
17.212 -0.26699999 -0.097000003 3
17.271999 -0.249 -0.12899999 4
17.179001 -0.228 -0.15899999 1
17.105 -0.208 -0.189 1
17.155001 -0.189 -0.221 1
17.181 -0.169 -0.252 1
17.143 -0.149 -0.28200001 1
17.051001 -0.12899999 -0.31099999 1
17.087999 -0.109 -0.34200001 1
17.1 -0.090000004 -0.373 6
17.121 -0.07 -0.40400001 6
17.127001 -0.050000001 -0.435 3
17.202999 -0.029999999 -0.46700001 1
17.135 -0.0099999998 -0.495 1
17.152 0.0099999998 -0.52600002 1
17.164 0.029999999 -0.55599999 1
17.159 0.050999999 -0.58600003 1
17.202 0.071999997 -0.61699998 2
17.201 0.093000002 -0.648 2
17.298 0.114 -0.68099999 2
17.452 0.13600001 -0.71799999 4
17.500999 0.15800001 -0.75 6
17.795 0.183 -0.79299998 6
17.959 0.207 -0.83099997 6
18.052999 0.23 -0.866 8
17.941999 0.25 -0.89200002 5
17.747999 0.27000001 -0.912 7
17.761999 0.292 -0.94300002 4
17.694 0.31299999 -0.96899998 5
17.379 0.329 -0.98100001 6
16.983999 0.34299999 -0.98699999 6
0 0 0 5
15.096 0.34299999 -0.92799997 2
14.478 0.34799999 -0.91399997 3
13.841 0.34999999 -0.89700001 3
13.249 0.352 -0.88 3
12.701 0.354 -0.86500001 3
12.252 0.35699999 -0.85399997 2
11.871 0.361 -0.847 3
11.471 0.36399999 -0.83700001 2
11.08 0.366 -0.82599998 3
10.775 0.37 -0.82099998 4
10.364 0.36899999 -0.80599999 3
10.032 0.37099999 -0.79699999 2
9.7370005 0.373 -0.78899997 3
9.474 0.375 -0.78200001 3
9.1949997 0.37599999 -0.77399999 3
8.9619999 0.37799999 -0.76800001 3
8.7270002 0.38 -0.76200002 3
8.5030003 0.38100001 -0.755 3
8.2740002 0.382 -0.74800003 3
8.073 0.384 -0.74299997 3
7.8940001 0.38499999 -0.73799998 3
7.6890001 0.38600001 -0.73100001 4
7.5040002 0.38699999 -0.72500002 4
7.3579998 0.389 -0.722 3
7.1939998 0.38999999 -0.71700001 3
6.9829998 0.38800001 -0.70599997 3
6.8449998 0.389 -0.70200002 4
6.7010002 0.38999999 -0.69700003 4
6.5799999 0.39199999 -0.69499999 4
6.4569998 0.39300001 -0.69099998 3
6.3280001 0.39399999 -0.68699998 3
6.1929998 0.39399999 -0.68099999 3
6.0840001 0.39500001 -0.67799997 3
5.9780002 0.39700001 -0.67500001 3
5.8779998 0.398 -0.67199999 3
5.757 0.398 -0.66600001 3
5.6729999 0.40000001 -0.66500002 3
5.5580001 0.39899999 -0.65899998 3
5.461 0.40000001 -0.65499997 3
5.3649998 0.40000001 -0.65200001 3
5.2729998 0.40000001 -0.648 5
5.1939998 0.40099999 -0.64499998 5
5.1350002 0.40400001 -0.64499998 3
5.0430002 0.40400001 -0.63999999 5
4.961 0.40400001 -0.63700002 3
4.9050002 0.40599999 -0.63599998 3
4.8119998 0.405 -0.63099998 4
4.7579999 0.40700001 -0.63 4
4.691 0.40799999 -0.62699997 3
4.6139998 0.40700001 -0.62300003 3
4.5599999 0.40900001 -0.62199998 5
4.4990001 0.41 -0.62 4
4.4419999 0.41100001 -0.61799997 3
4.4450002 0.417 -0.62400001 3
4.4260001 0.421 -0.62699997 3
4.3470001 0.41999999 -0.62099999 4
4.263 0.41800001 -0.61500001 2
4.1849999 0.41600001 -0.60900003 2
4.158 0.419 -0.61000001 2
4.1230001 0.421 -0.61000001 2
4.131 0.428 -0.616 2
4.073 0.42699999 -0.61299998 2
4.039 0.42899999 -0.61199999 3
3.9809999 0.42899999 -0.60900003 2
3.9990001 0.43599999 -0.616 2
3.8499999 0.42500001 -0.59799999 3
3.8299999 0.428 -0.59899998 3
3.9460001 0.44600001 -0.62199998 3
3.8199999 0.43700001 -0.60699999 2
3.7739999 0.43700001 -0.60399997 2
3.7130001 0.435 -0.59799999 2
3.6659999 0.435 -0.59500003 2
3.733 0.44800001 -0.61000001 2
3.6159999 0.43900001 -0.59500003 3
3.6229999 0.44499999 -0.60000002 2
3.562 0.442 -0.59399998 2
3.573 0.44800001 -0.60000002 2
3.5550001 0.45100001 -0.60100001 2
3.4460001 0.44100001 -0.58600003 2
3.483 0.45100001 -0.59600002 2
3.5339999 0.46200001 -0.60799998 2
3.3770001 0.44600001 -0.58499998 2
3.4000001 0.454 -0.59299999 2
3.431 0.463 -0.602 2
3.3570001 0.45699999 -0.59200001 2
3.3210001 0.45699999 -0.58899999 2
3.2750001 0.45500001 -0.58399999 1
3.3039999 0.463 -0.59299999 2
3.243 0.45899999 -0.58499998 1
3.2869999 0.47 -0.59600002 1
3.2249999 0.465 -0.588 1
3.2679999 0.47499999 -0.59899998 2
3.2460001 0.477 -0.59799999 1
3.1789999 0.47099999 -0.58899999 2
3.1070001 0.46399999 -0.57800001 1
3.1689999 0.47799999 -0.59299999 1
3.092 0.47 -0.58099997 1
3.1389999 0.48100001 -0.59299999 1
3.056 0.472 -0.57999998 1
3.108 0.48500001 -0.59299999 1
3.046 0.479 -0.58399999 1
2.9860001 0.47299999 -0.57499999 1
3.0510001 0.48699999 -0.58999997 2
3.0829999 0.49599999 -0.59899998 2
3.0109999 0.48899999 -0.58700001 2
3.0439999 0.498 -0.59600002 1
2.9660001 0.48899999 -0.58399999 2
2.934 0.48699999 -0.57999998 1
2.8900001 0.484 -0.57300001 1
2.8640001 0.48300001 -0.56999999 1
2.8759999 0.48800001 -0.57499999 1
2.8 0.479 -0.56199998 1
2.8050001 0.48300001 -0.565 2
2.779 0.48199999 -0.56199998 2
2.7679999 0.484 -0.56199998 2
2.756 0.48500001 -0.56199998 1
2.753 0.48800001 -0.56300002 2
2.7420001 0.48899999 -0.56199998 2
2.7260001 0.48899999 -0.56099999 2
2.717 0.491 -0.56099999 2
2.7030001 0.49200001 -0.56 2
2.698 0.49399999 -0.56099999 2
2.6789999 0.49399999 -0.55900002 2
2.6800001 0.49700001 -0.56099999 2
2.6630001 0.49700001 -0.55900002 2
2.658 0.49900001 -0.56 2
2.651 0.50099999 -0.56 2
2.632 0.5 -0.55800003 1
2.6210001 0.50099999 -0.55699998 1
2.619 0.50400001 -0.55800003 2
2.615 0.50599998 -0.55900002 2
2.598 0.50599998 -0.55699998 1
2.5929999 0.50800002 -0.55699998 1
2.585 0.509 -0.55699998 2
2.5680001 0.50800002 -0.55500001 1
2.566 0.51099998 -0.55500001 1
2.5550001 0.51099998 -0.55500001 1
2.5480001 0.51300001 -0.55400002 1
2.5439999 0.51499999 -0.55500001 1
2.54 0.51599997 -0.55500001 1
2.5350001 0.51800001 -0.55500001 1
2.5280001 0.51899999 -0.55500001 1
2.5209999 0.52100003 -0.55500001 1
2.494 0.51800001 -0.55000001 1
2.5009999 0.52200001 -0.55299997 1
2.4990001 0.52399999 -0.55299997 1
2.487 0.52399999 -0.55199999 1
2.4909999 0.52700001 -0.55400002 1
2.473 0.52600002 -0.551 1
2.4760001 0.52899998 -0.55199999 1
2.4719999 0.52999997 -0.55199999 1
2.464 0.53100002 -0.551 1
2.4619999 0.53299999 -0.55199999 1
2.4530001 0.53299999 -0.551 1
2.4530001 0.53600001 -0.55199999 1
2.45 0.537 -0.55199999 1
2.438 0.537 -0.55000001 1
2.4349999 0.53799999 -0.55000001 1
2.434 0.54100001 -0.551 1
2.4330001 0.54299998 -0.551 1
2.425 0.54299998 -0.55000001 1
2.4230001 0.54500002 -0.55000001 1
2.4159999 0.54500002 -0.54900002 1
2.404 0.54500002 -0.54699999 1
2.404 0.54699999 -0.54799998 1
2.398 0.54699999 -0.54699999 1
2.3959999 0.54900002 -0.54699999 1
2.401 0.55199999 -0.54900002 1
2.401 0.55400002 -0.54900002 1
2.391 0.55400002 -0.54699999 1
2.3900001 0.55500001 -0.54799998 1
2.3900001 0.55699998 -0.54799998 1
2.3889999 0.55900002 -0.54799998 1
2.3859999 0.56 -0.54799998 1
2.382 0.56099999 -0.54699999 1
2.3829999 0.56300002 -0.54799998 1
2.381 0.56400001 -0.54799998 1
2.3740001 0.56400001 -0.54699999 1
2.3710001 0.565 -0.546 1
2.3710001 0.56699997 -0.546 2
2.3710001 0.56900001 -0.54699999 1
2.372 0.57099998 -0.54699999 1
2.3670001 0.57099998 -0.546 1
2.372 0.574 -0.54699999 1
2.3729999 0.57599998 -0.54799998 1
2.3699999 0.57599998 -0.54699999 1
2.3699999 0.57800001 -0.54699999 2
2.3729999 0.57999998 -0.54799998 1
2.3659999 0.57999998 -0.546 2
2.372 0.583 -0.54799998 2
2.3710001 0.58399999 -0.54799998 2
2.372 0.58600003 -0.54799998 2
2.3740001 0.588 -0.54799998 2
2.368 0.588 -0.54699999 2
2.3729999 0.58999997 -0.54799998 2
2.368 0.58999997 -0.546 1
2.368 0.59200001 -0.546 1
2.3710001 0.59399998 -0.54699999 1
2.378 0.597 -0.54799998 2
2.3699999 0.59600002 -0.546 1
2.3740001 0.59799999 -0.54699999 1
2.382 0.60100001 -0.54799998 2
2.375 0.60100001 -0.54699999 1
2.3729999 0.60100001 -0.546 1
2.3789999 0.60399997 -0.54699999 1
2.3829999 0.60600001 -0.54699999 1
2.3859999 0.60799998 -0.54799998 1
2.388 0.60900003 -0.54799998 1
2.391 0.611 -0.54799998 1
2.3870001 0.611 -0.546 1
2.395 0.61400002 -0.54799998 1
2.3970001 0.61500001 -0.54799998 1
2.401 0.61699998 -0.54799998 1
2.401 0.61799997 -0.54799998 1
2.405 0.62 -0.54799998 1
2.408 0.62099999 -0.54799998 1
2.411 0.62300003 -0.54799998 1
2.4100001 0.62400001 -0.54699999 1
2.4260001 0.62800002 -0.55000001 1
2.418 0.62699997 -0.54799998 1
2.4159999 0.62699997 -0.54699999 1
2.424 0.63 -0.54799998 1
2.434 0.63300002 -0.54900002 1
2.4419999 0.63599998 -0.55000001 1
2.4460001 0.63800001 -0.55000001 1
2.45 0.639 -0.55000001 1
2.4560001 0.64099997 -0.551 2
2.4560001 0.64200002 -0.55000001 1
2.46 0.64300001 -0.55000001 2
2.467 0.64499998 -0.551 1
2.473 0.64700001 -0.551 1
2.471 0.64700001 -0.54900002 1
2.483 0.65100002 -0.551 1
2.477 0.64899999 -0.54900002 1
2.494 0.65399998 -0.551 1
2.487 0.653 -0.54900002 1
2.494 0.65499997 -0.54900002 1
2.503 0.65700001 -0.55000001 1
2.507 0.65799999 -0.55000001 1
2.517 0.66100001 -0.551 1
2.513 0.66000003 -0.54900002 1
2.527 0.66399997 -0.551 1
2.527 0.66399997 -0.55000001 1
2.5420001 0.66799998 -0.55199999 1
2.5450001 0.66900003 -0.551 1
2.5510001 0.67000002 -0.551 1
2.559 0.67199999 -0.551 1
2.573 0.676 -0.55299997 2
2.575 0.676 -0.55199999 2
2.579 0.67699999 -0.55199999 2
2.5869999 0.67900002 -0.55199999 2
2.598 0.68199998 -0.55299997 2
2.605 0.68300003 -0.55299997 2
2.6210001 0.68699998 -0.55400002 2
2.628 0.68900001 -0.55400002 2
2.635 0.69 -0.55500001 2
2.641 0.69099998 -0.55400002 2
2.651 0.69400001 -0.55500001 2
2.6630001 0.69599998 -0.55599999 2
2.6670001 0.69700003 -0.55500001 2
2.6860001 0.70099998 -0.55699998 2
2.6849999 0.70099998 -0.55500001 2
2.6900001 0.70099998 -0.55400002 2
2.714 0.70700002 -0.55699998 2
2.721 0.708 -0.55699998 2
2.723 0.708 -0.55599999 2
2.7320001 0.70899999 -0.55599999 2
2.7449999 0.71200001 -0.55599999 2
2.756 0.71399999 -0.55699998 1
2.767 0.71600002 -0.55699998 2
2.9289999 0.75700003 -0.588 2
2.898 0.74800003 -0.579 1
3.0309999 0.78200001 -0.60399997 1
0 0 0 2
2.8280001 0.727 -0.55900002 2
2.9649999 0.76099998 -0.58399999 1
2.8540001 0.73199999 -0.56 2
2.878 0.73699999 -0.56199998 2
2.895 0.74000001 -0.56400001 2
2.8959999 0.73900002 -0.56199998 2
2.924 0.745 -0.565 1
2.9489999 0.75 -0.56699997 1
3.03 0.76899999 -0.57999998 1
3.05 0.773 -0.58200002 1
3.0799999 0.77899998 -0.58499998 1
3.0769999 0.77700001 -0.58200002 1
3.1559999 0.79500002 -0.59399998 1
3.1159999 0.78299999 -0.58399999 2
3.1210001 0.78299999 -0.583 1
3.1140001 0.77899998 -0.579 1
3.188 0.796 -0.58999997 2
3.221 0.80299997 -0.59299999 2
3.1800001 0.79100001 -0.583 1
3.1429999 0.77899998 -0.57300001 2
3.2449999 0.80299997 -0.58899999 2
3.2590001 0.80400002 -0.58899999 1
3.26 0.80299997 -0.58600003 2
3.244 0.79699999 -0.58099997 1
3.2809999 0.80400002 -0.58399999 2
3.3280001 0.81300002 -0.58999997 2
3.2520001 0.792 -0.57300001 1
3.3399999 0.81099999 -0.58600003 2
3.3599999 0.81400001 -0.58600003 1
3.348 0.80900002 -0.58099997 1
3.3929999 0.81699997 -0.58600003 2
3.4489999 0.82800001 -0.59200001 2
3.3800001 0.80900002 -0.57800001 1
3.381 0.80699998 -0.57499999 1
3.438 0.81800002 -0.58099997 2
3.4519999 0.81800002 -0.57999998 2
3.5139999 0.82999998 -0.58700001 3
3.503 0.82499999 -0.58200002 3
3.5780001 0.83999997 -0.59100002 2
3.5569999 0.83200002 -0.58399999 2
3.586 0.83600003 -0.58600003 2
3.7130001 0.86199999 -0.60299999 2
3.642 0.84299999 -0.588 3
3.674 0.847 -0.58899999 3
3.7030001 0.85000002 -0.58999997 4
3.7179999 0.85100001 -0.58899999 4
3.734 0.85100001 -0.588 4
3.7639999 0.85399997 -0.58899999 4
3.7939999 0.85799998 -0.58999997 2
4.0100002 0.90200001 -0.61900002 3
3.915 0.87800002 -0.60100001 2
3.964 0.88499999 -0.60399997 3
3.9349999 0.87400001 -0.59600002 2
4.0450001 0.89499998 -0.60900003 2
4.0050001 0.88200003 -0.59899998 3
4.1209998 0.90399998 -0.61199999 3
4.0949998 0.89399999 -0.60399997 2
4.1750002 0.90700001 -0.611 3
4.1420002 0.89600003 -0.602 3
4.2309999 0.91100001 -0.611 3
4.2989998 0.921 -0.616 3
4.2490001 0.90600002 -0.60500002 3
4.2620001 0.90399998 -0.602 3
4.355 0.91900003 -0.611 3
4.3530002 0.91399997 -0.60600001 3
4.4000001 0.91799998 -0.60799998 3
4.4380002 0.92199999 -0.60900003 2
4.4850001 0.926 -0.61000001 4
4.5450001 0.93400002 -0.61400002 3
4.5780001 0.935 -0.61299998 2
4.638 0.94199997 -0.616 3
4.6799998 0.94499999 -0.61699998 3
4.7410002 0.95200002 -0.62 3
4.7950001 0.95700002 -0.62199998 3
4.8590002 0.96399999 -0.625 3
4.9239998 0.97100002 -0.62900001 2
4.974 0.97500002 -0.63 2
5.0279999 0.97899997 -0.63099998 3
5.0809999 0.98299998 -0.63200003 2
5.1399999 0.98799998 -0.634 3
5.2150002 0.99599999 -0.63800001 3
5.2610002 0.99800003 -0.63800001 4
5.3400002 1.006 -0.64200002 3
5.4299998 1.016 -0.64700001 3
5.4920001 1.021 -0.648 3
5.573 1.029 -0.65200001 3
5.6459999 1.035 -0.65499997 3
5.7259998 1.0420001 -0.65799999 3
5.8039999 1.048 -0.66000003 3
5.8639998 1.051 -0.66100001 3
5.9489999 1.058 -0.66399997 4
6.0310001 1.0650001 -0.667 3
6.1020002 1.069 -0.66799998 3
6.1880002 1.075 -0.671 4
6.2919998 1.084 -0.67500001 3
6.3759999 1.09 -0.67699999 3
6.4759998 1.098 -0.68099999 3
6.5890002 1.108 -0.68599999 3
6.6869998 1.115 -0.68900001 3
6.802 1.124 -0.69300002 4
6.9190001 1.133 -0.69800001 4
7.033 1.142 -0.70200002 4
7.1399999 1.149 -0.70499998 4
7.2659998 1.158 -0.70999998 4
7.382 1.166 -0.713 4
7.4840002 1.171 -0.71499997 4
7.5809999 1.174 -0.71600002 4
7.737 1.187 -0.722 3
7.9089999 1.201 -0.73000002 3
8.059 1.211 -0.73500001 4
8.2790003 1.232 -0.74699998 11
8.3780003 1.234 -0.74699998 16
8.4510002 1.2309999 -0.74400002 16
8.6009998 1.24 -0.74900001 17
8.7399998 1.2460001 -0.75099999 17
8.8520002 1.248 -0.75199997 18
8.9829998 1.252 -0.75400001 18
9.1759996 1.265 -0.75999999 9
9.3730001 1.277 -0.76700002 5
9.5740004 1.289 -0.773 4
9.7609997 1.298 -0.778 4
9.9399996 1.306 -0.78200001 3
10.177 1.321 -0.79000002 3
10.394 1.332 -0.796 4
10.618 1.3430001 -0.80199999 3
10.832 1.352 -0.80699998 2
11.038 1.36 -0.81199998 3
11.312 1.374 -0.81999999 2
11.513 1.3789999 -0.82300001 2
11.81 1.395 -0.83200002 3
12.014 1.399 -0.83499998 3
12.291 1.41 -0.84100002 3
12.555 1.42 -0.847 3
12.942 1.441 -0.86000001 3
13.446 1.474 -0.88 7
13.587 1.466 -0.87599999 3
13.956 1.482 -0.88599998 2
14.26 1.489 -0.89099997 2
14.716 1.511 -0.90499997 2
15.09 1.523 -0.91299999 2
15.551 1.5420001 -0.92500001 2
16.177 1.575 -0.94700003 1
16.649 1.591 -0.958 2
17.143 1.608 -0.97000003 2
16.545 1.522 -0.92000002 1
17.389 1.568 -0.94999999 1
0 0 0 1
0 0 0 0
0 0 0 0
0 0 0 0
0 0 0 0
0 0 0 1
0 0 0 3
25.070999 1.8940001 -1.1799999 3
25.27 1.863 -1.166 1
0 0 0 0
0 0 0 0
0 0 0 0
0 0 0 44
24.927 1.604 -1.0369999 150
24.868999 1.553 -1.012 155
24.871 1.506 -0.99000001 153
24.929001 1.4630001 -0.97000003 162
24.940001 1.415 -0.94800001 157
24.944 1.368 -0.92699999 7
0 0 0 58
35.881001 1.831 -1.271 32
35.896999 1.763 -1.2410001 64
0 0 0 5
20.759001 0.93900001 -0.68199998 4
20.280001 0.87800002 -0.64899999 5
19.999001 0.82700002 -0.62300003 1
19.740999 0.77700001 -0.59899998 1
19.461 0.72799999 -0.574 1
19.077999 0.676 -0.54699999 1
18.804001 0.63099998 -0.52399999 1
18.660999 0.58899999 -0.505 1
18.34 0.54299998 -0.48199999 2
17.777 0.49200001 -0.45300001 3
17.728001 0.45500001 -0.43700001 3
17.721001 0.41999999 -0.42300001 4
17.59 0.382 -0.40599999 1
0 0 0 0
0 0 0 0
0 0 0 1
17.386999 0.23800001 -0.34799999 1
17.344999 0.20299999 -0.33399999 1
17.354 0.168 -0.322 1
17.292 0.133 -0.308 1
0 0 0 0
0 0 0 0
0 0 0 0
0 0 0 0
0 0 0 1
17.09 -0.075000003 -0.23100001 1
17.195999 -0.11 -0.22 1
17.132999 -0.14399999 -0.208 1
17.188 -0.18000001 -0.197 1
17.193001 -0.215 -0.185 1
17.275 -0.25099999 -0.17399999 13
17.304001 -0.287 -0.163 5
17.253 -0.32100001 -0.152 9
17.190001 -0.35600001 -0.14 12
17.194 -0.39199999 -0.12899999 9
17.184 -0.426 -0.118 9
17.181 -0.461 -0.107 9
17.191999 -0.49700001 -0.096000001 7
17.202 -0.53299999 -0.086000003 6
17.205 -0.56800002 -0.075000003 4
17.202999 -0.60399997 -0.064999998 1
17.216 -0.63999999 -0.055 1
17.336 -0.68000001 -0.045000002 1
0 0 0 0
0 0 0 0
0 0 0 0
0 0 0 0
0 0 0 0
0 0 0 1
17.961 -0.96399999 0.023 1
17.922001 -0.99900001 0.032000002 1
18.056999 -1.044 0.041999999 1
18.094999 -1.0829999 0.050999999 1
18.614 -1.153 0.061999999 2
18.753 -1.2 0.071999997 3
0 0 0 0
0 0 0 0
0 0 0 0
0 0 0 0
0 0 0 7
0 0 0 20
34.330002 -2.6949999 0.24600001 27
34.108002 -2.7479999 0.259 41
34.101002 -2.8180001 0.27399999 73
34.122002 -2.8900001 0.289 84
34.126999 -2.96 0.30399999 117
34.134998 -3.0309999 0.31799999 83
34.153 -3.1029999 0.33199999 115
34.166 -3.175 0.34599999 85
34.178001 -3.247 0.36000001 120
34.195 -3.3199999 0.373 117
34.198002 -3.3900001 0.38699999 121
0 0 0 16
17.9 -1.848 0.215 20
17.816 -1.876 0.221 27
17.775 -1.908 0.226 34
17.747999 -1.942 0.23199999 36
17.716 -1.975 0.23800001 38
17.679001 -2.007 0.243 38
17.674 -2.0420001 0.249 42
17.639999 -2.075 0.25400001 42
17.627001 -2.109 0.259 48
17.624001 -2.1440001 0.26499999 35
17.610001 -2.1789999 0.27000001 60
17.596001 -2.2130001 0.27500001 69
17.598 -2.2490001 0.28 39
17.589001 -2.283 0.28400001 65
17.608 -2.3210001 0.289 35
17.614 -2.3570001 0.294 35
17.624001 -2.3940001 0.29899999 42
17.629999 -2.4300001 0.303 34
17.624001 -2.4649999 0.30700001 41
17.655001 -2.5050001 0.31200001 43
17.657 -2.54 0.31600001 38
17.681 -2.579 0.31999999 37
17.724001 -2.6210001 0.32499999 28
17.754999 -2.661 0.329 25
17.834999 -2.7079999 0.33399999 16
17.937 -2.7590001 0.34 9
0 0 0 0
0 0 0 0
0 0 0 0
0 0 0 3
38.700001 -6.336 0.76700002 5
38.728001 -6.4169998 0.773 4
38.807999 -6.5050001 0.78100002 4
38.786999 -6.5770001 0.78600001 4
0 0 0 0
0 0 0 32
35.026001 -6.1420002 0.72299999 29
0 0 0 0
0 0 0 0
0 0 0 0
0 0 0 0
0 0 0 0
0 0 0 4
35.176998 -6.638 0.74900001 23
35.089001 -6.6880002 0.74900001 38
34.907001 -6.7189999 0.74900001 18
34.823002 -6.7680001 0.74800003 78
34.824001 -6.8340001 0.75099999 81
34.841999 -6.902 0.75199997 78
34.861 -6.9689999 0.75400001 82
34.872002 -7.0370002 0.75599998 80
34.896999 -7.1059999 0.75700003 65
34.896 -7.171 0.75800002 75
34.910999 -7.2379999 0.759 78
34.933998 -7.3070002 0.75999999 77
34.942001 -7.3720002 0.75999999 77
34.938999 -7.4349999 0.75999999 60
34.950001 -7.5009999 0.759 57
34.98 -7.5700002 0.75999999 65
0 0 0 1
30.677999 -6.75 0.66500002 1
30.666 -6.802 0.66399997 1
30.655001 -6.8530002 0.66299999 1
30.683001 -6.914 0.662 1
0 0 0 20
35.073002 -8.0249996 0.75300002 27
35.081001 -8.0880003 0.75099999 20
0 0 0 0
0 0 0 0
0 0 0 0
0 0 0 3
31.757999 -7.5939999 0.66799998 4
31.660999 -7.625 0.66299999 6
31.573 -7.6550002 0.65799999 6
0 0 0 1
28.174 -6.9250002 0.58200002 1
28.254 -6.9910002 0.57999998 1
28.160999 -7.0149999 0.57599998 1
0 0 0 5
31.323999 -7.9060001 0.63300002 6
31.309999 -7.9530001 0.62800002 6
31.309 -8.0019999 0.62400001 6
31.334 -8.059 0.62 6
31.329 -8.1079998 0.61500001 6
31.322001 -8.1560001 0.61000001 6
31.348 -8.2119999 0.60600001 6
31.312 -8.2519999 0.60100001 6
31.337999 -8.3079996 0.59600002 6
0 0 0 0
0 0 0 0
0 0 0 2
0 0 0 0
0 0 0 3
0 0 0 0
0 0 0 0
0 0 0 0
0 0 0 0
0 0 0 1
30.952999 -8.7150002 0.52399999 3
30.945 -8.757 0.51700002 4
30.966999 -8.8079996 0.51099998 7
30.965 -8.8500004 0.50400001 9
30.952 -8.8900003 0.49700001 11
30.947001 -8.9320002 0.49000001 11
30.975 -8.9829998 0.48300001 12
30.969999 -9.0240002 0.47600001 12
