# .PCD v0.7 - Point Cloud Data file format
VERSION 0.7
FIELDS x y z intensity
SIZE 4 4 4 4
TYPE F F F F
COUNT 1 1 1 1
WIDTH 1769
HEIGHT 1
VIEWPOINT 0 0 0 1 0 0 0
POINTS 1769
DATA ascii
3.102 0.68699998 -0.579 2
3.125 0.69 -0.58099997 1
3.2279999 0.71100003 -0.59600002 2
3.2290001 0.708 -0.59299999 2
3.194 0.69800001 -0.58399999 2
3.211 0.69999999 -0.583 2
3.2279999 0.70099998 -0.583 2
3.2579999 0.70499998 -0.58499998 2
3.2750001 0.70599997 -0.58499998 2
3.3970001 0.72899997 -0.60299999 2
3.437 0.73500001 -0.60600001 2
3.3829999 0.72100002 -0.59299999 2
3.4679999 0.736 -0.60500002 2
3.4300001 0.72500002 -0.59399998 2
3.4790001 0.73199999 -0.59899998 2
3.4760001 0.72899997 -0.59500003 1
3.503 0.73100001 -0.59500003 1
3.559 0.74000001 -0.60100001 2
3.5969999 0.74400002 -0.60399997 2
3.6530001 0.75300002 -0.60900003 3
3.675 0.75400001 -0.60900003 2
3.7130001 0.75800002 -0.611 2
3.7709999 0.76700002 -0.616 3
3.743 0.75700003 -0.60699999 3
3.766 0.75800002 -0.60699999 3
3.7920001 0.75999999 -0.60699999 3
3.8139999 0.75999999 -0.60600001 2
3.984 0.79000002 -0.62900001 3
3.904 0.77100003 -0.61199999 2
3.9349999 0.773 -0.61199999 2
3.9749999 0.77600002 -0.61400002 2
3.9590001 0.76899999 -0.60699999 2
4.0640001 0.78500003 -0.61799997 2
4.0510001 0.778 -0.61199999 2
4.1209998 0.787 -0.61699998 2
4.1459999 0.78799999 -0.616 2
4.2550001 0.80400002 -0.62800002 2
4.2589998 0.80000001 -0.62400001 2
4.3150001 0.80599999 -0.62699997 2
4.3540001 0.80800003 -0.62699997 4
4.3740001 0.80699998 -0.625 4
4.4239998 0.81099999 -0.62699997 2
4.4590001 0.81199998 -0.62699997 2
4.5209999 0.81800002 -0.63 3
4.5749998 0.82300001 -0.63200003 2
4.6079998 0.82300001 -0.63200003 4
4.6630001 0.82800001 -0.634 2
4.7319999 0.83399999 -0.63800001 2
4.7729998 0.83600003 -0.63700002 2
4.8270001 0.83899999 -0.639 5
4.8930001 0.84399998 -0.64200002 3
4.9380002 0.84600002 -0.64200002 3
5.0040002 0.85100001 -0.64399999 3
5.0619998 0.85500002 -0.64600003 3
5.1329999 0.86000001 -0.64899999 3
5.21 0.866 -0.65200001 3
5.276 0.87099999 -0.65499997 4
5.355 0.87699997 -0.65799999 4
5.4239998 0.88099998 -0.66000003 5
5.5050001 0.88700002 -0.66299999 5
5.5710001 0.88999999 -0.66399997 5
5.6599998 0.89700001 -0.66799998 4
5.7319999 0.90100002 -0.67000002 4
5.8249998 0.90700001 -0.67400002 4
5.8979998 0.91100001 -0.676 4
6.0040002 0.91900003 -0.68099999 4
6.1209998 0.92799997 -0.68699998 4
6.2150002 0.93400002 -0.69 4
6.3299999 0.94199997 -0.69499999 5
6.4060001 0.94499999 -0.69599998 5
6.5089998 0.95099998 -0.699 5
6.6420002 0.96100003 -0.70599997 6
6.7319999 0.96399999 -0.70700002 6
6.8590002 0.972 -0.71200001 5
6.994 0.98100001 -0.71799999 6
7.1469998 0.99299997 -0.72500002 7
7.27 0.99900001 -0.72899997 6
7.4120002 1.008 -0.73500001 5
7.546 1.015 -0.73900002 6
7.744 1.03 -0.74900001 6
7.928 1.0420001 -0.75800002 6
8.1000004 1.053 -0.764 8
8.2259998 1.057 -0.76700002 10
8.3579998 1.061 -0.76899999 7
8.5109997 1.067 -0.773 6
8.6350002 1.069 -0.77399999 5
8.7779999 1.074 -0.77700001 4
8.9560003 1.082 -0.78200001 4
9.165 1.092 -0.79000002 4
9.3789997 1.103 -0.79699999 4
9.6009998 1.114 -0.80500001 3
9.8000002 1.1210001 -0.81 4
9.9910002 1.127 -0.81400001 3
10.222 1.137 -0.82099998 4
10.39 1.1390001 -0.82300001 3
10.601 1.145 -0.82700002 2
10.898 1.159 -0.838 2
11.207 1.174 -0.84899998 2
11.47 1.182 -0.85500002 2
11.718 1.189 -0.86000001 2
11.962 1.194 -0.86500001 2
12.238 1.201 -0.87099999 3
12.583 1.214 -0.88099998 3
12.897 1.223 -0.889 3
13.269 1.235 -0.89999998 3
13.637 1.247 -0.90899998 3
14.05 1.261 -0.921 4
14.403 1.268 -0.92799997 3
14.82 1.279 -0.93800002 2
15.305 1.295 -0.95200002 2
15.776 1.307 -0.96399999 3
16.282 1.321 -0.977 3
16.979 1.348 -1 2
16.756001 1.301 -0.96799999 3
17.386999 1.3200001 -0.986 2
17.794001 1.3200001 -0.99000001 1
0 0 0 4
0 0 0 0
0 0 0 0
0 0 0 0
0 0 0 1
0 0 0 0
0 0 0 0
0 0 0 1
0 0 0 0
0 0 0 0
0 0 0 0
0 0 0 3
37.731998 1.918 -1.581 4
37.749001 1.851 -1.544 3
37.867001 1.7869999 -1.51 4
37.909 1.719 -1.473 14
37.773998 1.642 -1.429 23
37.580002 1.5650001 -1.385 29
37.423 1.488 -1.341 28
37.383999 1.416 -1.302 49
37.387001 1.346 -1.265 64
37.395 1.275 -1.228 50
37.459999 1.206 -1.193 157
37.48 1.137 -1.158 46
37.573002 1.069 -1.125 37
37.674999 1.001 -1.091 34
37.757 0.93099999 -1.057 32
37.879002 0.861 -1.025 37
37.994999 0.79100001 -0.99199998 150
38.140999 0.72100002 -0.95899999 25
38.268002 0.64999998 -0.92699999 17
38.412998 0.58099997 -0.89499998 3
0 0 0 0
0 0 0 25
0 0 0 0
0 0 0 0
0 0 0 0
0 0 0 0
0 0 0 0
0 0 0 119
132.88901 -0.31299999 -2.02 111
0 0 0 0
0 0 0 0
0 0 0 44
0 0 0 36
71.233002 -0.86900002 -0.77700001 117
0 0 0 8
66.086998 -1.068 -0.61000001 63
65.850998 -1.193 -0.55400002 79
65.867996 -1.324 -0.5 71
65.846001 -1.456 -0.44499999 136
0 0 0 19
58.060001 -1.5140001 -0.30000001 30
57.824001 -1.623 -0.25299999 82
57.811001 -1.74 -0.206 124
57.826 -1.8559999 -0.161 127
56.912998 -1.9400001 -0.115 64
54.872002 -1.9809999 -0.068000004 9
0 0 0 10
43.058998 -1.726 0.0099999998 4
0 0 0 64
49.723 -2.1930001 0.086000003 101
46.831001 -2.158 0.115 26
46.056999 -2.214 0.146 24
46.000999 -2.3039999 0.17900001 60
45.905998 -2.391 0.211 65
45.849998 -2.48 0.243 17
0 0 0 51
42.296001 -2.4590001 0.28299999 35
42.168999 -2.5369999 0.31099999 38
41.716999 -2.5940001 0.336 27
41.437 -2.6600001 0.361 66
41.546001 -2.7509999 0.38999999 81
39.452 -2.6930001 0.396 9
39.152 -2.7520001 0.419 51
38.799999 -2.806 0.44 7
38.164001 -2.836 0.45699999 3
37.608002 -2.8710001 0.47400001 20
37.613998 -2.947 0.49700001 32
37.625999 -3.0239999 0.51999998 31
37.638 -3.102 0.54299998 28
35.533001 -3 0.53399998 9
35.069 -3.0320001 0.54799998 9
34.585999 -3.059 0.56 9
34.098999 -3.085 0.57200003 8
33.734001 -3.119 0.58499998 70
33.724998 -3.1860001 0.60399997 71
0 0 0 1
20.573999 -2.026 0.391 1
20.257999 -2.0350001 0.396 1
20.006001 -2.05 0.40099999 1
19.82 -2.0710001 0.40799999 1
0 0 0 25
0 0 0 25
0 0 0 25
0 0 0 25
0 0 0 25
0 0 0 25
0 0 0 4
33.806 -4.073 0.829 8
33.783001 -4.138 0.84399998 13
33.789001 -4.2059999 0.86000001 17
33.807999 -4.2750001 0.875 33
33.813 -4.3449998 0.89099997 43
33.824001 -4.4130001 0.90600002 53
34.130001 -4.5209999 0.92900002 3
0 0 0 0
0 0 0 0
0 0 0 0
0 0 0 19
26.033001 -3.7049999 0.75999999 31
25.974001 -3.7479999 0.76899999 36
25.907 -3.7880001 0.77600002 39
25.871 -3.835 0.78500003 46
25.844 -3.882 0.79400003 50
25.787001 -3.9230001 0.801 57
25.773001 -3.971 0.81 62
25.763 -4.02 0.81800002 61
25.76 -4.0700002 0.82700002 62
25.771999 -4.1220002 0.83600003 45
25.77 -4.1719999 0.84399998 54
25.787001 -4.224 0.852 51
25.799999 -4.276 0.861 44
25.827 -4.3299999 0.86900002 39
25.860001 -4.3850002 0.87800002 36
25.910999 -4.4439998 0.88700002 34
25.969 -4.5029998 0.89600003 23
26.079 -4.572 0.90700001 7
0 0 0 4
34.251999 -6.1360002 1.21 10
34.238998 -6.197 1.2180001 37
34.268002 -6.2680001 1.228 28
34.244999 -6.3270001 1.235 32
34.243 -6.3920002 1.242 19
34.264 -6.46 1.25 14
34.248001 -6.52 1.258 41
34.235001 -6.5819998 1.2640001 6
0 0 0 0
0 0 0 0
0 0 0 0
0 0 0 0
0 0 0 7
64.095001 -13.031 2.441 9
0 0 0 9
34.273998 -7.092 1.316 11
34.084 -7.1149998 1.314 25
34.008999 -7.1599998 1.3150001 54
33.995998 -7.217 1.3200001 85
33.984001 -7.276 1.325 110
34 -7.3400002 1.329 86
34.009998 -7.4029999 1.334 91
33.998001 -7.4590001 1.337 118
34.009998 -7.5219998 1.341 90
34.008999 -7.5799999 1.345 83
34.014999 -7.6409998 1.348 89
0 0 0 3
18.106001 -4.1300001 0.72100002 20
18.037001 -4.145 0.71899998 24
17.968 -4.1599998 0.71799999 27
17.919001 -4.1799998 0.71700001 30
17.871 -4.1989999 0.71600002 37
17.847 -4.223 0.71600002 39
17.837999 -4.2509999 0.71700001 30
17.809 -4.2740002 0.71600002 48
17.782 -4.2969999 0.71600002 53
17.754 -4.3200002 0.71499997 51
17.749001 -4.348 0.71600002 57
17.723 -4.3709998 0.71499997 57
17.712999 -4.3979998 0.71499997 40
17.705999 -4.4239998 0.71499997 40
17.684 -4.447 0.71399999 60
17.690001 -4.4770002 0.71399999 41
17.674999 -4.5019999 0.713 61
17.667 -4.5279999 0.713 65
17.665001 -4.5549998 0.71200001 58
17.673 -4.585 0.71200001 61
17.664 -4.6100001 0.71100003 58
17.681 -4.6430001 0.71200001 45
17.681999 -4.6700001 0.70999998 33
17.684999 -4.698 0.70999998 51
17.687 -4.7249999 0.70899999 49
17.707001 -4.757 0.70899999 32
17.711 -4.7849998 0.708 47
17.726999 -4.816 0.708 29
17.731001 -4.8429999 0.70700002 37
17.76 -4.8769999 0.70599997 27
17.767 -4.9050002 0.70499998 29
17.816999 -4.9450002 0.70599997 26
17.871 -4.9850001 0.70599997 21
17.923 -5.026 0.70700002 14
18.016001 -5.0780001 0.708 2
0 0 0 13
0 0 0 4
0 0 0 0
0 0 0 14
0 0 0 0
0 0 0 0
0 0 0 0
0 0 0 2
38.113998 -11.214 1.457 5
38.118999 -11.266 1.451 5
38.098999 -11.31 1.4450001 4
38.119999 -11.366 1.439 4
38.137001 -11.421 1.4349999 5
38.125 -11.466 1.427 4
38.124001 -11.514 1.42 5
0 0 0 0
0 0 0 12
34.446999 -10.532 1.265 28
34.471001 -10.581 1.26 31
34.466 -10.622 1.253 11
34.539001 -10.686 1.249 2
0 0 0 0
0 0 0 0
0 0 0 0
0 0 0 0
0 0 0 0
0 0 0 0
0 0 0 0
0 0 0 3
34.685001 -11.085 1.188 5
34.570999 -11.086 1.176 16
34.541 -11.113 1.1670001 22
34.476002 -11.128 1.1569999 44
34.409 -11.142 1.146 32
34.279999 -11.136 1.1339999 19
34.23 -11.154 1.124 11
34.187 -11.174 1.114 53
34.166 -11.201 1.104 78
34.187 -11.241 1.096 79
34.171001 -11.269 1.086 77
34.183998 -11.306 1.077 80
34.186001 -11.338 1.069 84
34.186001 -11.369 1.059 79
34.178001 -11.399 1.049 81
34.194 -11.435 1.041 81
34.191002 -11.463 1.0319999 84
34.203999 -11.498 1.022 83
34.188999 -11.522 1.01 85
34.198002 -11.553 1.001 83
34.203999 -11.583 0.991 83
34.202 -11.611 0.98100001 81
34.202999 -11.639 0.97100002 87
34.208 -11.667 0.95999998 85
34.206001 -11.693 0.95099998 85
34.202999 -11.718 0.94 84
34.210999 -11.746 0.92900002 82
34.206001 -11.769 0.91799998 78
34.207001 -11.794 0.90700001 73
34.162998 -11.803 0.89499998 60
34.098999 -11.804 0.88300002 55
34.09 -11.825 0.87300003 55
34.105999 -11.853 0.861 55
34.110001 -11.876 0.84899998 54
34.123001 -11.902 0.83899999 66
34.160999 -11.937 0.82800001 62
34.201 -11.972 0.81800002 69
34.223999 -12 0.80699998 73
34.223999 -12.02 0.796 72
34.228001 -12.04 0.78399998 62
34.226002 -12.059 0.77200001 56
0 0 0 1
30.042 -10.616 0.65700001 2
30.028 -10.626 0.64600003 1
30.075001 -10.658 0.63599998 1
30.082001 -10.675 0.62599999 1
29.981001 -10.653 0.61299998 1
30.128 -10.718 0.60500002 1
0 0 0 20
34.243999 -12.212 0.66399997 21
34.240002 -12.224 0.65100002 21
34.256001 -12.244 0.639 22
34.240002 -12.251 0.62699997 27
34.230999 -12.26 0.61400002 27
34.229 -12.271 0.602 27
34.224998 -12.281 0.58899999 26
34.229 -12.293 0.57499999 26
34.234001 -12.305 0.56300002 22
34.241001 -12.318 0.55000001 23
34.230999 -12.323 0.537 26
34.226002 -12.331 0.523 20
34.241001 -12.345 0.50999999 20
34.241001 -12.352 0.49700001 18
0 0 0 1
27.525999 -9.941 0.38 1
27.575001 -9.9639997 0.36899999 1
27.549 -9.96 0.35800001 2
27.469 -9.9350004 0.34599999 2
27.587 -9.9820004 0.336 1
27.523001 -9.9619999 0.32499999 1
27.464001 -9.9440002 0.31400001 1
27.546 -9.9759998 0.30399999 1
27.549999 -9.9799995 0.29300001 1
0 0 0 6
34.252998 -12.412 0.338 7
34.265999 -12.418 0.32499999 7
34.263 -12.418 0.31099999 7
34.252998 -12.414 0.29699999 8
34.275002 -12.422 0.28299999 8
34.259998 -12.416 0.27000001 8
34.251999 -12.412 0.25600001 10
34.230999 -12.402 0.243 9
34.249001 -12.406 0.229 9
34.227001 -12.396 0.21600001 8
34.272999 -12.409 0.20200001 10
34.234001 -12.391 0.18799999 9
34.243 -12.39 0.17399999 9
34.235001 -12.383 0.16 10
34.263 -12.387 0.146 10
34.236 -12.372 0.132 9
34.251999 -12.371 0.118 9
34.243 -12.361 0.104 9
34.23 -12.349 0.090000004 9
34.25 -12.349 0.077 9
34.255001 -12.342 0.061999999 9
34.257999 -12.334 0.048 10
34.231998 -12.315 0.034000002 9
34.235001 -12.306 0.02 9
34.25 -12.302 0.0060000001 10
34.242001 -12.288 -0.0070000002 10
34.227001 -12.271 -0.02 10
34.221001 -12.257 -0.034000002 9
34.223999 -12.245 -0.048 10
34.235001 -12.237 -0.061999999 10
34.216 -12.216 -0.075999998 10
34.223 -12.205 -0.090000004 9
34.223999 -12.191 -0.103 9
34.210999 -12.172 -0.117 10
34.235001 -12.165 -0.131 10
0 0 0 1
12.753 -4.5190001 -0.059 1
12.79 -4.526 -0.064000003 1
12.778 -4.5149999 -0.068999998 2
12.772 -4.507 -0.074000001 3
12.789 -4.506 -0.079000004 7
12.821 -4.5100002 -0.085000001 9
12.892 -4.5279999 -0.090000004 18
12.925 -4.5320001 -0.096000001 35
12.932 -4.527 -0.101 29
12.884 -4.5019999 -0.106 36
12.874 -4.4910002 -0.111 32
12.93 -4.5019999 -0.116 39
12.977 -4.5100002 -0.122 42
12.945 -4.4899998 -0.126 42
12.91 -4.4689999 -0.132 42
12.881 -4.4499998 -0.13600001 42
12.898 -4.447 -0.141 42
12.897 -4.4369998 -0.146 42
12.878 -4.421 -0.15099999 42
12.885 -4.414 -0.156 42
12.893 -4.4070001 -0.161 42
12.871 -4.3899999 -0.16599999 42
12.88 -4.382 -0.171 42
12.914 -4.3839998 -0.176 42
12.95 -4.3850002 -0.182 42
12.985 -4.3870001 -0.18700001 35
12.987 -4.3759999 -0.192 36
13.005 -4.3709998 -0.198 47
13.001 -4.3590002 -0.20200001 48
13.012 -4.3509998 -0.207 49
13.045 -4.3499999 -0.213 50
13.089 -4.3530002 -0.21799999 46
13.173 -4.369 -0.22400001 43
13.229 -4.375 -0.23 44
13.255 -4.3709998 -0.235 44
13.305 -4.3740001 -0.241 44
13.318 -4.3660002 -0.24600001 44
13.3 -4.3470001 -0.25 44
13.273 -4.3249998 -0.255 42
13.289 -4.3169999 -0.25999999 44
13.337 -4.3189998 -0.26499999 40
13.424 -4.3330002 -0.27200001 32
13.425 -4.3189998 -0.27599999 45
13.46 -4.316 -0.28200001 23
13.488 -4.3109999 -0.287 31
13.491 -4.2969999 -0.29100001 14
13.53 -4.2940001 -0.296 2
0 0 0 0
0 0 0 0
0 0 0 0
0 0 0 0
0 0 0 0
0 0 0 0
0 0 0 0
0 0 0 2
15.295 -4.6950002 -0.38 13
15.276 -4.6700001 -0.38499999 28
15.278 -4.652 -0.389 35
15.295 -4.638 -0.39399999 24
15.313 -4.6240001 -0.40000001 28
15.296 -4.5999999 -0.40400001 35
15.302 -4.5819998 -0.40799999 38
15.314 -4.566 -0.41299999 45
15.365 -4.5609999 -0.419 54
15.332 -4.5310001 -0.42199999 43
15.338 -4.5120001 -0.42699999 40
15.41 -4.513 -0.433 40
15.337 -4.4710002 -0.43599999 39
15.376 -4.461 -0.44100001 47
15.378 -4.441 -0.44499999 45
15.371 -4.4169998 -0.449 27
15.399 -4.4039998 -0.454 20
15.397 -4.381 -0.458 31
15.269 -4.3239999 -0.458 28
15.257 -4.2979999 -0.461 38
15.269 -4.2800002 -0.46599999 25
15.333 -4.276 -0.47099999 24
15.29 -4.2410002 -0.47299999 24
15.306 -4.223 -0.47799999 8
15.369 -4.2179999 -0.48300001 9
15.428 -4.211 -0.48899999 9
15.519 -4.2129998 -0.495 9
15.561 -4.2010002 -0.5 8
15.65 -4.2020001 -0.50599998 9
15.726 -4.198 -0.51200002 9
15.815 -4.197 -0.51800001 7
15.878 -4.1890001 -0.523 6
15.934 -4.1789999 -0.528 9
16.014999 -4.1760001 -0.53399998 8
16.121 -4.178 -0.54100001 10
16.4 -4.2249999 -0.55400002 13
0 0 0 67
17.629999 -4.4860001 -0.60100001 66
17.645 -4.461 -0.60500002 67
17.659 -4.4359999 -0.60799998 40
17.657 -4.4070001 -0.611 65
17.667 -4.381 -0.61400002 58
17.688999 -4.3569999 -0.61799997 36
17.702999 -4.3309999 -0.62099999 33
17.722 -4.3070002 -0.62400001 34
17.729 -4.2779999 -0.62699997 46
17.754999 -4.2550001 -0.63 50
17.77 -4.2290001 -0.63300002 38
17.809999 -4.2090001 -0.63700002 30
17.826 -4.1820002 -0.63999999 38
17.865999 -4.1609998 -0.64300001 32
17.888 -4.1350002 -0.64600003 30
17.966999 -4.1230001 -0.65100002 23
18.046 -4.1090002 -0.65600002 19
18.143999 -4.0999999 -0.66100001 4
0 0 0 45
33.889 -7.539 -1.2410001 38
33.898998 -7.48 -1.244 29
33.785 -7.3959999 -1.242 24
33.827999 -7.3449998 -1.2460001 29
33.571999 -7.2290001 -1.239 47
0 0 0 1
20.226999 -4.283 -0.74900001 44
20.226999 -4.2459998 -0.75 45
20.218 -4.2069998 -0.75 45
20.216999 -4.1700001 -0.75099999 27
20.243 -4.1389999 -0.75199997 21
0 0 0 1
17.653999 -3.5439999 -0.65700001 1
17.657 -3.5120001 -0.65799999 1
17.632999 -3.4749999 -0.65700001 1
17.562 -3.428 -0.65399998 1
17.552999 -3.3929999 -0.65399998 1
17.549999 -3.359 -0.65399998 1
17.525 -3.322 -0.653 1
17.538 -3.2909999 -0.653 1
17.521 -3.2539999 -0.65200001 1
17.502001 -3.217 -0.64999998 2
17.466999 -3.178 -0.648 2
17.507999 -3.152 -0.64899999 2
17.482 -3.1140001 -0.64700001 2
17.532 -3.0880001 -0.648 2
17.464001 -3.043 -0.64499998 71
17.375 -2.994 -0.63999999 150
17.370001 -2.96 -0.639 150
17.386 -2.9289999 -0.63800001 150
17.374001 -2.8929999 -0.63599998 151
17.368999 -2.8570001 -0.634 152
17.372 -2.8239999 -0.63200003 152
17.384001 -2.7920001 -0.63099998 152
17.375999 -2.756 -0.62900001 153
17.389 -2.724 -0.62699997 153
17.374001 -2.688 -0.625 151
17.374001 -2.6530001 -0.62199998 154
17.386 -2.6210001 -0.62 155
17.389999 -2.5869999 -0.61799997 152
17.48 -2.566 -0.61900002 3
17.455999 -2.527 -0.61500001 3
17.372999 -2.4809999 -0.60900003 55
17.419001 -2.4530001 -0.60799998 2
17.431 -2.4189999 -0.60500002 2
17.422001 -2.3829999 -0.602 4
17.462999 -2.3540001 -0.60000002 1
17.466 -2.319 -0.597 1
17.478001 -2.2850001 -0.59299999 1
17.457001 -2.2479999 -0.58899999 1
17.478001 -2.2160001 -0.58600003 1
17.535999 -2.187 -0.58399999 1
17.495001 -2.1459999 -0.579 1
17.631001 -2.1270001 -0.579 1
17.565001 -2.0829999 -0.57300001 1
17.643999 -2.0569999 -0.57099998 1
17.690001 -2.0250001 -0.56800002 1
17.743 -1.995 -0.565 1
17.660999 -1.95 -0.55800003 1
0 0 0 25
0 0 0 1
18.063999 -1.883 -0.55500001 3
18.075001 -1.847 -0.55000001 3
18.134001 -1.816 -0.546 2
18.419001 -1.806 -0.54900002 4
19.007 -1.825 -0.56 1
19.212 -1.8049999 -0.56 1
19.395 -1.7819999 -0.55900002 1
19.684999 -1.768 -0.56099999 1
19.962999 -1.752 -0.56199998 1
20.448999 -1.753 -0.56800002 1
20.975 -1.755 -0.57599998 4
21.267 -1.7359999 -0.57599998 6
21.402 -1.702 -0.57099998 2
0 0 0 34
37.658001 -2.8410001 -0.977 6
38.277 -2.8080001 -0.97799999 7
38.967999 -2.7780001 -0.98000002 8
0 0 0 3
25.473 -1.712 -0.62 4
0 0 0 11
0 0 0 6
36.518002 -2.2279999 -0.84200001 10
36.546001 -2.154 -0.82700002 6
36.459999 -2.0739999 -0.80900002 44
36.488998 -2 -0.79299998 21
36.411999 -1.92 -0.77399999 31
36.394001 -1.844 -0.75700003 18
0 0 0 42
42.188 -1.9630001 -0.83700001 36
42.616001 -1.8940001 -0.82499999 37
42.523998 -1.802 -0.80199999 35
42.652 -1.719 -0.78299999 37
42.953999 -1.643 -0.76700002 38
43.369999 -1.5700001 -0.75199997 39
43.688999 -1.4910001 -0.73500001 33
43.717999 -1.403 -0.71200001 3
0 0 0 120
57.806 -1.617 -0.87900001 41
0 0 0 7
65.862999 -1.571 -0.92900002 141
65.834 -1.4349999 -0.89200002 150
65.842003 -1.298 -0.85399997 76
65.811996 -1.1619999 -0.815 64
66.400002 -1.036 -0.78399998 10
0 0 0 23
72.223999 -0.83099997 -0.76700002 37
0 0 0 0
0 0 0 27
132.897 -0.71899998 -1.171 42
132.82201 -0.44800001 -1.087 70
132.735 -0.177 -1.003 106
132.709 0.092 -0.91900003 74
132.666 0.36199999 -0.83399999 93
132.59801 0.634 -0.74599999 89
132.61099 0.903 -0.66000003 87
132.67101 1.1720001 -0.57200003 88
132.55099 1.4349999 -0.48500001 63
132.589 1.7029999 -0.396 54
132.51199 1.972 -0.30500001 39
132.485 2.2420001 -0.213 28
0 0 0 0
0 0 0 0
0 0 0 0
0 0 0 0
0 0 0 0
0 0 0 0
0 0 0 15
0 0 0 0
0 0 0 26
87.248001 3.1989999 0.479 30
87.43 3.3770001 0.546 26
87.487 3.552 0.61199999 24
87.656998 3.73 0.68000001 19
87.821999 3.9089999 0.74900001 19
90.287003 4.198 0.83999997 12
0 0 0 0
0 0 0 15
0 0 0 0
0 0 0 35
86.880997 4.8740001 1.147 18
0 0 0 0
0 0 0 24
116.359 7.1950002 1.817 21
0 0 0 0
0 0 0 0
0 0 0 17
87.991997 6.1079998 1.663 25
88.220001 6.29 1.7410001 19
88.473999 6.473 1.819 19
88.904999 6.671 1.903 15
0 0 0 0
0 0 0 0
0 0 0 0
0 0 0 0
0 0 0 0
0 0 0 0
0 0 0 0
0 0 0 39
0 0 0 0
0 0 0 0
0 0 0 38
74.998001 7.2729998 2.3889999 48
74.191002 7.3280001 2.4300001 34
74.290001 7.4710002 2.5009999 39
0 0 0 0
0 0 0 3
44.841999 4.7470002 1.631 5
45.995998 4.9520001 1.717 11
45.819 5.0120001 1.752 14
45.651001 5.0739999 1.788 27
45.556 5.1420002 1.826 25
45.549 5.2199998 1.868 34
45.678001 5.3140001 1.916 35
45.651001 5.3889999 1.9579999 41
45.757999 5.48 2.006 41
45.77 5.5599999 2.05 33
46.005001 5.6659999 2.1029999 42
46.035999 5.7480001 2.1489999 44
45.994999 5.8179998 2.1900001 42
45.924999 5.8870001 2.2309999 36
45.970001 5.9699998 2.277 44
45.860001 6.0320001 2.316 35
45.299999 6.033 2.332 28
45.409 6.1220002 2.381 28
45.264 6.177 2.418 37
45.497002 6.283 2.4749999 27
45.445999 6.3499999 2.516 35
45.410999 6.4180002 2.559 34
0 0 0 3
0 0 0 43
45.320999 6.6240001 2.688 33
45.132999 6.6680002 2.721 33
45.269001 6.7589998 2.773 35
45.106998 6.8049998 2.8080001 40
45.09 6.8709998 2.852 42
45.014 6.9289999 2.892 33
44.821999 6.9679999 2.924 24
0 0 0 15
41.889999 6.6399999 2.816 30
41.825001 6.6929998 2.8540001 36
0 0 0 4
35.519001 5.79 2.494 6
35.456001 5.8340001 2.5250001 15
0 0 0 13
33.028999 5.5320001 2.4189999 29
32.931 5.5630002 2.4449999 23
32.576 5.5500002 2.45 30
32.426998 5.572 2.4719999 33
32.02 5.5479999 2.473 21
31.677999 5.5339999 2.48 39
31.646999 5.573 2.5079999 45
31.650999 5.618 2.5409999 42
0 0 0 0
0 0 0 13
29.652 5.3860002 2.47 20
29.684 5.4320002 2.5020001 14
29.782 5.4899998 2.54 18
29.719 5.5190001 2.5650001 17
29.646 5.5440001 2.589 14
29.652 5.586 2.619 10
29.653999 5.625 2.6489999 7
29.565001 5.6459999 2.671 5
29.580999 5.6869998 2.7019999 3
0 0 0 22
32.707001 6.3720002 3.053 22
32.567001 6.3870001 3.073 21
32.576 6.4289999 3.1070001 22
32.507 6.4559999 3.1329999 24
32.227001 6.4400001 3.1370001 29
32.019001 6.4380002 3.1489999 21
31.843 6.441 3.164 22
31.756001 6.4619999 3.187 23
31.620001 6.4720001 3.2060001 32
31.554001 6.4959998 3.23 20
31.648001 6.552 3.2709999 12
0 0 0 0
0 0 0 2
0 0 0 41
34.278 7.2550001 3.678 43
34.216 7.2800002 3.7060001 34
33.672001 7.2020001 3.6800001 24
33.598 7.223 3.7049999 26
33.637001 7.2680001 3.743 24
0 0 0 8
31.361 6.8439999 3.55 10
31.249001 6.8530002 3.5680001 12
31.289 6.8940001 3.6029999 9
31.243999 6.9169998 3.628 10
31.236 6.947 3.6570001 9
31.622 7.0650001 3.733 21
31.433001 7.0549998 3.7409999 20
31.455 7.0910001 3.7739999 20
31.371 7.1030002 3.7939999 20
31.034 7.0570002 3.783 21
30.958 7.0689998 3.803 20
30.74 7.0489998 3.806 19
30.962 7.1300001 3.862 20
30.879 7.1389999 3.881 21
30.858 7.1630001 3.908 20
30.750999 7.1659999 3.9230001 21
30.622999 7.1630001 3.934 35
30.537001 7.1700001 3.9519999 29
30.42 7.1700001 3.9649999 20
30.157 7.1339998 3.9590001 24
29.875 7.092 3.9489999 18
29.577 7.046 3.937 18
29.362 7.0190001 3.9349999 22
29.275 7.0229998 3.95 31
29.24 7.0370002 3.9719999 30
29.118 7.0310001 3.9809999 23
29.056 7.039 3.9990001 20
29 7.0479999 4.0159998 35
28.954 7.059 4.0359998 39
28.968 7.0830002 4.0630002 36
29.070999 7.1300001 4.1030002 32
29.179001 7.177 4.1430001 42
29.24 7.2129998 4.178 31
0 0 0 0
0 0 0 5
24.813999 6.1729999 3.609 9
24.672001 6.1539998 3.609 13
24.527 6.1339998 3.609 12
24.388 6.1149998 3.608 12
24.577999 6.177 3.6570001 14
24.631001 6.2059999 3.6849999 26
24.636999 6.2220001 3.707 26
24.667 6.2449999 3.7309999 25
24.708 6.27 3.757 43
24.67 6.2740002 3.7709999 31
24.534 6.2529998 3.77 22
24.371 6.224 3.7650001 13
24.143999 6.1799998 3.7490001 12
24.011999 6.1589999 3.7479999 15
23.993999 6.1669998 3.7639999 14
23.948 6.1669998 3.7750001 13
23.979 6.1869998 3.799 12
24.024 6.21 3.8239999 12
23.996 6.2140002 3.8380001 12
23.990999 6.223 3.855 12
24.106001 6.2639999 3.892 15
24.191999 6.2969999 3.924 25
24.200001 6.309 3.9430001 25
24.172001 6.3109999 3.9549999 18
24.099001 6.302 3.961 12
23.978001 6.2789998 3.9579999 12
23.778999 6.2360001 3.9430001 13
23.652 6.211 3.9389999 37
23.646999 6.2179999 3.954 37
23.643999 6.2249999 3.97 34
23.645 6.2329998 3.987 34
23.643999 6.2399998 4.0019999 34
23.614 6.2389998 4.013 46
23.591999 6.2399998 4.0250001 44
23.582001 6.244 4.0380001 46
23.583 6.25 4.0539999 49
23.594999 6.2589998 4.072 48
23.607 6.2680001 4.0890002 37
23.646 6.2839999 4.1110001 36
23.653999 6.2909999 4.1259999 38
23.650999 6.2950001 4.1409998 32
23.681999 6.3080001 4.1609998 29
23.683001 6.3119998 4.1750002 25
23.711 6.3239999 4.1939998 19
23.721001 6.3299999 4.21 15
23.737 6.3379998 4.2259998 11
23.790001 6.355 4.25 8
23.757999 6.349 4.2579999 4
0 0 0 0
0 0 0 0
0 0 0 0
0 0 0 5
25.41 6.8010001 4.6230001 8
25.327999 6.7800002 4.6209998 11
25.257999 6.7620001 4.6209998 12
25.198999 6.7470002 4.6230001 14
25.096001 6.7189999 4.6170001 13
25.047001 6.7059999 4.6199999 13
24.931 6.6739998 4.6110001 13
24.892 6.664 4.6149998 14
24.834999 6.6469998 4.6160002 14
24.77 6.6279998 4.6160002 14
24.704 6.6100001 4.6139998 14
24.639999 6.5900002 4.6139998 17
24.576 6.5710001 4.6129999 24
24.532 6.5570002 4.6139998 29
24.52 6.5510001 4.6220002 26
24.555 6.5570002 4.6389999 26
24.559 6.5549998 4.6490002 25
24.583 6.5580001 4.6630001 25
24.593 6.5570002 4.6739998 29
24.579 6.5489998 4.6810002 28
24.58 6.5450001 4.691 25
24.594 6.5440001 4.7020001 25
24.614 6.5440001 4.7140002 25
24.657 6.5500002 4.7309999 22
24.702999 6.5560002 4.7480001 29
24.745001 6.5619998 4.7649999 32
24.808001 6.573 4.7839999 37
24.847 6.5760002 4.8000002 49
24.913 6.5869999 4.8200002 45
24.912001 6.579 4.8270001 44
24.931999 6.5770001 4.8390002 39
24.896 6.5599999 4.8379998 44
24.881001 6.5479999 4.842 40
24.882999 6.54 4.849 40
24.896 6.5349998 4.8569999 40
24.9 6.5279999 4.8639998 39
24.896999 6.5180001 4.869 40
24.917 6.513 4.8790002 41
24.91 6.5019999 4.8829999 36
24.917 6.493 4.8889999 31
24.914 6.4819999 4.8940001 24
24.934 6.4770002 4.902 12
24.913 6.461 4.9029999 6
24.941 6.4569998 4.9120002 4
0 0 0 0
0 0 0 31
33.355 8.5880003 6.585 38
33.367001 8.5749998 6.592 36
33.396999 8.566 6.6020002 23
33.429001 8.5570002 6.612 20
33.366001 8.5240002 6.6030002 18
33.411999 8.5170002 6.6160002 22
33.43 8.5030003 6.6220002 25
33.436001 8.4870005 6.625 23
33.397999 8.4580002 6.6199999 21
33.388 8.4370003 6.6199999 20
33.396999 8.4189997 6.6240001 18
33.438999 8.4099998 6.6329999 19
33.455002 8.3940001 6.638 25
33.466 8.3760004 6.6409998 29
33.487 8.3599997 6.645 20
33.487999 8.3380003 6.6459999 16
33.515999 8.3240004 6.651 12
33.554001 8.3109999 6.658 8
33.566002 8.2919998 6.6589999 7
33.556999 8.2659998 6.6570001 3
0 0 0 2
40.046001 9.809 7.9390001 2
40.076 9.7880001 7.9429998 3
0 0 0 0
0 0 0 0
0 0 0 9
40.164001 9.691 7.9460001 8
40.109001 9.6470003 7.9310002 5
40.228001 9.6440001 7.9499998 3
42.402 10.133 8.375 31
42.421001 10.104 8.3730001 33
42.396 10.064 8.3610001 36
42.384998 10.026 8.3529997 35
42.389999 9.993 8.3459997 37
42.339001 9.9449997 8.3290005 33
42.313 9.9049997 8.3149996 30
42.277 9.8599997 8.3000002 22
42.296001 9.8280001 8.2950001 20
40.214001 9.3100004 7.8790002 3
0 0 0 0
0 0 0 0
0 0 0 27
42.337002 9.651 8.2530003 30
42.341 9.6129999 8.243 32
42.325001 9.5699997 8.2279997 34
42.354 9.5369997 8.2220001 34
42.377998 9.5019999 8.2150002 35
42.368999 9.46 8.1999998 35
42.367001 9.4200001 8.1859999 36
42.389999 9.3839998 8.177 40
42.424999 9.3500004 8.1700001 33
42.428001 9.309 8.1560001 32
42.465 9.276 8.1479998 30
42.481998 9.2370005 8.1359997 35
42.472 9.1920004 8.1169996 34
42.473999 9.1490002 8.1029997 29
42.494999 9.1110001 8.0900002 29
42.516998 9.0719995 8.0769997 32
42.493999 9.0229998 8.0550003 40
42.481998 8.9750004 8.0349998 40
42.485001 8.9309998 8.0179996 38
42.459 8.8809996 7.994 40
42.418999 8.8280001 7.967 33
42.52 8.8030005 7.967 40
42.551998 8.7629995 7.9530001 40
42.623001 8.7309999 7.9460001 40
42.674 8.6940002 7.9349999 34
42.687 8.6490002 7.9159999 30
42.699001 8.6040001 7.8969998 24
42.659 8.5480003 7.868 28
42.694 8.5080004 7.8509998 40
42.754002 8.4709997 7.8400002 38
42.741001 8.4189997 7.8140001 47
42.771 8.3769999 7.796 38
42.790001 8.3310003 7.7750001 35
42.912998 8.3059998 7.7719998 33
43 8.2729998 7.763 30
43 8.2220001 7.7379999 15
43.084 8.1879997 7.7280002 12
0 0 0 16
56.257 10.557 10.02 19
56.108002 10.462 9.9580002 22
56.212002 10.415 9.9399996 27
56.227001 10.349 9.9060001 27
56.289001 10.291 9.8800001 31
56.415001 10.245 9.8660002 31
56.487 10.188 9.8380003 35
56.546001 10.129 9.8100004 37
56.627998 10.073 9.7849998 41
56.723 10.019 9.7609997 39
56.816002 9.9639997 9.7360001 35
56.869999 9.9020004 9.7040005 37
57.002998 9.8529997 9.6829996 41
57.091 9.7950001 9.6549997 42
57.119999 9.7290001 9.6169996 41
57.148998 9.6599998 9.5799999 42
57.370998 9.6239996 9.5719995 40
57.685001 9.6040001 9.5790005 35
57.750999 9.54 9.5439997 19
0 0 0 51
115.523 18.782 18.906 42
115.537 18.632 18.813 59
115.62 18.497 18.731001 53
115.622 18.344999 18.634001 58
115.611 18.193001 18.534 52
115.646 18.045 18.440001 59
115.624 17.888 18.339001 51
115.654 17.738001 18.239 58
115.602 17.577999 18.128 77
115.813 17.451 18.056999 27
115.835 17.302 17.955 25
115.939 17.16 17.865 24
115.836 16.992001 17.746 25
115.88 16.841 17.643999 27
115.818 16.674 17.521999 28
115.813 16.514999 17.414 24
115.762 16.349001 17.295 26
115.768 16.195 17.184 34
115.802 16.040001 17.076 39
115.795 15.88 16.959999 43
115.799 15.724 16.844999 55
115.779 15.561 16.725 62
115.8 15.407 16.611 63
115.815 15.248 16.493999 72
115.821 15.087 16.375 68
115.869 14.932 16.261 73
115.827 14.769 16.134001 63
115.917 14.618 16.023001 60
115.932 14.458 15.901 44
115.977 14.304 15.783 47
116.058 14.151 15.667 49
116.218 14.007 15.561 28
116.255 13.848 15.441 25
0 0 0 0
0 0 0 0
0 0 0 0
0 0 0 0
0 0 0 0
0 0 0 0
0 0 0 0
0 0 0 0
0 0 0 0
0 0 0 0
0 0 0 0
0 0 0 0
0 0 0 0
0 0 0 0
0 0 0 0
0 0 0 0
0 0 0 0
0 0 0 43
116.112 10.713 12.792 57
116.157 10.555 12.65 71
116.147 10.389 12.5 71
116.176 10.226 12.352 86
116.146 10.058 12.198 78
116.148 9.8959999 12.047 78
116.145 9.7309999 11.894 78
116.139 9.5649996 11.739 86
116.185 9.4029999 11.588 104
116.239 9.2460003 11.439 71
116.239 9.0810003 11.282 64
116.303 8.9200001 11.13 24
0 0 0 0
0 0 0 0
0 0 0 0
0 0 0 25
0 0 0 0
0 0 0 0
0 0 0 0
0 0 0 0
0 0 0 0
0 0 0 0
0 0 0 30
116.575 6.9749999 9.1899996 36
116.681 6.8150001 9.0270004 38
0 0 0 0
0 0 0 37
116.751 6.3369999 8.5240002 42
116.78 6.1750002 8.349 24
0 0 0 0
0 0 0 18
88.936996 4.3369999 5.9629998 38
88.719002 4.204 5.8140001 39
88.552002 4.0739999 5.6690001 25
0 0 0 0
0 0 0 24
119.116 4.9920001 7.079 25
119.207 4.8319998 6.9000001 37
119.15 4.6669998 6.711 45
0 0 0 0
0 0 0 0
0 0 0 38
0 0 0 0
0 0 0 0
0 0 0 0
0 0 0 31
0 0 0 0
0 0 0 67
119.736 3.0810001 4.8439999 28
0 0 0 0
0 0 0 0
0 0 0 0
0 0 0 11
83.984001 1.608 2.7119999 23
84.070999 1.5 2.576 36
84.253998 1.393 2.441 33
84.733002 1.291 2.3139999 28
84.969002 1.186 2.181 29
85.300003 1.084 2.05 24
85.327003 0.97399998 1.9069999 25
0 0 0 0
0 0 0 0
0 0 0 22
83.166 0.52399999 1.293 35
82.889999 0.41800001 1.147 31
82.740997 0.31299999 1.003 13
84.972 0.213 0.88200003 22
85.269997 0.109 0.741 19
0 0 0 0
0 0 0 9
0 0 0 0
0 0 0 34
72.151001 -0.34999999 0.003 58
72.160004 -0.43799999 -0.122 69
72.151001 -0.52499998 -0.249 70
72.150002 -0.611 -0.37400001 40
72.307999 -0.69999999 -0.50400001 42
71.408997 -0.77700001 -0.62400001 73
71.218002 -0.85900003 -0.74699998 74
69.024002 -0.91399997 -0.84600002 72
69.055 -0.995 -0.96799999 28
65.905998 -1.027 -1.041 9
65.818001 -1.103 -1.158 74
65.829002 -1.179 -1.276 78
65.833 -1.255 -1.392 41
0 0 0 11
43.119999 -0.921 -1.067 25
43.140999 -0.96899998 -1.143 27
43.136002 -1.017 -1.22 15
43.134998 -1.066 -1.298 11
43.068001 -1.112 -1.374 33
42.893002 -1.156 -1.447 54
42.832001 -1.202 -1.523 66
42.602001 -1.242 -1.592 61
42.195 -1.277 -1.654 42
42.037998 -1.318 -1.726 45
41.713001 -1.353 -1.789 22
0 0 0 1
30.068001 -1.04 -1.4 2
29.451 -1.049 -1.424 2
0 0 0 0
0 0 0 8
23.058001 -0.89399999 -1.242 6
0 0 0 0
0 0 0 2
17.646 -0.73900002 -1.049 2
16.614 -0.713 -1.018 2
15.723 -0.69 -0.99199998 2
14.983 -0.67199999 -0.97299999 2
14.27 -0.65499997 -0.95300001 2
13.602 -0.63800001 -0.93400002 3
13.052 -0.625 -0.921 2
12.435 -0.60699999 -0.89999998 2
11.956 -0.59500003 -0.88700002 2
11.509 -0.58399999 -0.875 2
11.099 -0.574 -0.86500001 2
10.663 -0.56099999 -0.85100001 2
10.283 -0.551 -0.83899999 2
9.9219999 -0.54100001 -0.82800001 3
9.5880003 -0.53100002 -0.81800002 4
9.3030005 -0.52399999 -0.81099999 4
9.0139999 -0.51599997 -0.80299997 4
8.7419996 -0.50800002 -0.79500002 3
8.4560003 -0.49900001 -0.78500003 3
8.1759996 -0.49000001 -0.77399999 4
7.9549999 -0.484 -0.76800001 4
7.711 -0.47600001 -0.759 4
7.4770002 -0.46799999 -0.75 4
7.2519999 -0.46000001 -0.741 4
7.0760002 -0.45500001 -0.736 4
6.882 -0.449 -0.72899997 4
6.7020001 -0.44299999 -0.722 3
6.5320001 -0.43700001 -0.71600002 3
6.3860002 -0.43200001 -0.71200001 3
6.2069998 -0.42500001 -0.70300001 3
6.0489998 -0.419 -0.69700003 3
5.9130001 -0.41499999 -0.69199997 3
5.7950001 -0.41100001 -0.68900001 3
5.6620002 -0.40599999 -0.68400002 3
5.5380001 -0.40099999 -0.67900002 3
5.4060001 -0.396 -0.67299998 4
5.2950001 -0.39199999 -0.66900003 4
5.1859999 -0.38800001 -0.66500002 4
5.066 -0.38299999 -0.65899998 4
4.974 -0.37900001 -0.65600002 4
4.9190001 -0.37900001 -0.65799999 3
4.8470001 -0.377 -0.65700001 2
4.7399998 -0.37200001 -0.65100002 3
4.6630001 -0.36899999 -0.64899999 2
4.5840001 -0.366 -0.64700001 2
4.4980001 -0.36199999 -0.64300001 2
4.4219999 -0.359 -0.63999999 3
4.3390002 -0.35600001 -0.63599998 3
4.2579999 -0.352 -0.63200003 2
4.1680002 -0.347 -0.62599999 2
4.1420002 -0.34799999 -0.63 2
4.073 -0.345 -0.62699997 2
4.0100002 -0.34200001 -0.625 2
4.0050001 -0.34400001 -0.63099998 2
3.8729999 -0.33500001 -0.61699998 1
3.829 -0.33399999 -0.61699998 3
3.7720001 -0.331 -0.61500001 1
3.6989999 -0.32699999 -0.61000001 2
3.664 -0.32600001 -0.61000001 2
3.6659999 -0.329 -0.61799997 3
3.5739999 -0.32300001 -0.60799998 2
3.5079999 -0.31900001 -0.60299999 4
3.471 -0.317 -0.60299999 6
3.431 -0.31600001 -0.602 7
3.4059999 -0.315 -0.60399997 7
3.3759999 -0.31400001 -0.60500002 5
3.326 -0.31200001 -0.602 3
3.2980001 -0.31099999 -0.60299999 2
3.286 -0.31099999 -0.60600001 1
3.2909999 -0.31400001 -0.61299998 1
3.2750001 -0.31400001 -0.616 2
3.148 -0.303 -0.597 1
3.187 -0.30899999 -0.61000001 1
3.0569999 -0.29699999 -0.59100002 2
3.0209999 -0.29499999 -0.58899999 2
2.994 -0.294 -0.58899999 2
3.095 -0.30599999 -0.61400002 2
3.066 -0.30399999 -0.61400002 1
2.9159999 -0.29100001 -0.58899999 1
2.927 -0.29300001 -0.59600002 1
2.8840001 -0.28999999 -0.59200001 1
2.796 -0.28200001 -0.579 1
2.7720001 -0.28099999 -0.57800001 1
2.7420001 -0.27900001 -0.57700002 2
2.7260001 -0.27900001 -0.57800001 2
2.6989999 -0.27700001 -0.57700002 2
2.6630001 -0.27500001 -0.574 2
2.648 -0.27399999 -0.57499999 2
2.6259999 -0.273 -0.57499999 1
2.5969999 -0.271 -0.57200003 1
2.5769999 -0.27000001 -0.57200003 1
2.5409999 -0.26699999 -0.56800002 1
2.52 -0.26499999 -0.56800002 1
2.506 -0.26499999 -0.56900001 1
2.4890001 -0.264 -0.56900001 1
2.461 -0.26199999 -0.56599998 1
2.4489999 -0.26100001 -0.56699997 1
2.428 -0.25999999 -0.56599998 1
2.4089999 -0.259 -0.56599998 1
2.382 -0.25600001 -0.56300002 1
2.3740001 -0.25600001 -0.565 1
2.345 -0.25400001 -0.56199998 1
2.332 -0.25299999 -0.56199998 1
2.3180001 -0.252 -0.56199998 1
2.3 -0.25099999 -0.56199998 1
2.2809999 -0.25 -0.56099999 1
2.2639999 -0.248 -0.56 1
2.253 -0.248 -0.56 1
2.2390001 -0.24699999 -0.56 1
2.2260001 -0.24600001 -0.56 1
2.2019999 -0.244 -0.55800003 1
2.1860001 -0.242 -0.55699998 1
2.177 -0.242 -0.55800003 1
2.161 -0.23999999 -0.55699998 1
2.151 -0.23999999 -0.55800003 1
2.138 -0.23899999 -0.55699998 1
2.1229999 -0.237 -0.55599999 1
2.112 -0.237 -0.55699998 1
2.096 -0.235 -0.55500001 1
2.085 -0.234 -0.55500001 1
2.0710001 -0.233 -0.55400002 1
2.0580001 -0.23199999 -0.55400002 1
2.043 -0.23100001 -0.55299997 1
2.033 -0.23 -0.55299997 1
2.016 -0.228 -0.551 1
2.007 -0.227 -0.551 1
2.0020001 -0.227 -0.55299997 1
1.9910001 -0.226 -0.55199999 1
1.982 -0.22499999 -0.55199999 1
1.971 -0.22400001 -0.55199999 1
1.955 -0.223 -0.55000001 1
1.939 -0.221 -0.54799998 1
1.936 -0.221 -0.55000001 1
1.9299999 -0.22 -0.55000001 1
1.9170001 -0.219 -0.54900002 1
1.904 -0.21799999 -0.54799998 1
1.89 -0.21600001 -0.546 1
1.8839999 -0.21600001 -0.54699999 1
1.876 -0.215 -0.54699999 1
1.86 -0.213 -0.54400003 1
1.8559999 -0.213 -0.54500002 1
1.848 -0.212 -0.54500002 1
1.846 -0.212 -0.54699999 1
1.839 -0.211 -0.54699999 1
1.8279999 -0.20999999 -0.546 1
1.821 -0.20900001 -0.546 1
1.811 -0.208 -0.54500002 1
1.804 -0.207 -0.54500002 1
1.795 -0.206 -0.54400003 1
1.78 -0.204 -0.54100001 1
1.779 -0.204 -0.54299998 1
1.776 -0.204 -0.54400003 1
1.772 -0.20299999 -0.54500002 1
1.76 -0.20200001 -0.54299998 1
1.7460001 -0.2 -0.54100001 1
1.7460001 -0.2 -0.54299998 1
1.7359999 -0.199 -0.54100001 1
1.729 -0.198 -0.54100001 1
1.726 -0.197 -0.54100001 1
1.717 -0.19599999 -0.54000002 1
1.715 -0.19599999 -0.542 1
1.709 -0.19499999 -0.54100001 1
1.705 -0.19400001 -0.542 1
1.7 -0.19400001 -0.542 1
1.6900001 -0.192 -0.54000002 1
1.688 -0.192 -0.54100001 1
1.681 -0.191 -0.54000002 1
1.678 -0.19 -0.54100001 1
1.673 -0.19 -0.54100001 1
1.6670001 -0.189 -0.54000002 1
1.665 -0.18799999 -0.54100001 1
1.653 -0.18700001 -0.53799999 1
1.6390001 -0.185 -0.53500003 1
1.648 -0.186 -0.54000002 1
1.648 -0.185 -0.54100001 1
1.642 -0.184 -0.54000002 1
1.635 -0.183 -0.53899997 1
1.635 -0.183 -0.54000002 1
1.6210001 -0.18099999 -0.537 1
1.6210001 -0.18099999 -0.53799999 1
1.6210001 -0.18099999 -0.53899997 1
1.6109999 -0.17900001 -0.537 1
1.609 -0.17900001 -0.537 1
1.608 -0.178 -0.53799999 1
1.608 -0.178 -0.53899997 1
1.603 -0.177 -0.53899997 1
1.601 -0.176 -0.53899997 1
1.591 -0.175 -0.537 1
1.592 -0.175 -0.53799999 1
1.584 -0.17399999 -0.53600001 1
1.587 -0.17299999 -0.53799999 1
1.5779999 -0.17200001 -0.53600001 1
1.5779999 -0.17200001 -0.537 1
1.568 -0.17 -0.53399998 1
1.566 -0.17 -0.53500003 1
1.5599999 -0.169 -0.53299999 1
1.567 -0.169 -0.537 1
1.558 -0.168 -0.53399998 1
1.559 -0.167 -0.53500003 1
1.553 -0.16599999 -0.53399998 1
1.556 -0.16599999 -0.53600001 1
1.55 -0.16500001 -0.53500003 1
1.5470001 -0.164 -0.53399998 1
1.553 -0.164 -0.537 1
1.546 -0.163 -0.53500003 1
1.54 -0.162 -0.53399998 1
1.54 -0.162 -0.53399998 1
1.536 -0.161 -0.53299999 1
1.538 -0.16 -0.53500003 1
1.536 -0.16 -0.53399998 1
1.5369999 -0.15899999 -0.53500003 1
1.534 -0.15800001 -0.53500003 1
1.531 -0.15800001 -0.53399998 1
1.534 -0.15700001 -0.53500003 1
1.535 -0.15700001 -0.53600001 1
1.526 -0.156 -0.53299999 1
1.529 -0.155 -0.53500003 1
1.533 -0.155 -0.53600001 1
1.525 -0.154 -0.53399998 1
1.521 -0.153 -0.53299999 1
1.5319999 -0.153 -0.537 1
1.525 -0.152 -0.53500003 1
1.52 -0.15099999 -0.53299999 1
1.522 -0.15099999 -0.53399998 1
1.522 -0.15000001 -0.53399998 1
1.52 -0.149 -0.53399998 1
1.525 -0.149 -0.53600001 1
1.524 -0.149 -0.53500003 1
1.52 -0.147 -0.53399998 1
1.53 -0.148 -0.537 1
1.512 -0.146 -0.53100002 1
1.522 -0.146 -0.53500003 1
1.525 -0.146 -0.53600001 1
1.523 -0.145 -0.53500003 1
1.515 -0.14300001 -0.53200001 1
1.526 -0.14399999 -0.53600001 1
1.522 -0.14300001 -0.53399998 1
1.527 -0.142 -0.53600001 1
1.525 -0.142 -0.53500003 1
1.522 -0.141 -0.53399998 1
1.523 -0.14 -0.53399998 1
1.521 -0.139 -0.53299999 1
1.527 -0.139 -0.53500003 1
1.527 -0.138 -0.53500003 1
1.528 -0.138 -0.53500003 1
1.52 -0.13600001 -0.53200001 1
1.517 -0.13600001 -0.53100002 1
1.522 -0.13500001 -0.53200001 1
1.5319999 -0.13500001 -0.53500003 1
1.524 -0.134 -0.53200001 1
1.533 -0.134 -0.53500003 1
1.5319999 -0.133 -0.53399998 1
1.538 -0.133 -0.53600001 1
1.533 -0.132 -0.53299999 1
1.539 -0.132 -0.53500003 1
1.546 -0.131 -0.537 1
1.5470001 -0.131 -0.53600001 1
1.54 -0.13 -0.53399998 1
1.549 -0.13 -0.53600001 1
1.5470001 -0.12899999 -0.53500003 1
1.538 -0.127 -0.53100002 1
1.551 -0.127 -0.53500003 1
1.557 -0.127 -0.53600001 1
1.551 -0.126 -0.53399998 1
1.549 -0.125 -0.53200001 1
1.564 -0.125 -0.537 1
1.553 -0.124 -0.53200001 1
1.553 -0.123 -0.53100002 1
1.5700001 -0.123 -0.53600001 1
1.575 -0.123 -0.537 1
1.573 -0.122 -0.53600001 1
1.581 -0.122 -0.537 1
1.586 -0.121 -0.53799999 1
1.586 -0.121 -0.537 1
1.579 -0.119 -0.53399998 1
1.5930001 -0.12 -0.537 1
1.599 -0.119 -0.53799999 1
1.596 -0.118 -0.537 1
1.59 -0.117 -0.53299999 1
1.609 -0.117 -0.53799999 1
1.612 -0.117 -0.53799999 1
1.609 -0.116 -0.537 1
1.614 -0.115 -0.537 1
1.627 -0.115 -0.54000002 1
1.626 -0.114 -0.53799999 1
1.627 -0.113 -0.53799999 1
1.632 -0.113 -0.53799999 1
1.636 -0.112 -0.53799999 1
1.64 -0.112 -0.53799999 1
1.641 -0.111 -0.537 1
1.645 -0.11 -0.537 1
1.649 -0.11 -0.537 1
1.673 -0.11 -0.54299998 1
1.655 -0.108 -0.53600001 1
1.658 -0.108 -0.53500003 1
1.6720001 -0.108 -0.53899997 1
1.692 -0.108 -0.54299998 1
1.693 -0.107 -0.542 1
1.699 -0.107 -0.542 1
1.7 -0.106 -0.54100001 1
1.71 -0.105 -0.54299998 1
1.715 -0.105 -0.542 1
1.722 -0.104 -0.54299998 1
1.727 -0.104 -0.54299998 1
1.7309999 -0.103 -0.54299998 1
1.7410001 -0.103 -0.54400003 1
1.745 -0.102 -0.54299998 1
1.753 -0.101 -0.54400003 1
1.753 -0.1 -0.542 1
1.76 -0.1 -0.542 1
1.767 -0.098999999 -0.54299998 1
1.778 -0.098999999 -0.54400003 1
1.785 -0.097999997 -0.54400003 1
1.799 -0.097999997 -0.546 1
1.802 -0.097000003 -0.54500002 1
1.808 -0.097000003 -0.54500002 1
1.816 -0.096000001 -0.54500002 1
1.827 -0.096000001 -0.546 1
1.832 -0.094999999 -0.546 1
1.8430001 -0.094999999 -0.54699999 1
1.852 -0.093999997 -0.54699999 1
1.863 -0.093999997 -0.54799998 1
1.874 -0.093000002 -0.54900002 1
1.885 -0.093000002 -0.55000001 1
1.8890001 -0.092 -0.54900002 1
1.9 -0.090999998 -0.55000001 1
1.91 -0.090999998 -0.55000001 1
1.923 -0.090000004 -0.551 1
1.931 -0.090000004 -0.551 1
1.941 -0.089000002 -0.551 1
1.96 -0.089000002 -0.55400002 1
1.965 -0.088 -0.55299997 1
1.975 -0.088 -0.55299997 1
1.974 -0.086999997 -0.55000001 1
1.974 -0.086000003 -0.54799998 1
1.99 -0.085000001 -0.54900002 1
2.0050001 -0.085000001 -0.551 1
2.023 -0.085000001 -0.55299997 1
2.04 -0.083999999 -0.55400002 1
2.0450001 -0.082999997 -0.55299997 1
2.056 -0.082999997 -0.55299997 1
2.0769999 -0.082999997 -0.55500001 1
2.0910001 -0.082000002 -0.55599999 1
2.099 -0.081 -0.55500001 1
2.1170001 -0.081 -0.55699998 1
2.132 -0.081 -0.55800003 1
2.1470001 -0.079999998 -0.55800003 1
2.161 -0.079000004 -0.55900002 1
2.1760001 -0.079000004 -0.55900002 1
2.194 -0.079000004 -0.56099999 1
2.2019999 -0.078000002 -0.55900002 1
2.224 -0.077 -0.56199998 1
2.2320001 -0.077 -0.56 1
2.244 -0.075999998 -0.56 1
2.2639999 -0.075999998 -0.56099999 1
2.283 -0.075000003 -0.56199998 1
2.2980001 -0.075000003 -0.56199998 1
2.313 -0.074000001 -0.56199998 1
2.3340001 -0.074000001 -0.56400001 1
2.358 -0.072999999 -0.56599998 1
2.3710001 -0.072999999 -0.565 1
2.3859999 -0.071999997 -0.56400001 1
2.408 -0.071999997 -0.56599998 1
2.427 -0.071000002 -0.56599998 1
2.4519999 -0.071000002 -0.56800002 1
2.473 -0.07 -0.56800002 1
2.4909999 -0.07 -0.56900001 1
2.5139999 -0.068999998 -0.56900001 1
2.526 -0.068999998 -0.56800002 1
2.5639999 -0.068000004 -0.57200003 1
2.5810001 -0.068000004 -0.57099998 1
2.609 -0.068000004 -0.57300001 2
2.6359999 -0.067000002 -0.574 2
2.661 -0.067000002 -0.57499999 2
2.6849999 -0.066 -0.57599998 2
2.707 -0.066 -0.57599998 2
2.7379999 -0.064999998 -0.57700002 2
2.757 -0.064999998 -0.57599998 2
2.796 -0.064999998 -0.57999998 2
2.8340001 -0.064000003 -0.583 2
2.8540001 -0.064000003 -0.58099997 2
2.891 -0.063000001 -0.58399999 2
2.9260001 -0.063000001 -0.58600003 2
2.954 -0.063000001 -0.58600003 2
3.0450001 -0.064000003 -0.59799999 2
3.1210001 -0.064000003 -0.60799998 1
3.1289999 -0.063000001 -0.60299999 1
0 0 0 2
3.1849999 -0.061999999 -0.602 1
3.3199999 -0.063000001 -0.62199998 2
3.2650001 -0.061000001 -0.60500002 2
3.339 -0.061999999 -0.61299998 2
3.358 -0.061000001 -0.61000001 1
3.3729999 -0.059999999 -0.60600001 2
3.4719999 -0.061000001 -0.61799997 2
3.4400001 -0.059 -0.60500002 2
3.4820001 -0.059 -0.60600001 1
3.54 -0.059 -0.60900003 1
3.599 -0.059 -0.61299998 1
3.6600001 -0.059 -0.616 2
3.721 -0.059 -0.61900002 2
3.8010001 -0.059 -0.625 2
3.7780001 -0.057 -0.61400002 2
3.8570001 -0.057999998 -0.61900002 2
3.9260001 -0.057999998 -0.62300003 2
4.0219998 -0.057999998 -0.63 2
4.0890002 -0.057999998 -0.63300002 3
4.0970001 -0.057 -0.62599999 2
4.1760001 -0.057 -0.62900001 2
4.2979999 -0.057999998 -0.639 2
4.375 -0.057999998 -0.64200002 3
4.414 -0.057 -0.639 3
4.4889998 -0.057 -0.64099997 3
4.586 -0.057999998 -0.64499998 3
4.6589999 -0.057999998 -0.64600003 3
4.7470002 -0.057999998 -0.64899999 3
4.836 -0.057999998 -0.65200001 5
4.9380002 -0.057999998 -0.65499997 4
5.0440001 -0.059 -0.65899998 4
5.1810002 -0.059 -0.66600001 4
5.2930002 -0.059999999 -0.67000002 4
5.4320002 -0.059999999 -0.676 5
5.5560002 -0.061000001 -0.68000001 5
5.6929998 -0.061999999 -0.68599999 4
5.881 -0.063000001 -0.69599998 6
6.0489998 -0.064000003 -0.70300001 8
6.1810002 -0.064000003 -0.70599997 12
6.3280001 -0.064999998 -0.70999998 14
6.5 -0.066 -0.71600002 13
6.6830001 -0.067000002 -0.722 12
6.8499999 -0.068000004 -0.72600001 10
7.0770001 -0.07 -0.73500001 10
7.3449998 -0.071999997 -0.74699998 5
7.6079998 -0.074000001 -0.759 4
7.8889999 -0.075999998 -0.76999998 4
8.151 -0.078000002 -0.77899998 3
8.4160004 -0.079999998 -0.78600001 4
8.7559996 -0.082999997 -0.80000001 4
9.0780001 -0.085000001 -0.81 6
9.3940001 -0.088 -0.81900001 5
9.7679996 -0.090999998 -0.83099997 4
10.14 -0.093999997 -0.84100002 5
10.511 -0.097000003 -0.85000002 5
11 -0.102 -0.866 4
11.485 -0.106 -0.88 3
12.006 -0.111 -0.89499998 3
12.539 -0.116 -0.90799999 3
13.153 -0.122 -0.92400002 3
13.915 -0.12899999 -0.94800001 3
14.7 -0.13699999 -0.97100002 3
15.514 -0.145 -0.991 2
0 0 0 2
0 0 0 1
0 0 0 1
0 0 0 0
0 0 0 1
0 0 0 0
0 0 0 2
0 0 0 0
0 0 0 4
44.997002 -0.45100001 -1.9170001 153
45.050999 -0.456 -1.825 167
45.061001 -0.461 -1.729 191
45.058998 -0.46599999 -1.632 191
45.084 -0.472 -1.536 167
45.051998 -0.47799999 -1.4400001 153
45.084999 -0.484 -1.346 58
0 0 0 69
71.203003 -0.787 -1.823 146
71.205002 -0.79799998 -1.67 150
71.207001 -0.81 -1.518 150
71.222 -0.82300001 -1.364 150
71.220001 -0.83600003 -1.211 140
71.228996 -0.85000002 -1.061 105
71.238998 -0.86400002 -0.91100001 74
71.246002 -0.87800002 -0.759 56
69.667 -0.87400001 -0.59100002 7
71.417 -0.91100001 -0.45500001 13
69.153 -0.89700001 -0.29499999 19
66.501999 -0.87800002 -0.142 17
66.504997 -0.89399999 0 40
66.508003 -0.91000003 0.139 51
66.575996 -0.92799997 0.28099999 43
66.944 -0.94999999 0.42500001 23
67.364998 -0.97399998 0.57099998 25
67.306 -0.99199998 0.71399999 20
0 0 0 0
0 0 0 0
0 0 0 0
0 0 0 0
0 0 0 21
59.34 -0.97899997 1.38 32
58.662998 -0.98699999 1.489 42
58.337002 -1 1.603 60
58.303001 -1.0190001 1.725 69
58.287998 -1.039 1.848 42
58.344002 -1.0599999 1.972 7
61.226002 -1.1339999 2.1960001 12
61.205002 -1.155 2.3239999 46
61.041 -1.175 2.4460001 77
60.456001 -1.1849999 2.5469999 52
59.973999 -1.199 2.652 74
59.869999 -1.22 2.7720001 84
59.865002 -1.243 2.8959999 81
59.805 -1.265 3.016 74
59.348999 -1.279 3.1159999 50
58.709 -1.29 3.204 71
58.547001 -1.3099999 3.3150001 68
58.535999 -1.335 3.4330001 69
58.497002 -1.358 3.55 71
57.91 -1.37 3.6329999 41
57.324001 -1.382 3.7160001 68
57.226002 -1.405 3.825 74
57.220001 -1.431 3.9419999 71
57.150002 -1.455 4.052 68
56.553001 -1.466 4.125 39
55.933998 -1.476 4.1929998 65
55.891998 -1.501 4.302 72
55.883999 -1.528 4.415 69
55.710999 -1.551 4.513 64
54.949001 -1.557 4.5619998 43
54.555 -1.573 4.6389999 53
54.562 -1.6 4.7480001 51
54.535 -1.627 4.8540001 59
54.202999 -1.646 4.9330001 48
53.450001 -1.651 4.9710002 59
53.219002 -1.6720001 5.0549998 62
53.207001 -1.699 5.158 64
53.222 -1.729 5.2639999 52
52.598999 -1.737 5.3060002 34
51.945999 -1.744 5.342 56
51.862999 -1.7690001 5.434 54
51.862999 -1.799 5.5370002 44
51.852001 -1.829 5.6360002 56
51.104 -1.831 5.6529999 32
50.549999 -1.839 5.6880002 52
50.512001 -1.867 5.7810001 54
50.539001 -1.898 5.882 44
49.910999 -1.904 5.9039998 30
49.271999 -1.909 5.9229999 47
49.199001 -1.936 6.0079999 51
49.196999 -1.966 6.1009998 51
49.202999 -1.9960001 6.1950002 46
48.516998 -1.997 6.1989999 29
47.863998 -2.0009999 6.2080002 46
47.84 -2.029 6.2909999 51
47.730999 -2.0539999 6.3660002 34
46.847 -2.0450001 6.3340001 11
46.512001 -2.0599999 6.375 8
46.200001 -2.076 6.4169998 9
45.922001 -2.0929999 6.4629998 10
45.674 -2.112 6.5120001 9
45.483002 -2.132 6.5689998 10
45.203999 -2.1489999 6.6090002 10
44.967999 -2.1670001 6.6550002 9
44.665001 -2.1819999 6.691 9
44.382 -2.198 6.7280002 10
44.159 -2.217 6.7740002 9
43.893002 -2.233 6.8119998 9
43.611 -2.2479999 6.8429999 10
43.388 -2.266 6.8850002 8
43.187 -2.2850001 6.928 10
43.018002 -2.3050001 6.9749999 11
42.921001 -2.3299999 7.0320001 9
42.470001 -2.335 7.033 16
42.342999 -2.358 7.085 35
42.417 -2.392 7.171 40
42.492001 -2.425 7.2540002 46
42.467999 -2.454 7.322 40
41.615002 -2.434 7.2459998 31
41.160999 -2.437 7.2360001 43
41.146999 -2.4660001 7.303 43
41.151001 -2.4960001 7.3699999 44
41.158001 -2.5250001 7.4390001 41
40.862 -2.5369999 7.4530001 35
39.915001 -2.507 7.3449998 32
39.812 -2.53 7.3909998 45
39.821999 -2.559 7.4569998 42
