# .PCD v0.7 - Point Cloud Data file format
VERSION 0.7
FIELDS x y z intensity
SIZE 4 4 4 4
TYPE F F F F
COUNT 1 1 1 1
WIDTH 1575
HEIGHT 1
VIEWPOINT 0 0 0 1 0 0 0
POINTS 1575
DATA ascii
0 0 0 0
0 0 0 0
0 0 0 0
0 0 0 0
0 0 0 0
0 0 0 0
0 0 0 0
0 0 0 5
48.205002 11.368 5.2150002 5
48.162998 11.294 5.1989999 5
48.216 11.241 5.1929998 5
48.150002 11.161 5.1729999 6
48.166 11.099 5.1630001 6
48.171001 11.035 5.151 7
0 0 0 0
0 0 0 0
0 0 0 0
0 0 0 3
32.828999 7.29 3.4630001 5
32.827999 7.243 3.4519999 6
32.808998 7.1929998 3.441 16
0 0 0 4
16.790001 3.6329999 1.749 20
16.738001 3.5969999 1.738 22
16.684 3.5610001 1.727 26
16.663 3.5320001 1.719 30
16.624001 3.4990001 1.7079999 29
16.608999 3.471 1.701 34
16.596001 3.444 1.693 38
16.591999 3.4189999 1.687 41
16.575001 3.3900001 1.678 43
16.568001 3.3640001 1.671 46
16.555 3.336 1.663 51
16.544001 3.3080001 1.655 53
16.549999 3.2839999 1.648 34
16.558001 3.26 1.642 34
16.525999 3.2279999 1.632 59
16.540001 3.2049999 1.626 63
16.549 3.181 1.619 45
16.555 3.1559999 1.612 42
16.542999 3.128 1.603 65
16.556999 3.105 1.597 62
16.549999 3.0769999 1.587 65
16.568001 3.0539999 1.581 63
16.572001 3.0280001 1.573 59
16.607 3.0079999 1.568 54
16.628 2.9849999 1.561 31
16.628 2.9579999 1.553 48
16.653999 2.9360001 1.546 56
16.667999 2.9119999 1.538 44
16.674999 2.885 1.53 41
16.712 2.8640001 1.524 40
16.733999 2.8410001 1.517 35
16.764 2.819 1.51 31
16.806 2.7980001 1.5039999 28
16.863001 2.779 1.499 23
16.927 2.763 1.495 19
17.025 2.75 1.493 13
0 0 0 46
33.756001 5.3410001 2.9200001 47
33.804001 5.2909999 2.902 49
33.807999 5.2350001 2.882 47
33.855 5.1859999 2.8640001 49
33.872002 5.132 2.8429999 49
33.904999 5.079 2.8239999 51
33.928001 5.026 2.803 48
33.969002 4.974 2.783 51
34.001999 4.9219999 2.763 47
34.035999 4.868 2.7420001 52
34.058998 4.8130002 2.72 45
34.091 4.7589998 2.6989999 51
34.105 4.7020001 2.675 48
34.144001 4.6490002 2.654 50
34.174999 4.5939999 2.631 53
34.200001 4.539 2.608 51
34.227001 4.4829998 2.585 52
34.259998 4.427 2.5610001 50
34.286999 4.3709998 2.5369999 50
34.316002 4.3150001 2.513 52
34.356998 4.2610002 2.4890001 53
34.352001 4.1999998 2.4619999 79
34.291 4.1329999 2.4300001 17
34.147999 4.0560002 2.3929999 14
34.006001 3.9790001 2.3559999 17
33.964001 3.915 2.325 21
34.043999 3.865 2.302 24
34.237999 3.826 2.2869999 29
34.395 3.783 2.2690001 44
34.479 3.7309999 2.2449999 62
34.556999 3.6800001 2.221 67
34.623001 3.6259999 2.1949999 72
34.648998 3.5669999 2.1659999 76
34.688 3.5090001 2.138 76
34.715 3.451 2.109 78
34.743 3.3929999 2.0799999 80
34.783001 3.335 2.0510001 80
34.805 3.276 2.0209999 79
34.84 3.217 1.9910001 77
34.868 3.158 1.96 79
34.894001 3.098 1.929 75
34.917999 3.0380001 1.898 73
34.970001 2.9809999 1.867 77
35.047001 2.924 1.8380001 78
35.080002 2.8659999 1.806 90
35.117001 2.806 1.774 88
35.141998 2.744 1.74 83
0 0 0 21
31.461 2.346 1.4960001 19
31.344 2.2820001 1.459 19
31.226999 2.2179999 1.4220001 19
31.191 2.161 1.3890001 38
31.198 2.105 1.358 36
31.218 2.052 1.327 22
31.239 1.997 1.295 11
31.309 1.946 1.265 13
31.365999 1.8940001 1.234 15
31.375 1.839 1.201 14
31.393 1.784 1.169 15
0 0 0 1
28.325001 1.5089999 0.99299997 1
0 0 0 0
0 0 0 5
0 0 0 2
0 0 0 2
0 0 0 4
0 0 0 0
0 0 0 0
0 0 0 0
0 0 0 0
0 0 0 2
31.236 1.059 0.70999998 7
31.232 1.005 0.67400002 12
31.264999 0.95099998 0.63800001 12
31.302999 0.898 0.602 13
31.305 0.84399998 0.56599998 11
31.277 0.78899997 0.528 10
0 0 0 5
28.653 0.62199998 0.414 18
28.635 0.57300001 0.38 35
28.415001 0.51999998 0.34200001 25
27.778 0.46000001 0.301 23
27.711 0.41100001 0.266 31
27.656 0.36300001 0.23100001 34
27.629999 0.315 0.197 37
27.582001 0.266 0.162 39
27.555 0.219 0.127 44
27.546 0.17200001 0.093000002 39
27.534 0.125 0.057999998 53
27.525 0.078000002 0.022 59
27.500999 0.030999999 -0.012 59
27.525999 -0.015 -0.046999998 55
27.552 -0.061999999 -0.082999997 40
27.565001 -0.109 -0.119 46
27.587 -0.156 -0.156 40
27.611 -0.20200001 -0.191 38
27.645 -0.249 -0.228 32
27.687 -0.296 -0.26499999 27
27.749001 -0.34299999 -0.30199999 23
27.860001 -0.391 -0.34099999 10
0 0 0 4
9.7229996 -0.168 -0.145 13
9.6599998 -0.183 -0.15700001 18
9.6099997 -0.198 -0.169 21
9.5939999 -0.214 -0.182 16
9.566 -0.229 -0.19400001 16
9.5459995 -0.244 -0.207 24
9.5170002 -0.259 -0.219 25
9.5129995 -0.27399999 -0.23199999 26
9.4899998 -0.289 -0.245 26
9.4879999 -0.30500001 -0.25799999 28
9.4650002 -0.31900001 -0.271 28
9.4519997 -0.33399999 -0.28400001 29
9.4490004 -0.34900001 -0.29699999 28
9.4359999 -0.36300001 -0.31 31
9.4239998 -0.37799999 -0.322 29
9.4169998 -0.39199999 -0.33500001 31
9.4040003 -0.40700001 -0.34799999 34
9.408 -0.42199999 -0.36199999 33
9.3889999 -0.43599999 -0.37400001 35
9.3809996 -0.44999999 -0.38800001 35
9.382 -0.465 -0.40099999 36
9.3760004 -0.479 -0.414 37
9.3789997 -0.49399999 -0.428 41
9.3640003 -0.50800002 -0.44100001 39
9.3590002 -0.52100003 -0.454 44
9.3620005 -0.53600001 -0.46799999 44
9.3520002 -0.55000001 -0.48100001 45
9.3590002 -0.56400001 -0.49599999 45
9.3509998 -0.57800001 -0.509 45
9.3479996 -0.59200001 -0.52200001 45
9.3409996 -0.60600001 -0.53600001 45
9.3520002 -0.62099999 -0.55000001 41
9.3459997 -0.634 -0.56400001 43
9.085 -0.63 -0.56199998 24
8.8450003 -0.62599999 -0.56 27
8.8219995 -0.63700002 -0.57099998 35
8.8509998 -0.653 -0.58700001 21
9.0389996 -0.68000001 -0.61299998 18
9.1000004 -0.69800001 -0.63099998 19
9.3059998 -0.727 -0.65899998 25
9.3540001 -0.74400002 -0.676 29
9.335 -0.75599998 -0.68900001 20
0 0 0 0
0 0 0 0
0 0 0 0
0 0 0 0
0 0 0 0
0 0 0 0
0 0 0 0
0 0 0 0
0 0 0 1
8.5010004 -0.80699998 -0.75599998 2
8.3769999 -0.80699998 -0.75800002 9
8.3380003 -0.815 -0.76800001 7
8.2040005 -0.81199998 -0.76800001 7
7.9650002 -0.79900002 -0.75800002 4
7.8080001 -0.79400003 -0.755 5
7.6259999 -0.78600001 -0.74900001 4
7.4889998 -0.78100002 -0.74699998 4
7.3189998 -0.773 -0.74199998 4
7.178 -0.76800001 -0.73799998 4
7.0149999 -0.759 -0.73199999 4
6.8920002 -0.755 -0.73000002 4
6.7610002 -0.74900001 -0.727 4
6.6799998 -0.74900001 -0.72799999 3
6.592 -0.74699998 -0.72899997 1
6.4530001 -0.74000001 -0.72399998 1
6.0830002 -0.70499998 -0.69099998 1
6.0830002 -0.71200001 -0.70099998 1
5.9749999 -0.70700002 -0.69800001 1
5.954 -0.71200001 -0.704 1
5.7719998 -0.69700003 -0.69199997 1
5.6589999 -0.69 -0.68699998 1
5.559 -0.685 -0.68400002 1
5.4489999 -0.67799997 -0.67799997 1
5.3740001 -0.67500001 -0.67699999 1
5.2940001 -0.671 -0.67500001 1
5.1989999 -0.66500002 -0.671 2
5.1009998 -0.65799999 -0.66600001 2
5.0619998 -0.65899998 -0.66900003 4
5.0409999 -0.662 -0.67400002 3
4.967 -0.65799999 -0.67199999 3
4.8860002 -0.653 -0.66900003 3
4.7820001 -0.64399999 -0.662 2
4.7140002 -0.63999999 -0.65899998 3
4.6500001 -0.63700002 -0.65799999 2
4.5710001 -0.63099998 -0.653 4
4.5180001 -0.62800002 -0.653 3
4.4250002 -0.62 -0.64600003 3
4.3270001 -0.611 -0.63800001 5
4.2810001 -0.60900003 -0.63800001 6
4.23 -0.60600001 -0.63700002 7
4.1880002 -0.60500002 -0.63700002 7
4.1370001 -0.60100001 -0.63499999 7
4.0999999 -0.60000002 -0.63599998 6
4.0539999 -0.59799999 -0.63499999 5
4.0050001 -0.59399998 -0.63300002 4
3.9809999 -0.59500003 -0.63499999 2
3.9100001 -0.588 -0.63 2
3.8699999 -0.58600003 -0.62900001 2
3.9170001 -0.597 -0.64300001 3
3.8110001 -0.58399999 -0.63099998 3
3.7909999 -0.58499998 -0.63300002 3
3.704 -0.57499999 -0.625 2
3.684 -0.57499999 -0.62699997 2
3.6129999 -0.56800002 -0.62 2
3.55 -0.56099999 -0.61400002 2
3.5039999 -0.55699998 -0.61199999 1
3.5039999 -0.56 -0.61699998 1
3.4530001 -0.55500001 -0.61299998 1
3.3710001 -0.54500002 -0.60299999 1
3.4100001 -0.55400002 -0.61500001 2
3.4749999 -0.56800002 -0.63200003 2
3.378 -0.55500001 -0.61900002 2
3.2969999 -0.54400003 -0.60900003 1
3.28 -0.54400003 -0.611 2
3.2320001 -0.53899997 -0.60699999 2
3.2090001 -0.53799999 -0.60699999 2
3.2179999 -0.542 -0.61299998 2
3.1099999 -0.52600002 -0.597 2
3.0899999 -0.52600002 -0.59799999 2
3.0639999 -0.52399999 -0.597 2
3.036 -0.52100003 -0.59600002 2
2.997 -0.51700002 -0.59200001 2
2.9790001 -0.51599997 -0.59299999 2
2.9619999 -0.51499999 -0.59399998 2
2.937 -0.51300001 -0.59299999 2
2.9070001 -0.50999999 -0.59100002 2
2.8889999 -0.509 -0.59100002 2
2.8670001 -0.50700003 -0.59100002 2
2.8399999 -0.50400001 -0.58899999 2
2.813 -0.50199997 -0.58700001 2
2.7850001 -0.498 -0.58499998 2
2.7609999 -0.49599999 -0.58399999 2
2.7420001 -0.49399999 -0.583 2
2.7190001 -0.49200001 -0.58200002 2
2.6989999 -0.49000001 -0.58200002 2
2.6789999 -0.48800001 -0.58099997 2
2.651 -0.48500001 -0.57800001 1
2.638 -0.484 -0.579 2
2.615 -0.48199999 -0.57800001 2
2.5969999 -0.47999999 -0.57700002 1
2.5840001 -0.479 -0.57700002 1
2.572 -0.47799999 -0.57800001 1
2.549 -0.47600001 -0.57599998 1
2.533 -0.47400001 -0.57599998 1
2.5139999 -0.472 -0.57499999 1
2.4949999 -0.47 -0.57300001 1
2.483 -0.46900001 -0.574 1
2.461 -0.46599999 -0.57200003 1
2.437 -0.463 -0.56900001 1
2.424 -0.46200001 -0.56900001 1
2.408 -0.46000001 -0.56900001 1
2.398 -0.45899999 -0.56900001 1
2.385 -0.458 -0.56900001 1
2.3670001 -0.456 -0.56800002 1
2.352 -0.454 -0.56699997 1
2.3399999 -0.45199999 -0.56699997 1
2.3299999 -0.45199999 -0.56699997 1
2.3139999 -0.44999999 -0.56599998 1
2.3039999 -0.449 -0.56599998 1
2.277 -0.44400001 -0.56199998 1
2.2750001 -0.44499999 -0.56400001 1
2.26 -0.44299999 -0.56300002 1
2.2520001 -0.442 -0.56400001 1
2.243 -0.44100001 -0.56400001 1
2.233 -0.44 -0.56400001 1
2.223 -0.43900001 -0.56400001 1
2.207 -0.43700001 -0.56199998 1
2.198 -0.43599999 -0.56199998 1
2.1830001 -0.43399999 -0.56099999 1
2.1730001 -0.43200001 -0.56099999 1
2.1570001 -0.43000001 -0.55900002 1
2.1470001 -0.42899999 -0.55800003 1
2.141 -0.428 -0.55900002 1
2.135 -0.42699999 -0.56 1
2.1289999 -0.42699999 -0.56 1
2.1159999 -0.42500001 -0.55900002 1
2.1099999 -0.42399999 -0.56 1
2.098 -0.42199999 -0.55900002 1
2.092 -0.42199999 -0.55900002 1
2.0829999 -0.41999999 -0.55900002 1
2.0769999 -0.41999999 -0.55900002 1
2.072 -0.419 -0.56 1
2.0669999 -0.419 -0.56 1
2.0569999 -0.417 -0.56 1
2.0409999 -0.414 -0.55699998 1
2.0350001 -0.41299999 -0.55699998 1
2.0239999 -0.412 -0.55599999 1
2.02 -0.41100001 -0.55699998 1
2.0139999 -0.41 -0.55699998 1
2.01 -0.41 -0.55800003 1
1.999 -0.40799999 -0.55599999 1
1.995 -0.40700001 -0.55699998 1
1.98 -0.40400001 -0.55400002 1
1.97 -0.403 -0.55299997 1
1.965 -0.40200001 -0.55400002 1
1.962 -0.40099999 -0.55500001 1
1.96 -0.40099999 -0.55500001 1
1.9450001 -0.398 -0.55299997 1
1.944 -0.398 -0.55400002 1
1.936 -0.39700001 -0.55299997 1
1.936 -0.39700001 -0.55500001 1
1.928 -0.39500001 -0.55400002 1
1.915 -0.39300001 -0.55199999 1
1.915 -0.39300001 -0.55299997 1
1.905 -0.391 -0.551 1
1.906 -0.391 -0.55299997 1
1.896 -0.389 -0.551 1
1.895 -0.389 -0.55299997 1
1.88 -0.38600001 -0.54900002 1
1.882 -0.38600001 -0.551 1
1.873 -0.384 -0.55000001 1
1.8710001 -0.38299999 -0.55000001 1
1.864 -0.382 -0.54900002 1
1.863 -0.382 -0.55000001 1
1.859 -0.38100001 -0.55000001 1
1.855 -0.38 -0.55000001 1
1.851 -0.37900001 -0.55000001 1
1.848 -0.37799999 -0.55000001 1
1.848 -0.37799999 -0.551 1
1.836 -0.375 -0.54900002 1
1.831 -0.37400001 -0.54799998 1
1.832 -0.37400001 -0.55000001 1
1.831 -0.37400001 -0.55000001 1
1.814 -0.37 -0.546 1
1.819 -0.37099999 -0.54799998 1
1.813 -0.36899999 -0.54699999 1
1.8150001 -0.36899999 -0.54900002 1
1.811 -0.368 -0.54799998 1
1.803 -0.366 -0.54699999 1
1.799 -0.36500001 -0.546 1
1.799 -0.36500001 -0.54699999 1
1.796 -0.36399999 -0.54699999 1
1.793 -0.36300001 -0.54699999 1
1.7920001 -0.36199999 -0.54699999 1
1.789 -0.361 -0.54699999 1
1.786 -0.36000001 -0.54699999 1
1.789 -0.36000001 -0.54799998 1
1.781 -0.35800001 -0.546 1
1.781 -0.35699999 -0.54699999 1
1.777 -0.35600001 -0.546 1
1.778 -0.35600001 -0.54699999 1
1.773 -0.354 -0.546 1
1.772 -0.354 -0.546 1
1.773 -0.35299999 -0.54699999 1
1.767 -0.35100001 -0.54500002 1
1.7690001 -0.35100001 -0.546 1
1.7690001 -0.35100001 -0.54699999 1
1.765 -0.34900001 -0.546 1
1.768 -0.34900001 -0.54699999 1
1.765 -0.34799999 -0.54699999 1
1.767 -0.34799999 -0.54699999 1
1.7589999 -0.34599999 -0.54500002 1
1.753 -0.34400001 -0.54400003 1
1.756 -0.34400001 -0.54500002 1
1.753 -0.34200001 -0.54400003 1
1.757 -0.34200001 -0.54500002 1
1.753 -0.34099999 -0.54400003 1
1.758 -0.34099999 -0.546 1
1.751 -0.33899999 -0.54400003 1
1.7539999 -0.33899999 -0.54500002 1
1.7539999 -0.338 -0.54500002 1
1.753 -0.33700001 -0.54500002 1
1.755 -0.33700001 -0.54500002 1
1.753 -0.336 -0.54500002 1
1.753 -0.33500001 -0.54500002 1
1.7539999 -0.33399999 -0.54500002 1
1.757 -0.33399999 -0.546 1
1.755 -0.33199999 -0.54500002 1
1.7539999 -0.331 -0.54500002 1
1.755 -0.331 -0.54500002 1
1.7539999 -0.33000001 -0.54500002 1
1.755 -0.329 -0.54400003 1
1.768 -0.33000001 -0.54799998 1
1.765 -0.329 -0.54699999 1
1.757 -0.32699999 -0.54500002 1
1.7589999 -0.32600001 -0.54500002 1
1.762 -0.32600001 -0.54500002 1
1.7690001 -0.32600001 -0.54699999 1
1.7690001 -0.32499999 -0.54699999 1
1.7690001 -0.324 -0.546 1
1.7640001 -0.322 -0.54500002 1
1.775 -0.32300001 -0.54799998 1
1.774 -0.322 -0.54699999 1
1.765 -0.31900001 -0.54400003 1
1.776 -0.31999999 -0.546 1
1.778 -0.31900001 -0.54699999 1
1.783 -0.31900001 -0.54799998 1
1.779 -0.317 -0.546 1
1.785 -0.317 -0.54699999 1
1.783 -0.315 -0.546 1
1.785 -0.315 -0.546 1
1.789 -0.31400001 -0.54699999 1
1.7920001 -0.31299999 -0.54699999 1
1.795 -0.31299999 -0.54699999 1
1.7970001 -0.31200001 -0.54699999 1
1.802 -0.31200001 -0.54799998 1
1.8049999 -0.31099999 -0.54799998 1
1.809 -0.31 -0.54799998 1
1.808 -0.30899999 -0.54699999 1
1.808 -0.308 -0.546 1
1.8200001 -0.308 -0.54900002 1
1.824 -0.308 -0.54900002 1
1.831 -0.308 -0.55000001 1
1.835 -0.30700001 -0.551 1
1.834 -0.30599999 -0.54900002 1
1.834 -0.30399999 -0.54799998 1
1.84 -0.30399999 -0.54900002 1
1.845 -0.303 -0.55000001 1
1.849 -0.303 -0.55000001 1
1.848 -0.301 -0.54799998 1
1.852 -0.30000001 -0.54799998 1
1.863 -0.301 -0.55000001 1
1.867 -0.30000001 -0.55000001 1
1.867 -0.29899999 -0.54900002 1
1.874 -0.29800001 -0.55000001 1
1.878 -0.29699999 -0.55000001 1
1.88 -0.296 -0.54900002 1
1.886 -0.29499999 -0.55000001 1
1.893 -0.29499999 -0.55000001 1
1.901 -0.29499999 -0.551 1
1.9069999 -0.294 -0.55199999 1
1.9119999 -0.29300001 -0.55199999 1
1.911 -0.292 -0.55000001 1
1.925 -0.292 -0.55299997 1
1.934 -0.292 -0.55299997 1
1.941 -0.292 -0.55400002 1
1.947 -0.29100001 -0.55400002 1
1.954 -0.28999999 -0.55400002 1
1.956 -0.289 -0.55400002 1
1.964 -0.289 -0.55400002 1
1.966 -0.287 -0.55299997 1
1.974 -0.287 -0.55400002 1
1.989 -0.287 -0.55599999 1
1.9859999 -0.285 -0.55299997 1
2.006 -0.28600001 -0.55699998 1
2.0079999 -0.285 -0.55599999 1
2.01 -0.28299999 -0.55500001 1
2.0139999 -0.28200001 -0.55400002 1
2.02 -0.28099999 -0.55400002 1
2.033 -0.28099999 -0.55500001 1
2.0350001 -0.28 -0.55400002 1
2.0480001 -0.28 -0.55500001 1
2.059 -0.27900001 -0.55599999 1
2.0610001 -0.278 -0.55500001 1
2.073 -0.278 -0.55599999 1
2.0780001 -0.27599999 -0.55500001 1
2.0910001 -0.27599999 -0.55599999 1
2.095 -0.27500001 -0.55500001 1
2.108 -0.27500001 -0.55599999 1
2.1110001 -0.273 -0.55500001 1
2.131 -0.27399999 -0.55800003 1
2.1389999 -0.273 -0.55800003 1
2.1440001 -0.27200001 -0.55699998 1
2.1630001 -0.27200001 -0.55900002 1
2.1700001 -0.271 -0.55900002 1
2.177 -0.27000001 -0.55800003 1
2.306 -0.28400001 -0.588 1
2.329 -0.285 -0.59100002 1
2.279 -0.27700001 -0.57599998 1
2.309 -0.278 -0.58099997 1
2.2509999 -0.26899999 -0.56400001 1
2.253 -0.26699999 -0.56099999 1
2.273 -0.26699999 -0.56400001 1
2.2869999 -0.26699999 -0.56400001 1
2.3150001 -0.26800001 -0.56800002 1
2.348 -0.27000001 -0.574 1
2.4119999 -0.27500001 -0.58600003 1
2.369 -0.26800001 -0.57200003 1
2.365 -0.26499999 -0.56800002 1
2.368 -0.26300001 -0.56599998 1
2.382 -0.26199999 -0.56599998 1
2.3989999 -0.26199999 -0.56699997 1
2.4130001 -0.26100001 -0.56699997 1
2.4719999 -0.266 -0.57800001 1
2.527 -0.26899999 -0.588 1
2.4890001 -0.26300001 -0.57499999 1
2.5150001 -0.26300001 -0.57800001 1
2.562 -0.266 -0.58499998 1
2.529 -0.25999999 -0.574 1
2.5880001 -0.264 -0.58399999 1
2.641 -0.266 -0.59200001 1
2.711 -0.271 -0.60399997 1
2.5940001 -0.257 -0.57499999 1
2.6140001 -0.25600001 -0.57499999 1
2.632 -0.25600001 -0.57499999 1
2.6559999 -0.25600001 -0.57700002 1
2.678 -0.255 -0.57800001 2
2.7019999 -0.255 -0.579 2
2.734 -0.25600001 -0.58200002 2
2.757 -0.255 -0.58200002 2
2.777 -0.25400001 -0.58200002 2
2.8050001 -0.25400001 -0.58399999 2
2.8239999 -0.25299999 -0.58399999 2
2.8529999 -0.25299999 -0.58499998 2
2.8770001 -0.25299999 -0.58600003 2
2.9000001 -0.252 -0.58600003 2
2.9260001 -0.252 -0.58700001 2
2.95 -0.25099999 -0.58700001 2
2.987 -0.252 -0.58999997 2
3.0239999 -0.252 -0.59200001 2
3.05 -0.25099999 -0.59299999 2
3.0869999 -0.252 -0.59500003 2
3.1159999 -0.25099999 -0.59500003 2
3.138 -0.25 -0.59399998 2
3.2980001 -0.25999999 -0.61900002 2
3.2739999 -0.255 -0.61000001 2
3.2590001 -0.25099999 -0.60100001 1
3.316 -0.252 -0.60600001 1
3.332 -0.25 -0.60399997 1
3.405 -0.25299999 -0.611 1
3.4119999 -0.25 -0.60699999 2
3.438 -0.249 -0.60600001 2
3.4960001 -0.25 -0.61000001 2
3.6359999 -0.257 -0.62800002 3
3.5599999 -0.249 -0.60900003 1
3.6289999 -0.25 -0.61500001 2
3.701 -0.252 -0.62099999 2
3.727 -0.25 -0.61900002 2
3.8069999 -0.252 -0.625 2
3.8180001 -0.25 -0.62099999 2
3.875 -0.25 -0.62300003 2
3.9330001 -0.25099999 -0.62599999 2
4.0139999 -0.252 -0.63099998 2
4.013 -0.249 -0.62400001 2
4.0669999 -0.249 -0.625 2
4.1869998 -0.252 -0.63599998 2
4.27 -0.25400001 -0.64099997 3
4.2940001 -0.252 -0.63700002 2
4.4450002 -0.257 -0.65100002 2
4.4390001 -0.25299999 -0.64200002 4
4.5469999 -0.255 -0.64999998 3
4.6389999 -0.257 -0.65499997 6
4.6869998 -0.255 -0.653 9
4.7340002 -0.25400001 -0.65100002 13
4.8130002 -0.25400001 -0.653 9
4.9120002 -0.25600001 -0.65700001 7
4.994 -0.25600001 -0.65899998 6
5.1220002 -0.25799999 -0.66600001 4
5.2329998 -0.25999999 -0.671 4
5.3579998 -0.26199999 -0.67699999 3
5.4790001 -0.26300001 -0.68199998 5
5.6329999 -0.266 -0.69 7
5.7360001 -0.26699999 -0.69199997 5
5.8189998 -0.266 -0.69099998 3
5.9089999 -0.26499999 -0.69 2
6.0780001 -0.26800001 -0.69800001 2
6.2420001 -0.271 -0.70499998 3
6.3769999 -0.27200001 -0.708 4
6.5219998 -0.273 -0.71200001 4
6.6830001 -0.27500001 -0.71700001 4
6.8740001 -0.278 -0.72399998 4
7.026 -0.27900001 -0.72600001 4
7.2280002 -0.28099999 -0.73299998 4
7.4330001 -0.28400001 -0.73900002 4
7.6129999 -0.285 -0.74199998 5
7.8390002 -0.28799999 -0.74900001 6
8.0579996 -0.29100001 -0.75400001 6
8.2980003 -0.294 -0.76099998 6
8.5860004 -0.29800001 -0.76999998 4
9.0179996 -0.30599999 -0.79100001 6
9.3059998 -0.31 -0.79699999 19
9.408 -0.30700001 -0.787 18
9.4399996 -0.301 -0.77100003 22
9.4460001 -0.29499999 -0.75300002 24
9.4630003 -0.28999999 -0.73500001 24
9.4580002 -0.28299999 -0.71600002 24
9.467 -0.27700001 -0.69800001 24
9.4729996 -0.271 -0.67900002 24
9.4809999 -0.26499999 -0.66000003 25
9.4949999 -0.25999999 -0.64200002 25
9.5120001 -0.25400001 -0.62400001 25
9.5010004 -0.248 -0.60399997 24
9.5229998 -0.243 -0.58600003 23
9.5319996 -0.237 -0.56699997 24
9.5450001 -0.23199999 -0.54900002 24
9.552 -0.226 -0.52999997 23
9.5629997 -0.22 -0.51099998 22
9.5530005 -0.215 -0.49000001 14
9.5760002 -0.20900001 -0.472 15
9.5830002 -0.204 -0.45199999 16
9.6029997 -0.199 -0.433 17
9.6049995 -0.19400001 -0.414 13
9.6160002 -0.189 -0.39500001 21
9.6370001 -0.184 -0.37599999 13
9.6529999 -0.17900001 -0.35600001 20
9.6590004 -0.17399999 -0.33700001 20
9.6780005 -0.169 -0.317 18
9.7049999 -0.164 -0.29800001 17
9.7290001 -0.16 -0.27900001 13
9.7629995 -0.155 -0.259 12
9.7440004 -0.15000001 -0.23899999 7
9.8240004 -0.146 -0.22 3
9.842 -0.142 -0.2 1
0 0 0 16
27.781 -0.375 -0.44999999 19
27.783001 -0.36199999 -0.39199999 24
27.747 -0.34799999 -0.333 28
27.73 -0.336 -0.27599999 29
27.715 -0.32300001 -0.21699999 30
27.693001 -0.31 -0.16 32
27.683001 -0.29800001 -0.102 33
27.67 -0.28600001 -0.043000001 37
27.65 -0.27399999 0.015 38
27.641001 -0.26199999 0.072999999 39
27.629 -0.25099999 0.131 42
27.628 -0.23999999 0.189 41
27.610001 -0.229 0.24699999 43
27.606001 -0.21799999 0.30500001 45
27.608 -0.207 0.36300001 45
27.603001 -0.197 0.421 45
27.594 -0.18700001 0.479 48
27.591 -0.177 0.537 54
27.587999 -0.167 0.59500003 55
27.583 -0.15800001 0.653 57
27.563999 -0.148 0.71100003 57
27.57 -0.139 0.76999998 59
27.573999 -0.13 0.82800001 59
27.565001 -0.121 0.88499999 59
27.566999 -0.113 0.94300002 59
27.541 -0.104 1 60
27.561001 -0.096000001 1.058 59
27.555 -0.088 1.115 61
27.552 -0.079999998 1.171 63
27.552999 -0.072999999 1.229 66
27.549999 -0.064999998 1.2869999 50
27.542999 -0.057999998 1.344 66
27.563 -0.050999999 1.402 69
27.566999 -0.045000002 1.46 75
27.551001 -0.037999999 1.517 72
27.559 -0.030999999 1.574 66
27.563999 -0.025 1.632 67
27.565001 -0.018999999 1.6900001 68
27.556999 -0.013 1.7460001 67
27.556 -0.0080000004 1.803 63
27.555 -0.0020000001 1.8609999 65
27.566 0.0020000001 1.919 69
27.580999 0.0070000002 1.977 66
27.576 0.012 2.033 71
27.569 0.017000001 2.0899999 67
27.57 0.021 2.1470001 69
27.577999 0.026000001 2.2049999 65
27.580999 0.029999999 2.2609999 69
27.587999 0.034000002 2.3180001 66
27.573999 0.037 2.3729999 62
27.579 0.041000001 2.4300001 62
27.607 0.044 2.49 60
27.614 0.048 2.5469999 57
27.625999 0.050999999 2.605 53
27.618 0.052999999 2.661 53
27.629999 0.056000002 2.7179999 54
27.622999 0.057999998 2.7739999 54
27.624001 0.061000001 2.8299999 55
27.617001 0.063000001 2.8859999 53
27.625999 0.064999998 2.9419999 56
27.627001 0.066 2.9979999 54
27.638 0.068000004 3.0550001 59
27.636999 0.068999998 3.1099999 55
27.641001 0.071000002 3.1659999 55
27.639999 0.071000002 3.221 55
27.634001 0.071999997 3.276 55
27.653 0.072999999 3.3340001 54
27.663 0.074000001 3.3900001 51
27.655001 0.074000001 3.444 49
27.664 0.074000001 3.5 50
27.662001 0.074000001 3.5550001 54
27.662001 0.072999999 3.6099999 54
27.671 0.072999999 3.6659999 54
27.659 0.072999999 3.7190001 52
27.667999 0.071999997 3.7739999 51
27.664 0.071000002 3.826 50
27.671 0.07 3.881 51
27.681 0.068000004 3.9360001 52
27.688 0.067000002 3.99 52
27.679001 0.066 4.0430002 52
27.681 0.063000001 4.098 49
27.686001 0.061999999 4.151 48
27.677999 0.059 4.204 47
27.677999 0.057 4.256 49
27.693001 0.054000001 4.3119998 49
27.691 0.052000001 4.3639998 47
27.687 0.048999999 4.415 46
27.686001 0.046999998 4.4679999 50
27.691999 0.043000001 4.5209999 49
27.695 0.039999999 4.573 48
27.694 0.037 4.625 48
27.691999 0.033 4.6760001 47
27.693001 0.029999999 4.7259998 47
27.695999 0.025 4.777 50
27.700001 0.021 4.8280001 46
27.698999 0.017000001 4.8790002 46
27.707001 0.013 4.9299998 45
27.701 0.0089999996 4.98 45
27.709 0.003 5.0320001 43
27.708 0 5.0830002 46
27.714001 -0.0049999999 5.1329999 41
27.712 -0.0099999998 5.1830001 49
27.704 -0.015 5.23 48
27.707001 -0.02 5.2800002 50
27.718 -0.026000001 5.3309999 53
27.712 -0.030999999 5.3779998 54
27.702 -0.037 5.4239998 51
27.719 -0.043000001 5.4759998 52
27.711 -0.048999999 5.5219998 54
27.709999 -0.055 5.5689998 52
27.719 -0.061000001 5.619 53
27.709 -0.068000004 5.664 51
27.723 -0.075000003 5.7140002 41
27.728001 -0.082000002 5.7620001 40
27.724001 -0.088 5.8080001 45
27.736 -0.094999999 5.8559999 47
27.719 -0.102 5.8990002 48
27.724001 -0.109 5.9460001 49
27.719999 -0.116 5.9910002 51
27.723 -0.124 6.0370002 55
27.73 -0.132 6.0830002 57
27.724001 -0.139 6.1269999 46
27.690001 -0.147 6.165 41
27.617001 -0.155 6.1929998 36
27.461 -0.162 6.2020001 26
27.302999 -0.169 6.2090001 28
27.110001 -0.175 6.2069998 27
26.959999 -0.183 6.2150002 25
26.815001 -0.189 6.223 26
26.656 -0.197 6.2280002 25
26.481001 -0.204 6.2270002 29
26.334 -0.211 6.2329998 25
26.181999 -0.21799999 6.237 30
26.047001 -0.226 6.244 25
25.913 -0.233 6.2509999 24
25.768999 -0.23999999 6.2550001 29
25.635 -0.24699999 6.2600002 25
25.500999 -0.255 6.2649999 25
25.356001 -0.26100001 6.2659998 29
25.24 -0.26899999 6.2740002 30
25.120001 -0.27700001 6.2800002 25
24.996 -0.28400001 6.2849998 24
24.870001 -0.29100001 6.2880001 31
24.754 -0.29899999 6.2930002 29
24.641001 -0.30599999 6.2989998 25
24.524 -0.31400001 6.303 26
24.41 -0.32100001 6.3070002 26
24.304001 -0.329 6.3130002 24
24.173 -0.336 6.3109999 26
24.073 -0.34400001 6.3169999 26
23.948999 -0.34999999 6.316 28
23.863001 -0.35800001 6.3249998 27
23.740999 -0.366 6.3239999 26
23.639 -0.373 6.3270001 23
23.542 -0.38 6.3309999 22
23.438 -0.38800001 6.3330002 24
23.337 -0.396 6.335 24
23.239 -0.403 6.3369999 28
23.162001 -0.41100001 6.3449998 24
23.052999 -0.41800001 6.3429999 25
22.968 -0.426 6.348 30
22.881001 -0.43399999 6.3509998 25
22.773001 -0.44100001 6.349 28
22.700001 -0.44800001 6.355 24
22.613001 -0.456 6.3569999 29
22.534 -0.46399999 6.3610001 25
22.444 -0.47099999 6.3610001 31
22.367001 -0.479 6.3639998 25
22.305 -0.48699999 6.3709998 30
22.23 -0.49399999 6.375 25
22.146 -0.50199997 6.375 26
0 0 0 1
9.9219999 -0.233 2.8770001 2
9.9180002 -0.237 2.8870001 5
9.8979998 -0.241 2.891 8
9.8660002 -0.244 2.892 10
9.8649998 -0.249 2.901 9
9.8409996 -0.252 2.904 9
9.8219995 -0.25600001 2.908 11
9.8140001 -0.25999999 2.9159999 19
9.7969999 -0.264 2.9200001 20
9.7840004 -0.26800001 2.9260001 12
9.7749996 -0.27200001 2.9319999 13
9.7670002 -0.27599999 2.9389999 13
9.7530003 -0.28 2.944 13
9.75 -0.28400001 2.9519999 15
9.7349997 -0.28799999 2.9560001 17
9.7180004 -0.292 2.9590001 17
9.7180004 -0.296 2.967 17
9.7159996 -0.30000001 2.9749999 19
9.7010002 -0.30399999 2.9790001 15
9.7010002 -0.30899999 2.987 15
9.6800003 -0.31200001 2.9879999 17
9.6940002 -0.317 3 17
9.6750002 -0.32100001 3.0020001 16
9.677 -0.32499999 3.01 16
9.6750002 -0.329 3.016 18
9.6599998 -0.333 3.0190001 17
9.6599998 -0.33700001 3.026 18
9.6450005 -0.34099999 3.0280001 19
9.6499996 -0.34599999 3.0369999 18
9.632 -0.34999999 3.0369999 18
9.6309996 -0.354 3.0439999 18
9.6400003 -0.359 3.053 25
9.6330004 -0.36300001 3.0569999 26
9.6230001 -0.36700001 3.0599999 26
9.632 -0.37099999 3.069 27
9.6190004 -0.375 3.0699999 27
9.6099997 -0.37900001 3.073 26
9.6090002 -0.38299999 3.0780001 26
9.6090002 -0.38800001 3.0840001 26
9.5970001 -0.391 3.085 27
9.5939999 -0.396 3.089 26
9.6059999 -0.40099999 3.098 27
9.5880003 -0.40400001 3.0969999 27
9.5909996 -0.40900001 3.1029999 27
9.5769997 -0.412 3.1029999 27
9.5839996 -0.417 3.1099999 28
9.5900002 -0.421 3.1159999 28
9.5769997 -0.42500001 3.1159999 28
9.566 -0.42899999 3.1170001 28
9.5629997 -0.433 3.119 28
9.5690002 -0.43700001 3.125 28
9.5579996 -0.44100001 3.125 28
9.5539999 -0.44499999 3.1270001 28
9.5579996 -0.449 3.132 28
9.5500002 -0.45300001 3.132 28
9.5439997 -0.45699999 3.1340001 29
9.5450001 -0.461 3.1370001 29
9.5459995 -0.46599999 3.1400001 29
9.5500002 -0.47 3.1440001 29
9.5419998 -0.47400001 3.1440001 30
9.5480003 -0.47799999 3.148 30
9.5270004 -0.48100001 3.1429999 30
9.5360003 -0.486 3.1489999 30
9.5410004 -0.49000001 3.152 31
9.5469999 -0.49399999 3.1559999 31
9.5170002 -0.49700001 3.148 31
9.5349998 -0.50199997 3.155 32
9.5310001 -0.50599998 3.155 30
9.5290003 -0.50999999 3.1559999 30
9.5150003 -0.51300001 3.152 30
9.5190001 -0.51700002 3.155 31
9.5150003 -0.52100003 3.154 31
9.5080004 -0.52399999 3.1530001 32
9.5159998 -0.52899998 3.1559999 32
9.5039997 -0.53200001 3.1530001 32
9.5080004 -0.53600001 3.154 31
9.5150003 -0.54000002 3.1570001 31
9.5089998 -0.54400003 3.155 31
9.5080004 -0.54799998 3.154 31
9.5019999 -0.551 3.152 31
9.4940004 -0.55500001 3.1489999 31
9.4969997 -0.55900002 3.1500001 31
9.5059996 -0.56300002 3.152 31
9.5030003 -0.56699997 3.1500001 31
9.4960003 -0.56999999 3.1470001 31
9.493 -0.57300001 3.145 32
9.5019999 -0.57800001 3.1470001 32
9.4980001 -0.58099997 3.1440001 32
9.5 -0.58499998 3.1429999 33
9.4899998 -0.588 3.138 34
9.4919996 -0.59200001 3.1370001 34
9.493 -0.59500003 3.1359999 33
9.4870005 -0.59899998 3.132 34
9.4890003 -0.602 3.1300001 34
9.4860001 -0.60600001 3.1270001 33
9.4840002 -0.60900003 3.1240001 34
9.4919996 -0.61299998 3.1240001 34
9.4820004 -0.616 3.118 35
9.4860001 -0.62 3.1170001 33
9.4829998 -0.62300003 3.1129999 33
9.4790001 -0.62599999 3.108 33
9.4820004 -0.63 3.1059999 34
9.4799995 -0.63300002 3.102 33
9.4840002 -0.63599998 3.0999999 33
9.4750004 -0.639 3.0929999 33
9.4779997 -0.64200002 3.0910001 33
9.4689999 -0.64499998 3.0840001 33
9.4759998 -0.648 3.082 34
9.4770002 -0.65200001 3.0780001 34
9.4639997 -0.65399998 3.0699999 34
9.4799995 -0.65799999 3.0699999 33
9.4709997 -0.66100001 3.063 33
9.4700003 -0.66399997 3.0580001 34
9.4639997 -0.66600001 3.0510001 34
9.4720001 -0.67000002 3.049 33
9.4700003 -0.67199999 3.043 34
9.4809999 -0.676 3.0409999 35
9.4650002 -0.67799997 3.0309999 35
9.4750004 -0.68199998 3.029 33
9.4840002 -0.685 3.026 34
9.4750004 -0.68699998 3.017 35
9.4720001 -0.69 3.0109999 35
9.4700003 -0.69199997 3.0039999 35
9.4840002 -0.69599998 3.003 35
9.474 -0.69800001 2.993 36
9.4700003 -0.69999999 2.9849999 36
9.4680004 -0.70300001 2.9779999 35
9.4720001 -0.70599997 2.973 36
9.4680004 -0.708 2.9649999 35
9.46 -0.70999998 2.9560001 36
9.4700003 -0.713 2.9519999 36
9.4580002 -0.71399999 2.941 35
9.4700003 -0.71700001 2.938 34
9.4700003 -0.72000003 2.9300001 34
9.4589996 -0.72100002 2.9189999 32
9.4549999 -0.72299999 2.911 33
9.4759998 -0.727 2.9089999 34
9.4720001 -0.72899997 2.9000001 33
9.4709997 -0.73100001 2.892 32
9.4610004 -0.73299998 2.881 33
9.4630003 -0.73500001 2.8729999 31
9.4619999 -0.736 2.8640001 32
9.4680004 -0.73900002 2.858 32
9.4650002 -0.741 2.848 33
9.4639997 -0.74299997 2.839 33
9.4610004 -0.74400002 2.8299999 34
9.4630003 -0.74599999 2.8210001 34
9.4610004 -0.74800003 2.812 34
9.4619999 -0.75 2.803 33
9.4639997 -0.75199997 2.7939999 33
9.4589996 -0.75300002 2.783 33
9.4569998 -0.755 2.773 33
9.4650002 -0.75700003 2.766 33
9.46 -0.75800002 2.7550001 33
9.4650002 -0.75999999 2.7460001 32
9.4650002 -0.76099998 2.7360001 34
9.4709997 -0.76300001 2.7279999 33
9.4659996 -0.764 2.7160001 33
9.4469995 -0.764 2.7 33
9.4639997 -0.76700002 2.6949999 33
9.4689999 -0.76800001 2.6860001 32
9.4750004 -0.76999998 2.677 33
9.4619999 -0.76999998 2.6619999 33
9.4610004 -0.77100003 2.651 34
9.4569998 -0.77100003 2.6389999 35
9.4610004 -0.773 2.6300001 34
9.4610004 -0.77399999 2.618 33
9.4589996 -0.77499998 2.6070001 33
9.4560003 -0.77499998 2.595 32
9.4510002 -0.77600002 2.582 31
9.4610004 -0.77700001 2.573 32
9.4549999 -0.778 2.5599999 32
9.4619999 -0.77899998 2.55 32
9.4610004 -0.77899998 2.5380001 32
9.4619999 -0.77999997 2.526 31
9.4610004 -0.77999997 2.5139999 31
9.4659996 -0.78200001 2.503 30
9.4589996 -0.78100002 2.4890001 30
9.4720001 -0.78299999 2.48 30
9.4610004 -0.78200001 2.4649999 29
9.46 -0.78200001 2.4519999 30
9.46 -0.78200001 2.4389999 31
9.4569998 -0.78200001 2.425 32
9.4569998 -0.78299999 2.4130001 33
9.4639997 -0.78299999 2.401 33
9.46 -0.78299999 2.388 33
9.4560003 -0.78299999 2.3729999 33
9.4540005 -0.78200001 2.3599999 32
9.4569998 -0.78200001 2.3469999 34
9.4569998 -0.78200001 2.3340001 33
9.4519997 -0.78200001 2.319 33
9.4460001 -0.78100002 2.3039999 32
9.4619999 -0.78200001 2.2939999 32
9.4540005 -0.78100002 2.279 33
9.4540005 -0.77999997 2.2650001 32
9.4549999 -0.77999997 2.2509999 32
9.4460001 -0.77899998 2.2349999 33
9.4490004 -0.778 2.2219999 32
9.4469995 -0.77700001 2.207 32
9.4399996 -0.77600002 2.191 31
9.4560003 -0.77600002 2.181 33
9.4540005 -0.77600002 2.1659999 33
9.4490004 -0.77399999 2.1500001 34
9.4429998 -0.773 2.1340001 34
9.4490004 -0.77200001 2.1210001 32
9.4460001 -0.77100003 2.1059999 33
9.4350004 -0.76899999 2.0880001 33
9.4399996 -0.76800001 2.0739999 34
9.4390001 -0.76700002 2.059 34
9.4379997 -0.76599997 2.0439999 33
9.4499998 -0.76499999 2.0309999 34
9.448 -0.764 2.016 33
9.4390001 -0.76099998 1.999 33
9.4370003 -0.75999999 1.983 35
9.4350004 -0.75800002 1.967 36
9.4329996 -0.75599998 1.951 38
9.4230003 -0.75300002 1.934 37
9.4390001 -0.75300002 1.9220001 37
9.4250002 -0.75 1.903 36
9.4399996 -0.74900001 1.89 34
9.4259996 -0.74599999 1.872 33
9.4460001 -0.74599999 1.86 34
9.4390001 -0.74299997 1.8430001 33
9.4250002 -0.74000001 1.824 33
9.4209995 -0.73699999 1.807 33
9.4250002 -0.73500001 1.7920001 33
9.4300003 -0.73299998 1.777 34
9.4289999 -0.73100001 1.76 33
9.4300003 -0.72899997 1.745 33
9.4350004 -0.727 1.729 33
9.4370003 -0.72399998 1.7130001 33
9.4300003 -0.72100002 1.696 34
9.4300003 -0.71799999 1.679 31
9.4280005 -0.71499997 1.6619999 31
9.4180002 -0.71200001 1.6440001 31
9.4180002 -0.70899999 1.627 33
9.4139996 -0.70499998 1.61 35
9.4250002 -0.70300001 1.595 37
9.4200001 -0.69999999 1.577 37
9.4110003 -0.69599998 1.559 36
9.4289999 -0.69400001 1.544 37
9.4099998 -0.69 1.525 36
9.4189997 -0.68699998 1.5089999 36
9.4200001 -0.68400002 1.492 38
9.4099998 -0.67900002 1.474 40
9.4049997 -0.67500001 1.456 39
9.4200001 -0.67299998 1.441 41
9.408 -0.66900003 1.4220001 40
9.4069996 -0.66500002 1.405 38
9.4069996 -0.66100001 1.387 40
9.4060001 -0.65700001 1.37 41
9.4189997 -0.65399998 1.355 41
9.4029999 -0.64899999 1.335 42
9.408 -0.64499998 1.318 43
9.4090004 -0.64099997 1.301 42
9.4029999 -0.63599998 1.283 39
9.4060001 -0.63200003 1.265 41
9.4060001 -0.62800002 1.248 42
9.4110003 -0.62400001 1.2309999 42
9.4040003 -0.61900002 1.2130001 43
9.4169998 -0.61500001 1.197 43
9.4069996 -0.61000001 1.178 43
9.3990002 -0.60500002 1.159 44
9.4060001 -0.60100001 1.142 44
9.4049997 -0.59600002 1.124 45
9.401 -0.59100002 1.1059999 44
9.3940001 -0.58499998 1.0880001 43
9.4099998 -0.58099997 1.072 42
9.408 -0.57599998 1.053 43
9.4049997 -0.57099998 1.035 43
9.408 -0.56599998 1.017 42
9.3979998 -0.56 0.99900001 40
9.3990002 -0.55500001 0.98100001 41
9.4069996 -0.55000001 0.96399999 41
9.4049997 -0.54400003 0.94599998 40
9.408 -0.53899997 0.92799997 40
9.3990002 -0.53299999 0.90899998 37
9.4119997 -0.528 0.89200002 35
9.4029999 -0.52100003 0.87199998 34
9.4119997 -0.51599997 0.85500002 35
9.4110003 -0.50999999 0.83700001 36
9.4090004 -0.50400001 0.81900001 39
9.415 -0.498 0.801 39
9.4230003 -0.493 0.78399998 38
9.4219999 -0.486 0.76499999 37
9.4139996 -0.47999999 0.74599999 37
9.4180002 -0.47400001 0.72899997 36
9.4250002 -0.46799999 0.71100003 35
9.4329996 -0.46200001 0.69300002 35
9.4289999 -0.45500001 0.67400002 35
9.4300003 -0.44800001 0.65600002 33
9.4370003 -0.442 0.639 31
9.4390001 -0.43599999 0.62 33
9.4440002 -0.42899999 0.602 32
9.4280005 -0.421 0.583 32
9.4429998 -0.41499999 0.56599998 34
9.448 -0.40799999 0.54699999 32
9.4499998 -0.40099999 0.52899998 32
9.4540005 -0.39399999 0.51099998 32
9.4499998 -0.38699999 0.49200001 29
9.4530001 -0.38 0.47400001 29
9.4619999 -0.373 0.456 30
9.4630003 -0.366 0.43799999 30
9.4729996 -0.359 0.41999999 29
9.4650002 -0.35100001 0.40200001 29
9.4809999 -0.34400001 0.384 28
9.4779997 -0.336 0.366 28
9.4799995 -0.32800001 0.347 27
9.4949999 -0.32100001 0.329 28
9.5 -0.31299999 0.31099999 28
9.507 -0.30599999 0.29300001 27
9.5080004 -0.29800001 0.27500001 26
9.5190001 -0.28999999 0.257 26
9.533 -0.28200001 0.23899999 26
9.5389996 -0.27399999 0.221 26
9.5489998 -0.266 0.20200001 25
9.5430002 -0.25799999 0.184 24
9.5690002 -0.25 0.16599999 24
9.5719995 -0.241 0.148 24
9.5760002 -0.233 0.13 14
9.599 -0.22499999 0.111 15
9.6049995 -0.21600001 0.093000002 14
9.6239996 -0.208 0.075000003 21
9.6400003 -0.199 0.057 20
9.6700001 -0.191 0.037999999 18
9.6820002 -0.182 0.02 14
9.7200003 -0.17399999 0.0020000001 14
9.7370005 -0.16500001 -0.016000001 10
9.7919998 -0.15700001 -0.034000002 5
0 0 0 4
27.841999 -0.39199999 -0.205 12
27.775999 -0.36500001 -0.257 20
27.739 -0.33700001 -0.308 26
27.712 -0.31 -0.36000001 27
27.669001 -0.28200001 -0.412 30
27.631001 -0.25400001 -0.463 31
27.610001 -0.227 -0.51300001 33
27.594999 -0.199 -0.565 35
27.577999 -0.17 -0.616 38
27.562 -0.142 -0.667 40
27.548 -0.114 -0.71799999 42
27.527 -0.086000003 -0.76899999 44
27.514 -0.057 -0.81900001 50
27.507999 -0.028000001 -0.87 51
27.496 0 -0.92000002 52
27.479 0.028000001 -0.97000003 62
27.465 0.057 -1.02 62
27.459999 0.086000003 -1.0700001 63
27.468 0.115 -1.12 48
27.483 0.145 -1.171 60
27.49 0.17399999 -1.22 55
27.490999 0.204 -1.27 49
27.488001 0.234 -1.3200001 35
27.479 0.264 -1.369 16
0 0 0 0
0 0 0 1
6.2059999 0.079999998 -0.34200001 35
6.2589998 0.086999997 -0.35600001 155
6.2119999 0.093999997 -0.36500001 155
6.2589998 0.101 -0.37900001 155
6.2719998 0.109 -0.391 155
6.2690001 0.116 -0.40099999 156
6.2529998 0.123 -0.41100001 156
6.2449999 0.12899999 -0.42199999 155
6.2259998 0.13600001 -0.43099999 155
6.1659999 0.142 -0.43799999 155
6.1999998 0.15000001 -0.45100001 150
6.1420002 0.155 -0.458 28
6.1389999 0.163 -0.46799999 4
6.131 0.169 -0.47799999 16
6.1259999 0.176 -0.48800001 13
6.198 0.186 -0.50400001 133
6.2030001 0.193 -0.51499999 155
6.1950002 0.2 -0.52499998 155
6.1620002 0.207 -0.53299999 154
6.164 0.214 -0.54299998 153
6.1539998 0.221 -0.55299997 150
6.118 0.227 -0.56 5
6.112 0.234 -0.56999999 3
6.112 0.241 -0.57999998 4
6.1129999 0.249 -0.58999997 4
6.1170001 0.25600001 -0.60000002 2
6.1240001 0.264 -0.611 2
6.119 0.271 -0.62099999 1
6.1110001 0.27900001 -0.63 2
6.0830002 0.285 -0.63700002 2
6.0580001 0.29100001 -0.64399999 3
6.0440001 0.29800001 -0.65200001 5
6.0289998 0.30399999 -0.66000003 6
6.0029998 0.31 -0.667 5
5.9419999 0.315 -0.67000002 8
5.8699999 0.31799999 -0.671 7
5.7810001 0.31999999 -0.67000002 7
5.7030001 0.32300001 -0.67000002 5
5.6090002 0.32499999 -0.667 4
5.4920001 0.32499999 -0.662 4
5.4039998 0.32600001 -0.66000003 3
5.3140001 0.32699999 -0.65700001 4
5.2199998 0.32800001 -0.653 3
5.1370001 0.329 -0.65100002 4
5.0539999 0.33000001 -0.648 3
4.9619999 0.331 -0.64399999 3
4.8940001 0.33199999 -0.64200002 3
4.8049998 0.33199999 -0.63800001 3
4.7319999 0.333 -0.63499999 3
4.6680002 0.33399999 -0.63300002 3
4.6110001 0.336 -0.63200003 3
4.5370002 0.336 -0.62900001 3
4.4629998 0.33700001 -0.625 3
4.4190001 0.33899999 -0.625 2
4.3470001 0.33899999 -0.62099999 2
4.2810001 0.33899999 -0.61799997 2
4.2069998 0.33899999 -0.61299998 2
4.1820002 0.34200001 -0.61500001 2
4.1259999 0.34299999 -0.61299998 2
4.0689998 0.34299999 -0.61000001 2
4.0219998 0.34400001 -0.60900003 2
4.0300002 0.34999999 -0.61500001 2
3.9189999 0.345 -0.60399997 2
3.931 0.35100001 -0.611 2
3.8640001 0.34999999 -0.60600001 2
3.908 0.359 -0.61799997 2
3.8139999 0.35499999 -0.60799998 2
3.767 0.35600001 -0.60600001 2
3.6930001 0.354 -0.59899998 1
3.6630001 0.35499999 -0.59899998 1
3.654 0.359 -0.602 3
3.592 0.35800001 -0.597 1
3.5380001 0.35699999 -0.59200001 1
3.5009999 0.35699999 -0.58999997 2
3.4530001 0.35699999 -0.58700001 1
3.487 0.36500001 -0.597 2
3.4300001 0.36300001 -0.59200001 2
3.4300001 0.368 -0.59600002 2
3.388 0.368 -0.59299999 2
3.3629999 0.36899999 -0.59200001 2
3.3329999 0.37 -0.59100002 2
3.319 0.373 -0.59299999 2
3.3010001 0.375 -0.59299999 2
3.256 0.37400001 -0.58899999 2
3.2460001 0.377 -0.59200001 2
3.174 0.37200001 -0.58200002 2
3.2520001 0.38600001 -0.60000002 2
3.175 0.38100001 -0.58999997 2
3.1240001 0.37799999 -0.58399999 1
3.1860001 0.38999999 -0.59899998 2
3.1570001 0.38999999 -0.597 2
3.109 0.38800001 -0.59100002 2
3.0190001 0.38100001 -0.57800001 2
2.9749999 0.37900001 -0.57300001 2
2.9619999 0.38100001 -0.57300001 2
2.947 0.38299999 -0.574 2
2.9300001 0.384 -0.57300001 2
2.902 0.384 -0.57099998 2
2.878 0.384 -0.56900001 2
2.869 0.38699999 -0.57099998 2
2.8499999 0.38800001 -0.56999999 2
2.8280001 0.38800001 -0.56800002 2
2.8150001 0.38999999 -0.56900001 2
2.7939999 0.38999999 -0.56699997 2
2.779 0.39199999 -0.56699997 2
2.7609999 0.39199999 -0.56599998 2
2.7539999 0.39500001 -0.56699997 2
2.7360001 0.39500001 -0.56599998 2
2.721 0.39700001 -0.56599998 2
2.707 0.398 -0.565 2
2.6900001 0.39899999 -0.56400001 2
2.6700001 0.39899999 -0.56199998 2
2.654 0.40000001 -0.56199998 1
2.704 0.41 -0.57499999 1
2.6619999 0.40700001 -0.56800002 1
2.7149999 0.41800001 -0.58200002 1
2.714 0.421 -0.58399999 1
2.596 0.40599999 -0.56099999 1
2.6459999 0.417 -0.574 1
2.5929999 0.41100001 -0.565 1
2.631 0.41999999 -0.57499999 1
2.5539999 0.41100001 -0.56 1
2.6300001 0.426 -0.579 1
2.54 0.41499999 -0.56099999 1
2.562 0.421 -0.56800002 1
2.5120001 0.41600001 -0.55900002 1
2.484 0.414 -0.55500001 1
2.474 0.41499999 -0.55400002 1
2.474 0.41800001 -0.55599999 1
2.457 0.41800001 -0.55400002 1
2.457 0.41999999 -0.55599999 1
2.447 0.421 -0.55599999 1
2.4330001 0.421 -0.55400002 1
2.4219999 0.42199999 -0.55299997 1
2.4089999 0.42199999 -0.55199999 1
2.398 0.42300001 -0.551 1
2.395 0.42500001 -0.55199999 1
2.3859999 0.426 -0.55199999 1
2.378 0.42699999 -0.551 1
2.369 0.428 -0.551 1
2.3610001 0.42899999 -0.55000001 1
2.3540001 0.43000001 -0.55000001 1
2.3559999 0.433 -0.55199999 1
2.346 0.43399999 -0.551 1
2.3329999 0.43399999 -0.54900002 1
2.3180001 0.433 -0.54699999 1
2.3139999 0.435 -0.54799998 1
2.309 0.43599999 -0.54799998 1
2.3010001 0.43700001 -0.54699999 1
2.2980001 0.43799999 -0.54799998 1
2.2969999 0.44100001 -0.54900002 1
2.2920001 0.442 -0.54900002 1
2.277 0.44100001 -0.546 1
2.2690001 0.442 -0.54500002 1
2.2679999 0.44400001 -0.546 1
2.2579999 0.44400001 -0.54500002 1
2.26 0.44600001 -0.546 1
2.2550001 0.44800001 -0.546 1
2.2449999 0.44800001 -0.54500002 1
2.24 0.449 -0.54400003 1
2.2409999 0.45100001 -0.546 1
2.23 0.45100001 -0.54400003 1
2.2260001 0.45199999 -0.54400003 1
2.2249999 0.454 -0.54500002 1
2.2219999 0.45500001 -0.54500002 1
2.217 0.456 -0.54400003 1
2.2079999 0.456 -0.54299998 1
2.207 0.45699999 -0.54299998 1
2.2030001 0.45899999 -0.54299998 1
2.1989999 0.46000001 -0.54299998 1
2.2520001 0.472 -0.55699998 1
2.2509999 0.47400001 -0.55699998 1
2.2880001 0.484 -0.56699997 1
2.263 0.47999999 -0.56099999 1
2.204 0.47 -0.54699999 1
2.2620001 0.484 -0.56199998 1
2.233 0.479 -0.55599999 1
2.2520001 0.48500001 -0.56099999 1
2.2980001 0.49700001 -0.57300001 1
2.217 0.48100001 -0.55299997 1
2.2349999 0.486 -0.55800003 1
2.277 0.49700001 -0.56900001 1
2.201 0.48199999 -0.55000001 1
2.1559999 0.47400001 -0.53899997 1
2.158 0.47600001 -0.54000002 1
2.158 0.477 -0.54100001 1
2.1489999 0.477 -0.53899997 1
2.1559999 0.47999999 -0.54100001 1
2.1570001 0.48199999 -0.54100001 1
2.148 0.48100001 -0.53899997 1
2.1440001 0.48100001 -0.53799999 1
2.1489999 0.484 -0.54000002 1
2.158 0.48699999 -0.542 1
2.151 0.48699999 -0.54100001 1
2.1489999 0.48800001 -0.54000002 1
2.1389999 0.48699999 -0.53799999 1
2.1429999 0.48899999 -0.53899997 1
2.138 0.48899999 -0.53799999 1
2.1359999 0.49000001 -0.537 1
2.1389999 0.49200001 -0.53799999 1
2.151 0.49599999 -0.54100001 1
2.152 0.49700001 -0.54100001 1
2.198 0.509 -0.55299997 1
2.142 0.49700001 -0.53899997 1
2.141 0.498 -0.53799999 1
2.178 0.50800002 -0.54699999 1
2.148 0.50199997 -0.54000002 1
2.145 0.50199997 -0.53899997 1
2.142 0.50300002 -0.53799999 1
2.1459999 0.505 -0.53899997 1
2.1500001 0.50599998 -0.53899997 1
2.1470001 0.50700003 -0.53799999 1
2.1530001 0.509 -0.54000002 1
2.145 0.50800002 -0.537 1
2.152 0.51099998 -0.53899997 1
2.158 0.51300001 -0.54000002 1
2.1600001 0.514 -0.54000002 1
2.1619999 0.51599997 -0.54000002 1
2.161 0.51599997 -0.53899997 1
0 0 0 1
2.27 0.54400003 -0.56599998 1
2.2160001 0.53200001 -0.55199999 1
2.2609999 0.54299998 -0.56199998 1
2.221 0.53399998 -0.55199999 1
2.224 0.53600001 -0.55199999 1
2.237 0.54000002 -0.55500001 1
2.221 0.53600001 -0.55000001 1
2.217 0.53600001 -0.54900002 1
2.21 0.53500003 -0.546 1
2.224 0.53899997 -0.54900002 1
2.2360001 0.542 -0.551 1
2.277 0.55299997 -0.56099999 1
2.277 0.55299997 -0.56 1
2.257 0.54900002 -0.55400002 1
2.323 0.565 -0.56900001 1
2.2969999 0.56 -0.56199998 1
2.2850001 0.55699998 -0.55900002 1
2.346 0.57200003 -0.57200003 1
2.227 0.54400003 -0.54299998 1
2.2309999 0.54500002 -0.54299998 1
2.247 0.54900002 -0.546 1
2.2379999 0.54799998 -0.54299998 1
2.2390001 0.54799998 -0.542 1
2.2460001 0.55000001 -0.542 1
2.256 0.55299997 -0.54400003 1
2.26 0.55400002 -0.54400003 1
2.2720001 0.55699998 -0.546 1
2.267 0.55599999 -0.54299998 1
2.276 0.55800003 -0.54400003 1
2.277 0.55800003 -0.54299998 1
2.29 0.56199998 -0.54500002 1
2.29 0.56199998 -0.54400003 1
2.2969999 0.56400001 -0.54500002 1
2.369 0.58099997 -0.56099999 1
2.3859999 0.58499998 -0.56300002 1
2.4059999 0.58999997 -0.56699997 1
2.3940001 0.58700001 -0.56199998 1
2.3940001 0.58700001 -0.56099999 1
2.3380001 0.57300001 -0.546 1
2.3410001 0.574 -0.546 1
2.3499999 0.57599998 -0.546 1
2.3559999 0.57700002 -0.546 1
2.3670001 0.579 -0.54799998 1
2.3670001 0.579 -0.546 1
2.3789999 0.58200002 -0.54699999 1
2.3840001 0.583 -0.54699999 1
2.4000001 0.58600003 -0.54900002 1
2.404 0.58700001 -0.54799998 1
2.408 0.58700001 -0.54799998 1
2.4189999 0.58999997 -0.54900002 1
2.431 0.59200001 -0.55000001 1
2.4360001 0.59299999 -0.54900002 1
2.448 0.59500003 -0.55000001 1
2.4560001 0.59600002 -0.55000001 1
2.467 0.59899998 -0.551 1
2.477 0.60000002 -0.551 1
2.4890001 0.60299999 -0.55199999 1
2.4909999 0.602 -0.551 1
2.5009999 0.60399997 -0.551 1
2.516 0.60699999 -0.55199999 1
2.5320001 0.61000001 -0.55400002 1
2.5339999 0.61000001 -0.55199999 1
2.549 0.61299998 -0.55400002 1
2.5639999 0.61500001 -0.55500001 1
2.579 0.61799997 -0.55599999 2
2.586 0.61900002 -0.55500001 2
2.5929999 0.62 -0.55500001 2
2.605 0.62099999 -0.55500001 2
2.6159999 0.62300003 -0.55599999 2
2.631 0.625 -0.55699998 2
2.642 0.62699997 -0.55699998 2
2.6559999 0.62900001 -0.55699998 2
2.671 0.63099998 -0.55800003 2
2.6760001 0.63099998 -0.55699998 1
2.727 0.64200002 -0.565 1
2.806 0.65899998 -0.579 1
2.8 0.65700001 -0.57499999 1
2.7920001 0.653 -0.57099998 1
2.848 0.66500002 -0.57999998 1
2.786 0.64899999 -0.565 1
2.8329999 0.65899998 -0.57200003 1
2.9430001 0.68199998 -0.59100002 1
2.924 0.676 -0.58499998 1
2.9089999 0.671 -0.579 1
2.9189999 0.67199999 -0.57800001 2
2.905 0.667 -0.57300001 1
3.016 0.69099998 -0.59200001 1
2.9719999 0.67900002 -0.58099997 1
3.013 0.68599999 -0.58600003 1
3.053 0.69300002 -0.58999997 1
2.9860001 0.676 -0.57499999 1
3.049 0.68800002 -0.58399999 1
3.2179999 0.72500002 -0.61299998 2
3.096 0.69499999 -0.58600003 1
3.066 0.68599999 -0.57800001 1
3.135 0.699 -0.588 1
3.1600001 0.70300001 -0.58899999 1
3.24 0.71799999 -0.60100001 2
3.234 0.71499997 -0.59600002 1
3.2079999 0.70599997 -0.588 1
3.141 0.68900001 -0.57300001 1
3.2309999 0.70599997 -0.58600003 2
3.3180001 0.72299999 -0.59799999 2
3.227 0.69999999 -0.57800001 1
3.283 0.70999998 -0.58499998 2
3.398 0.73199999 -0.602 2
3.3299999 0.71499997 -0.58600003 2
3.4630001 0.74000001 -0.60600001 2
3.3410001 0.71200001 -0.58099997 1
3.3510001 0.71100003 -0.579 1
3.404 0.71899998 -0.58499998 2
3.428 0.72100002 -0.58499998 2
3.4200001 0.71700001 -0.57999998 1
3.4649999 0.72299999 -0.58399999 2
3.447 0.71600002 -0.57700002 1
3.517 0.727 -0.58499998 2
3.5680001 0.73500001 -0.58999997 3
3.6259999 0.74299997 -0.59500003 2
3.6259999 0.74000001 -0.59100002 2
3.654 0.74199998 -0.59200001 2
3.6830001 0.74400002 -0.59299999 2
3.757 0.75599998 -0.60000002 2
3.763 0.75300002 -0.597 2
3.9119999 0.77899998 -0.616 3
3.8559999 0.764 -0.60299999 2
3.892 0.76700002 -0.60399997 2
3.908 0.76599997 -0.602 2
3.891 0.759 -0.59500003 2
3.9749999 0.77100003 -0.60399997 2
4.0359998 0.77899998 -0.60799998 3
4.027 0.773 -0.602 2
4.0549998 0.773 -0.602 2
4.152 0.78799999 -0.61199999 2
4.1880002 0.79000002 -0.61199999 2
4.204 0.78799999 -0.60900003 2
4.2740002 0.796 -0.61500001 3
4.2740002 0.792 -0.61000001 2
4.3829999 0.80699998 -0.62 3
4.3769999 0.80000001 -0.61400002 3
4.4089999 0.801 -0.61400002 3
4.454 0.80400002 -0.61500001 3
4.5089998 0.80900002 -0.61699998 3
4.5669999 0.81400001 -0.62 3
4.618 0.81699997 -0.62099999 3
4.678 0.82200003 -0.62400001 3
4.7340002 0.82599998 -0.62599999 3
4.7870002 0.82999998 -0.62699997 3
4.8569999 0.83600003 -0.63 3
4.908 0.83899999 -0.63099998 3
4.9780002 0.84399998 -0.634 3
5.0310001 0.847 -0.63499999 3
5.092 0.85000002 -0.63700002 3
5.1750002 0.85799998 -0.64099997 3
5.2249999 0.85900003 -0.64099997 5
5.303 0.86500001 -0.64499998 3
5.3839998 0.87099999 -0.648 3
5.4530001 0.875 -0.64999998 3
5.5310001 0.88 -0.65200001 3
5.6230001 0.88700002 -0.65700001 3
5.7010002 0.89200002 -0.65899998 3
5.7919998 0.898 -0.66299999 3
5.8779998 0.90399998 -0.66600001 4
5.9549999 0.90799999 -0.667 4
6.039 0.912 -0.67000002 4
6.1300001 0.917 -0.67199999 4
6.2160001 0.921 -0.67400002 4
6.302 0.92500001 -0.676 4
6.421 0.93300003 -0.68099999 3
6.533 0.94 -0.68599999 3
6.6370001 0.94599998 -0.68900001 3
6.8109999 0.95999998 -0.699 8
