# .PCD v0.7 - Point Cloud Data file format
VERSION 0.7
FIELDS x y z intensity
SIZE 4 4 4 4
TYPE F F F F
COUNT 1 1 1 1
WIDTH 1816
HEIGHT 1
VIEWPOINT 0 0 0 1 0 0 0
POINTS 1816
DATA ascii
114.214 25.007 23.459999 53
114.251 25.056 23.563999 50
114.238 25.091 23.66 48
114.26 25.131001 23.761 53
114.23 25.164 23.85 50
114.204 25.193001 23.941 50
114.212 25.226999 24.035999 44
114.266 25.273001 24.143 51
114.236 25.296 24.228001 56
114.173 25.312 24.306999 45
114.181 25.344 24.396999 53
114.199 25.375 24.490999 62
114.157 25.392 24.570999 63
114.176 25.423 24.665001 52
114.21 25.455 24.76 61
114.219 25.481001 24.844999 52
114.196 25.497 24.926001 64
114.202 25.518999 25.011 60
114.23 25.544001 25.101 61
114.213 25.559999 25.177 62
114.187 25.57 25.252001 61
114.194 25.584 25.336 53
114.21 25.604 25.416 46
114.208 25.615999 25.493 41
114.253 25.641001 25.579 35
114.259 25.653 25.657 34
114.304 25.673 25.742001 30
114.359 25.694 25.829 23
0 0 0 0
0 0 0 0
0 0 0 0
0 0 0 0
0 0 0 0
0 0 0 0
0 0 0 0
0 0 0 0
0 0 0 0
0 0 0 0
0 0 0 0
0 0 0 0
0 0 0 0
0 0 0 0
0 0 0 0
0 0 0 0
0 0 0 0
0 0 0 0
0 0 0 0
0 0 0 0
0 0 0 0
0 0 0 0
0 0 0 0
0 0 0 0
0 0 0 0
0 0 0 0
0 0 0 0
0 0 0 0
0 0 0 0
0 0 0 33
114.269 25.355 27.533001 57
114.258 25.323 27.568001 65
114.304 25.302999 27.615999 70
114.292 25.268999 27.648001 65
114.317 25.243999 27.686001 53
114.336 25.214001 27.723 54
114.335 25.179001 27.754 47
114.363 25.149 27.791 48
114.316 25.101999 27.809 45
114.345 25.072001 27.841999 44
114.374 25.039 27.875999 45
114.325 24.988001 27.889 47
114.323 24.945999 27.913 46
114.368 24.913 27.947001 49
114.348 24.867001 27.961 47
114.426 24.839001 28.000999 46
114.38 24.783001 28.009001 47
114.418 24.743999 28.035999 49
114.415 24.695 28.052 54
114.439 24.650999 28.073 44
114.364 24.587999 28.066999 52
114.396 24.542999 28.087999 47
114.406 24.493 28.101999 46
114.494 24.458 28.134001 49
114.407 24.385 28.122 54
114.431 24.334999 28.136 46
114.491 24.292999 28.155001 50
114.497 24.236 28.162001 56
114.461 24.171 28.158001 49
114.475 24.115999 28.160999 53
114.494 24.056999 28.17 50
114.473 23.990999 28.165001 58
114.476 23.931 28.163 58
114.476 23.867001 28.160999 49
114.532 23.813999 28.171 52
114.571 23.759001 28.173 49
114.587 23.695 28.171 50
114.57 23.622999 28.159 47
114.551 23.551001 28.146999 50
114.573 23.486 28.142 50
114.611 23.424999 28.138 47
114.598 23.351 28.122 55
114.641 23.287001 28.118 43
114.614 23.207001 28.097 58
114.57 23.124001 28.069 54
114.661 23.066 28.073999 52
114.634 22.983999 28.048 49
114.697 22.922001 28.042 48
114.616 22.827 28 50
114.738 22.774 28.004 47
114.66 22.677999 27.961 53
114.689 22.603001 27.941999 71
114.859 22.554001 27.957001 35
114.951 22.489 27.951 24
114.999 22.414 27.933001 25
0 0 0 0
0 0 0 0
0 0 0 0
0 0 0 0
0 0 0 0
0 0 0 0
0 0 0 0
0 0 0 0
0 0 0 0
0 0 0 0
0 0 0 0
0 0 0 0
0 0 0 0
0 0 0 25
0 0 0 0
0 0 0 0
0 0 0 0
0 0 0 0
0 0 0 0
0 0 0 0
0 0 0 0
0 0 0 0
0 0 0 0
0 0 0 26
115.192 20.084 26.812 28
115.342 20.004999 26.784 28
115.395 19.908001 26.731001 28
115.495 19.822001 26.688 24
115.254 19.673 26.565001 30
115.435 19.594999 26.538 25
115.425 19.488001 26.465 25
0 0 0 0
0 0 0 0
0 0 0 24
0 0 0 0
0 0 0 0
0 0 0 0
0 0 0 0
0 0 0 25
115.401 18.475 25.77 26
0 0 0 0
0 0 0 0
0 0 0 26
115.202 17.979 25.388 31
115.326 17.879999 25.327999 46
115.25 17.75 25.222 51
115.293 17.642 25.142 57
115.319 17.527 25.056 67
115.349 17.415001 24.969999 76
115.326 17.291 24.871 70
115.343 17.169001 24.780001 65
115.323 17.049 24.679001 64
115.38 16.936001 24.59 67
115.398 16.816999 24.495001 62
115.452 16.702 24.407 64
115.423 16.573999 24.299 53
115.498 16.461 24.212 38
115.512 16.339001 24.111 54
115.548 16.219 24.014 47
115.721 16.118 23.943001 31
115.743 15.995 23.84 29
115.697 15.866 23.722 28
115.682 15.738 23.608999 30
115.759 15.621 23.513 30
115.72 15.492 23.393 25
115.679 15.359 23.271 27
115.719 15.236 23.164 22
115.759 15.113 23.056 26
115.749 14.986 22.937 25
115.753 14.857 22.823 26
115.867 14.745 22.726 24
115.769 14.603 22.586 34
115.826 14.483 22.476 31
115.89 14.361 22.364 25
115.818 14.221 22.226 26
115.779 14.085 22.093 24
115.944 13.974 21.997999 23
115.93 13.841 21.867001 22
115.834 13.701 21.719999 27
115.815 13.567 21.587 25
115.88 13.442 21.466999 30
115.809 13.301 21.322001 34
115.789 13.169 21.184999 53
115.826 13.041 21.056999 52
115.832 12.908 20.922001 72
115.839 12.776 20.785999 71
115.871 12.646 20.653999 63
115.869 12.515 20.514999 63
115.912 12.386 20.382 64
115.916 12.252 20.240999 52
116.008 12.125 20.108999 40
116.025 11.992 19.968 39
116.116 11.87 19.84 32
116.117 11.736 19.694 29
116.124 11.602 19.547001 29
116.335 11.488 19.434 32
116.38 11.357 19.292 37
0 0 0 0
0 0 0 0
0 0 0 0
0 0 0 0
0 0 0 29
118.76 10.763 18.746 33
118.793 10.631 18.591999 38
0 0 0 0
0 0 0 33
118.858 10.221 18.113001 30
118.787 10.077 17.937 33
118.905 9.948 17.789 29
118.734 9.7959995 17.593 30
118.921 9.6730003 17.452 35
118.809 9.5290003 17.268 38
118.787 9.3889999 17.098 47
118.784 9.2510004 16.927 54
118.782 9.1129999 16.754 74
118.802 8.9770002 16.584 72
118.802 8.8389997 16.406 73
118.814 8.7030001 16.232 78
118.846 8.5679998 16.061001 62
118.891 8.434 15.889 53
119.036 8.3070002 15.73 36
119.223 8.1820002 15.575 33
119.201 8.0439997 15.391 34
0 0 0 0
0 0 0 0
0 0 0 0
0 0 0 0
0 0 0 0
0 0 0 0
0 0 0 0
0 0 0 0
0 0 0 22
119.31 6.6960001 13.544 26
0 0 0 0
0 0 0 33
119.105 6.2810001 12.945 43
119.06 6.1459999 12.746 62
119.099 6.0139999 12.556 72
119.077 5.8800001 12.358 75
119.088 5.7509999 12.165 81
119.077 5.618 11.967 78
119.097 5.487 11.771 79
119.13 5.3569999 11.576 75
119.22 5.2290001 11.385 55
0 0 0 0
0 0 0 41
0 0 0 54
73.155998 2.8900001 6.4920001 70
71.820999 2.7590001 6.25 56
70.521004 2.635 6.0170002 60
69.352997 2.516 5.7979999 55
68.575996 2.414 5.6149998 42
67.671997 2.3080001 5.4200001 67
66.388 2.1949999 5.2030001 65
65.101997 2.0829999 4.9879999 69
64.464996 1.994 4.8260002 46
63.673 1.901 4.6529999 55
62.360001 1.798 4.448 70
61.710999 1.714 4.2919998 46
60.980999 1.63 4.1329999 65
59.799999 1.538 3.947 60
59.601002 1.471 3.8269999 74
58.296001 1.3789999 3.6389999 57
57.879002 1.309 3.5079999 52
56.945 1.2309999 3.3499999 70
56.41 1.1619999 3.2160001 50
55.568001 1.0880001 3.0669999 77
55.078999 1.024 2.941 46
54.243999 0.954 2.7969999 39
0 0 0 0
0 0 0 20
49.823002 0.72799999 2.2939999 52
49.825001 0.67900002 2.201 44
49.845001 0.63099998 2.1110001 17
0 0 0 0
0 0 0 0
0 0 0 0
0 0 0 0
0 0 0 17
42.369999 0.29300001 1.3200001 40
42.375 0.25299999 1.24 42
42.368999 0.214 1.161 44
42.355 0.17399999 1.08 29
42.353001 0.13600001 1 15
0 0 0 0
0 0 0 45
46.264 0.022 0.82800001 46
46.285 -0.018999999 0.74000001 15
45.981998 -0.059999999 0.648 16
45.834999 -0.1 0.55800003 33
45.801998 -0.141 0.46799999 88
45.775002 -0.182 0.37900001 34
45.714001 -0.221 0.28999999 102
45.688 -0.26100001 0.20100001 57
45.686001 -0.30000001 0.114 36
0 0 0 10
41.881001 -0.347 -0.057999998 27
41.720001 -0.38100001 -0.14 41
41.637001 -0.414 -0.22 51
41.382999 -0.44600001 -0.30000001 43
41.196999 -0.479 -0.37900001 37
0 0 0 3
0 0 0 34
41.103001 -0.57700002 -0.61900002 35
41.276001 -0.61299998 -0.70499998 18
41.439999 -0.64899999 -0.79000002 76
38.966999 -0.64099997 -0.81999999 11
0 0 0 1
25.322001 -0.45500001 -0.63200003 40
25.231001 -0.47299999 -0.67900002 150
25.233999 -0.49200001 -0.73000002 156
25.202 -0.51099998 -0.77899998 195
25.204 -0.52999997 -0.829 167
25.211 -0.54799998 -0.87900001 161
25.195999 -0.56699997 -0.92799997 164
25.198999 -0.58499998 -0.98000002 161
25.209999 -0.60399997 -1.03 154
25.181 -0.62099999 -1.08 80
25.188 -0.63999999 -1.131 15
25.103001 -0.65499997 -1.177 4
24.888 -0.667 -1.217 3
0 0 0 1
20.239 -0.56999999 -1.071 1
0 0 0 1
0 0 0 0
0 0 0 3
15.396 -0.47499999 -0.93800002 2
14.611 -0.46000001 -0.92000002 3
13.882 -0.44600001 -0.90200001 3
13.196 -0.43200001 -0.884 3
12.567 -0.419 -0.866 3
12.022 -0.40900001 -0.85299999 2
11.526 -0.39899999 -0.84100002 3
11.064 -0.38999999 -0.82999998 2
10.607 -0.38 -0.81699997 3
10.189 -0.37099999 -0.80599999 2
9.8190002 -0.36300001 -0.796 2
9.467 -0.35600001 -0.787 3
9.1429996 -0.34900001 -0.778 3
8.8559999 -0.34299999 -0.77100003 3
8.5380001 -0.33500001 -0.76099998 3
8.2720003 -0.33000001 -0.75400001 3
7.9949999 -0.32300001 -0.745 3
7.7519999 -0.317 -0.73699999 4
7.527 -0.31200001 -0.73100001 3
7.2859998 -0.30599999 -0.722 4
7.052 -0.30000001 -0.713 5
6.8839998 -0.296 -0.70999998 4
6.6869998 -0.29100001 -0.70300001 4
6.5240002 -0.287 -0.699 3
6.3499999 -0.28200001 -0.69300002 3
6.1680002 -0.27700001 -0.685 3
6.0279999 -0.27399999 -0.68199998 3
5.855 -0.26899999 -0.67400002 3
5.7119999 -0.26499999 -0.66900003 3
5.5710001 -0.26100001 -0.66299999 3
5.4549999 -0.25799999 -0.66000003 3
5.342 -0.255 -0.65700001 3
5.198 -0.25 -0.64999998 4
5.0879998 -0.24699999 -0.64600003 5
4.9660001 -0.243 -0.64099997 5
4.8790002 -0.241 -0.639 5
4.7789998 -0.23800001 -0.63499999 4
4.7119999 -0.237 -0.63599998 3
4.6339998 -0.234 -0.634 2
4.5510001 -0.23199999 -0.63200003 3
4.4679999 -0.229 -0.62900001 3
4.3829999 -0.227 -0.62599999 2
4.2750001 -0.223 -0.61900002 2
4.1869998 -0.22 -0.61400002 1
4.1599998 -0.22 -0.61799997 2
4.1079998 -0.21799999 -0.61900002 2
4.0830002 -0.21799999 -0.62300003 3
3.934 -0.212 -0.60799998 2
3.891 -0.211 -0.60900003 2
3.8329999 -0.20900001 -0.60699999 2
3.7939999 -0.208 -0.60799998 3
3.747 -0.206 -0.60799998 2
3.6600001 -0.20299999 -0.60100001 1
3.619 -0.20100001 -0.60100001 3
3.553 -0.199 -0.597 1
3.487 -0.19599999 -0.59200001 1
3.427 -0.19400001 -0.58899999 1
3.4519999 -0.19599999 -0.59899998 1
3.402 -0.19400001 -0.597 1
3.3429999 -0.191 -0.59299999 1
3.313 -0.19 -0.59399998 1
3.2820001 -0.189 -0.59500003 1
3.1760001 -0.184 -0.58200002 2
3.148 -0.183 -0.58200002 3
3.119 -0.182 -0.583 3
3.0869999 -0.18099999 -0.58200002 2
3.0480001 -0.17900001 -0.58099997 1
3.0680001 -0.18099999 -0.58999997 1
3.0580001 -0.18099999 -0.59399998 1
3.0050001 -0.178 -0.58899999 1
3.006 -0.17900001 -0.59500003 1
2.911 -0.17399999 -0.58099997 1
2.8770001 -0.17200001 -0.57999998 1
2.806 -0.169 -0.57099998 1
2.793 -0.168 -0.57300001 2
2.7639999 -0.167 -0.57200003 2
2.7349999 -0.16500001 -0.57099998 2
2.698 -0.164 -0.56800002 1
2.677 -0.163 -0.56800002 1
2.6429999 -0.161 -0.56599998 1
2.612 -0.15899999 -0.56400001 1
2.5969999 -0.15899999 -0.565 1
2.5739999 -0.15800001 -0.565 1
2.5539999 -0.15700001 -0.565 1
2.5150001 -0.154 -0.56 1
2.4990001 -0.154 -0.56099999 1
2.4820001 -0.153 -0.56199998 1
2.454 -0.15099999 -0.56 1
2.4300001 -0.15000001 -0.55800003 1
2.415 -0.149 -0.55900002 1
2.395 -0.148 -0.55800003 1
2.3740001 -0.147 -0.55800003 1
2.3529999 -0.146 -0.55599999 1
2.326 -0.14399999 -0.55400002 1
2.3069999 -0.14300001 -0.55299997 1
2.2939999 -0.142 -0.55400002 1
2.2750001 -0.141 -0.55299997 1
2.2590001 -0.14 -0.55299997 1
2.247 -0.139 -0.55400002 1
2.221 -0.138 -0.551 1
2.207 -0.13699999 -0.551 1
2.1960001 -0.13600001 -0.55199999 1
2.181 -0.13500001 -0.551 1
2.1619999 -0.134 -0.55000001 1
2.1500001 -0.133 -0.55000001 1
2.1300001 -0.132 -0.54900002 1
2.112 -0.131 -0.54699999 1
2.1040001 -0.13 -0.54900002 1
2.092 -0.12899999 -0.54900002 1
2.0710001 -0.12800001 -0.546 1
2.0639999 -0.12800001 -0.54799998 1
2.046 -0.126 -0.546 1
2.029 -0.125 -0.54400003 1
2.023 -0.125 -0.546 1
2.013 -0.124 -0.546 1
2 -0.123 -0.54500002 1
1.98 -0.122 -0.54299998 1
1.97 -0.121 -0.54299998 1
1.966 -0.12 -0.54500002 1
1.9529999 -0.119 -0.54400003 1
1.946 -0.119 -0.54500002 1
1.9299999 -0.118 -0.54299998 1
1.9220001 -0.117 -0.54299998 1
1.906 -0.116 -0.542 1
1.896 -0.115 -0.542 1
1.883 -0.114 -0.54000002 1
1.873 -0.113 -0.54000002 1
1.87 -0.113 -0.542 1
1.854 -0.111 -0.54000002 1
1.848 -0.111 -0.54000002 1
1.8430001 -0.11 -0.54100001 1
1.836 -0.109 -0.542 1
1.816 -0.108 -0.53799999 1
1.811 -0.107 -0.53899997 1
1.807 -0.107 -0.54000002 1
1.795 -0.106 -0.53899997 1
1.791 -0.105 -0.54000002 1
1.7819999 -0.104 -0.53899997 1
1.767 -0.103 -0.537 1
1.761 -0.103 -0.537 1
1.751 -0.102 -0.53600001 1
1.749 -0.101 -0.53799999 1
1.74 -0.1 -0.537 1
1.739 -0.1 -0.53899997 1
1.721 -0.098999999 -0.53500003 1
1.717 -0.097999997 -0.53600001 1
1.7130001 -0.097000003 -0.53600001 1
1.7029999 -0.096000001 -0.53500003 1
1.696 -0.096000001 -0.53500003 1
1.692 -0.094999999 -0.53600001 1
1.688 -0.093999997 -0.53600001 1
1.682 -0.093999997 -0.53600001 1
1.674 -0.093000002 -0.53600001 1
1.668 -0.092 -0.53500003 1
1.666 -0.092 -0.53600001 1
1.646 -0.090000004 -0.53200001 1
1.642 -0.089000002 -0.53200001 1
1.637 -0.089000002 -0.53200001 1
1.633 -0.088 -0.53200001 1
1.6210001 -0.086999997 -0.52999997 1
1.617 -0.086000003 -0.52999997 1
1.6059999 -0.085000001 -0.528 1
1.604 -0.085000001 -0.52899998 1
1.604 -0.083999999 -0.52999997 1
1.597 -0.083999999 -0.52999997 1
1.595 -0.082999997 -0.52999997 1
1.591 -0.082000002 -0.53100002 1
1.582 -0.082000002 -0.52899998 1
1.589 -0.081 -0.53200001 1
1.581 -0.081 -0.53100002 1
1.571 -0.079999998 -0.52899998 1
1.5599999 -0.079000004 -0.52700001 1
1.564 -0.078000002 -0.52899998 1
1.561 -0.078000002 -0.52999997 1
1.556 -0.077 -0.52899998 1
1.552 -0.075999998 -0.52899998 1
1.549 -0.075999998 -0.52899998 1
1.546 -0.075000003 -0.52899998 1
1.534 -0.074000001 -0.52600002 1
1.541 -0.074000001 -0.52999997 1
1.538 -0.072999999 -0.52999997 1
1.533 -0.071999997 -0.52899998 1
1.531 -0.071999997 -0.52899998 1
1.528 -0.071000002 -0.52899998 1
1.53 -0.071000002 -0.53100002 1
1.521 -0.07 -0.52899998 1
1.52 -0.068999998 -0.52899998 1
1.517 -0.068999998 -0.52899998 1
1.501 -0.067000002 -0.52399999 1
1.513 -0.067000002 -0.52999997 1
1.503 -0.067000002 -0.52700001 1
1.503 -0.066 -0.528 1
1.503 -0.064999998 -0.528 1
1.501 -0.064999998 -0.528 1
1.502 -0.064000003 -0.52999997 1
1.495 -0.064000003 -0.528 1
1.492 -0.063000001 -0.52700001 1
1.485 -0.061999999 -0.52600002 1
1.484 -0.061000001 -0.52600002 1
1.483 -0.061000001 -0.52600002 1
1.483 -0.059999999 -0.52700001 1
1.483 -0.059999999 -0.528 1
1.4809999 -0.059 -0.52700001 1
1.482 -0.059 -0.528 1
1.477 -0.057999998 -0.52700001 1
1.479 -0.057 -0.528 1
1.479 -0.057 -0.52899998 1
1.476 -0.056000002 -0.528 1
1.477 -0.056000002 -0.52899998 1
1.478 -0.055 -0.52999997 1
1.467 -0.054000001 -0.52600002 1
1.466 -0.054000001 -0.52600002 1
1.455 -0.052999999 -0.523 1
1.466 -0.052000001 -0.52700001 1
1.455 -0.052000001 -0.523 1
1.477 -0.052000001 -0.53100002 1
1.476 -0.050999999 -0.53100002 1
1.473 -0.050000001 -0.52999997 1
1.455 -0.048999999 -0.52399999 1
1.462 -0.048999999 -0.52700001 1
1.465 -0.048999999 -0.528 1
1.466 -0.048 -0.52899998 1
1.457 -0.046999998 -0.52499998 1
1.467 -0.046999998 -0.52899998 1
1.466 -0.046 -0.52899998 1
1.4579999 -0.045000002 -0.52600002 1
1.452 -0.045000002 -0.52399999 1
1.449 -0.044 -0.523 1
1.455 -0.044 -0.52499998 1
1.4579999 -0.043000001 -0.52600002 1
1.461 -0.043000001 -0.52700001 1
1.4579999 -0.041999999 -0.52600002 1
1.4579999 -0.041000001 -0.52600002 1
1.455 -0.041000001 -0.52499998 1
1.4579999 -0.039999999 -0.52600002 1
1.454 -0.039000001 -0.52399999 1
1.46 -0.039000001 -0.52600002 1
1.4680001 -0.039000001 -0.528 1
1.466 -0.037999999 -0.528 1
1.456 -0.037 -0.52399999 1
1.467 -0.037 -0.52700001 1
1.474 -0.035999998 -0.52999997 1
1.466 -0.035999998 -0.52700001 1
1.467 -0.035 -0.52700001 1
1.467 -0.035 -0.52600002 1
1.4680001 -0.034000002 -0.52600002 1
1.477 -0.034000002 -0.52899998 1
1.476 -0.033 -0.528 1
1.467 -0.032000002 -0.52499998 1
1.469 -0.032000002 -0.52499998 1
1.472 -0.030999999 -0.52499998 1
1.48 -0.030999999 -0.528 1
1.482 -0.029999999 -0.528 1
1.475 -0.028999999 -0.52499998 1
1.482 -0.028999999 -0.52700001 1
1.482 -0.028000001 -0.52600002 1
1.484 -0.028000001 -0.52600002 1
1.489 -0.027000001 -0.528 1
1.492 -0.027000001 -0.528 1
1.499 -0.026000001 -0.52999997 1
1.495 -0.025 -0.52700001 1
1.503 -0.025 -0.52899998 1
1.501 -0.024 -0.528 1
1.494 -0.024 -0.52499998 1
1.493 -0.023 -0.52399999 1
1.5140001 -0.023 -0.52999997 1
1.517 -0.022 -0.52999997 1
1.511 -0.021 -0.52700001 1
1.518 -0.021 -0.52899998 1
1.52 -0.02 -0.52899998 1
1.522 -0.02 -0.52899998 1
1.523 -0.018999999 -0.528 1
1.526 -0.018999999 -0.528 1
1.5319999 -0.017999999 -0.52899998 1
1.533 -0.017999999 -0.528 1
1.536 -0.017000001 -0.528 1
1.54 -0.016000001 -0.52899998 1
1.54 -0.016000001 -0.528 1
1.5470001 -0.015 -0.52899998 1
1.5549999 -0.015 -0.52999997 1
1.552 -0.014 -0.528 1
1.557 -0.013 -0.52899998 1
1.561 -0.013 -0.52899998 1
1.566 -0.012 -0.52899998 1
1.575 -0.012 -0.53100002 1
1.5779999 -0.011 -0.52999997 1
1.573 -0.011 -0.528 1
1.585 -0.0099999998 -0.52999997 1
1.585 -0.0099999998 -0.52899998 1
1.592 -0.0089999996 -0.52999997 1
1.595 -0.0080000004 -0.52899998 1
1.596 -0.0080000004 -0.528 1
1.605 -0.0070000002 -0.52999997 1
1.608 -0.0070000002 -0.52899998 1
1.617 -0.0060000001 -0.53100002 1
1.615 -0.0060000001 -0.528 1
1.627 -0.0049999999 -0.53100002 1
1.6339999 -0.0040000002 -0.53200001 1
1.636 -0.0040000002 -0.52999997 1
1.648 -0.003 -0.53299999 1
1.653 -0.003 -0.53299999 1
1.656 -0.0020000001 -0.53200001 1
1.6619999 -0.0020000001 -0.53200001 1
1.668 -0.001 -0.53200001 1
1.684 -0.001 -0.53600001 1
1.693 0 -0.537 1
1.699 0 -0.53600001 1
1.704 0 -0.53600001 1
1.711 0.001 -0.537 1
1.717 0.001 -0.53600001 1
1.725 0.0020000001 -0.537 1
1.721 0.0020000001 -0.53399998 1
1.729 0.003 -0.53399998 1
1.733 0.0040000002 -0.53299999 1
1.742 0.0040000002 -0.53399998 1
1.76 0.0049999999 -0.537 1
1.772 0.0049999999 -0.53899997 1
1.778 0.0060000001 -0.53799999 1
1.786 0.0070000002 -0.53899997 1
1.79 0.0070000002 -0.53799999 1
1.803 0.0080000004 -0.53899997 1
1.808 0.0080000004 -0.53799999 1
1.819 0.0089999996 -0.53899997 1
1.8329999 0.0089999996 -0.54100001 1
1.842 0.0099999998 -0.542 1
1.848 0.011 -0.54100001 1
1.853 0.011 -0.54000002 1
1.867 0.012 -0.54100001 1
1.878 0.012 -0.542 1
1.8890001 0.013 -0.542 1
1.899 0.013 -0.54299998 1
1.901 0.014 -0.54100001 1
1.9220001 0.015 -0.54400003 1
1.932 0.015 -0.54400003 1
1.942 0.016000001 -0.54400003 1
1.949 0.016000001 -0.54299998 1
1.959 0.017000001 -0.54299998 1
1.976 0.017000001 -0.54500002 1
1.993 0.017999999 -0.54699999 1
1.9910001 0.018999999 -0.54299998 1
2.0090001 0.018999999 -0.54500002 1
2.02 0.02 -0.54500002 1
2.026 0.02 -0.54400003 1
2.0439999 0.021 -0.54500002 1
2.0599999 0.021 -0.54699999 1
2.079 0.022 -0.54799998 1
2.0869999 0.023 -0.54699999 1
2.102 0.023 -0.54799998 1
2.112 0.024 -0.54699999 1
2.1289999 0.024 -0.54799998 1
2.1500001 0.025 -0.55000001 1
2.168 0.026000001 -0.551 1
2.1760001 0.026000001 -0.55000001 1
2.1960001 0.027000001 -0.55199999 1
2.211 0.027000001 -0.55199999 1
2.233 0.028000001 -0.55299997 1
2.2409999 0.028000001 -0.55199999 1
2.256 0.028999999 -0.55199999 1
2.267 0.028999999 -0.551 1
2.293 0.029999999 -0.55299997 1
2.316 0.030999999 -0.55500001 1
2.3269999 0.030999999 -0.55400002 1
2.3570001 0.032000002 -0.55699998 1
2.3659999 0.032000002 -0.55500001 1
2.3900001 0.033 -0.55599999 1
2.4089999 0.033 -0.55699998 1
2.4349999 0.034000002 -0.55800003 1
2.4519999 0.035 -0.55800003 1
2.4749999 0.035 -0.55900002 1
2.5020001 0.035999998 -0.56099999 1
2.5280001 0.035999998 -0.56199998 1
2.55 0.037 -0.56199998 1
2.575 0.037 -0.56400001 1
2.602 0.037999999 -0.565 1
2.6229999 0.039000001 -0.565 2
2.6559999 0.039000001 -0.56699997 2
2.6800001 0.039999999 -0.56699997 2
2.7030001 0.039999999 -0.56699997 2
2.734 0.041000001 -0.56900001 2
2.7579999 0.041000001 -0.56900001 2
2.7850001 0.041999999 -0.56900001 2
2.822 0.041999999 -0.57200003 2
2.8529999 0.043000001 -0.57300001 2
2.8800001 0.043000001 -0.57300001 2
3.0369999 0.046 -0.59799999 2
3.0339999 0.046 -0.59200001 2
3.1129999 0.046999998 -0.602 2
3.069 0.046 -0.588 2
3.1919999 0.048 -0.60500002 2
3.1400001 0.046999998 -0.58899999 1
3.2349999 0.048999999 -0.60100001 2
3.256 0.048999999 -0.59899998 1
3.3080001 0.048999999 -0.602 2
3.289 0.048999999 -0.59200001 2
3.3789999 0.050000001 -0.602 2
3.461 0.050999999 -0.61000001 2
3.5239999 0.052000001 -0.61400002 2
3.4690001 0.050999999 -0.59799999 2
3.552 0.052000001 -0.60500002 2
3.5480001 0.050999999 -0.59799999 2
3.641 0.052000001 -0.60600001 2
3.711 0.052999999 -0.611 2
3.72 0.052999999 -0.60500002 2
3.793 0.054000001 -0.60900003 2
3.8139999 0.052999999 -0.60500002 4
3.895 0.054000001 -0.61000001 6
3.9549999 0.054000001 -0.61199999 9
3.9979999 0.054000001 -0.61000001 11
4.059 0.055 -0.61199999 10
4.119 0.055 -0.61299998 8
4.164 0.055 -0.611 5
4.2750001 0.056000002 -0.61900002 3
4.3340001 0.056000002 -0.61900002 2
4.4299998 0.056000002 -0.62400001 3
4.5159998 0.056000002 -0.62699997 3
4.6040001 0.057 -0.63 3
4.6760001 0.057 -0.63 4
4.7579999 0.057 -0.63200003 5
4.8660002 0.057 -0.63599998 5
4.9809999 0.057 -0.64099997 5
5.0869999 0.057 -0.64499998 4
5.2059999 0.057999998 -0.64899999 4
5.3470001 0.057999998 -0.65600002 4
5.4710002 0.057999998 -0.66000003 4
5.5970001 0.057999998 -0.66399997 4
5.7620001 0.057999998 -0.671 4
5.9239998 0.057999998 -0.67799997 4
6.0760002 0.057999998 -0.68300003 4
6.2129998 0.057999998 -0.68599999 4
6.3979998 0.057999998 -0.69300002 4
6.5890002 0.057 -0.69999999 3
6.7779999 0.057 -0.70700002 5
6.9369998 0.056000002 -0.70899999 5
7.1750002 0.056000002 -0.71899998 5
7.4310002 0.056000002 -0.72899997 4
7.6539998 0.055 -0.73500001 4
7.8990002 0.054000001 -0.74199998 4
8.1750002 0.052999999 -0.75099999 4
8.4680004 0.052000001 -0.76099998 4
8.7840004 0.050999999 -0.77100003 5
9.0670004 0.048999999 -0.77700001 5
9.3610001 0.046999998 -0.78200001 5
9.7349997 0.046 -0.79400003 3
10.129 0.044 -0.80500001 3
10.559 0.041000001 -0.81699997 3
11.026 0.039000001 -0.82999998 3
11.505 0.035999998 -0.84200001 3
11.981 0.032000002 -0.852 2
12.589 0.028999999 -0.87 3
13.246 0.025 -0.88700002 3
13.929 0.02 -0.90399998 3
14.698 0.015 -0.92400002 3
15.545 0.0080000004 -0.94499999 2
15.605 0.001 -0.91600001 2
0 0 0 3
0 0 0 6
19.041 -0.024 -0.99900001 1
0 0 0 5
0 0 0 3
0 0 0 0
0 0 0 3
29.785999 -0.112 -1.253 30
29.83 -0.127 -1.193 85
29.864 -0.14300001 -1.133 79
29.910999 -0.15899999 -1.072 11
0 0 0 6
0 0 0 1
0 0 0 0
0 0 0 16
37.648998 -0.30500001 -0.958 17
37.696999 -0.32699999 -0.88099998 6
37.84 -0.34999999 -0.80699998 5
37.890999 -0.37200001 -0.73000002 8
0 0 0 34
40.956001 -0.45199999 -0.62 35
0 0 0 3
38.029999 -0.46599999 -0.419 2
0 0 0 60
41.669998 -0.56199998 -0.289 59
41.625 -0.588 -0.20299999 57
41.551998 -0.61400002 -0.118 60
41.437 -0.63800001 -0.034000002 68
41.424 -0.66500002 0.050000001 91
41.431 -0.69199997 0.132 96
41.408001 -0.72000003 0.21799999 107
41.400002 -0.74699998 0.30199999 113
41.377998 -0.77499998 0.38600001 108
41.382999 -0.80400002 0.47 88
41.405998 -0.833 0.55500001 85
39.234001 -0.81599998 0.60399997 3
39.216999 -0.84299999 0.68300003 7
39.308998 -0.87300003 0.764 14
39.035999 -0.89499998 0.83700001 43
39.009998 -0.92299998 0.91500002 62
39.007999 -0.95099998 0.99400002 17
38.821999 -0.97500002 1.067 6
38.573002 -0.99800003 1.137 7
38.299 -1.0190001 1.205 6
38.126999 -1.044 1.276 7
37.936001 -1.067 1.345 6
37.664001 -1.0880001 1.409 7
37.457001 -1.1109999 1.476 44
37.457001 -1.14 1.55 92
37.424 -1.168 1.622 67
37.264 -1.193 1.689 27
36.828999 -1.209 1.742 12
0 0 0 5
33.745998 -1.161 1.728 10
33.73 -1.188 1.793 12
33.748001 -1.216 1.859 13
33.747002 -1.244 1.925 14
33.723 -1.27 1.987 12
33.609001 -1.294 2.0450001 27
33.618 -1.322 2.109 49
33.605 -1.35 2.1730001 51
33.588001 -1.378 2.2379999 60
33.588001 -1.4069999 2.3010001 62
33.561001 -1.434 2.3640001 89
33.598999 -1.465 2.4300001 91
33.595001 -1.494 2.493 93
33.589001 -1.523 2.556 106
33.592999 -1.553 2.6199999 103
33.612999 -1.584 2.6849999 67
33.613998 -1.613 2.747 93
33.626999 -1.6440001 2.8110001 82
33.639999 -1.675 2.875 99
33.620998 -1.704 2.9360001 103
33.639 -1.7359999 3 114
33.625999 -1.766 3.0610001 111
33.672001 -1.799 3.1270001 65
33.675999 -1.83 3.1889999 69
33.687 -1.862 3.2509999 61
33.694 -1.8940001 3.313 63
33.702999 -1.926 3.375 62
33.710999 -1.9579999 3.437 61
33.713001 -1.99 3.497 62
33.735001 -2.0220001 3.559 64
33.727001 -2.0539999 3.618 61
33.728001 -2.085 3.678 62
33.730999 -2.1170001 3.7379999 59
33.737999 -2.1500001 3.7980001 58
33.741001 -2.1819999 3.8570001 58
33.758999 -2.2160001 3.918 57
33.758999 -2.2490001 3.977 59
33.764999 -2.2820001 4.0359998 40
33.819 -2.3180001 4.0999999 5
33.984001 -2.362 4.178 3
33.974998 -2.395 4.2350001 2
33.935001 -2.4260001 4.2880001 2
34.034 -2.467 4.3579998 2
33.962002 -2.4949999 4.4060001 2
0 0 0 0
0 0 0 2
0 0 0 3
0 0 0 0
0 0 0 2
0 0 0 0
0 0 0 2
38.463001 -3.132 5.4959998 2
0 0 0 0
0 0 0 2
0 0 0 0
0 0 0 0
0 0 0 0
0 0 0 0
0 0 0 0
0 0 0 0
0 0 0 0
0 0 0 0
0 0 0 0
0 0 0 0
0 0 0 2
0 0 0 10
26.097 -2.5239999 4.3369999 19
26.063999 -2.5480001 4.3699999 24
26.023001 -2.5710001 4.402 29
25.999001 -2.595 4.4359999 32
25.969999 -2.619 4.4689999 33
25.945999 -2.6440001 4.5040002 37
25.903 -2.6670001 4.533 39
25.886 -2.6919999 4.5669999 44
25.872999 -2.717 4.6009998 46
25.854 -2.7420001 4.6339998 46
25.85 -2.7679999 4.6700001 48
25.83 -2.7920001 4.7020001 51
25.827999 -2.819 4.737 52
25.823 -2.845 4.7719998 52
25.799 -2.8699999 4.803 52
25.805 -2.8970001 4.8390002 54
25.799999 -2.9230001 4.8730001 57
25.773001 -2.947 4.902 57
25.799999 -2.977 4.941 58
25.799 -3.003 4.9749999 56
25.809 -3.0320001 5.0110002 48
25.811001 -3.059 5.0450001 39
25.813 -3.085 5.0780001 39
25.809 -3.1110001 5.1100001 45
25.82 -3.1389999 5.1459999 45
25.837999 -3.168 5.1810002 45
25.865999 -3.198 5.2199998 39
25.864 -3.2249999 5.2509999 36
25.896999 -3.256 5.29 29
25.912001 -3.2839999 5.3249998 33
25.927 -3.313 5.3590002 31
25.959999 -3.3440001 5.3969998 28
26.006001 -3.3759999 5.4369998 25
26.032 -3.4059999 5.473 21
26.121 -3.444 5.5219998 16
26.195 -3.4809999 5.5679998 3
0 0 0 30
30.893 -4.1680002 6.6370001 25
30.774 -4.1830001 6.6459999 27
30.629999 -4.1939998 6.6490002 26
30.496 -4.2069998 6.6529999 27
30.368 -4.2189999 6.658 26
30.233 -4.2309999 6.6599998 25
30.091999 -4.2420001 6.6620002 28
29.966 -4.2529998 6.6659999 25
29.854 -4.2670002 6.6719999 28
29.739 -4.2800002 6.678 26
29.603001 -4.29 6.677 27
29.487 -4.302 6.6810002 25
29.371 -4.3140001 6.6830001 27
29.264 -4.3270001 6.6890001 31
29.183001 -4.3429999 6.6989999 30
29.056999 -4.3530002 6.698 27
28.958 -4.3670001 6.7030001 27
28.863001 -4.3800001 6.7080002 24
28.732 -4.388 6.7049999 25
28.632999 -4.401 6.7069998 25
28.542999 -4.4130001 6.7119999 26
28.455 -4.427 6.717 26
28.356001 -4.4390001 6.7189999 30
28.271 -4.4520001 6.724 30
28.159 -4.461 6.7220001 30
28.073 -4.474 6.7249999 28
27.983 -4.4850001 6.7270002 25
27.91 -4.4990001 6.7329998 27
27.819 -4.5100002 6.7340002 28
27.724001 -4.5209999 6.7329998 29
27.665001 -4.5370002 6.7410002 25
27.566 -4.546 6.7379999 28
27.492001 -4.5580001 6.7410002 25
27.395 -4.5669999 6.7389998 29
27.323999 -4.5799999 6.7420001 30
27.264 -4.5939999 6.7470002 26
27.166 -4.6020002 6.743 30
27.104 -4.6149998 6.7470002 29
27.045 -4.6290002 6.7519999 30
26.986 -4.6420002 6.756 22
26.902 -4.652 6.7519999 24
26.830999 -4.6630001 6.7529998 28
26.764 -4.6739998 6.7529998 31
26.707001 -4.6869998 6.756 28
26.638 -4.698 6.756 26
26.584999 -4.71 6.7589998 31
26.518 -4.7210002 6.7579999 30
26.450001 -4.7309999 6.757 28
26.410999 -4.7459998 6.7620001 29
26.358 -4.7579999 6.7639999 29
26.285 -4.7659998 6.7610002 26
26.261999 -4.7839999 6.7690001 23
26.209999 -4.7950001 6.7690001 25
26.156 -4.8060002 6.7690001 24
0 0 0 5
18.172001 -3.368 4.7220001 17
18.114 -3.3710001 4.7160001 19
18.089001 -3.381 4.7179999 17
18.054001 -3.388 4.717 24
18.030001 -3.398 4.7189999 25
18 -3.405 4.7189999 26
17.982 -3.4159999 4.7220001 28
17.954 -3.424 4.7220001 30
17.937 -3.434 4.7249999 24
17.924999 -3.4449999 4.7290001 33
17.899 -3.4519999 4.7290001 34
17.903 -3.467 4.7360001 36
17.885 -3.4749999 4.7379999 35
17.864 -3.484 4.7389998 36
17.868 -3.497 4.7459998 34
17.844999 -3.5050001 4.7459998 37
17.844999 -3.517 4.7509999 40
17.841 -3.529 4.7550001 40
17.829 -3.539 4.757 40
17.826 -3.55 4.7610002 40
17.812 -3.5580001 4.7620001 41
17.805 -3.569 4.7649999 44
17.795 -3.5780001 4.7659998 43
17.805 -3.5910001 4.7729998 43
17.780001 -3.5969999 4.77 48
17.783001 -3.609 4.7750001 47
17.777 -3.618 4.776 47
17.77 -3.628 4.7779999 47
17.77 -3.6389999 4.7810001 47
17.756001 -3.6470001 4.7789998 48
17.761 -3.658 4.783 48
17.763 -3.6689999 4.7859998 54
17.766001 -3.6800001 4.789 37
17.739 -3.684 4.783 53
17.737 -3.6930001 4.7849998 53
17.745001 -3.7049999 4.7880001 52
17.732 -3.711 4.7859998 56
17.718 -3.7179999 4.783 46
17.74 -3.7320001 4.79 56
17.723 -3.737 4.7859998 55
17.728001 -3.747 4.7870002 56
17.736 -3.757 4.79 38
17.725 -3.7639999 4.7859998 51
17.728001 -3.773 4.7870002 37
17.723 -3.7809999 4.7849998 53
17.719999 -3.7880001 4.7839999 53
17.732 -3.799 4.7859998 52
17.728001 -3.806 4.7839999 55
17.711 -3.8099999 4.7779999 50
17.722 -3.8199999 4.7789998 54
17.721001 -3.8269999 4.777 54
17.726999 -3.836 4.776 50
17.719 -3.842 4.7719998 46
17.731001 -3.8510001 4.7729998 35
17.74 -3.8599999 4.7729998 34
17.716 -3.862 4.763 47
17.711 -3.8670001 4.7589998 45
17.715 -3.8740001 4.757 44
17.733999 -3.885 4.7589998 44
17.729 -3.8900001 4.7540002 44
17.74 -3.898 4.7529998 45
17.738001 -3.9030001 4.7480001 42
17.731001 -3.908 4.7420001 43
17.733 -3.914 4.7379999 48
17.725 -3.9170001 4.7309999 45
17.723 -3.9219999 4.7249999 43
17.736 -3.9300001 4.724 46
17.737 -3.9349999 4.7189999 46
17.733 -3.938 4.7119999 45
17.743 -3.9449999 4.7090001 43
17.738001 -3.9489999 4.7020001 45
17.743999 -3.954 4.697 45
17.733999 -3.9560001 4.6880002 43
17.742001 -3.9619999 4.684 45
17.726999 -3.9630001 4.6729999 42
17.737 -3.9679999 4.6690001 42
17.743 -3.973 4.6630001 43
17.738001 -3.9749999 4.6539998 43
17.749001 -3.9809999 4.6490002 45
17.746 -3.983 4.6409998 43
17.742001 -3.9849999 4.632 46
17.74 -3.987 4.6240001 45
17.743999 -3.99 4.6160002 49
17.746 -3.993 4.6079998 47
17.740999 -3.994 4.598 42
17.750999 -3.9979999 4.592 44
17.753 -4 4.5830002 47
17.735001 -3.9979999 4.5689998 43
17.74 -4.0009999 4.5609999 45
17.750999 -4.0040002 4.5539999 45
17.747999 -4.0050001 4.5430002 45
17.746 -4.0050001 4.533 45
17.745001 -4.006 4.5219998 42
17.750999 -4.0079999 4.513 40
17.738001 -4.0050001 4.4990001 40
17.75 -4.0089998 4.4910002 40
17.732 -4.0040002 4.4759998 42
17.764999 -4.0120001 4.473 32
17.736 -4.0050001 4.454 40
17.742001 -4.006 4.4439998 41
17.743999 -4.006 4.4330001 45
17.733999 -4.0029998 4.4180002 42
17.731001 -4.0009999 4.4050002 42
17.738001 -4.0019999 4.3940001 44
17.725 -3.9979999 4.3790002 44
17.74 -4 4.3699999 44
17.749001 -4 4.3590002 44
17.726 -3.993 4.3400002 41
17.746 -3.9949999 4.3319998 47
17.733999 -3.9909999 4.3150001 43
17.73 -3.9879999 4.3010001 43
17.73 -3.9849999 4.2870002 44
17.729 -3.9820001 4.2729998 44
17.731001 -3.9790001 4.2589998 47
17.723 -3.9749999 4.243 43
17.726 -3.9719999 4.23 43
17.729 -3.97 4.2150002 46
17.715 -3.9630001 4.197 42
17.725 -3.9619999 4.1849999 43
17.716999 -3.9560001 4.1680002 47
17.721001 -3.9530001 4.1539998 44
17.712999 -3.947 4.1360002 46
17.712 -3.9419999 4.1209998 47
17.714001 -3.938 4.105 42
17.715 -3.934 4.0890002 31
17.714001 -3.9289999 4.073 42
17.722 -3.925 4.059 31
17.718 -3.9189999 4.0419998 42
17.705 -3.911 4.0219998 40
17.691 -3.902 4.0019999 40
17.698999 -3.898 3.9879999 42
17.702999 -3.8929999 3.9719999 40
17.702999 -3.8870001 3.954 40
17.709 -3.882 3.938 39
17.700001 -3.8740001 3.9189999 38
17.698 -3.8670001 3.901 39
17.695 -3.859 3.882 48
17.695999 -3.852 3.865 48
17.688 -3.8429999 3.845 49
17.694 -3.8380001 3.8280001 52
17.700001 -3.8310001 3.8110001 53
17.698 -3.823 3.7920001 49
17.691 -3.8139999 3.7720001 49
17.681999 -3.8039999 3.7509999 48
17.681999 -3.796 3.7320001 51
17.686001 -3.7880001 3.714 51
17.688 -3.78 3.6960001 57
17.691 -3.7720001 3.677 55
17.693001 -3.7639999 3.658 57
17.688999 -3.7539999 3.6370001 53
17.688999 -3.7449999 3.618 56
17.684 -3.734 3.5969999 55
17.697001 -3.7279999 3.5799999 35
17.695999 -3.7179999 3.559 38
17.698 -3.7079999 3.54 57
17.686001 -3.6960001 3.517 56
17.700001 -3.688 3.5 37
17.705 -3.6789999 3.48 36
17.705 -3.668 3.4590001 58
17.694 -3.655 3.437 55
17.709999 -3.648 3.4189999 56
17.711 -3.6370001 3.398 55
17.709999 -3.625 3.3770001 58
17.709999 -3.6140001 3.3559999 50
17.726999 -3.6059999 3.3380001 33
17.724001 -3.5929999 3.316 45
17.733999 -3.5829999 3.296 33
17.726 -3.569 3.2720001 46
17.74 -3.5599999 3.2539999 44
17.749001 -3.549 3.233 42
17.754999 -3.5380001 3.2119999 43
17.757 -3.5250001 3.191 41
17.764 -3.5139999 3.1700001 40
17.763 -3.5 3.148 41
17.785999 -3.4909999 3.1289999 42
17.789 -3.4790001 3.1070001 39
17.792 -3.4649999 3.085 37
17.813999 -3.4560001 3.066 35
17.825001 -3.444 3.0450001 26
17.836 -3.4319999 3.0239999 33
17.844 -3.4189999 3.0020001 29
17.858 -3.4070001 2.9809999 32
17.875999 -3.3959999 2.961 31
17.888 -3.3829999 2.9400001 30
17.912001 -3.372 2.921 31
17.938 -3.362 2.901 28
17.976 -3.3529999 2.8840001 24
18.004 -3.3429999 2.865 23
18.045 -3.335 2.8469999 19
18.08 -3.325 2.8280001 18
18.118999 -3.316 2.8099999 10
18.190001 -3.312 2.7969999 1
0 0 0 10
34.375 -6.1960001 5.1939998 2
34.409 -6.1700001 5.1529999 2
34.313 -6.1199999 5.092 1
0 0 0 0
0 0 0 0
0 0 0 0
0 0 0 0
0 0 0 0
0 0 0 0
0 0 0 0
0 0 0 0
0 0 0 0
0 0 0 0
0 0 0 0
0 0 0 0
0 0 0 0
0 0 0 0
0 0 0 0
0 0 0 0
0 0 0 0
0 0 0 0
0 0 0 0
0 0 0 0
0 0 0 0
0 0 0 0
0 0 0 0
0 0 0 0
0 0 0 0
0 0 0 0
0 0 0 0
0 0 0 0
0 0 0 0
0 0 0 0
0 0 0 5
34.067001 -4.8829999 3.5369999 29
34.056999 -4.8400002 3.4879999 29
34.067001 -4.7989998 3.441 3
0 0 0 0
0 0 0 1
34.056 -4.6669998 3.293 7
34.035999 -4.6230001 3.244 17
34.041 -4.579 3.1960001 35
34.021999 -4.5320001 3.145 47
33.990002 -4.4829998 3.0940001 48
33.971001 -4.4359999 3.0439999 45
0 0 0 11
25.921 -3.3169999 2.2490001 22
25.864 -3.2750001 2.207 25
25.834999 -3.2360001 2.168 30
25.804001 -3.197 2.128 35
25.781 -3.1589999 2.0899999 38
25.740999 -3.119 2.05 40
25.733 -3.0829999 2.013 42
25.723 -3.046 1.976 44
25.705 -3.0079999 1.939 44
25.702999 -2.9719999 1.902 40
25.662001 -2.9319999 1.863 53
25.664 -2.8959999 1.827 60
25.684 -2.862 1.793 63
25.68 -2.825 1.756 57
25.705999 -2.7909999 1.722 51
25.726 -2.756 1.686 49
25.726999 -2.7190001 1.651 47
25.742001 -2.6830001 1.6160001 41
25.768 -2.6489999 1.582 40
25.789 -2.6129999 1.5470001 36
25.83 -2.579 1.5140001 35
25.874001 -2.5450001 1.48 32
25.908001 -2.51 1.446 28
25.969999 -2.477 1.413 23
26.054001 -2.4460001 1.382 16
0 0 0 11
34.048 -3.092 1.711 7
34.133999 -3.0480001 1.669 2
0 0 0 0
0 0 0 5
33.743 -2.8599999 1.512 71
33.695999 -2.803 1.464 104
33.686001 -2.75 1.418 99
33.699001 -2.6989999 1.373 100
33.678001 -2.645 1.327 101
33.686001 -2.592 1.281 99
33.661999 -2.5369999 1.235 102
33.679001 -2.4849999 1.1900001 87
33.644001 -2.4289999 1.1440001 100
33.655998 -2.3759999 1.099 92
33.650002 -2.322 1.054 62
33.640999 -2.267 1.0089999 37
33.612999 -2.211 0.96399999 4
0 0 0 1
0 0 0 0
0 0 0 0
0 0 0 0
0 0 0 0
0 0 0 1
19.736 -1.072 0.384 1
0 0 0 0
0 0 0 0
0 0 0 1
20.598 -0.98199999 0.29499999 1
20.672001 -0.95099998 0.27000001 1
0 0 0 0
0 0 0 5
34.535999 -1.414 0.31999999 8
34.938 -1.3710001 0.28 9
35.283001 -1.325 0.23899999 7
35.714001 -1.28 0.197 4
37.448002 -1.28 0.161 21
37.408001 -1.2130001 0.114 22
37.223999 -1.142 0.067000002 16
37.423 -1.0829999 0.021 45
37.875 -1.031 -0.024 5
38.353001 -0.977 -0.071000002 6
39.084999 -0.92699999 -0.12 27
39.178001 -0.86000001 -0.169 11
41.459 -0.838 -0.229 93
41.448002 -0.76499999 -0.278 119
41.422001 -0.69099998 -0.32699999 93
41.418999 -0.61900002 -0.37599999 33
41.417 -0.546 -0.42500001 35
40.943001 -0.46700001 -0.46799999 35
40.985001 -0.39500001 -0.51700002 34
41.256001 -0.32499999 -0.56800002 35
41.568001 -0.25400001 -0.62 35
41.876999 -0.18099999 -0.67299998 24
41.562 -0.105 -0.71600002 7
0 0 0 2
0 0 0 4
36.395 0.103 -0.75099999 11
36.380001 0.167 -0.79100001 11
36.448002 0.234 -0.83399999 9
36.388 0.30000001 -0.87300003 6
36.307999 0.366 -0.912 38
36.330002 0.43099999 -0.95200002 47
36.354 0.49599999 -0.991 14
0 0 0 36
42.07 0.727 -1.239 36
42.625999 0.81300002 -1.3 58
42.926998 0.89700001 -1.355 29
43.333 0.98500001 -1.414 22
0 0 0 19
65.603996 1.733 -2.28 10
0 0 0 0
0 0 0 0
0 0 0 0
0 0 0 0
0 0 0 0
0 0 0 3
0 0 0 0
0 0 0 0
0 0 0 0
0 0 0 0
0 0 0 0
0 0 0 1
24.603001 1.238 -1.175 1
0 0 0 0
0 0 0 1
21.431 1.197 -1.084 2
0 0 0 1
19.066 1.135 -1 1
18.445999 1.133 -0.98400003 1
17.924999 1.1339999 -0.97299999 2
17.382999 1.132 -0.95899999 1
16.865999 1.1289999 -0.94499999 2
16.309 1.122 -0.92900002 2
15.903 1.124 -0.92000002 2
15.363 1.114 -0.90200001 2
14.988 1.114 -0.89300001 4
14.589 1.1109999 -0.88099998 4
14.37 1.1210001 -0.88 5
14.245 1.138 -0.88499999 7
14.067 1.15 -0.88599998 7
13.602 1.137 -0.86799997 3
13.201 1.128 -0.85299999 3
12.976 1.132 -0.84899998 3
12.726 1.1339999 -0.84299999 2
12.484 1.135 -0.83700001 2
12.28 1.1390001 -0.833 3
12.026 1.138 -0.82499999 3
11.843 1.143 -0.82200003 2
11.646 1.145 -0.81699997 2
11.501 1.152 -0.81599998 3
11.346 1.1569999 -0.81300002 3
11.205 1.163 -0.81199998 2
11.035 1.166 -0.80699998 2
10.858 1.1670001 -0.80199999 2
10.698 1.169 -0.79799998 2
10.506 1.168 -0.792 2
10.348 1.169 -0.787 2
10.205 1.1720001 -0.78299999 3
10.08 1.175 -0.78100002 3
9.9469995 1.178 -0.77700001 3
9.8369999 1.183 -0.77600002 3
9.7069998 1.1849999 -0.77200001 3
9.5839996 1.187 -0.76800001 3
9.4750004 1.191 -0.76599997 3
9.3339996 1.1900001 -0.76099998 3
9.2349997 1.194 -0.759 4
9.1520004 1.2 -0.75800002 4
9.059 1.2029999 -0.755 4
8.9549999 1.206 -0.75199997 4
8.8610001 1.209 -0.75 4
8.7860003 1.215 -0.74900001 4
8.6669998 1.2130001 -0.74400002 4
8.5959997 1.219 -0.74299997 3
8.5080004 1.222 -0.74000001 3
8.4239998 1.224 -0.73799998 4
8.3369999 1.226 -0.73500001 4
8.2790003 1.233 -0.73500001 4
8.1809998 1.233 -0.73100001 4
8.1219997 1.238 -0.73000002 4
8.0690002 1.244 -0.72899997 4
8.007 1.249 -0.72799999 4
7.9200001 1.249 -0.72500002 4
7.862 1.2539999 -0.72299999 3
7.803 1.258 -0.722 4
7.763 1.265 -0.722 6
7.6719999 1.263 -0.71700001 9
7.6079998 1.266 -0.71499997 7
7.572 1.273 -0.71600002 5
7.5079999 1.276 -0.713 4
7.4530001 1.279 -0.71100003 5
7.4029999 1.283 -0.70999998 5
7.3330002 1.283 -0.70599997 4
7.2789998 1.286 -0.70499998 4
7.2210002 1.288 -0.70200002 4
7.1760001 1.2920001 -0.70099998 4
7.1269999 1.295 -0.699 4
7.0630002 1.295 -0.69599998 4
7.0240002 1.3 -0.69499999 5
6.9819999 1.304 -0.69300002 4
6.948 1.309 -0.69300002 4
6.9029999 1.312 -0.69099998 4
6.8699999 1.317 -0.69 5
6.8400002 1.322 -0.69 5
6.8080001 1.327 -0.68900001 5
6.777 1.332 -0.68800002 5
6.7309999 1.334 -0.68599999 6
6.6869998 1.336 -0.68400002 5
6.6339998 1.336 -0.68099999 5
6.5840001 1.336 -0.67799997 4
6.5650001 1.3430001 -0.67799997 4
6.5409999 1.348 -0.67699999 5
6.5120001 1.352 -0.67699999 5
6.4790001 1.3559999 -0.67500001 5
6.4580002 1.3609999 -0.67500001 5
6.4219999 1.364 -0.67299998 4
6.395 1.368 -0.67199999 4
6.3699999 1.372 -0.671 4
6.3379998 1.375 -0.66900003 4
6.316 1.38 -0.66900003 4
6.3039999 1.387 -0.66900003 4
6.2940001 1.3940001 -0.66900003 4
6.2779999 1.399 -0.66900003 5
6.25 1.403 -0.66799998 4
6.2290001 1.4069999 -0.667 5
6.2249999 1.415 -0.66799998 5
6.1929998 1.4170001 -0.66600001 4
6.1609998 1.419 -0.66399997 5
6.1469998 1.424 -0.66299999 5
6.1300001 1.429 -0.66299999 5
6.1149998 1.434 -0.662 5
6.1009998 1.4400001 -0.662 5
6.0929999 1.447 -0.662 4
6.0879998 1.454 -0.662 4
6.0700002 1.4579999 -0.66100001 4
6.0450001 1.461 -0.66000003 4
6.0289998 1.465 -0.65899998 4
6.0359998 1.475 -0.66000003 4
6.0170002 1.478 -0.65899998 4
6.0149999 1.4859999 -0.65899998 4
5.9980001 1.49 -0.65799999 4
5.9949999 1.497 -0.65899998 4
6.0029998 1.507 -0.66000003 4
5.987 1.511 -0.65899998 4
5.9770002 1.516 -0.65799999 4
5.961 1.52 -0.65700001 4
5.961 1.527 -0.65799999 4
5.9510002 1.5319999 -0.65700001 4
5.9460001 1.539 -0.65700001 4
5.948 1.546 -0.65700001 4
5.9450002 1.553 -0.65700001 4
5.9229999 1.554 -0.65499997 4
5.9219999 1.561 -0.65499997 4
5.9260001 1.5700001 -0.65600002 4
5.9109998 1.572 -0.65499997 5
5.881 1.572 -0.65100002 6
5.8600001 1.573 -0.64899999 8
5.8559999 1.579 -0.64899999 8
5.8400002 1.581 -0.64700001 8
5.8400002 1.5880001 -0.64700001 9
5.8410001 1.594 -0.64700001 9
5.829 1.598 -0.64600003 8
5.8299999 1.604 -0.64600003 9
5.822 1.609 -0.64499998 8
5.8340001 1.618 -0.64600003 8
5.842 1.627 -0.64700001 8
5.836 1.631 -0.64600003 8
5.8410001 1.6390001 -0.64600003 8
5.8610001 1.65 -0.648 8
5.8569999 1.655 -0.64700001 8
5.8660002 1.664 -0.648 8
5.869 1.67 -0.648 8
5.868 1.676 -0.64700001 8
5.8769999 1.684 -0.648 8
5.881 1.691 -0.648 7
5.9289999 1.711 -0.65200001 5
5.9520001 1.723 -0.65399998 5
5.9489999 1.728 -0.653 5
5.9549999 1.735 -0.653 4
5.9660001 1.744 -0.65399998 5
5.9679999 1.75 -0.653 5
5.9770002 1.757 -0.65399998 4
5.9879999 1.766 -0.65399998 5
6.0040002 1.776 -0.65499997 5
6.0089998 1.783 -0.65499997 5
6.0139999 1.789 -0.65399998 5
6.027 1.798 -0.65499997 5
6.0279999 1.803 -0.65399998 5
6.0370002 1.811 -0.65399998 5
6.0419998 1.817 -0.653 4
6.0650001 1.8279999 -0.65499997 5
6.0760002 1.836 -0.65499997 4
6.0929999 1.846 -0.65600002 5
6.1090002 1.8559999 -0.65600002 5
6.1149998 1.862 -0.65600002 5
6.1279998 1.87 -0.65600002 5
6.1389999 1.878 -0.65600002 5
6.1620002 1.8890001 -0.65700001 4
6.1620002 1.893 -0.65600002 4
6.1620002 1.897 -0.65399998 4
6.1820002 1.9069999 -0.65499997 3
6.198 1.916 -0.65499997 4
6.2350001 1.931 -0.65799999 3
6.2490001 1.9400001 -0.65799999 3
6.2680001 1.949 -0.65799999 3
6.2859998 1.959 -0.65899998 3
6.3109999 1.97 -0.66000003 3
6.329 1.979 -0.66000003 3
6.375 1.997 -0.66299999 3
6.3790002 2.0009999 -0.662 3
6.408 2.0139999 -0.66299999 3
6.4289999 2.023 -0.66299999 3
6.4590001 2.036 -0.66500002 3
6.4759998 2.0439999 -0.66500002 3
6.5079999 2.0580001 -0.66600001 3
6.5419998 2.0710001 -0.66799998 3
6.5739999 2.0840001 -0.66900003 4
6.5819998 2.0899999 -0.66799998 3
6.6259999 2.1059999 -0.67000002 4
6.6589999 2.119 -0.671 4
6.6789999 2.128 -0.67199999 4
6.723 2.145 -0.67400002 4
6.7509999 2.1559999 -0.67400002 4
6.7789998 2.1670001 -0.67500001 4
6.8109999 2.1800001 -0.676 4
6.842 2.1919999 -0.67699999 4
6.8790002 2.2049999 -0.67799997 4
6.9060001 2.2160001 -0.67799997 4
6.9369998 2.2279999 -0.67900002 4
6.9990001 2.25 -0.68199998 4
7.0219998 2.2590001 -0.68199998 5
7.059 2.2720001 -0.68300003 5
7.1090002 2.29 -0.68599999 4
7.145 2.303 -0.68599999 5
7.1760001 2.3139999 -0.68699998 5
7.2280002 2.332 -0.68900001 5
7.2729998 2.348 -0.69 5
7.3109999 2.3610001 -0.69099998 5
7.3629999 2.3789999 -0.69300002 5
7.4099998 2.395 -0.69499999 5
7.4559999 2.411 -0.69599998 5
7.5320001 2.4360001 -0.70099998 5
7.559 2.4449999 -0.69999999 5
7.619 2.4649999 -0.70200002 4
7.6760001 2.483 -0.70499998 4
7.7049999 2.493 -0.704 5
7.7680001 2.5139999 -0.70700002 5
7.8000002 2.5239999 -0.70599997 4
7.8579998 2.5420001 -0.708 5
7.9050002 2.5569999 -0.70899999 4
7.9510002 2.572 -0.70999998 5
8.0039997 2.589 -0.71100003 5
8.0609999 2.6070001 -0.713 5
8.1059999 2.6199999 -0.713 5
8.158 2.6359999 -0.71399999 4
8.2220001 2.6559999 -0.71600002 4
8.2729998 2.6719999 -0.71700001 4
8.3529997 2.6960001 -0.72000003 5
8.4329996 2.721 -0.72299999 4
8.5249996 2.7490001 -0.727 5
8.5970001 2.77 -0.73000002 6
8.6680002 2.7909999 -0.73199999 8
8.7410002 2.813 -0.73400003 9
8.8140001 2.835 -0.736 8
8.868 2.8499999 -0.736 11
8.9209995 2.865 -0.736 15
8.9750004 2.8800001 -0.73699999 15
9.0270004 2.8940001 -0.73699999 16
9.0830002 2.9089999 -0.73699999 15
9.1590004 2.9300001 -0.73799998 12
9.2049999 2.9419999 -0.73799998 13
9.2550001 2.9549999 -0.73699999 16
9.3299999 2.9760001 -0.73900002 11
9.3780003 2.9879999 -0.73799998 14
9.4510002 3.007 -0.73900002 11
9.5229998 3.026 -0.74000001 8
9.585 3.0420001 -0.74000001 7
9.6630001 3.062 -0.741 6
9.7279997 3.079 -0.74199998 6
9.8079996 3.0999999 -0.74299997 5
9.9189997 3.1300001 -0.74599999 4
10.025 3.1589999 -0.74900001 4
10.121 3.184 -0.75099999 3
10.236 3.2149999 -0.755 3
10.356 3.247 -0.75800002 3
10.469 3.277 -0.76099998 3
10.558 3.299 -0.76200002 3
10.677 3.3299999 -0.76499999 3
10.806 3.3640001 -0.76899999 2
10.897 3.3859999 -0.76999998 3
11.02 3.418 -0.773 3
11.138 3.448 -0.77499998 3
11.259 3.4779999 -0.778 3
11.368 3.5039999 -0.77899998 3
11.516 3.543 -0.78399998 4
11.655 3.5769999 -0.787 6
11.768 3.6040001 -0.78899997 6
11.908 3.638 -0.792 5
12.009 3.661 -0.792 4
12.088 3.6760001 -0.79100001 4
12.208 3.704 -0.792 4
12.326 3.73 -0.79299998 3
12.447 3.7579999 -0.79500002 3
12.606 3.7950001 -0.79799998 3
12.757 3.8310001 -0.801 3
12.918 3.868 -0.80400002 3
13.084 3.9070001 -0.80699998 3
13.286 3.957 -0.81300002 4
13.492 4.007 -0.81800002 4
13.682 4.0510001 -0.82300001 4
13.965 4.1230001 -0.83200002 7
14.142 4.1620002 -0.83499998 11
14.236 4.177 -0.83200002 5
14.289 4.1799998 -0.82800001 4
14.457 4.2160001 -0.82999998 4
14.631 4.2529998 -0.83200002 4
14.181 4.1079998 -0.79900002 4
14.285 4.1240001 -0.79699999 3
14.809 4.2610002 -0.81800002 4
15.15 4.3449998 -0.829 5
15.24 4.355 -0.82599998 5
15.554 4.4289999 -0.83399999 3
15.894 4.5100002 -0.84399998 3
16.011 4.526 -0.84200001 3
16.172001 4.5549998 -0.84200001 3
16.356001 4.5890002 -0.84299999 3
16.542 4.6240001 -0.84299999 3
0 0 0 0
0 0 0 1
17.544001 4.8460002 -0.866 1
18.247999 5.02 -0.89099997 2
18.934 5.1869998 -0.91500002 4
0 0 0 0
0 0 0 3
20.716999 5.6030002 -0.96799999 2
20.875 5.6209998 -0.96399999 4
21.309999 5.7129998 -0.97299999 1
0 0 0 0
0 0 0 0
0 0 0 0
0 0 0 2
0 0 0 0
0 0 0 0
0 0 0 0
0 0 0 2
30.513 7.835 -1.251 2
0 0 0 0
0 0 0 1
29.805 7.5349998 -1.176 2
29.997 7.5430002 -1.169 2
0 0 0 0
0 0 0 2
29.823999 7.3769999 -1.1160001 2
29.900999 7.355 -1.105 2
29.912001 7.3169999 -1.09 3
29.863001 7.263 -1.074 3
29.919001 7.2340002 -1.061 4
29.878 7.1820002 -1.045 5
29.851999 7.1329999 -1.03 4
29.862 7.092 -1.015 5
29.875 7.0510001 -1.001 6
30.030001 7.0440001 -0.99199998 6
29.815001 6.9489999 -0.97100002 4
29.798 6.901 -0.95599997 30
29.802999 6.8579998 -0.94199997 20
29.997999 6.8569999 -0.93400002 19
29.860001 6.7800002 -0.91500002 9
29.832001 6.7270002 -0.90100002 14
29.847 6.6849999 -0.88800001 11
29.881001 6.6459999 -0.875 7
29.952 6.6149998 -0.86299998 8
29.855 6.546 -0.847 35
29.823 6.493 -0.833 67
29.843 6.4499998 -0.81999999 57
29.945999 6.4239998 -0.81 4
29.934999 6.3740001 -0.79699999 15
29.863001 6.3099999 -0.78200001 35
29.856001 6.2610002 -0.76899999 14
29.888 6.2189999 -0.75700003 9
29.923 6.1760001 -0.745 7
29.972 6.1370001 -0.73299998 6
30.033001 6.0999999 -0.722 11
30.091 6.0619998 -0.71200001 10
30.132 6.02 -0.69999999 6
30.177999 5.9780002 -0.68900001 5
30.16 5.9219999 -0.67699999 1
0 0 0 0
0 0 0 0
0 0 0 14
0 0 0 2
35.404999 6.6479998 -0.72500002 3
0 0 0 93
47.300999 8.7150002 -0.93400002 102
47.318001 8.6350002 -0.91600001 106
47.316002 8.5500002 -0.89899999 119
47.312 8.4650002 -0.88200003 152
47.320999 8.382 -0.86500001 152
47.354 8.3030005 -0.84899998 137
47.386002 8.224 -0.83399999 97
47.416 8.1429996 -0.81699997 88
47.432999 8.0600004 -0.80199999 75
47.445999 7.9759998 -0.78600001 61
47.474998 7.8930001 -0.77100003 33
47.507999 7.8130002 -0.75700003 17
0 0 0 0
0 0 0 2
39.130001 6.2189999 -0.58600003 4
39.027 6.1290002 -0.574 5
39.007999 6.0539999 -0.56099999 6
38.876999 5.96 -0.54799998 6
38.816002 5.8790002 -0.53600001 7
0 0 0 0
0 0 0 26
0 0 0 0
0 0 0 2
0 0 0 0
0 0 0 0
0 0 0 0
0 0 0 0
0 0 0 0
0 0 0 0
0 0 0 0
0 0 0 0
0 0 0 0
0 0 0 0
0 0 0 0
0 0 0 0
0 0 0 0
0 0 0 0
0 0 0 0
0 0 0 0
0 0 0 0
0 0 0 9
37.632999 4.007 -0.33000001 36
37.615002 3.9289999 -0.324 28
37.564999 3.849 -0.31799999 19
37.581001 3.7739999 -0.31299999 9
37.622002 3.7019999 -0.30899999 2
0 0 0 0
0 0 0 0
0 0 0 0
0 0 0 0
0 0 0 2
0 0 0 0
0 0 0 13
84.567001 6.9330001 -0.62699997 23
0 0 0 48
0 0 0 0
0 0 0 0
0 0 0 0
0 0 0 0
0 0 0 28
0 0 0 0
0 0 0 0
0 0 0 0
0 0 0 0
0 0 0 0
0 0 0 0
0 0 0 29
0 0 0 0
0 0 0 0
0 0 0 54
132.36501 6.151 -0.94 98
132.741 5.8870001 -0.94800001 31
132.72701 5.6100001 -0.95499998 27
132.618 5.3200002 -0.96100003 48
0 0 0 29
70.919998 2.546 -0.523 89
0 0 0 13
65.663002 2.079 -0.495 44
65.561996 1.936 -0.5 67
65.580002 1.799 -0.50700003 131
65.588997 1.658 -0.514 127
65.594002 1.52 -0.52100003 18
0 0 0 20
57.546001 1.0880001 -0.472 108
0 0 0 4
43.462002 0.63499999 -0.368 32
43.469002 0.54400003 -0.37400001 34
0 0 0 0
0 0 0 70
36.407001 0.22400001 -0.331 77
36.43 0.147 -0.338 69
36.569 0.068999998 -0.34599999 18
36.699001 -0.0099999998 -0.354 20
0 0 0 26
41.841999 -0.18700001 -0.41999999 36
41.164001 -0.27200001 -0.42199999 57
