# .PCD v0.7 - Point Cloud Data file format
VERSION 0.7
FIELDS x y z intensity
SIZE 4 4 4 4
TYPE F F F F
COUNT 1 1 1 1
WIDTH 1831
HEIGHT 1
VIEWPOINT 0 0 0 1 0 0 0
POINTS 1831
DATA ascii
26.431 -4.2020001 3.5799999 50
26.444 -4.177 3.5439999 50
26.450001 -4.151 3.507 49
26.445999 -4.1230001 3.4679999 46
26.476999 -4.0999999 3.434 41
26.487 -4.073 3.3970001 43
26.503 -4.046 3.3599999 44
26.523001 -4.0209999 3.3239999 41
26.549999 -3.9960001 3.289 41
26.58 -3.9719999 3.2539999 37
26.607 -3.9460001 3.2190001 36
26.638 -3.921 3.1830001 31
26.687 -3.8989999 3.151 27
26.737 -3.8759999 3.118 20
26.823999 -3.858 3.089 11
0 0 0 0
0 0 0 0
0 0 0 0
0 0 0 0
0 0 0 0
0 0 0 0
0 0 0 0
0 0 0 0
0 0 0 4
52.143002 -6.888 5.2459998 4
0 0 0 0
0 0 0 0
0 0 0 7
34.485001 -4.3839998 3.266 16
34.473 -4.3379998 3.214 36
34.425999 -4.289 3.1589999 53
34.407001 -4.244 3.108 74
34.383999 -4.197 3.0550001 84
34.381001 -4.152 3.0039999 92
34.381001 -4.1079998 2.954 99
34.354 -4.0599999 2.902 104
34.355999 -4.0149999 2.8510001 107
34.377998 -3.973 2.803 89
34.361 -3.925 2.7509999 90
34.34 -3.8770001 2.6989999 103
34.358002 -3.832 2.6500001 98
34.333 -3.7839999 2.598 81
34.342999 -3.7379999 2.549 87
34.333 -3.6889999 2.497 90
34.337002 -3.6429999 2.4489999 92
34.313999 -3.5929999 2.3970001 91
34.278999 -3.5420001 2.3440001 81
34.316002 -3.4979999 2.2969999 47
34.333 -3.4519999 2.2479999 61
34.300999 -3.4000001 2.1960001 76
34.321999 -3.3529999 2.1470001 74
34.355 -3.3080001 2.0999999 33
34.362999 -3.26 2.0510001 24
34.410999 -3.2149999 2.0039999 15
34.508999 -3.174 1.96 9
34.500999 -3.1240001 1.911 12
34.501999 -3.0739999 1.8609999 12
34.473999 -3.0209999 1.8099999 11
34.481998 -2.971 1.761 10
34.498001 -2.921 1.712 8
34.439999 -2.8640001 1.659 4
0 0 0 7
38.492001 -3.086 1.745 7
38.914001 -3.062 1.71 8
39.32 -3.036 1.673 4
39.903 -3.02 1.641 4
40.009998 -2.9660001 1.5880001 22
41.889 -3.0409999 1.604 28
42.103001 -2.9920001 1.553 64
42.145 -2.9300001 1.495 83
42.226002 -2.8710001 1.4400001 52
42.757 -2.842 1.399 4
43.226002 -2.806 1.354 8
44.793999 -2.836 1.34 22
43.140999 -2.6630001 1.2309999 27
43.125999 -2.595 1.1720001 43
43.126999 -2.527 1.112 48
43.116001 -2.4579999 1.053 30
43.131001 -2.3900001 0.99400002 18
43.152 -2.322 0.93599999 7
0 0 0 52
47.071999 -2.381 0.89200002 47
0 0 0 58
50.491001 -2.3889999 0.81999999 22
51.021 -2.3310001 0.75999999 20
50.987999 -2.2460001 0.69099998 25
50.988998 -2.1630001 0.62300003 21
0 0 0 88
58.354 -2.2839999 0.55900002 109
58.395 -2.1889999 0.48199999 131
58.402 -2.0929999 0.405 119
58.393002 -1.995 0.32800001 105
58.625 -1.905 0.25299999 51
58.766998 -1.811 0.176 20
0 0 0 108
66.43 -1.823 0.026000001 150
66.450996 -1.714 -0.056000002 79
66.438004 -1.6 -0.14300001 76
66.557999 -1.4910001 -0.227 81
66.859001 -1.383 -0.31400001 24
0 0 0 0
0 0 0 82
72.889 -1.1339999 -0.61900002 31
0 0 0 0
0 0 0 0
0 0 0 0
0 0 0 0
0 0 0 53
0 0 0 25
116.76 -0.40599999 -2 27
0 0 0 0
0 0 0 0
0 0 0 0
0 0 0 0
0 0 0 11
65.286003 0.456 -1.586 54
0 0 0 150
38.701 0.40700001 -1.031 18
38.617001 0.47299999 -1.073 20
38.533001 0.54000002 -1.115 21
38.493999 0.60799998 -1.159 25
38.443001 0.676 -1.201 21
38.533001 0.74599999 -1.248 16
39.085999 0.82499999 -1.3099999 7
39.396 0.90200001 -1.365 10
39.493 0.97500002 -1.4119999 6
39.556 1.0470001 -1.459 4
0 0 0 0
0 0 0 0
0 0 0 1
0 0 0 0
0 0 0 0
0 0 0 1
25.655001 1 -1.14 3
0 0 0 0
0 0 0 0
0 0 0 1
0 0 0 0
0 0 0 0
0 0 0 2
17.993 0.92799997 -0.93000001 3
17.893 0.95499998 -0.94300002 2
0 0 0 3
16.992001 0.96899998 -0.93000001 2
16.507 0.97100002 -0.92000002 2
15.981 0.96899998 -0.90600002 2
15.554 0.97100002 -0.89700001 2
15.095 0.97000003 -0.88499999 2
14.728 0.97299999 -0.87800002 2
14.401 0.977 -0.87199998 3
14.042 0.97899997 -0.86400002 3
13.629 0.97500002 -0.85100001 2
13.354 0.97899997 -0.84600002 3
13.065 0.98199999 -0.83999997 3
12.783 0.98400003 -0.83399999 3
12.557 0.99000001 -0.83099997 3
12.3 0.991 -0.82499999 3
12.101 0.99800003 -0.82200003 3
11.857 0.99900001 -0.81599998 2
11.627 1.001 -0.81099999 2
11.355 0.99800003 -0.80199999 2
11.126 0.99800003 -0.79500002 2
10.931 1 -0.79100001 2
10.764 1.0039999 -0.78799999 2
10.562 1.005 -0.78200001 2
10.433 1.011 -0.78100002 2
10.284 1.015 -0.77899998 3
10.121 1.017 -0.77499998 2
9.9370003 1.017 -0.76899999 2
9.7810001 1.0190001 -0.764 3
9.6309996 1.02 -0.75999999 3
9.4689999 1.02 -0.755 4
9.3549995 1.025 -0.75400001 3
9.2189999 1.026 -0.75 3
9.1070004 1.03 -0.74800003 4
8.9910002 1.033 -0.745 6
8.8959999 1.038 -0.74400002 8
8.802 1.043 -0.74299997 10
8.71 1.048 -0.741 8
8.5819998 1.048 -0.73699999 8
8.467 1.049 -0.73299998 7
8.3599997 1.05 -0.73000002 8
8.2440004 1.05 -0.72500002 7
8.1029997 1.0470001 -0.71899998 6
7.9759998 1.045 -0.713 6
7.8699999 1.044 -0.70899999 5
7.7659998 1.044 -0.70499998 4
7.6609998 1.044 -0.70099998 5
7.5929999 1.048 -0.699 6
7.5019999 1.049 -0.69599998 6
7.415 1.049 -0.69300002 4
7.3239999 1.049 -0.68900001 4
7.2659998 1.054 -0.68800002 5
7.1849999 1.054 -0.685 4
7.1339998 1.059 -0.685 5
7.0419998 1.058 -0.68000001 4
6.987 1.062 -0.67900002 4
6.9229999 1.064 -0.67699999 4
6.869 1.068 -0.676 4
6.8119998 1.0700001 -0.67400002 4
6.73 1.069 -0.67000002 3
6.6729999 1.071 -0.66799998 3
6.618 1.074 -0.66600001 4
6.5549998 1.075 -0.66299999 4
6.5 1.077 -0.66100001 4
6.4520001 1.079 -0.66000003 3
6.408 1.0829999 -0.65899998 4
6.3439999 1.0829999 -0.65600002 4
6.3039999 1.086 -0.65499997 4
6.27 1.091 -0.65399998 4
6.2220001 1.0930001 -0.653 5
6.1820002 1.096 -0.65100002 4
6.1469998 1.1 -0.65100002 4
6.1100001 1.103 -0.64999998 6
6.0749998 1.107 -0.64899999 5
6.0339999 1.11 -0.64700001 4
6.0110002 1.115 -0.64700001 4
5.9819999 1.12 -0.64700001 4
5.947 1.123 -0.64600003 4
5.9159999 1.126 -0.64499998 4
5.881 1.1289999 -0.64399999 4
5.8330002 1.1289999 -0.64099997 3
5.8200002 1.136 -0.64200002 3
5.777 1.137 -0.639 3
5.7449999 1.14 -0.63800001 3
5.7189999 1.1440001 -0.63800001 3
5.6589999 1.14 -0.63300002 4
5.6009998 1.137 -0.62900001 4
5.6090002 1.148 -0.63200003 3
5.5939999 1.153 -0.63200003 3
5.5700002 1.1569999 -0.63099998 3
5.553 1.1619999 -0.63099998 3
5.5320001 1.166 -0.63099998 3
5.4980001 1.1670001 -0.62900001 3
5.4710002 1.17 -0.62699997 3
5.46 1.176 -0.62800002 3
5.4349999 1.178 -0.62699997 2
5.4229999 1.184 -0.62699997 3
5.3870001 1.183 -0.62400001 4
5.3790002 1.1900001 -0.625 3
5.3639998 1.194 -0.625 3
5.336 1.196 -0.62300003 2
5.322 1.201 -0.62300003 2
5.296 1.202 -0.62099999 3
5.296 1.21 -0.62199998 2
5.2909999 1.216 -0.62300003 2
5.2579999 1.216 -0.62 2
5.2470002 1.221 -0.62 2
5.243 1.227 -0.62099999 2
5.224 1.23 -0.62 2
5.2150002 1.235 -0.62 2
5.1999998 1.239 -0.61900002 3
5.1830001 1.242 -0.61799997 3
5.1680002 1.245 -0.61699998 3
5.1750002 1.2539999 -0.61900002 2
5.164 1.258 -0.61900002 4
5.1409998 1.2589999 -0.61699998 3
5.151 1.2690001 -0.61900002 4
5.1300001 1.27 -0.61699998 4
5.118 1.274 -0.61699998 4
5.1139998 1.279 -0.61699998 3
5.1079998 1.285 -0.61699998 4
5.085 1.285 -0.61500001 3
5.0890002 1.2920001 -0.616 3
5.0770001 1.296 -0.61500001 3
5.0809999 1.303 -0.616 2
5.0739999 1.307 -0.616 2
5.053 1.308 -0.61400002 4
5.0630002 1.317 -0.61500001 3
5.0489998 1.319 -0.61400002 3
5.0469999 1.325 -0.61400002 2
5.0419998 1.33 -0.61400002 2
5.0370002 1.334 -0.61299998 2
5.039 1.341 -0.61400002 2
5.0359998 1.345 -0.61400002 2
5.0320001 1.35 -0.61400002 2
5.0289998 1.355 -0.61299998 2
5.0149999 1.357 -0.61199999 3
5.02 1.364 -0.61299998 2
5.0300002 1.372 -0.61400002 2
5 1.369 -0.61000001 3
5.013 1.378 -0.61199999 3
5.0219998 1.386 -0.61299998 2
4.9970002 1.3839999 -0.61000001 3
5.0170002 1.395 -0.61199999 2
5.0050001 1.397 -0.611 3
5.0190001 1.406 -0.61199999 3
5.02 1.411 -0.61199999 3
5.026 1.418 -0.61299998 2
5.0180001 1.421 -0.61199999 3
5.0440001 1.433 -0.61500001 2
5.0279999 1.433 -0.61199999 3
5.02 1.4349999 -0.611 3
5.0310001 1.443 -0.61199999 3
5.052 1.454 -0.61400002 2
5.033 1.4529999 -0.611 3
5.0450001 1.461 -0.61199999 3
5.0419998 1.465 -0.61199999 4
5.0440001 1.47 -0.611 4
5.0430002 1.474 -0.611 3
5.0560002 1.482 -0.61199999 3
5.0689998 1.49 -0.61299998 2
5.072 1.495 -0.61199999 3
5.0739999 1.5 -0.61199999 3
5.0749998 1.5039999 -0.611 3
5.079 1.5089999 -0.611 3
5.0869999 1.516 -0.611 3
5.0929999 1.521 -0.611 3
5.0960002 1.526 -0.611 3
5.1040001 1.5319999 -0.611 3
5.1279998 1.543 -0.61299998 2
5.1269999 1.546 -0.61199999 3
5.1560001 1.559 -0.61500001 2
5.1409998 1.558 -0.61199999 3
5.1620002 1.567 -0.61299998 2
5.1700001 1.573 -0.61299998 2
5.1830001 1.581 -0.61400002 2
5.184 1.584 -0.61299998 3
5.1950002 1.591 -0.61299998 2
5.1960001 1.594 -0.61199999 3
5.2129998 1.603 -0.61299998 3
5.217 1.607 -0.61199999 3
5.2449999 1.619 -0.61400002 2
5.244 1.6210001 -0.61299998 3
5.2620001 1.63 -0.61400002 2
5.2709999 1.635 -0.61400002 2
5.296 1.645 -0.61500001 2
5.3080001 1.652 -0.61500001 2
5.3099999 1.655 -0.61400002 3
5.3429999 1.668 -0.61699998 2
5.349 1.673 -0.616 2
5.369 1.681 -0.616 2
5.3800001 1.687 -0.616 2
5.3889999 1.692 -0.616 3
5.4260001 1.706 -0.61799997 3
5.434 1.711 -0.61799997 3
5.447 1.717 -0.61699998 2
5.4650002 1.724 -0.61799997 3
5.474 1.729 -0.61699998 3
5.5050001 1.7410001 -0.61900002 3
5.5209999 1.748 -0.61900002 4
5.5440001 1.757 -0.62 2
5.5770001 1.7690001 -0.62199998 2
5.5809999 1.772 -0.62 2
5.6100001 1.783 -0.62199998 3
5.6230001 1.788 -0.62099999 3
5.651 1.798 -0.62199998 3
5.6700001 1.806 -0.62199998 3
5.7059999 1.818 -0.62400001 3
5.7140002 1.822 -0.62300003 4
5.7540002 1.836 -0.625 3
5.7789998 1.845 -0.62599999 3
5.8239999 1.86 -0.62800002 3
5.855 1.8710001 -0.63 3
5.8829999 1.881 -0.63 3
5.8990002 1.887 -0.63 3
5.9239998 1.895 -0.63 3
5.9689999 1.91 -0.63300002 3
6.0029998 1.921 -0.634 3
6.013 1.925 -0.63300002 3
6.039 1.934 -0.63300002 5
6.0819998 1.948 -0.63499999 3
6.1240001 1.961 -0.63700002 4
6.1529999 1.971 -0.63700002 4
6.1680002 1.975 -0.63599998 3
6.1999998 1.985 -0.63700002 3
6.2490001 2.0009999 -0.639 3
6.2839999 2.0120001 -0.63999999 3
6.3179998 2.0220001 -0.64099997 3
6.3590002 2.0350001 -0.64200002 3
6.3979998 2.0469999 -0.64300001 4
6.4419999 2.0599999 -0.64499998 3
6.4619999 2.066 -0.64399999 3
6.5040002 2.0780001 -0.64499998 3
6.559 2.095 -0.648 3
6.5910001 2.1040001 -0.648 3
6.638 2.118 -0.64899999 3
6.6810002 2.1300001 -0.64999998 3
6.723 2.1429999 -0.65100002 3
6.7509999 2.1500001 -0.65100002 3
6.7989998 2.1630001 -0.65200001 3
6.8530002 2.1789999 -0.65399998 3
6.914 2.197 -0.65700001 3
6.9970002 2.221 -0.66100001 4
7.0630002 2.24 -0.66399997 5
7.1409998 2.2620001 -0.667 6
7.1729999 2.27 -0.667 7
7.2309999 2.286 -0.66900003 8
7.2470002 2.289 -0.667 8
7.302 2.3039999 -0.66799998 11
7.336 2.312 -0.667 11
7.3790002 2.322 -0.667 12
7.402 2.3269999 -0.66600001 13
7.4380002 2.335 -0.66500002 13
7.5100002 2.3540001 -0.66799998 14
7.592 2.3770001 -0.671 9
7.664 2.3959999 -0.67400002 7
7.756 2.421 -0.67799997 5
7.8369999 2.4430001 -0.68099999 4
7.9130001 2.4619999 -0.68300003 5
8.0120001 2.4890001 -0.68699998 4
8.1070004 2.5139999 -0.69099998 4
8.2110004 2.5420001 -0.69599998 4
8.29 2.562 -0.69800001 4
8.3929996 2.589 -0.70200002 5
8.4890003 2.6140001 -0.70499998 4
8.5790005 2.6359999 -0.708 5
8.6660004 2.658 -0.71100003 5
8.7510004 2.678 -0.713 6
8.8290005 2.697 -0.71399999 6
8.8990002 2.7119999 -0.71499997 7
8.9709997 2.7290001 -0.71600002 7
9.0830002 2.756 -0.72000003 7
9.1890001 2.7820001 -0.72299999 7
9.3120003 2.813 -0.72799999 7
9.4139996 2.8369999 -0.73100001 10
9.5139999 2.8599999 -0.73299998 16
9.5819998 2.8729999 -0.73299998 14
9.6680002 2.892 -0.73400003 22
9.7309999 2.9030001 -0.73299998 14
9.8039999 2.9170001 -0.73299998 13
9.8809996 2.9330001 -0.73299998 13
9.9799995 2.954 -0.73500001 13
10.063 2.97 -0.736 14
10.156 2.9890001 -0.73699999 11
10.217 2.9979999 -0.73500001 7
10.302 3.0139999 -0.736 6
10.44 3.046 -0.73900002 4
10.566 3.073 -0.74199998 4
10.699 3.102 -0.745 5
10.866 3.1400001 -0.75099999 4
11.016 3.174 -0.755 4
11.163 3.2049999 -0.75800002 4
11.291 3.2320001 -0.76099998 5
11.435 3.2620001 -0.764 5
11.54 3.28 -0.764 5
11.658 3.302 -0.76499999 5
11.791 3.3280001 -0.76700002 4
11.925 3.3540001 -0.76899999 4
12.17 3.4100001 -0.778 4
12.275 3.427 -0.778 5
12.401 3.45 -0.778 5
12.499 3.464 -0.77700001 5
12.669 3.497 -0.78100002 3
12.765 3.5090001 -0.77899998 3
12.92 3.5380001 -0.78100002 3
13.066 3.563 -0.78200001 3
13.215 3.589 -0.78399998 3
13.396 3.6229999 -0.787 4
13.647 3.675 -0.79299998 4
13.862 3.7179999 -0.79799998 3
14.098 3.7639999 -0.80400002 3
14.389 3.825 -0.81199998 3
14.64 3.8740001 -0.81800002 4
14.847 3.911 -0.82099998 4
14.988 3.9300001 -0.81999999 4
15.221 3.9719999 -0.824 5
15.422 4.0050001 -0.82599998 5
15.634 4.0409999 -0.829 4
15.8 4.0640001 -0.829 4
15.3 3.9159999 -0.79400003 3
15.628 3.9790001 -0.80199999 3
0 0 0 3
17.125999 4.316 -0.86000001 3
16.559 4.151 -0.82200003 3
16.872 4.2080002 -0.82800001 3
17.166 4.2579999 -0.833 3
17.386999 4.289 -0.83399999 3
17.888 4.388 -0.84799999 6
18.013 4.3940001 -0.84399998 5
18.346001 4.4499998 -0.85000002 2
18.773001 4.527 -0.85900003 1
19.316 4.631 -0.87300003 3
19.452999 4.6360002 -0.86900002 2
0 0 0 3
22.045 5.191 -0.96100003 3
22.4 5.2420001 -0.96399999 5
22.538 5.2410002 -0.958 4
0 0 0 0
0 0 0 1
0 0 0 0
0 0 0 0
0 0 0 0
0 0 0 0
0 0 0 2
0 0 0 1
0 0 0 0
0 0 0 0
0 0 0 0
0 0 0 2
31.115999 6.618 -1.113 2
31.191 6.5840001 -1.1 2
31.131001 6.5219998 -1.082 2
31.021 6.448 -1.063 3
30.999001 6.3930001 -1.0470001 3
30.986 6.3410001 -1.0319999 2
30.962 6.2839999 -1.015 2
30.903 6.2220001 -0.99900001 2
30.995001 6.1890001 -0.98699999 3
31.014 6.1409998 -0.97299999 4
30.979 6.0809999 -0.95700002 5
30.958 6.0250001 -0.94199997 5
30.988001 5.9780002 -0.92799997 5
30.98 5.9239998 -0.91399997 5
30.997 5.875 -0.89999998 6
30.99 5.8200002 -0.88599998 7
30.988001 5.7659998 -0.87199998 6
31.007 5.7150002 -0.85900003 6
31.004 5.6599998 -0.84500003 5
30.979 5.6009998 -0.83099997 7
30.988001 5.5479999 -0.81800002 9
30.990999 5.494 -0.80500001 7
30.966999 5.4349999 -0.79100001 9
31.167 5.414 -0.78299999 7
31.129999 5.3520002 -0.76899999 5
31.011999 5.276 -0.75400001 15
31.084999 5.2329998 -0.74299997 10
31.049999 5.1700001 -0.73000002 33
31 5.105 -0.71600002 44
30.997999 5.0479999 -0.704 44
31.087999 5.006 -0.69400001 10
31.073999 4.9460001 -0.68199998 10
31.07 4.8889999 -0.67000002 8
31.073 4.8309999 -0.65899998 10
30.993999 4.7610002 -0.64499998 12
31.056999 4.7119999 -0.63499999 7
31.042999 4.652 -0.62400001 88
31.129999 4.6059999 -0.61400002 102
31.183001 4.5560002 -0.60500002 99
31.232 4.5029998 -0.59500003 106
31.302 4.454 -0.58600003 70
31.327999 4.3979998 -0.57599998 24
31.382 4.3460002 -0.56699997 8
0 0 0 8
48.52 6.5320001 -0.84600002 38
0 0 0 4
0 0 0 108
48.546001 6.2540002 -0.80199999 130
48.551998 6.1589999 -0.787 135
48.550999 6.0640001 -0.773 137
48.580002 5.973 -0.76099998 142
48.556999 5.875 -0.74699998 154
48.595001 5.783 -0.73400003 139
48.629002 5.691 -0.72100002 83
48.633999 5.5960002 -0.70899999 59
48.653999 5.5009999 -0.69700003 40
48.678001 5.4099998 -0.685 23
48.698002 5.3140001 -0.67299998 16
48.759998 5.223 -0.66299999 4
0 0 0 12
0 0 0 0
0 0 0 13
85.028999 8.4239998 -1.081 21
85.052002 8.2559996 -1.064 150
85.086998 8.0860004 -1.0470001 76
85.071999 7.9109998 -1.03 37
85.111 7.7399998 -1.015 52
0 0 0 2
0 0 0 31
0 0 0 0
0 0 0 3
0 0 0 0
0 0 0 0
0 0 0 0
0 0 0 0
0 0 0 0
0 0 0 0
0 0 0 0
0 0 0 0
0 0 0 0
0 0 0 0
0 0 0 0
0 0 0 0
0 0 0 0
0 0 0 0
0 0 0 0
0 0 0 0
0 0 0 21
38.433998 1.737 -0.36199999 42
38.408001 1.653 -0.36000001 37
38.367001 1.573 -0.359 25
38.299 1.489 -0.35699999 16
38.292 1.406 -0.35699999 8
38.265999 1.324 -0.35600001 5
38.223 1.2410001 -0.35600001 3
38.220001 1.161 -0.35600001 4
38.256001 1.08 -0.35600001 5
38.312 1.001 -0.35699999 5
38.438999 0.92400002 -0.36000001 5
38.518002 0.84399998 -0.36199999 6
38.698002 0.76499999 -0.36500001 6
38.485001 0.68000001 -0.36500001 2
38.603001 0.59899998 -0.368 2
0 0 0 0
0 0 0 0
0 0 0 0
0 0 0 33
0 0 0 0
0 0 0 0
0 0 0 61
0 0 0 0
0 0 0 27
133.386 -0.77700001 -1.393 109
133.47099 -1.0599999 -1.411 70
0 0 0 0
0 0 0 0
0 0 0 0
0 0 0 48
69.653 -1.296 -0.78799999 30
0 0 0 0
0 0 0 80
66.412003 -1.66 -0.787 75
66.376999 -1.801 -0.79900002 62
66.443001 -1.949 -0.81400001 74
0 0 0 0
0 0 0 112
58.368999 -2.082 -0.75199997 141
0 0 0 20
44.092999 -1.7589999 -0.588 46
43.654999 -1.835 -0.59299999 39
43.367001 -1.915 -0.59899998 39
43.188999 -1.999 -0.60799998 38
43.398998 -2.1010001 -0.62199998 39
43.150002 -2.1789999 -0.63 38
42.797001 -2.2520001 -0.63599998 45
42.824001 -2.3440001 -0.64899999 38
42.403 -2.4100001 -0.65399998 37
42.168999 -2.4849999 -0.66299999 30
41.816002 -2.552 -0.67000002 15
41.742001 -2.6340001 -0.68199998 36
41.908001 -2.734 -0.69700003 21
42.178001 -2.8410001 -0.71600002 106
42.179001 -2.928 -0.72899997 100
42.182999 -3.016 -0.74299997 77
40.015999 -2.9449999 -0.71899998 7
39.117001 -2.9590001 -0.71600002 2
38.084999 -2.961 -0.70999998 3
38.138 -3.0439999 -0.72500002 25
0 0 0 2
21.889 -1.8380001 -0.43200001 9
21.237 -1.827 -0.42699999 1
0 0 0 0
0 0 0 1
20.358 -1.878 -0.433 1
19.938 -1.88 -0.43200001 1
19.611 -1.8890001 -0.433 1
19.368999 -1.905 -0.43599999 1
18.934999 -1.901 -0.43399999 4
18.711 -1.9170001 -0.43700001 3
18.698 -1.9529999 -0.44499999 3
18.431 -1.9630001 -0.44600001 1
0 0 0 25
0 0 0 25
0 0 0 51
18.351 -2.1029999 -0.477 77
18.313 -2.135 -0.48500001 20
0 0 0 25
0 0 0 25
0 0 0 0
0 0 0 0
0 0 0 1
18.025999 -2.3180001 -0.52999997 1
18.070999 -2.359 -0.54000002 1
17.993999 -2.385 -0.54699999 1
18.007999 -2.4219999 -0.55699998 1
17.992001 -2.4549999 -0.56599998 4
17.99 -2.49 -0.57499999 2
18.002001 -2.527 -0.58499998 3
18.065001 -2.5710001 -0.597 5
18.143 -2.618 -0.60900003 5
18.146 -2.6530001 -0.61900002 6
18.143999 -2.688 -0.62900001 7
18.111 -2.7179999 -0.63800001 9
18.128 -2.7550001 -0.64899999 8
18.163 -2.7950001 -0.66000003 7
18.028 -2.8080001 -0.66500002 2
18.055 -2.8469999 -0.67699999 3
18.028 -2.8770001 -0.68599999 3
18.059999 -2.9159999 -0.69800001 2
18.059999 -2.95 -0.70899999 3
18.146 -2.9979999 -0.72299999 3
18.156 -3.0350001 -0.73400003 3
18.162001 -3.0699999 -0.745 3
18.186001 -3.108 -0.75700003 2
18.240999 -3.151 -0.77100003 2
18.370001 -3.207 -0.787 3
18.471001 -3.2579999 -0.80299997 2
18.700001 -3.3329999 -0.82499999 4
18.757999 -3.378 -0.83899999 5
18.506001 -3.3659999 -0.83899999 3
18.541 -3.4059999 -0.85299999 5
18.559 -3.4430001 -0.86500001 3
18.573 -3.4790001 -0.87800002 5
18.593 -3.5150001 -0.89099997 4
18.632 -3.556 -0.90499997 4
18.629999 -3.5880001 -0.917 4
18.643 -3.6240001 -0.93000001 4
18.767 -3.681 -0.94800001 4
19.084 -3.776 -0.977 3
0 0 0 53
20.756001 -4.1789999 -1.09 31
20.757 -4.2150002 -1.104 33
20.735001 -4.2459998 -1.117 30
20.702999 -4.2740002 -1.1289999 28
20.646999 -4.2979999 -1.14 23
0 0 0 0
0 0 0 0
0 0 0 1
17.584 -3.777 -1.0190001 1
17.181 -3.7190001 -1.007 1
16.653999 -3.632 -0.98799998 2
16.252001 -3.5710001 -0.97600001 2
16.004 -3.543 -0.972 2
15.69 -3.4979999 -0.96399999 2
16.114 -3.619 -1.001 2
15.76 -3.5650001 -0.99000001 2
15.5 -3.53 -0.98500001 3
15.228 -3.4920001 -0.97799999 2
14.933 -3.448 -0.97000003 2
14.614 -3.3970001 -0.95999998 2
14.311 -3.349 -0.94999999 2
14.008 -3.3 -0.94 2
13.724 -3.2539999 -0.93099999 3
13.507 -3.223 -0.926 3
13.261 -3.184 -0.91900003 3
13.074 -3.1589999 -0.91500002 3
12.843 -3.122 -0.90799999 3
12.677 -3.0999999 -0.90600002 3
12.49 -3.073 -0.90100002 3
12.294 -3.043 -0.89600003 3
12.104 -3.013 -0.89099997 3
11.884 -2.9749999 -0.88300002 3
11.668 -2.938 -0.87599999 3
11.479 -2.9070001 -0.87 2
11.309 -2.8800001 -0.86500001 2
11.16 -2.8570001 -0.86199999 2
10.994 -2.8299999 -0.85799998 2
10.833 -2.8039999 -0.85299999 2
10.676 -2.7780001 -0.84899998 3
10.526 -2.753 -0.84399998 3
10.34 -2.7179999 -0.83700001 3
10.208 -2.697 -0.83399999 3
10.073 -2.675 -0.83099997 3
9.9029999 -2.6429999 -0.824 4
9.7440004 -2.6129999 -0.81800002 3
9.5760002 -2.5810001 -0.81099999 4
9.4540005 -2.5599999 -0.80699998 5
9.3199997 -2.5350001 -0.80299997 5
9.1800003 -2.5090001 -0.79699999 8
9.0690002 -2.49 -0.79400003 8
8.9639997 -2.4719999 -0.792 11
8.8769999 -2.4590001 -0.79100001 16
8.8059998 -2.45 -0.79100001 18
8.7489996 -2.444 -0.792 16
8.677 -2.434 -0.792 14
8.5810003 -2.418 -0.78899997 16
8.5170002 -2.4089999 -0.79000002 9
8.427 -2.3940001 -0.787 8
8.3190002 -2.3729999 -0.78399998 5
8.191 -2.345 -0.778 6
8.0710001 -2.3199999 -0.77200001 4
7.9439998 -2.2920001 -0.76599997 4
7.8210001 -2.266 -0.75999999 4
7.7519999 -2.2539999 -0.759 4
7.6830001 -2.2420001 -0.75700003 4
7.5869999 -2.2219999 -0.75300002 5
7.493 -2.2030001 -0.75 4
7.414 -2.187 -0.74699998 4
7.342 -2.1730001 -0.745 5
7.2589998 -2.1559999 -0.74199998 4
7.191 -2.1429999 -0.74000001 4
7.1129999 -2.1270001 -0.73699999 4
7.0469999 -2.1140001 -0.73500001 5
6.9809999 -2.1010001 -0.73299998 4
6.914 -2.0869999 -0.73100001 5
6.842 -2.072 -0.72799999 5
6.7680001 -2.056 -0.72500002 5
6.7020001 -2.0420001 -0.72299999 5
6.6630001 -2.036 -0.72299999 4
6.5939999 -2.0209999 -0.72100002 5
6.5209999 -2.0039999 -0.71700001 5
6.4679999 -1.994 -0.71600002 5
6.3959999 -1.977 -0.71200001 5
6.3530002 -1.969 -0.71200001 5
6.296 -1.956 -0.70999998 5
6.243 -1.9450001 -0.708 4
6.1880002 -1.933 -0.70599997 4
6.1350002 -1.921 -0.704 4
6.0780001 -1.908 -0.70200002 4
6.027 -1.896 -0.69999999 4
5.9699998 -1.883 -0.69700003 4
5.941 -1.878 -0.69800001 4
5.8769999 -1.862 -0.69400001 3
5.842 -1.855 -0.69400001 4
5.7839999 -1.841 -0.69099998 3
5.737 -1.829 -0.68900001 3
5.698 -1.821 -0.68800002 4
5.6630001 -1.813 -0.68699998 4
5.6269999 -1.8049999 -0.68699998 3
5.5749998 -1.7920001 -0.68400002 3
5.5409999 -1.785 -0.68300003 3
5.4980001 -1.774 -0.68099999 3
5.4640002 -1.766 -0.68099999 3
5.4310002 -1.7589999 -0.68000001 3
5.4070001 -1.7539999 -0.68000001 3
5.3569999 -1.7410001 -0.67699999 3
5.3140001 -1.73 -0.67500001 3
5.2859998 -1.723 -0.67500001 3
5.2470002 -1.7130001 -0.67299998 3
5.1999998 -1.7 -0.67000002 3
5.1810002 -1.697 -0.671 3
5.1490002 -1.689 -0.67000002 3
5.1279998 -1.684 -0.67000002 3
5.0939999 -1.675 -0.66799998 3
5.0630002 -1.6670001 -0.667 3
5.0320001 -1.659 -0.66600001 3
4.9959998 -1.649 -0.66399997 3
4.9699998 -1.642 -0.66399997 3
4.9310002 -1.631 -0.66100001 3
4.9089999 -1.626 -0.66100001 3
4.8730001 -1.615 -0.65899998 3
4.842 -1.6059999 -0.65700001 3
4.822 -1.601 -0.65700001 3
4.7979999 -1.595 -0.65600002 3
4.7859998 -1.592 -0.65700001 3
4.7519999 -1.582 -0.65499997 3
4.7210002 -1.573 -0.65399998 3
4.7049999 -1.569 -0.65399998 3
4.6669998 -1.557 -0.65100002 3
4.651 -1.553 -0.65100002 3
4.625 -1.545 -0.64999998 3
4.599 -1.5369999 -0.648 3
4.5760002 -1.53 -0.64700001 3
4.5560002 -1.524 -0.64700001 3
4.5380001 -1.5190001 -0.64700001 3
4.5120001 -1.511 -0.64499998 3
4.4959998 -1.506 -0.64499998 3
4.4710002 -1.498 -0.64300001 3
4.4590001 -1.494 -0.64399999 3
4.4320002 -1.4859999 -0.64200002 5
4.4159999 -1.4809999 -0.64200002 2
4.4060001 -1.478 -0.64200002 2
4.3800001 -1.469 -0.63999999 4
4.3740001 -1.467 -0.64099997 2
4.348 -1.4579999 -0.639 2
4.3449998 -1.457 -0.64099997 2
4.3249998 -1.451 -0.63999999 2
4.2979999 -1.442 -0.63700002 4
4.2909999 -1.439 -0.63800001 2
4.277 -1.434 -0.63800001 2
4.2729998 -1.432 -0.639 2
4.237 -1.42 -0.63499999 4
4.2340002 -1.418 -0.63599998 2
4.2119999 -1.41 -0.63499999 3
4.198 -1.405 -0.634 2
4.1849999 -1.4 -0.634 2
4.171 -1.395 -0.63300002 2
4.158 -1.39 -0.63300002 2
4.1399999 -1.383 -0.63099998 3
4.1220002 -1.376 -0.63 3
4.1170001 -1.373 -0.63099998 3
4.0910001 -1.364 -0.62800002 2
4.092 -1.363 -0.63 3
4.0689998 -1.355 -0.62699997 3
4.046 -1.346 -0.625 2
4.0320001 -1.34 -0.62400001 2
4.0539999 -1.346 -0.62900001 3
4.0100002 -1.33 -0.62300003 3
4.0089998 -1.329 -0.62400001 3
3.9909999 -1.321 -0.62300003 2
3.983 -1.317 -0.62199998 3
3.9719999 -1.312 -0.62199998 2
3.9530001 -1.304 -0.62 2
3.964 -1.307 -0.62300003 1
3.9330001 -1.295 -0.61900002 1
3.9419999 -1.296 -0.62099999 1
3.937 -1.293 -0.62099999 2
3.9749999 -1.303 -0.62800002 3
3.9300001 -1.2869999 -0.62199998 3
3.934 -1.286 -0.62300003 2
3.914 -1.278 -0.62099999 2
3.8900001 -1.268 -0.61799997 2
3.9200001 -1.276 -0.62300003 3
3.938 -1.28 -0.62699997 2
3.8889999 -1.262 -0.62 2
3.8900001 -1.26 -0.62099999 3
3.8740001 -1.252 -0.61900002 2
3.8729999 -1.25 -0.61900002 2
3.9130001 -1.26 -0.62599999 3
3.865 -1.243 -0.61900002 2
3.8369999 -1.2309999 -0.61500001 2
3.8540001 -1.235 -0.61900002 2
3.8629999 -1.235 -0.62 3
3.8440001 -1.226 -0.61799997 2
3.8640001 -1.23 -0.62199998 2
3.835 -1.2180001 -0.61699998 2
3.8069999 -1.207 -0.61299998 2
3.8829999 -1.228 -0.62599999 3
3.8670001 -1.22 -0.62300003 2
3.8529999 -1.2130001 -0.62199998 2
3.855 -1.211 -0.62199998 3
3.826 -1.199 -0.61799997 2
3.859 -1.206 -0.62300003 3
3.8570001 -1.2029999 -0.62300003 3
3.895 -1.211 -0.62900001 3
3.836 -1.1900001 -0.62 3
3.835 -1.187 -0.62 2
3.8610001 -1.191 -0.62400001 2
3.823 -1.177 -0.61799997 2
3.8429999 -1.179 -0.62099999 2
3.8629999 -1.182 -0.625 2
3.8139999 -1.164 -0.61699998 2
3.8829999 -1.182 -0.62800002 2
3.816 -1.158 -0.61699998 2
3.819 -1.155 -0.61699998 3
3.8280001 -1.155 -0.61900002 2
3.8699999 -1.164 -0.625 3
3.8210001 -1.145 -0.61699998 2
3.7950001 -1.1339999 -0.61199999 2
3.8410001 -1.1440001 -0.62 2
3.839 -1.1390001 -0.61900002 2
3.858 -1.141 -0.62199998 2
3.823 -1.127 -0.616 2
3.905 -1.147 -0.62800002 3
3.858 -1.13 -0.62 3
3.8399999 -1.12 -0.61699998 2
3.8380001 -1.1160001 -0.616 2
3.9100001 -1.133 -0.62800002 3
3.8670001 -1.1160001 -0.62 2
3.8770001 -1.115 -0.62099999 2
3.8870001 -1.114 -0.62199998 3
3.885 -1.109 -0.62099999 2
3.862 -1.098 -0.61699998 2
3.885 -1.1 -0.62 2
3.8659999 -1.09 -0.616 2
3.8659999 -1.086 -0.61500001 2
3.905 -1.092 -0.62099999 2
3.8759999 -1.08 -0.61500001 2
3.891 -1.08 -0.61699998 2
3.9219999 -1.084 -0.62099999 2
3.938 -1.0829999 -0.62199998 2
3.9590001 -1.084 -0.625 3
3.8900001 -1.061 -0.61299998 2
3.9119999 -1.062 -0.61500001 2
3.921 -1.0599999 -0.616 2
3.948 -1.062 -0.61900002 2
3.964 -1.062 -0.62 2
3.957 -1.0549999 -0.61799997 2
3.9660001 -1.052 -0.61799997 2
4.0009999 -1.056 -0.62300003 3
4.0300002 -1.059 -0.62599999 2
4.013 -1.049 -0.62199998 2
4.0250001 -1.0470001 -0.62199998 2
4.0349998 -1.044 -0.62300003 2
4.0339999 -1.039 -0.62099999 2
4.0110002 -1.028 -0.616 2
4.0669999 -1.0369999 -0.62300003 2
4.0570002 -1.029 -0.62 2
4.0760002 -1.028 -0.62199998 2
4.119 -1.033 -0.62699997 2
4.1079998 -1.025 -0.62300003 2
4.1170001 -1.021 -0.62300003 2
4.1500001 -1.024 -0.62599999 2
4.1399999 -1.016 -0.62300003 3
4.1529999 -1.013 -0.62300003 3
4.1739998 -1.012 -0.625 2
4.2020001 -1.013 -0.62699997 2
4.191 -1.005 -0.62300003 2
4.2150002 -1.005 -0.625 2
4.2620001 -1.01 -0.63 2
4.3010001 -1.012 -0.634 4
4.2940001 -1.005 -0.63099998 2
4.3239999 -1.005 -0.63300002 3
4.3439999 -1.0039999 -0.634 4
4.3509998 -0.99900001 -0.63300002 3
4.3629999 -0.995 -0.63200003 4
4.3839998 -0.99400002 -0.63300002 2
4.4060001 -0.99199998 -0.634 2
4.4200001 -0.98900002 -0.634 4
4.4510002 -0.98900002 -0.63499999 2
4.4569998 -0.98400003 -0.634 3
4.4860001 -0.98299998 -0.63499999 3
4.5159998 -0.98299998 -0.63700002 3
4.5339999 -0.98000002 -0.63700002 2
4.572 -0.98100001 -0.63999999 2
4.5890002 -0.97799999 -0.639 2
4.605 -0.97399998 -0.639 4
4.6329999 -0.97299999 -0.63999999 4
4.6669998 -0.97299999 -0.64200002 2
4.698 -0.972 -0.64300001 2
4.7280002 -0.97000003 -0.64399999 2
4.737 -0.96499997 -0.64200002 2
4.7709999 -0.96399999 -0.64399999 2
4.8150001 -0.96600002 -0.64700001 2
4.8540001 -0.96600002 -0.64899999 2
4.8759999 -0.96200001 -0.648 4
4.9250002 -0.96399999 -0.65100002 2
4.9400001 -0.95899999 -0.64999998 2
4.9679999 -0.95599997 -0.64999998 4
5.0240002 -0.95899999 -0.65399998 3
5.0450001 -0.95499998 -0.653 5
5.0809999 -0.954 -0.65399998 3
5.1209998 -0.95300001 -0.65499997 4
5.1560001 -0.95099998 -0.65600002 5
5.1989999 -0.94999999 -0.65799999 3
5.2389998 -0.949 -0.65899998 3
5.2839999 -0.949 -0.66000003 3
5.3390002 -0.94999999 -0.66299999 3
5.3699999 -0.94599998 -0.66299999 3
5.4120002 -0.94499999 -0.66399997 3
5.4569998 -0.94400001 -0.66500002 3
5.5 -0.94199997 -0.66600001 3
5.5710001 -0.94499999 -0.67000002 3
5.5970001 -0.94 -0.66799998 3
5.6469998 -0.93900001 -0.66900003 3
5.7069998 -0.93900001 -0.67199999 3
5.7579999 -0.93800002 -0.67299998 3
5.8200002 -0.93800002 -0.67500001 3
5.8909998 -0.94 -0.67799997 3
5.9450002 -0.93900001 -0.67900002 3
6.006 -0.93800002 -0.68099999 3
6.0869999 -0.94099998 -0.685 4
6.132 -0.93699998 -0.68400002 4
6.2090001 -0.93800002 -0.68800002 4
6.2789998 -0.93800002 -0.69 5
6.3530002 -0.93900001 -0.69199997 4
6.4130001 -0.93699998 -0.69300002 4
6.5 -0.93900001 -0.69599998 4
6.5929999 -0.94099998 -0.69999999 4
6.6700001 -0.94099998 -0.70200002 4
6.756 -0.94099998 -0.704 4
6.8460002 -0.94199997 -0.70700002 4
6.9710002 -0.94800001 -0.713 4
7.053 -0.94700003 -0.71499997 4
7.1430001 -0.94700003 -0.71700001 3
7.2470002 -0.94800001 -0.72000003 3
7.342 -0.94800001 -0.722 3
7.467 -0.95099998 -0.727 3
7.5949998 -0.95499998 -0.73199999 4
7.7259998 -0.958 -0.73699999 3
7.868 -0.96200001 -0.74199998 3
8.0059996 -0.96499997 -0.74699998 4
8.1300001 -0.96600002 -0.75 4
8.2770004 -0.96899998 -0.75400001 4
8.4110003 -0.97100002 -0.75800002 4
8.573 -0.97500002 -0.76300001 4
8.7139997 -0.97600001 -0.76599997 4
8.9049997 -0.98199999 -0.77399999 4
9.0699997 -0.98500001 -0.778 4
9.2709999 -0.991 -0.78500003 3
9.5690002 -1.006 -0.80000001 5
9.7799997 -1.012 -0.80599999 9
9.9540005 -1.013 -0.81 17
10.064 -1.007 -0.80699998 15
10.182 -1.001 -0.80500001 4
10.436 -1.008 -0.81300002 3
10.674 -1.013 -0.81999999 2
10.917 -1.017 -0.82599998 5
11.148 -1.02 -0.82999998 3
11.574 -1.039 -0.84799999 2
11.806 -1.039 -0.85100001 2
12.099 -1.045 -0.85799998 2
12.431 -1.052 -0.86699998 3
12.721 -1.0549999 -0.87199998 3
13.189 -1.072 -0.88800001 3
13.437 -1.069 -0.88800001 3
13.847 -1.0779999 -0.898 4
14.098 -1.074 -0.898 4
14.776 -1.101 -0.92299998 2
15.291 -1.113 -0.93599999 2
15.733 -1.119 -0.94300002 3
16.320999 -1.133 -0.958 2
16.989 -1.151 -0.97600001 2
17.679001 -1.168 -0.99400002 2
18.450001 -1.188 -1.013 2
19.323999 -1.212 -1.0369999 2
19.996 -1.221 -1.0470001 1
0 0 0 0
0 0 0 0
0 0 0 1
0 0 0 3
25.676001 -1.354 -1.176 3
0 0 0 0
0 0 0 4
30.495001 -1.4579999 -1.276 2
0 0 0 31
42.229 -1.881 -1.655 38
42.035 -1.803 -1.59 48
42.099998 -1.738 -1.536 35
42.409 -1.682 -1.49 51
42.507 -1.617 -1.436 75
42.609001 -1.551 -1.3789999 37
43.176998 -1.501 -1.3380001 51
43.483002 -1.442 -1.2869999 66
43.707001 -1.378 -1.233 15
0 0 0 0
0 0 0 12
0 0 0 0
0 0 0 5
0 0 0 36
0 0 0 0
0 0 0 75
71.790001 -1.348 -1.21 48
72.234001 -1.243 -1.113 63
0 0 0 0
0 0 0 0
0 0 0 0
0 0 0 29
0 0 0 0
0 0 0 113
133.427 -0.84600002 -0.69300002 94
133.28999 -0.64099997 -0.49399999 86
133.265 -0.43900001 -0.29899999 107
133.215 -0.235 -0.1 76
133.147 -0.032000002 0.098999999 42
0 0 0 0
0 0 0 0
0 0 0 0
0 0 0 25
0 0 0 25
0 0 0 0
0 0 0 0
0 0 0 0
0 0 0 0
0 0 0 0
0 0 0 0
0 0 0 0
0 0 0 0
0 0 0 15
89.857002 1.964 2.125 18
87.551003 2.039 2.207 14
87.271004 2.155 2.3340001 14
87.175003 2.276 2.4679999 15
87.428001 2.405 2.6099999 19
0 0 0 0
0 0 0 32
89.943001 2.8510001 3.1099999 13
0 0 0 0
0 0 0 0
0 0 0 25
88.161003 3.277 3.605 31
87.723999 3.3800001 3.7260001 36
87.307999 3.4820001 3.848 36
86.988998 3.585 3.97 30
91.473999 3.892 4.3210001 17
0 0 0 0
0 0 0 17
87.962997 4.0910001 4.5780001 28
0 0 0 0
0 0 0 0
0 0 0 57
116.81 6.0349998 6.8260002 42
0 0 0 18
88.168999 4.7789998 5.434 21
89.822998 4.9809999 5.6789999 15
89.505997 5.0760002 5.8039999 19
0 0 0 0
0 0 0 18
89.579002 5.414 6.244 31
89.499001 5.5190001 6.3829999 40
89.440002 5.625 6.5240002 38
89.168999 5.7179999 6.6500001 25
0 0 0 25
117.061 7.7870002 9.1079998 37
117.072 7.927 9.2989998 43
117.099 8.0670004 9.4910002 49
117.045 8.198 9.6759996 49
117.083 8.3360004 9.8660002 59
116.982 8.4639997 10.048 53
117.101 8.6079998 10.248 22
0 0 0 0
0 0 0 0
0 0 0 41
127.171 9.9219999 11.953 52
127.097 10.058 12.153 38
0 0 0 0
0 0 0 25
116.708 9.618 11.725 85
116.676 9.7449999 11.913 95
116.649 9.868 12.099 107
116.643 9.9870005 12.283 94
116.69 10.115 12.477 78
116.675 10.235 12.665 79
116.673 10.356 12.853 92
116.661 10.475 13.037 77
116.666 10.595 13.227 56
116.598 10.708 13.411 41
0 0 0 0
0 0 0 0
0 0 0 0
0 0 0 0
0 0 0 0
0 0 0 0
0 0 0 0
0 0 0 0
0 0 0 0
0 0 0 0
0 0 0 0
0 0 0 0
0 0 0 29
116.984 12.305 16.066999 33
116.652 12.374 16.205999 52
116.618 12.473 16.385 52
116.549 12.567 16.559 77
116.597 12.673 16.75 74
116.565 12.77 16.927999 76
116.563 12.868 17.110001 70
116.589 12.969 17.297001 64
116.579 13.068 17.478001 44
116.585 13.164 17.66 29
116.652 13.263 17.847 31
0 0 0 0
0 0 0 29
116.703 13.548 18.396 30
116.639 13.631 18.562 33
116.789 13.739 18.764999 31
116.771 13.825 18.940001 32
116.787 13.915 19.121 28
116.65 13.986 19.275999 29
116.729 14.081 19.466 38
116.667 14.158 19.632 31
116.632 14.238 19.802 28
116.691 14.328 19.987 29
116.673 14.408 20.155001 36
116.642 14.485 20.32 39
116.556 14.554 20.479 54
116.55 14.632 20.65 65
116.517 14.706 20.813 70
116.508 14.782 20.983 73
116.498 14.856 21.152 76
116.5 14.931 21.322001 67
116.578 15.015 21.506001 45
116.541 15.083 21.669001 49
116.675 15.173 21.858 29
116.545 15.227 22.002001 23
0 0 0 0
0 0 0 26
116.658 15.448 22.521999 25
116.651 15.514 22.681999 25
116.577 15.57 22.832001 22
116.676 15.648 23.014999 28
116.729 15.719 23.184 22
116.649 15.772 23.33 22
116.743 15.846 23.511 24
116.656 15.895 23.653 29
116.632 15.949 23.804001 22
116.69 16.016001 23.972 25
116.562 16.055 24.107 29
116.581 16.118 24.268 31
116.56 16.171 24.42 41
116.446 16.209999 24.551001 52
116.518 16.274 24.721001 63
116.468 16.319 24.864 56
116.479 16.372 25.018999 60
116.463 16.421 25.167 62
116.441 16.466999 25.313 61
116.46 16.518999 25.466999 74
116.466 16.568001 25.614 75
116.453 16.613001 25.759001 55
116.421 16.653999 25.899 44
116.508 16.711 26.065001 42
116.463 16.749001 26.197001 47
116.517 16.799999 26.354 47
116.479 16.836 26.489 52
116.467 16.875 26.628 44
116.467 16.916 26.767 54
116.463 16.954 26.906 52
116.496 16.997 27.052999 51
116.493 17.035 27.188 53
116.523 17.075001 27.332001 55
116.503 17.105 27.466999 55
116.48 17.136999 27.594 44
116.528 17.177 27.74 56
116.484 17.202 27.863001 58
116.464 17.23 27.99 46
116.476 17.264 28.122 54
116.498 17.297001 28.254 56
116.431 17.315001 28.367001 43
116.493 17.351 28.51 48
116.475 17.371 28.632 50
116.478 17.399 28.756001 54
116.485 17.424 28.882 51
116.525 17.455999 29.014999 41
116.521 17.478001 29.136999 47
116.449 17.488001 29.24 54
116.505 17.517 29.374001 44
116.536 17.541 29.500999 48
116.469 17.551001 29.599001 47
116.45 17.565001 29.711 46
116.479 17.583 29.834 41
116.489 17.6 29.951 43
116.538 17.621 30.076 43
116.521 17.636 30.184 43
116.498 17.643999 30.285999 41
116.489 17.653999 30.393 41
116.532 17.674999 30.511999 49
116.409 17.664 30.589001 46
116.522 17.691999 30.722 42
116.498 17.695999 30.82 51
116.526 17.707001 30.931 57
116.503 17.709999 31.027 51
116.497 17.716 31.122999 56
116.468 17.716 31.215 59
116.5 17.724001 31.322001 59
116.504 17.726999 31.419001 62
116.54 17.732 31.523001 68
116.492 17.729 31.604 56
116.523 17.733 31.705 62
116.484 17.726 31.785999 69
116.455 17.719 31.868999 60
116.478 17.719999 31.964001 67
116.544 17.725 32.07 62
116.523 17.716999 32.150002 59
116.529 17.712 32.237 57
116.501 17.705 32.312 61
116.528 17.701 32.402 51
116.554 17.695999 32.490002 54
116.553 17.687 32.569 67
116.574 17.679001 32.653999 54
116.514 17.660999 32.710999 56
116.562 17.653999 32.803001 52
116.527 17.638 32.865002 55
116.605 17.636 32.959 53
116.578 17.618999 33.021 41
116.596 17.607 33.096001 48
116.561 17.580999 33.155998 47
116.621 17.575001 33.237999 42
116.562 17.548 33.286999 45
116.581 17.532 33.356998 48
116.616 17.52 33.428001 45
116.581 17.490999 33.480999 57
116.559 17.469 33.534 43
116.667 17.462999 33.623001 51
116.557 17.423 33.648998 50
116.602 17.408001 33.716 44
116.602 17.379 33.771 43
116.614 17.355 33.827999 45
116.629 17.333 33.881001 44
116.642 17.308001 33.935001 41
116.604 17.275999 33.971001 49
116.627 17.25 34.025002 42
116.692 17.233 34.087002 41
116.664 17.197001 34.123001 48
116.659 17.165001 34.164001 42
116.688 17.136999 34.214001 38
116.629 17.094999 34.237 39
116.618 17.059 34.271999 46
116.683 17.033001 34.327999 43
116.73 17.007 34.375 47
116.616 16.954 34.375 42
116.595 16.914 34.402 42
116.694 16.893 34.459999 43
116.679 16.849001 34.486 42
116.675 16.812 34.511002 46
116.641 16.766001 34.528 47
116.717 16.736 34.575001 48
116.774 16.702 34.615002 44
116.733 16.653 34.625 44
116.699 16.604 34.634998 47
116.689 16.562 34.648998 46
116.693 16.517 34.667999 46
116.753 16.48 34.701 46
116.696 16.424999 34.698002 47
116.69 16.377001 34.709 57
116.683 16.327999 34.717999 61
116.706 16.285999 34.733002 69
116.657 16.229 34.727001 40
0 0 0 0
0 0 0 0
0 0 0 0
0 0 0 0
0 0 0 0
0 0 0 0
0 0 0 0
0 0 0 0
0 0 0 0
0 0 0 0
0 0 0 0
0 0 0 0
0 0 0 0
0 0 0 0
0 0 0 0
0 0 0 0
0 0 0 0
0 0 0 0
0 0 0 0
0 0 0 0
0 0 0 0
0 0 0 0
0 0 0 24
117.155 14.912 34.602001 27
117.099 14.842 34.554001 27
117.072 14.772 34.514999 28
116.98 14.693 34.453999 24
0 0 0 0
0 0 0 23
116.982 14.491 34.344002 26
117.009 14.424 34.312 24
116.98 14.35 34.263 26
0 0 0 0
0 0 0 28
117.112 14.152 34.168999 29
117.082 14.076 34.112 26
117.095 14.004 34.067001 24
117.032 13.926 33.997002 27
117.08 13.858 33.958 30
117.04 13.778 33.893002 29
117.134 13.714 33.866001 28
117.012 13.624 33.773998 29
117.01 13.551 33.715 30
116.988 13.472 33.648998 31
117.106 13.409 33.622002 33
117.016 13.321 33.534 35
116.967 13.237 33.456001 43
116.976 13.163 33.393002 41
116.939 13.08 33.314999 38
116.958 13.003 33.251999 46
116.946 12.922 33.179001 56
116.993 12.847 33.119999 60
116.96 12.762 33.037998 59
116.99 12.684 32.972 59
116.964 12.604 32.889 67
116.996 12.525 32.82 52
117.037 12.447 32.752998 59
116.993 12.363 32.66 51
116.946 12.276 32.568001 55
117.003 12.198 32.498001 44
117.081 12.125 32.435001 39
117.081 12.041 32.348999 34
117.227 11.971 32.300999 32
117.173 11.882 32.200001 33
117.284 11.807 32.139 34
117.336 11.727 32.061001 26
117.46 11.656 32.001999 23
0 0 0 0
0 0 0 0
0 0 0 0
0 0 0 0
0 0 0 0
0 0 0 0
0 0 0 0
0 0 0 0
0 0 0 0
0 0 0 0
0 0 0 0
0 0 0 0
0 0 0 0
0 0 0 0
0 0 0 0
0 0 0 0
0 0 0 0
0 0 0 0
0 0 0 0
0 0 0 0
0 0 0 0
0 0 0 0
0 0 0 27
117.219 9.4940004 29.26 43
117.177 9.4020004 29.122 49
117.186 9.3109999 28.995001 55
117.178 9.2209997 28.863001 56
117.135 9.1260004 28.719 71
117.211 9.0389996 28.604 63
117.171 8.9440002 28.459 84
117.182 8.8520002 28.325001 64
117.261 8.7650003 28.205999 46
117.307 8.6759996 28.077999 44
117.308 8.5860004 27.938999 30
117.606 8.5150003 27.867001 22
0 0 0 0
0 0 0 0
0 0 0 0
0 0 0 24
0 0 0 0
0 0 0 0
0 0 0 0
0 0 0 0
0 0 0 0
0 0 0 0
0 0 0 0
0 0 0 0
0 0 0 0
0 0 0 0
0 0 0 0
0 0 0 26
117.224 6.915 25.179001 45
117.25 6.8270001 25.021999 51
117.306 6.7379999 24.868999 71
117.245 6.6420002 24.688999 65
117.283 6.552 24.530001 62
117.262 6.4590001 24.356001 57
117.366 6.3720002 24.208 49
117.43 6.2839999 24.049999 39
117.552 6.2010002 23.903999 32
117.573 6.1100001 23.735001 26
117.606 6.02 23.566999 24
117.603 5.9289999 23.389999 26
117.554 5.8379998 23.205 27
117.543 5.7459998 23.025 26
117.54 5.6550002 22.844999 28
117.598 5.5669999 22.676001 30
117.431 5.4689999 22.462 28
117.715 5.3909998 22.334 26
117.596 5.296 22.127001 30
117.681 5.21 21.958 29
117.695 5.1230001 21.777 37
117.6 5.0300002 21.573 37
117.346 4.9299998 21.339001 31
117.28 4.8390002 21.138 38
117.276 4.7529998 20.950001 65
117.368 4.6659999 20.774 74
117.35 4.5770001 20.579 42
119.833 4.5869999 20.82 54
119.844 4.4990001 20.624001 67
119.851 4.4099998 20.427 72
119.836 4.3239999 20.226999 72
119.885 4.2379999 20.035 51
119.959 4.1529999 19.844999 40
120.116 4.0700002 19.667999 28
120.039 3.9809999 19.451 30
119.99 3.895 19.240999 32
120.038 3.8099999 19.042999 29
120.025 3.723 18.834 34
120.057 3.6400001 18.636999 29
119.991 3.553 18.417999 34
120.013 3.4690001 18.212 31
120.03 3.388 18.007 30
120.181 3.3080001 17.818001 27
120.093 3.2219999 17.593 28
120.01 3.1359999 17.367001 37
119.869 3.05 17.132999 45
119.89 2.971 16.924 61
119.9 2.8900001 16.709999 71
119.875 2.8080001 16.49 74
119.925 2.7290001 16.275999 71
119.9 2.648 16.055 53
120.174 2.5739999 15.872 36
120.26 2.4960001 15.663 32
120.197 2.418 15.437 23
0 0 0 0
0 0 0 0
0 0 0 0
0 0 0 0
0 0 0 0
0 0 0 0
0 0 0 0
0 0 0 32
120.023 1.729 13.393 37
119.99 1.6569999 13.164 50
119.885 1.5829999 12.923 57
119.925 1.513 12.701 72
119.898 1.441 12.471 78
119.869 1.369 12.237 77
119.883 1.301 12.01 79
119.923 1.23 11.776 78
119.962 1.163 11.553 59
120.009 1.094 11.324 36
120.044 1.028 11.096 33
120.031 0.96100003 10.859 38
120.026 0.89399999 10.623 40
120.07 0.82800001 10.391 34
119.999 0.764 10.151 36
120.01 0.699 9.9139996 41
119.99 0.63499999 9.6750002 43
119.972 0.57099998 9.4350004 52
119.93 0.50800002 9.1920004 38
120.034 0.44800001 8.9639997 25
120.174 0.38699999 8.7340002 26
120.188 0.32600001 8.4940004 40
120.176 0.266 8.2510004 40
120.226 0.206 8.0120001 47
120.172 0.147 7.7659998 42
120.137 0.089000002 7.5170002 46
120.113 0.033 7.2789998 49
119.982 -0.023 7.027 61
119.888 -0.077 6.7849998 69
119.865 -0.134 6.5320001 76
0 0 0 0
0 0 0 22
83.250999 -0.204 4.0279999 24
86.230003 -0.249 3.9949999 21
85.804001 -0.28400001 3.799 29
0 0 0 0
0 0 0 0
0 0 0 31
0 0 0 0
0 0 0 33
83.066002 -0.477 2.652 29
0 0 0 0
0 0 0 23
85.978996 -0.59100002 2.2079999 13
0 0 0 0
0 0 0 0
0 0 0 0
0 0 0 24
72.696999 -0.62800002 1.109 38
72.246002 -0.648 0.95099998 17
0 0 0 25
0 0 0 25
0 0 0 20
72.730003 -0.745 0.34400001 52
72.732002 -0.76700002 0.19 71
72.709999 -0.78799999 0.035 71
72.708 -0.80900002 -0.115 39
0 0 0 62
133.506 -1.559 -0.77200001 33
0 0 0 0
0 0 0 0
0 0 0 0
0 0 0 0
0 0 0 0
0 0 0 22
116.75 -1.5650001 -2.404 32
0 0 0 150
45.703999 -0.63200003 -1.133 165
45.685001 -0.64099997 -1.23 203
45.669998 -0.64999998 -1.326 255
45.632 -0.65799999 -1.4220001 255
45.622002 -0.667 -1.518 233
45.641998 -0.67500001 -1.6160001 173
45.568001 -0.68199998 -1.7079999 152
45.560001 -0.68900001 -1.804 4
0 0 0 0
0 0 0 2
0 0 0 1
0 0 0 1
0 0 0 0
0 0 0 1
0 0 0 1
0 0 0 2
15.681 -0.25600001 -0.92000002 2
14.747 -0.242 -0.89600003 2
13.951 -0.23 -0.87599999 3
13.262 -0.22 -0.861 3
12.704 -0.211 -0.852 3
12.1 -0.20200001 -0.83700001 2
11.584 -0.19400001 -0.82599998 2
11.064 -0.186 -0.81099999 2
10.6 -0.17900001 -0.80000001 4
10.181 -0.17200001 -0.78899997 4
9.8000002 -0.16599999 -0.77999997 5
9.4440002 -0.16 -0.77200001 3
9.1009998 -0.155 -0.76300001 4
8.7229996 -0.148 -0.74900001 3
8.4350004 -0.14399999 -0.74199998 4
8.1079998 -0.138 -0.73000002 4
7.796 -0.133 -0.71799999 4
7.5190001 -0.12800001 -0.708 12
7.3000002 -0.124 -0.70200002 12
7.1069999 -0.121 -0.699 11
6.895 -0.117 -0.69199997 10
6.743 -0.114 -0.69099998 10
6.553 -0.111 -0.685 9
6.323 -0.106 -0.67299998 5
6.1409998 -0.103 -0.667 4
5.98 -0.1 -0.662 4
5.8249998 -0.097000003 -0.65600002 4
5.658 -0.093999997 -0.64899999 4
5.5180001 -0.090999998 -0.64499998 4
5.4200001 -0.089000002 -0.64399999 4
5.2909999 -0.086000003 -0.63999999 3
5.1799998 -0.083999999 -0.63700002 3
5.0689998 -0.082000002 -0.63300002 3
4.9689999 -0.079000004 -0.63099998 3
4.8800001 -0.077 -0.62900001 4
4.7919998 -0.075000003 -0.62800002 3
4.671 -0.072999999 -0.62099999 3
4.5799999 -0.071000002 -0.61799997 4
4.5120001 -0.068999998 -0.61799997 3
4.4109998 -0.067000002 -0.61299998 2
4.3150001 -0.064999998 -0.60900003 2
4.276 -0.064000003 -0.61199999 2
4.211 -0.061999999 -0.611 3
4.0910001 -0.059 -0.602 2
4.0640001 -0.057999998 -0.60600001 3
3.9519999 -0.056000002 -0.597 2
3.941 -0.055 -0.60299999 2
3.967 -0.055 -0.61500001 3
3.7820001 -0.050999999 -0.59299999 3
3.7349999 -0.050000001 -0.59299999 2
3.6659999 -0.048 -0.58999997 1
3.6630001 -0.046999998 -0.59600002 3
3.54 -0.045000002 -0.583 1
3.5150001 -0.044 -0.58600003 1
3.467 -0.043000001 -0.58399999 2
3.4860001 -0.041999999 -0.59399998 2
3.4319999 -0.039999999 -0.59200001 2
3.45 -0.039999999 -0.60100001 2
3.2909999 -0.037 -0.57999998 2
3.293 -0.035999998 -0.58700001 2
3.243 -0.035 -0.58399999 2
3.237 -0.034000002 -0.58899999 1
3.1600001 -0.032000002 -0.58099997 1
3.1760001 -0.032000002 -0.58999997 1
3.191 -0.030999999 -0.59799999 1
3.138 -0.028999999 -0.59399998 1
3.029 -0.028000001 -0.579 1
3.033 -0.027000001 -0.58600003 1
2.994 -0.025 -0.58399999 1
2.971 -0.024 -0.58499998 1
2.9230001 -0.023 -0.58099997 1
2.885 -0.022 -0.57800001 1
2.8050001 -0.02 -0.56699997 1
2.766 -0.018999999 -0.56400001 1
2.7390001 -0.017999999 -0.56400001 1
2.71 -0.017000001 -0.56199998 1
2.7279999 -0.016000001 -0.57099998 1
2.727 -0.015 -0.57599998 1
2.6229999 -0.014 -0.55800003 1
2.598 -0.013 -0.55800003 1
2.559 -0.011 -0.55400002 1
2.5450001 -0.0099999998 -0.55500001 1
2.5209999 -0.0089999996 -0.55400002 1
2.51 -0.0089999996 -0.55599999 1
2.4809999 -0.0070000002 -0.55400002 1
2.457 -0.0060000001 -0.55299997 1
2.4360001 -0.0049999999 -0.55199999 1
2.4170001 -0.0049999999 -0.55199999 1
2.398 -0.0040000002 -0.55199999 1
2.378 -0.003 -0.551 1
2.352 -0.0020000001 -0.54900002 1
2.3340001 -0.001 -0.54900002 1
2.323 0 -0.55000001 1
2.299 0 -0.54799998 1
2.2839999 0.001 -0.54799998 1
2.2679999 0.0020000001 -0.54799998 1
2.2520001 0.003 -0.54799998 1
2.2360001 0.0040000002 -0.54699999 1
2.2309999 0.0049999999 -0.55000001 1
2.2049999 0.0060000001 -0.54699999 1
2.1849999 0.0070000002 -0.54500002 1
2.1760001 0.0070000002 -0.546 1
2.161 0.0080000004 -0.546 1
2.1340001 0.0089999996 -0.54299998 1
2.122 0.0099999998 -0.54299998 1
2.1129999 0.011 -0.54299998 1
2.1040001 0.012 -0.54400003 1
2.079 0.013 -0.54100001 1
2.0699999 0.013 -0.542 1
2.0510001 0.014 -0.54000002 1
2.0469999 0.015 -0.542 1
2.0350001 0.016000001 -0.542 1
2.0280001 0.017000001 -0.54299998 1
2.013 0.017999999 -0.542 1
1.998 0.017999999 -0.54100001 1
1.9809999 0.018999999 -0.53899997 1
1.973 0.02 -0.53899997 1
1.9579999 0.021 -0.53799999 1
1.95 0.022 -0.53899997 1
1.9400001 0.022 -0.53799999 1
1.9299999 0.023 -0.53799999 1
1.924 0.024 -0.53899997 1
1.908 0.025 -0.537 1
1.904 0.026000001 -0.53899997 1
1.887 0.026000001 -0.53600001 1
1.882 0.027000001 -0.537 1
1.87 0.028000001 -0.53600001 1
1.865 0.028999999 -0.537 1
1.862 0.029999999 -0.53899997 1
1.846 0.029999999 -0.537 1
1.835 0.030999999 -0.53600001 1
1.831 0.032000002 -0.537 1
1.814 0.033 -0.53399998 1
1.813 0.033 -0.53600001 1
1.809 0.034000002 -0.537 1
1.795 0.035 -0.53500003 1
1.781 0.035 -0.53299999 1
1.78 0.035999998 -0.53500003 1
1.771 0.037 -0.53399998 1
1.763 0.037999999 -0.53399998 1
1.755 0.037999999 -0.53299999 1
1.742 0.039000001 -0.53100002 1
1.739 0.039999999 -0.53200001 1
1.73 0.041000001 -0.53200001 1
1.723 0.041000001 -0.53100002 1
1.717 0.041999999 -0.53100002 1
1.714 0.043000001 -0.53200001 1
1.712 0.044 -0.53299999 1
1.7029999 0.044 -0.53200001 1
1.699 0.045000002 -0.53299999 1
1.6950001 0.046 -0.53299999 1
1.677 0.046 -0.52899998 1
1.671 0.046999998 -0.52899998 1
1.673 0.048 -0.53100002 1
1.664 0.048 -0.52999997 1
1.653 0.048999999 -0.528 1
1.638 0.048999999 -0.52499998 1
1.637 0.050000001 -0.52600002 1
1.6339999 0.050999999 -0.52700001 1
1.632 0.052000001 -0.528 1
1.622 0.052000001 -0.52499998 1
1.618 0.052999999 -0.52600002 1
1.6160001 0.054000001 -0.52600002 1
1.6160001 0.054000001 -0.528 1
1.6059999 0.055 -0.52600002 1
1.602 0.056000002 -0.52600002 1
1.594 0.056000002 -0.52499998 1
1.5880001 0.057 -0.52399999 1
1.587 0.057 -0.52499998 1
1.581 0.057999998 -0.52399999 1
1.584 0.059 -0.52600002 1
1.58 0.059999999 -0.52600002 1
1.573 0.059999999 -0.52499998 1
1.572 0.061000001 -0.52600002 1
1.561 0.061000001 -0.523 1
1.553 0.061999999 -0.52200001 1
1.557 0.063000001 -0.52399999 1
1.549 0.063000001 -0.52200001 1
1.552 0.064000003 -0.52399999 1
1.546 0.064999998 -0.523 1
1.553 0.066 -0.52700001 1
1.561 0.067000002 -0.52999997 1
1.554 0.067000002 -0.52899998 1
1.5420001 0.067000002 -0.52499998 1
1.523 0.067000002 -0.51999998 1
1.5190001 0.068000004 -0.51899999 1
1.53 0.068999998 -0.52399999 1
1.518 0.068999998 -0.52100003 1
1.518 0.07 -0.52100003 1
1.51 0.071000002 -0.51899999 1
1.507 0.071000002 -0.51899999 1
1.501 0.071999997 -0.51800001 1
1.501 0.071999997 -0.51800001 1
1.499 0.072999999 -0.51800001 1
1.495 0.072999999 -0.51700002 1
1.501 0.074000001 -0.51999998 1
1.494 0.075000003 -0.51800001 1
1.494 0.075999998 -0.51899999 1
1.497 0.075999998 -0.51999998 1
1.4910001 0.077 -0.51899999 1
1.493 0.078000002 -0.51999998 1
