# .PCD v0.7 - Point Cloud Data file format
VERSION 0.7
FIELDS x y z intensity
SIZE 4 4 4 4
TYPE F F F F
COUNT 1 1 1 1
WIDTH 1808
HEIGHT 1
VIEWPOINT 0 0 0 1 0 0 0
POINTS 1808
DATA ascii
43.911999 -2.527 -0.41800001 38
43.863998 -2.6170001 -0.41800001 45
43.750999 -2.701 -0.41800001 46
43.646999 -2.789 -0.41800001 90
43.639 -2.882 -0.41999999 86
41.334999 -2.8180001 -0.39899999 4
41.283001 -2.902 -0.40099999 10
40.306 -2.9200001 -0.39399999 6
39.625 -2.954 -0.389 42
39.619999 -3.0369999 -0.39199999 86
39.623001 -3.122 -0.39500001 15
0 0 0 1
0 0 0 0
0 0 0 0
0 0 0 0
0 0 0 1
21.056999 -1.926 -0.222 1
20.638 -1.931 -0.22 1
0 0 0 0
0 0 0 0
0 0 0 25
0 0 0 1
19.924999 -2.0969999 -0.229 46
20.007 -2.1470001 -0.233 152
19.929001 -2.1819999 -0.235 6
19.806999 -2.2090001 -0.237 1
19.783001 -2.247 -0.241 2
19.784 -2.2880001 -0.245 2
19.709 -2.3199999 -0.248 1
19.68 -2.358 -0.25099999 2
19.68 -2.398 -0.25600001 1
19.646 -2.434 -0.259 2
19.6 -2.4679999 -0.26300001 2
19.579 -2.506 -0.26699999 2
19.573 -2.546 -0.27200001 3
19.545 -2.5810001 -0.27599999 8
19.528 -2.618 -0.28099999 24
19.517 -2.6559999 -0.285 10
19.525 -2.697 -0.29100001 8
19.533001 -2.737 -0.296 5
19.525 -2.7750001 -0.301 5
19.516001 -2.812 -0.30599999 5
19.518 -2.852 -0.31099999 5
19.537001 -2.8929999 -0.317 5
19.518 -2.9289999 -0.32300001 6
19.575001 -2.9760001 -0.329 4
19.586 -3.017 -0.336 4
19.611 -3.059 -0.34200001 4
19.642 -3.102 -0.34900001 5
19.607 -3.135 -0.354 3
19.57 -3.168 -0.36000001 3
19.635 -3.217 -0.368 2
19.607 -3.2490001 -0.37400001 1
19.580999 -3.2839999 -0.38 1
19.614 -3.3269999 -0.38699999 1
19.697001 -3.3789999 -0.396 1
19.781 -3.431 -0.405 3
19.809999 -3.474 -0.412 1
0 0 0 0
0 0 0 0
0 0 0 1
19.737 -3.6110001 -0.44 1
0 0 0 0
0 0 0 22
22.483999 -4.2389998 -0.528 31
22.450001 -4.2740002 -0.53600001 27
22.348 -4.296 -0.54299998 27
22.351 -4.3379998 -0.55199999 23
22.358999 -4.381 -0.56099999 8
0 0 0 20
35.964001 -7.1789999 -0.93400002 46
35.984001 -7.2480001 -0.949 47
35.969002 -7.3099999 -0.96399999 41
35.943001 -7.3699999 -0.98000002 19
0 0 0 16
20.004999 -4.1739998 -0.56300002 22
19.972 -4.2020001 -0.57099998 30
19.896999 -4.2210002 -0.57800001 28
19.853001 -4.2459998 -0.58499998 36
19.833 -4.277 -0.59399998 39
19.808001 -4.3060002 -0.602 45
19.77 -4.3319998 -0.61000001 43
19.749001 -4.362 -0.61900002 46
19.735001 -4.3920002 -0.62699997 50
19.728001 -4.4250002 -0.63700002 38
19.702999 -4.4520001 -0.64499998 54
19.691999 -4.4829998 -0.65399998 63
19.677999 -4.513 -0.66299999 67
0 0 0 0
0 0 0 6
18.235001 -4.2729998 -0.64200002 6
17.955 -4.237 -0.64099997 8
17.860001 -4.244 -0.64700001 7
17.729 -4.2420001 -0.65100002 7
17.614 -4.243 -0.65600002 8
17.525 -4.25 -0.66100001 7
17.447001 -4.2589998 -0.667 5
17.313 -4.2540002 -0.671 6
17.282 -4.2729998 -0.67900002 31
17.278999 -4.3000002 -0.68800002 27
17.278 -4.3270001 -0.69700003 33
17.283001 -4.355 -0.70700002 33
17.296 -4.3850002 -0.71700001 26
17.277 -4.4070001 -0.72500002 33
17.281 -4.434 -0.73400003 35
17.292999 -4.4629998 -0.74400002 26
17.291 -4.4889998 -0.75300002 37
17.302 -4.5170002 -0.76300001 26
17.292 -4.5409999 -0.77200001 24
17.291 -4.566 -0.78200001 34
17.288 -4.5900002 -0.79100001 41
17.292999 -4.6160002 -0.801 39
17.289 -4.6399999 -0.81 42
17.298 -4.6669998 -0.81999999 34
0 0 0 2
36.292 -9.8950005 -1.761 2
36.43 -9.9840002 -1.788 2
0 0 0 6
32.007999 -8.8610001 -1.608 13
0 0 0 1
15.556 -4.349 -0.79799998 6
15.491 -4.3520002 -0.80400002 10
15.427 -4.3540001 -0.80900002 7
15.336 -4.349 -0.81300002 8
15.305 -4.3600001 -0.82099998 11
15.231 -4.3590002 -0.82499999 12
15.166 -4.3600001 -0.82999998 11
15.131 -4.369 -0.83700001 12
15.052 -4.3649998 -0.84100002 6
15.001 -4.369 -0.847 10
0 0 0 1
9.1599998 -2.6900001 -0.528 12
9.1450005 -2.697 -0.53200001 116
9.1370001 -2.7060001 -0.537 152
9.1359997 -2.7160001 -0.542 161
9.1370001 -2.727 -0.54699999 161
9.1350002 -2.737 -0.55299997 161
9.1070004 -2.74 -0.55599999 161
9.1099997 -2.7509999 -0.56199998 161
9.1040001 -2.76 -0.56699997 161
9.125 -2.776 -0.57300001 162
9.1070004 -2.7809999 -0.57700002 162
9.0950003 -2.7869999 -0.58200002 162
9.099 -2.7980001 -0.58700001 161
9.1049995 -2.8099999 -0.59299999 161
9.0679998 -2.8080001 -0.59600002 161
9.0869999 -2.823 -0.602 161
9.0900002 -2.8340001 -0.60799998 161
9.0819998 -2.8399999 -0.61199999 161
9.0450001 -2.8380001 -0.61500001 161
9.1009998 -2.8640001 -0.625 152
9.1079998 -2.8759999 -0.63 161
9.0939999 -2.8800001 -0.634 161
9.0799999 -2.8840001 -0.63800001 161
9.0819998 -2.8929999 -0.64399999 154
9.0439997 -2.8900001 -0.64700001 28
9.059 -2.9030001 -0.653 4
0 0 0 34
0 0 0 1
0 0 0 24
14.591 -4.7280002 -1.085 25
14.568 -4.7319999 -1.091 22
14.488 -4.7189999 -1.0930001 20
14.397 -4.7010002 -1.095 11
14.308 -4.6830001 -1.096 7
14.009 -4.5970001 -1.081 3
13.773 -4.5300002 -1.071 3
13.569 -4.474 -1.063 3
13.293 -4.3930001 -1.049 3
13.12 -4.3449998 -1.0420001 3
12.903 -4.283 -1.0319999 3
12.728 -4.2329998 -1.025 3
12.562 -4.1869998 -1.0190001 3
12.405 -4.1430001 -1.013 3
12.182 -4.0770001 -1.001 3
12.059 -4.0440001 -0.99800003 3
11.902 -3.9990001 -0.991 3
11.746 -3.954 -0.98500001 3
11.57 -3.902 -0.97600001 2
11.425 -3.8599999 -0.97000003 2
11.341 -3.8380001 -0.96899998 2
11.208 -3.8 -0.96399999 2
11.07 -3.7590001 -0.958 2
10.942 -3.7219999 -0.95200002 2
10.777 -3.671 -0.94400001 2
10.661 -3.6370001 -0.93900001 2
10.547 -3.6040001 -0.935 2
10.443 -3.573 -0.93099999 3
10.352 -3.5469999 -0.92799997 3
10.246 -3.516 -0.92400002 3
10.15 -3.487 -0.921 3
10.053 -3.4579999 -0.917 4
9.9689999 -3.434 -0.91399997 3
9.901 -3.415 -0.91299999 3
9.8170004 -3.3889999 -0.91000003 3
9.7270002 -3.362 -0.90700001 3
9.625 -3.3299999 -0.90200001 4
9.5389996 -3.3039999 -0.89899999 4
9.4370003 -3.2720001 -0.89399999 4
9.382 -3.256 -0.89300001 3
9.309 -3.233 -0.89099997 3
9.2200003 -3.2049999 -0.88700002 4
9.1529999 -3.184 -0.88499999 3
9.0810003 -3.1619999 -0.88200003 4
8.9849997 -3.1300001 -0.87699997 3
8.9259996 -3.112 -0.87599999 4
8.8389997 -3.0840001 -0.87099999 3
8.7670002 -3.0599999 -0.86799997 5
8.7030001 -3.04 -0.866 4
8.6499996 -3.0220001 -0.86400002 6
8.585 -3.0009999 -0.86199999 5
8.5310001 -2.983 -0.86000001 6
8.4790001 -2.967 -0.85900003 5
8.4440002 -2.9549999 -0.85900003 4
8.368 -2.9300001 -0.85500002 6
8.3319998 -2.918 -0.85500002 6
8.2819996 -2.901 -0.85299999 5
8.2130003 -2.8770001 -0.85000002 4
8.1499996 -2.8559999 -0.847 5
8.0600004 -2.825 -0.84100002 4
7.9770002 -2.7950001 -0.83499998 5
7.895 -2.767 -0.82999998 5
7.8099999 -2.737 -0.824 9
7.757 -2.7179999 -0.82200003 8
7.704 -2.6989999 -0.81900001 9
7.6500001 -2.6800001 -0.81699997 9
7.6110001 -2.6659999 -0.81599998 11
7.5669999 -2.6500001 -0.81400001 12
7.5229998 -2.6340001 -0.81199998 14
7.4990001 -2.6240001 -0.81199998 14
7.4699998 -2.6129999 -0.81199998 11
7.4229999 -2.596 -0.81 14
7.4120002 -2.5910001 -0.81099999 14
7.4029999 -2.586 -0.81300002 14
7.375 -2.575 -0.81300002 10
7.3249998 -2.556 -0.81 9
7.2909999 -2.543 -0.80900002 11
7.2480001 -2.526 -0.80599999 10
7.2129998 -2.5120001 -0.80500001 9
7.1680002 -2.4949999 -0.80199999 6
7.1300001 -2.48 -0.80000001 7
7.0739999 -2.4579999 -0.796 5
7.0250001 -2.4389999 -0.79299998 5
6.9710002 -2.418 -0.78899997 4
6.947 -2.408 -0.78899997 4
6.9070001 -2.391 -0.78600001 4
6.8759999 -2.378 -0.78500003 4
6.8449998 -2.365 -0.78299999 4
6.8150001 -2.352 -0.78200001 4
6.776 -2.336 -0.77899998 4
6.7519999 -2.325 -0.77899998 3
6.724 -2.312 -0.77700001 4
6.7069998 -2.3039999 -0.77700001 4
6.638 -2.277 -0.77100003 3
6.6339998 -2.2720001 -0.77200001 3
6.619 -2.2639999 -0.773 3
6.5949998 -2.2520001 -0.77100003 4
6.5700002 -2.2409999 -0.76999998 3
6.5419998 -2.2279999 -0.76800001 4
6.533 -2.221 -0.76899999 3
6.4990001 -2.2060001 -0.76599997 3
6.4710002 -2.1930001 -0.76499999 3
6.4629998 -2.1860001 -0.76499999 3
6.441 -2.175 -0.764 4
6.4200001 -2.164 -0.76300001 3
6.3969998 -2.1530001 -0.76099998 3
6.3670001 -2.1389999 -0.759 3
6.3460002 -2.1270001 -0.75800002 3
6.3390002 -2.1210001 -0.75800002 3
6.3249998 -2.112 -0.75800002 3
6.2979999 -2.098 -0.75599998 3
6.283 -2.089 -0.755 3
6.2849998 -2.085 -0.75599998 3
6.2449999 -2.0669999 -0.75300002 3
6.2360001 -2.0599999 -0.75300002 3
6.2199998 -2.05 -0.75199997 3
6.2210002 -2.0450001 -0.75300002 3
6.2010002 -2.0339999 -0.75099999 3
6.1869998 -2.0250001 -0.75 3
6.1719999 -2.0150001 -0.74900001 3
6.1490002 -2.0020001 -0.74699998 3
6.1599998 -2.0009999 -0.74900001 3
6.1350002 -1.988 -0.74699998 3
6.1279998 -1.98 -0.74699998 3
6.112 -1.969 -0.745 3
6.1160002 -1.966 -0.74599999 3
6.098 -1.954 -0.745 3
6.0879998 -1.9450001 -0.74400002 3
6.0739999 -1.936 -0.74299997 3
6.0640001 -1.927 -0.74199998 3
6.0599999 -1.92 -0.74199998 3
6.0560002 -1.913 -0.74199998 3
6.039 -1.901 -0.74000001 3
6.0370002 -1.895 -0.74000001 3
6.0370002 -1.8890001 -0.741 3
6.0359998 -1.883 -0.741 3
6.0279999 -1.874 -0.74000001 4
6.0380001 -1.8710001 -0.741 3
6.02 -1.859 -0.73900002 4
6.0250001 -1.854 -0.74000001 4
6.0170002 -1.846 -0.73900002 3
6.0229998 -1.841 -0.74000001 4
6.0079999 -1.83 -0.73799998 4
6.027 -1.829 -0.74000001 4
6.007 -1.816 -0.73799998 4
6.0139999 -1.812 -0.73799998 4
6.013 -1.8049999 -0.73799998 3
6.0289998 -1.803 -0.74000001 4
6.0180001 -1.7920001 -0.73799998 4
6.027 -1.788 -0.73900002 4
6.027 -1.781 -0.73900002 4
6.0279999 -1.774 -0.73799998 4
6.04 -1.77 -0.73900002 4
6.0419998 -1.7640001 -0.73900002 4
6.0510001 -1.7589999 -0.74000001 4
6.0599999 -1.7539999 -0.74000001 4
6.053 -1.745 -0.73900002 4
6.0580001 -1.738 -0.73900002 4
6.0640001 -1.733 -0.73900002 4
6.0840001 -1.7309999 -0.741 4
6.0749998 -1.721 -0.73900002 4
6.0910001 -1.717 -0.74000001 4
6.1139998 -1.716 -0.74199998 4
6.1020002 -1.704 -0.74000001 4
6.1230001 -1.702 -0.741 4
6.1440001 -1.7 -0.74299997 4
6.1409998 -1.691 -0.74199998 4
6.1500001 -1.6849999 -0.741 4
6.165 -1.681 -0.74199998 4
6.1810002 -1.677 -0.74299997 4
6.1929998 -1.671 -0.74299997 4
6.1919999 -1.663 -0.74199998 4
6.211 -1.659 -0.74299997 4
6.2290001 -1.655 -0.74400002 4
6.2610002 -1.655 -0.74599999 4
6.256 -1.645 -0.74400002 3
6.2810001 -1.642 -0.74599999 4
6.2839999 -1.6339999 -0.745 3
6.3179998 -1.6339999 -0.74699998 4
6.3400002 -1.63 -0.74800003 4
6.3540001 -1.625 -0.74800003 4
6.3699999 -1.619 -0.74800003 4
6.388 -1.615 -0.74900001 3
6.4180002 -1.613 -0.75099999 3
6.441 -1.609 -0.75099999 4
6.4569998 -1.603 -0.75099999 4
6.487 -1.601 -0.75300002 4
6.5100002 -1.597 -0.75400001 4
6.5219998 -1.59 -0.75300002 3
6.5570002 -1.5880001 -0.755 4
6.5890002 -1.586 -0.75599998 3
6.6069999 -1.58 -0.75599998 4
6.6370001 -1.576 -0.75700003 3
6.6659999 -1.573 -0.75800002 4
6.6880002 -1.568 -0.759 3
6.7220001 -1.5650001 -0.75999999 3
6.7550001 -1.562 -0.76099998 3
6.8070002 -1.563 -0.764 4
6.8600001 -1.564 -0.76800001 4
6.8629999 -1.554 -0.76499999 4
6.8740001 -1.546 -0.764 3
6.927 -1.546 -0.76700002 3
6.9619999 -1.543 -0.76800001 3
7.0110002 -1.5420001 -0.76999998 3
7.0450001 -1.538 -0.77100003 3
7.0879998 -1.536 -0.773 3
7.125 -1.5319999 -0.773 4
7.164 -1.528 -0.77399999 4
7.2220001 -1.529 -0.77700001 3
7.276 -1.528 -0.77999997 4
7.3249998 -1.526 -0.78100002 4
7.3639998 -1.522 -0.78200001 4
7.4239998 -1.522 -0.78500003 4
7.4559999 -1.516 -0.78500003 4
7.5219998 -1.516 -0.78799999 4
7.5819998 -1.516 -0.79000002 5
7.6329999 -1.513 -0.79100001 4
7.6900001 -1.511 -0.79299998 4
7.737 -1.507 -0.79400003 4
7.7919998 -1.5039999 -0.79500002 4
7.8709998 -1.506 -0.79900002 5
7.9450002 -1.506 -0.80199999 4
8.0340004 -1.5089999 -0.80599999 5
8.1560001 -1.517 -0.81400001 6
8.302 -1.53 -0.824 7
8.3109999 -1.517 -0.81999999 5
8.3260002 -1.506 -0.81599998 4
8.3940001 -1.503 -0.81800002 4
8.5030003 -1.507 -0.82300001 3
8.5900002 -1.508 -0.82700002 3
8.71 -1.513 -0.833 3
8.7959995 -1.513 -0.83499998 3
8.8990002 -1.515 -0.83899999 4
9.0240002 -1.52 -0.84500003 3
9.1359997 -1.522 -0.85000002 3
9.2410002 -1.523 -0.85299999 4
9.3559999 -1.525 -0.85799998 3
9.4700003 -1.527 -0.86199999 3
9.6120005 -1.533 -0.86799997 3
9.8109999 -1.546 -0.87900001 3
9.8839998 -1.54 -0.87900001 3
10.009 -1.541 -0.88300002 3
10.138 -1.543 -0.88700002 3
10.262 -1.543 -0.88999999 3
10.417 -1.548 -0.89600003 3
10.568 -1.551 -0.90100002 3
10.728 -1.5549999 -0.90700001 2
10.897 -1.5599999 -0.91299999 2
11.076 -1.5650001 -0.91900003 2
11.291 -1.575 -0.92900002 3
11.479 -1.58 -0.935 3
11.683 -1.587 -0.94300002 2
11.89 -1.5930001 -0.94999999 3
12.101 -1.599 -0.95700002 3
12.321 -1.6059999 -0.96499997 3
12.514 -1.608 -0.97000003 3
12.758 -1.6160001 -0.97799999 3
12.96 -1.618 -0.98299998 3
13.249 -1.6289999 -0.99400002 3
13.476 -1.633 -0.99900001 3
13.765 -1.642 -1.0089999 3
14.092 -1.655 -1.021 3
14.396 -1.665 -1.031 3
14.681 -1.6720001 -1.039 3
15.06 -1.687 -1.052 3
15.272 -1.682 -1.054 2
15.699 -1.701 -1.069 3
16.073999 -1.711 -1.08 2
16.587 -1.735 -1.099 3
15.891 -1.6339999 -1.039 2
16.684 -1.684 -1.075 2
0 0 0 0
0 0 0 0
0 0 0 6
19.74 -1.847 -1.198 8
20.444 -1.875 -1.221 4
20.875999 -1.876 -1.226 4
21.32 -1.876 -1.232 2
0 0 0 4
22.819 -1.925 -1.274 5
22.83 -1.8839999 -1.251 4
22.834 -1.842 -1.229 3
22.860001 -1.802 -1.207 4
23.135 -1.781 -1.198 6
0 0 0 2
0 0 0 25
0 0 0 25
0 0 0 150
27.459 -1.863 -1.28 155
27.417 -1.811 -1.25 154
27.406 -1.76 -1.22 171
27.504999 -1.716 -1.1950001 154
27.544001 -1.669 -1.1670001 10
0 0 0 4
39.653999 -2.2579999 -1.594 11
39.439999 -2.1730001 -1.541 9
39.345001 -2.0969999 -1.495 34
0 0 0 33
32.070999 -1.594 -1.148 171
32.098 -1.5369999 -1.112 236
32.137001 -1.4809999 -1.0779999 165
0 0 0 0
0 0 0 17
0 0 0 38
44.473 -1.7309999 -1.288 41
44.616001 -1.655 -1.24 41
45.015999 -1.589 -1.198 42
45.134998 -1.512 -1.148 33
45.16 -1.433 -1.095 31
45.234001 -1.3559999 -1.044 18
0 0 0 0
0 0 0 150
67.850998 -1.674 -1.323 77
67.894997 -1.557 -1.243 77
67.877998 -1.437 -1.16 80
68.152 -1.321 -1.081 27
68.542999 -1.21 -1.0039999 12
0 0 0 92
74.336998 -1.051 -0.90399998 21
0 0 0 0
0 0 0 36
74.196999 -0.66299999 -0.625 53
74.18 -0.53500003 -0.53200001 64
0 0 0 0
0 0 0 0
0 0 0 0
0 0 0 14
86.841003 0.115 -0.071000002 13
0 0 0 0
0 0 0 0
0 0 0 0
0 0 0 12
0 0 0 25
0 0 0 0
0 0 0 0
0 0 0 0
0 0 0 0
0 0 0 0
0 0 0 0
0 0 0 0
0 0 0 16
91.483002 2.244 1.6059999 15
88.802002 2.323 1.679 12
0 0 0 0
0 0 0 17
0 0 0 0
0 0 0 38
91.514999 3.128 2.3529999 20
0 0 0 0
0 0 0 17
90.364998 3.5179999 2.698 16
90.109001 3.648 2.813 19
89.717003 3.7709999 2.924 27
89.213997 3.8889999 3.0320001 33
89.021004 4.0180001 3.1500001 34
88.846001 4.1479998 3.2679999 23
93.206001 4.4949999 3.559 24
91.458 4.5510001 3.6210001 52
91.360001 4.684 3.744 17
0 0 0 0
0 0 0 15
0 0 0 0
0 0 0 41
0 0 0 0
0 0 0 0
0 0 0 18
0 0 0 0
0 0 0 15
90.781998 6.0050001 5.0120001 19
90.886002 6.1430001 5.1479998 13
0 0 0 28
118.472 8.349 7.053 29
0 0 0 19
91.092003 6.678 5.684 38
91.372002 6.8270001 5.8340001 27
0 0 0 35
0 0 0 28
127.129 10.03 8.6639996 35
0 0 0 0
0 0 0 0
0 0 0 0
0 0 0 30
118.514 10.161 8.941 44
118.399 10.309 9.1020002 54
118.44 10.471 9.2779999 44
118.437 10.628 9.4510002 25
118.635 10.803 9.6400003 27
118.5 10.947 9.8030005 42
118.515 11.102 9.9750004 32
0 0 0 0
0 0 0 0
0 0 0 0
0 0 0 0
0 0 0 0
0 0 0 13
50.085999 5.1370001 4.7259998 22
50.030998 5.1919999 4.7940001 20
50.035 5.2540002 4.8670001 10
0 0 0 73
118.003 12.68 11.824 71
117.978 12.819 11.991 85
118.025 12.967 12.172 80
117.998 13.104 12.342 70
118.014 13.245 12.513 58
118.005 13.382 12.685 38
118.112 13.532 12.869 27
0 0 0 0
0 0 0 26
118.322 13.964 13.407 29
118.212 14.085 13.567 31
118.243 14.22 13.739 34
118.25 14.353 13.912 35
118.316 14.492 14.092 33
118.242 14.612 14.251 38
0 0 0 0
0 0 0 0
0 0 0 0
0 0 0 0
0 0 0 24
118.346 15.383 15.29 24
0 0 0 10
47.408001 6.2600002 6.2600002 12
47.485001 6.3179998 6.3379998 9
0 0 0 69
117.851 15.918 16.063999 69
117.87 16.034 16.231001 79
117.904 16.153999 16.403 72
117.879 16.266001 16.566999 53
117.909 16.382999 16.738001 52
117.93 16.499001 16.908001 32
118.066 16.629999 17.091 27
118.013 16.733 17.249001 25
117.987 16.839001 17.410999 28
117.821 16.923 17.548 82
117.824 17.031 17.714001 57
117.844 17.139999 17.881001 56
117.838 17.245001 18.044001 63
117.849 17.35 18.205999 55
117.829 17.450001 18.365 56
117.799 17.548 18.523001 52
117.79 17.646999 18.684 56
117.812 17.75 18.849001 55
117.832 17.851999 19.01 59
117.802 17.945 19.165001 53
117.821 18.044001 19.327999 53
117.816 18.139 19.487 62
117.75 18.226 19.639 52
117.807 18.325001 19.802999 58
117.78 18.413 19.955999 49
117.79 18.504999 20.112 60
117.779 18.593 20.266001 49
117.799 18.684999 20.426001 50
117.731 18.761999 20.57 50
117.739 18.853001 20.726 52
117.771 18.944 20.886 49
117.776 19.028999 21.040001 50
117.763 19.110001 21.191 51
117.747 19.190001 21.34 48
0 0 0 0
0 0 0 0
0 0 0 0
0 0 0 0
0 0 0 50
0 0 0 0
0 0 0 0
0 0 0 6
59.393002 10.027 11.436 9
0 0 0 0
0 0 0 0
0 0 0 8
44.365002 7.5939999 8.7580004 16
44.421001 7.6290002 8.8240004 25
44.319 7.6360002 8.8559999 34
44.219002 7.6430001 8.8889999 35
44.208 7.665 8.9390001 39
44.192001 7.6849999 8.9879999 39
44.154999 7.7020001 9.0310001 35
44.126999 7.7210002 9.0780001 35
44.102001 7.7379999 9.1239996 28
44.110001 7.7610002 9.1750002 18
44.16 7.7909999 9.2360001 13
44.165001 7.8130002 9.2869997 9
0 0 0 31
117.62 20.915001 24.999001 28
0 0 0 0
0 0 0 0
0 0 0 0
0 0 0 0
0 0 0 24
117.765 21.238001 25.796 24
0 0 0 0
0 0 0 0
0 0 0 0
0 0 0 0
0 0 0 0
0 0 0 0
0 0 0 0
0 0 0 0
0 0 0 0
0 0 0 0
0 0 0 0
0 0 0 0
0 0 0 0
0 0 0 28
117.996 21.844 27.622 31
117.882 21.853001 27.702 32
117.817 21.868999 27.796 33
0 0 0 0
0 0 0 0
0 0 0 12
44.853001 8.3629999 10.744 16
44.810001 8.3629999 10.773 22
44.772999 8.3649998 10.803 30
44.723999 8.3629999 10.829 31
44.681 8.3620005 10.857 37
44.664001 8.3660002 10.89 39
44.653999 8.3699999 10.925 42
44.658001 8.3769999 10.961 39
44.661999 8.3830004 10.999 42
44.671001 8.3900003 11.037 42
44.698002 8.3999996 11.079 40
44.734001 8.4110003 11.122 38
44.758999 8.4200001 11.162 33
44.800999 8.4309998 11.207 28
44.798 8.4329996 11.24 21
44.762001 8.4289999 11.264 19
44.742001 8.427 11.292 12
44.761002 8.4320002 11.329 7
0 0 0 0
0 0 0 0
0 0 0 0
0 0 0 0
0 0 0 0
0 0 0 24
0 0 0 0
0 0 0 0
0 0 0 4
43.592999 8.2080002 11.319 8
43.585999 8.2049999 11.343 12
43.535999 8.1920004 11.356 15
43.564999 8.1940002 11.388 18
43.525002 8.1829996 11.403 20
43.549999 8.1829996 11.434 24
43.534 8.177 11.453 27
43.508999 8.1669998 11.469 26
43.501999 8.1599998 11.49 29
43.492001 8.1520004 11.509 27
43.426998 8.1330004 11.514 24
43.436001 8.1289997 11.538 22
43.375 8.1099997 11.542 20
43.345001 8.0970001 11.555 21
43.313999 8.085 11.565 18
43.313 8.0760002 11.584 16
43.273998 8.0609999 11.593 14
43.237 8.0459995 11.6 13
43.235001 8.0360003 11.618 12
43.221001 8.0240002 11.631 12
43.228001 8.0150003 11.65 10
43.196999 8 11.656 8
0 0 0 0
0 0 0 0
0 0 0 31
117.868 21.708 31.969999 38
117.889 21.674999 32.014999 47
117.895 21.645 32.049999 49
117.952 21.620001 32.099998 48
117.903 21.575001 32.119999 49
117.919 21.544001 32.153999 56
117.895 21.500999 32.178001 55
117.917 21.466 32.213001 59
117.903 21.424 32.236 59
117.876 21.378 32.255001 56
117.975 21.354 32.306 50
117.933 21.302999 32.318001 61
117.951 21.264999 32.341999 56
117.926 21.216 32.355999 62
117.972 21.177999 32.387001 56
117.915 21.124001 32.387001 57
117.93 21.076 32.409 63
117.988 21.041 32.438 55
117.924 20.98 32.433998 54
117.958 20.934999 32.455002 62
117.96 20.888 32.464001 61
117.959 20.834999 32.472 51
117.962 20.778999 32.483002 57
117.94 20.724001 32.480999 60
117.951 20.674 32.486 57
117.981 20.624001 32.498001 56
118.005 20.570999 32.506001 61
117.945 20.503 32.490002 58
118.016 20.457001 32.507999 58
118.052 20.403 32.514999 62
117.987 20.332001 32.493 58
118.004 20.273001 32.492001 64
118.026 20.218 32.490002 60
118.033 20.157 32.483002 57
118.068 20.096001 32.484001 69
118.032 20.028 32.460999 52
118.03 19.962 32.448002 60
118.088 19.909 32.448002 65
118.033 19.832001 32.417 55
118.034 19.768 32.398998 62
118.111 19.712 32.401001 63
118.076 19.636 32.370998 62
118.048 19.561001 32.341999 64
118.077 19.495001 32.327 59
118.093 19.426001 32.306 58
118.082 19.354 32.276001 55
118.085 19.282 32.250999 59
118.128 19.216999 32.231998 72
118.116 19.139999 32.198002 46
118.153 19.07 32.175999 48
118.128 18.99 32.136002 50
118.142 18.914 32.105 47
118.161 18.839001 32.074001 45
118.151 18.759001 32.033001 46
118.133 18.676001 31.989 51
118.192 18.608 31.964001 46
118.141 18.518999 31.908001 46
118.193 18.445999 31.878 41
118.188 18.362 31.832001 49
118.119 18.271999 31.766001 47
118.121 18.188 31.719 45
118.144 18.107 31.676001 50
118.202 18.031 31.641001 51
118.164 17.938999 31.577999 55
118.212 17.863001 31.537001 48
118.202 17.77 31.48 43
118.207 17.687 31.424 51
118.265 17.607 31.381001 52
118.176 17.507 31.297001 41
118.186 17.419001 31.239 44
118.264 17.341 31.200001 49
118.241 17.249001 31.127001 43
118.278 17.162001 31.072001 49
118.221 17.062 30.99 46
118.275 16.976 30.936001 44
118.196 16.871 30.846001 49
118.247 16.785999 30.791 52
118.291 16.697001 30.73 42
118.265 16.601999 30.649 69
118.356 16.518 30.598 44
0 0 0 0
0 0 0 0
0 0 0 0
0 0 0 0
0 0 0 0
0 0 0 0
0 0 0 0
0 0 0 0
0 0 0 0
0 0 0 0
0 0 0 0
0 0 0 0
0 0 0 0
0 0 0 35
0 0 0 0
0 0 0 0
0 0 0 0
0 0 0 0
0 0 0 0
0 0 0 0
0 0 0 30
118.402 14.301 28.597 37
118.453 14.2 28.502001 52
118.441 14.091 28.391001 64
118.437 13.983 28.280001 67
118.38 13.869 28.155001 61
118.431 13.766 28.054001 61
118.431 13.661 27.941 62
118.439 13.553 27.827999 60
118.426 13.443 27.708 46
118.523 13.344 27.613001 39
118.521 13.234 27.493 35
118.589 13.134 27.389 32
118.887 13.057 27.334999 25
118.791 12.935 27.190001 25
0 0 0 0
0 0 0 0
0 0 0 0
0 0 0 31
0 0 0 0
0 0 0 0
0 0 0 0
0 0 0 0
0 0 0 0
0 0 0 23
0 0 0 0
0 0 0 25
118.865 11.487 25.485001 25
0 0 0 0
0 0 0 0
0 0 0 0
0 0 0 0
0 0 0 0
0 0 0 33
118.546 10.664 24.405001 47
118.576 10.552 24.261999 69
118.577 10.438 24.111 67
118.621 10.327 23.968 69
118.611 10.211 23.813 67
118.595 10.095 23.655001 67
118.613 9.9809999 23.503 60
118.681 9.875 23.360001 49
118.703 9.7620001 23.207001 45
118.847 9.6590004 23.075001 34
118.876 9.5489998 22.922001 28
118.802 9.4280005 22.746 28
118.739 9.3079996 22.570999 25
118.857 9.2030001 22.424999 31
0 0 0 0
0 0 0 26
118.832 8.8549995 21.924999 26
118.824 8.7399998 21.750999 31
118.79 8.6260004 21.577 40
118.905 8.5190001 21.427 27
118.813 8.3979998 21.238001 22
118.821 8.2840004 21.066999 24
118.865 8.1719999 20.9 23
118.767 8.0509996 20.708 29
118.73 7.934 20.525 48
118.713 7.8189998 20.344999 52
118.741 7.7069998 20.171 58
118.738 7.5929999 19.990999 67
118.728 7.4790001 19.809 68
118.707 7.368 19.622999 64
118.773 7.2589998 19.451 58
118.74 7.1430001 19.261999 37
118.866 7.0380001 19.098 35
118.847 6.9239998 18.909 30
118.949 6.8169999 18.738001 26
118.958 6.7049999 18.551001 30
118.925 6.5939999 18.358999 32
118.886 6.48 18.163 32
118.954 6.3720002 17.983 29
118.939 6.2589998 17.788 28
118.886 6.145 17.587999 29
118.955 6.0409999 17.406 26
118.938 5.9289999 17.209 29
118.902 5.8169999 17.007999 29
118.859 5.7020001 16.802999 25
118.963 5.5999999 16.622 35
118.832 5.4850001 16.405001 59
118.826 5.3779998 16.207001 67
118.758 5.2659998 15.998 71
118.782 5.1589999 15.8 73
118.77 5.0510001 15.597 82
118.745 4.9419999 15.39 50
121.274 4.9380002 15.507 67
121.284 4.829 15.299 57
121.314 4.7220001 15.093 48
121.581 4.6259999 14.921 27
121.506 4.5149999 14.7 33
121.808 4.421 14.525 26
0 0 0 0
0 0 0 0
0 0 0 0
0 0 0 0
0 0 0 0
0 0 0 0
0 0 0 0
0 0 0 0
0 0 0 25
121.253 3.352 12.288 43
121.333 3.2520001 12.075 61
121.362 3.151 11.855 76
121.325 3.0480001 11.629 81
121.34 2.948 11.406 75
121.331 2.8469999 11.181 87
121.357 2.7479999 10.954 84
121.377 2.6489999 10.73 54
127.233 2.6730001 11.01 29
127.307 2.5710001 10.778 37
0 0 0 0
0 0 0 28
129.40601 2.3050001 10.226 27
0 0 0 0
0 0 0 43
121.436 1.877 8.9029999 48
121.486 1.785 8.6780005 44
121.482 1.692 8.4440002 48
121.515 1.599 8.2130003 32
121.433 1.506 7.973 32
121.496 1.415 7.7420001 31
121.574 1.324 7.5120001 32
121.564 1.234 7.2750001 27
121.609 1.1440001 7.04 34
121.624 1.057 6.8070002 36
121.511 0.96700001 6.5630002 29
121.408 0.87800002 6.3189998 42
121.354 0.79100001 6.0770001 59
121.323 0.704 5.8330002 71
121.316 0.62 5.5999999 61
0 0 0 0
0 0 0 30
84.917 0.255 3.4089999 26
0 0 0 0
0 0 0 23
86.959 0.086999997 2.9749999 30
0 0 0 0
0 0 0 0
0 0 0 24
84.181 -0.138 2.1989999 27
84.43 -0.191 2.04 31
0 0 0 0
0 0 0 20
87.731003 -0.36399999 1.59 16
0 0 0 8
0 0 0 0
0 0 0 31
73.800003 -0.486 0.736 63
73.257004 -0.52600002 0.579 34
72.43 -0.56199998 0.42899999 19
0 0 0 11
77.775002 -0.69300002 0.139 10
74.235001 -0.704 -0.017999999 15
74.193001 -0.745 -0.171 47
74.212997 -0.787 -0.32300001 67
74.213997 -0.82700002 -0.47600001 75
74.195 -0.86699998 -0.62900001 44
0 0 0 0
0 0 0 31
74.343002 -0.986 -1.089 33
74.211998 -1.023 -1.24 45
73.362 -1.049 -1.378 111
73.254997 -1.084 -1.528 135
73.268997 -1.12 -1.6799999 69
71.098 -1.123 -1.78 14
71.046997 -1.155 -1.924 70
71.039001 -1.189 -2.069 73
71.042999 -1.223 -2.2190001 12
0 0 0 0
0 0 0 0
0 0 0 8
0 0 0 6
58.937 -1.146 -2.4519999 6
0 0 0 3
0 0 0 0
0 0 0 0
0 0 0 0
0 0 0 1
0 0 0 0
0 0 0 1
19.879999 -0.44999999 -1.156 1
0 0 0 1
0 0 0 2
16.215 -0.38499999 -1.044 3
15.354 -0.37 -1.021 2
14.556 -0.35600001 -0.99800003 3
13.83 -0.34299999 -0.977 3
13.129 -0.33000001 -0.954 3
12.508 -0.31799999 -0.93599999 3
11.929 -0.30700001 -0.917 2
11.393 -0.29699999 -0.89999998 2
10.944 -0.289 -0.88700002 2
10.455 -0.27900001 -0.86900002 2
10.003 -0.27000001 -0.852 3
9.5360003 -0.25999999 -0.83200002 2
9.1459999 -0.252 -0.81699997 3
8.8310003 -0.245 -0.80699998 3
8.4630003 -0.237 -0.79100001 4
8.1619997 -0.23100001 -0.77899998 4
7.8670001 -0.22499999 -0.76700002 4
7.5900002 -0.21799999 -0.75599998 5
7.349 -0.213 -0.74699998 7
7.1199999 -0.208 -0.73799998 7
6.9250002 -0.204 -0.73199999 6
6.7129998 -0.199 -0.72399998 7
6.4520001 -0.193 -0.70899999 9
6.2919998 -0.189 -0.704 10
6.1620002 -0.18700001 -0.70200002 11
6.0240002 -0.184 -0.699 10
5.8870001 -0.18000001 -0.69499999 8
5.7449999 -0.177 -0.68900001 7
5.6290002 -0.175 -0.68699998 6
5.4829998 -0.171 -0.68099999 3
5.362 -0.168 -0.676 2
5.2350001 -0.16500001 -0.671 2
5.1110001 -0.162 -0.66500002 2
5.0159998 -0.15899999 -0.66299999 3
4.8959999 -0.156 -0.65700001 3
4.7969999 -0.153 -0.653 3
4.7030001 -0.15099999 -0.64999998 3
4.6090002 -0.149 -0.64600003 2
4.5240002 -0.146 -0.64300001 4
4.4419999 -0.14399999 -0.64099997 2
4.3559999 -0.142 -0.63700002 3
4.2719998 -0.139 -0.63300002 2
4.1719999 -0.13600001 -0.62699997 2
4.1240001 -0.13500001 -0.62699997 2
4.0440001 -0.133 -0.62300003 2
4.0380001 -0.133 -0.63099998 3
4.027 -0.133 -0.63700002 3
3.8840001 -0.12800001 -0.62199998 2
3.8699999 -0.12800001 -0.62699997 3
3.8469999 -0.127 -0.63099998 3
3.74 -0.124 -0.62099999 2
3.6459999 -0.121 -0.61199999 2
3.6210001 -0.12 -0.61500001 2
3.575 -0.118 -0.61400002 3
3.506 -0.116 -0.60900003 2
3.474 -0.115 -0.61000001 1
3.4449999 -0.114 -0.611 2
3.388 -0.112 -0.60799998 2
3.4070001 -0.113 -0.61799997 2
3.3329999 -0.11 -0.611 2
3.2639999 -0.108 -0.60399997 2
3.306 -0.109 -0.61799997 2
3.152 -0.104 -0.59500003 1
3.2479999 -0.107 -0.62 2
3.0610001 -0.1 -0.58999997 2
3.036 -0.1 -0.58999997 2
3.0009999 -0.097999997 -0.58899999 2
3.1229999 -0.102 -0.61900002 2
2.9690001 -0.097000003 -0.59399998 2
3.01 -0.097999997 -0.60799998 1
2.8399999 -0.092 -0.57800001 1
2.822 -0.090999998 -0.57999998 2
2.789 -0.090000004 -0.57800001 2
2.7550001 -0.088 -0.57599998 2
2.734 -0.086999997 -0.57700002 2
2.707 -0.086000003 -0.57599998 2
2.681 -0.085000001 -0.57499999 4
2.668 -0.083999999 -0.57700002 5
2.654 -0.083999999 -0.579 5
2.625 -0.082000002 -0.57700002 4
2.5910001 -0.081 -0.574 2
2.5610001 -0.079999998 -0.57200003 2
2.5369999 -0.078000002 -0.57099998 2
2.5 -0.077 -0.56699997 2
2.483 -0.075999998 -0.56800002 4
2.474 -0.075000003 -0.56999999 4
2.4549999 -0.074000001 -0.56999999 4
2.4289999 -0.072999999 -0.56800002 2
2.405 -0.071999997 -0.56599998 1
2.3829999 -0.071000002 -0.565 1
2.3659999 -0.07 -0.565 1
2.345 -0.068999998 -0.56400001 1
2.3280001 -0.068000004 -0.56400001 1
2.2980001 -0.067000002 -0.56 1
2.2880001 -0.066 -0.56099999 1
2.2709999 -0.064999998 -0.56099999 2
2.256 -0.064000003 -0.56099999 2
2.2409999 -0.063000001 -0.56099999 2
2.2190001 -0.061999999 -0.55900002 1
2.2060001 -0.061000001 -0.55900002 1
2.188 -0.059999999 -0.55800003 1
2.174 -0.059 -0.55800003 1
2.1600001 -0.057999998 -0.55800003 1
2.1459999 -0.057 -0.55800003 1
2.1270001 -0.056000002 -0.55599999 1
2.1070001 -0.055 -0.55400002 1
2.1040001 -0.055 -0.55699998 1
2.0829999 -0.054000001 -0.55400002 1
2.075 -0.052999999 -0.55500001 1
2.0639999 -0.052000001 -0.55500001 1
2.046 -0.050999999 -0.55400002 1
2.036 -0.050000001 -0.55400002 1
2.023 -0.048999999 -0.55299997 1
2.0120001 -0.048 -0.55299997 1
1.993 -0.046999998 -0.551 1
1.982 -0.046999998 -0.551 1
1.972 -0.046 -0.551 1
1.954 -0.045000002 -0.54900002 1
1.948 -0.044 -0.55000001 1
1.931 -0.043000001 -0.54699999 1
1.923 -0.041999999 -0.54799998 1
1.915 -0.041000001 -0.54799998 1
1.901 -0.041000001 -0.54699999 1
1.89 -0.039999999 -0.546 1
1.883 -0.039000001 -0.54699999 1
1.876 -0.037999999 -0.54699999 1
1.868 -0.037999999 -0.54699999 1
1.849 -0.037 -0.54400003 1
1.8380001 -0.035999998 -0.54299998 1
1.837 -0.035 -0.54500002 1
1.827 -0.034000002 -0.54500002 1
1.821 -0.034000002 -0.54500002 1
1.812 -0.033 -0.54500002 1
1.803 -0.032000002 -0.54400003 1
1.799 -0.030999999 -0.54500002 1
1.7819999 -0.029999999 -0.542 1
1.778 -0.029999999 -0.54299998 1
1.7690001 -0.028999999 -0.54299998 1
1.765 -0.028000001 -0.54400003 1
1.7589999 -0.028000001 -0.54400003 1
1.748 -0.027000001 -0.542 1
1.744 -0.026000001 -0.54299998 1
1.734 -0.025 -0.542 1
1.727 -0.025 -0.542 1
1.72 -0.024 -0.54100001 1
1.712 -0.023 -0.54100001 1
1.71 -0.022 -0.542 1
1.698 -0.022 -0.54000002 1
1.697 -0.021 -0.54100001 1
1.693 -0.02 -0.542 1
1.683 -0.018999999 -0.54000002 1
1.6799999 -0.018999999 -0.54100001 1
1.6569999 -0.017999999 -0.53500003 1
1.652 -0.017000001 -0.53500003 1
1.651 -0.017000001 -0.537 1
1.646 -0.016000001 -0.537 1
1.643 -0.015 -0.537 1
1.6339999 -0.014 -0.53600001 1
1.63 -0.014 -0.53600001 1
1.622 -0.013 -0.53500003 1
1.62 -0.012 -0.53600001 1
1.613 -0.012 -0.53500003 1
1.6160001 -0.011 -0.53799999 1
1.609 -0.0099999998 -0.537 1
1.608 -0.0099999998 -0.537 1
1.6 -0.0089999996 -0.53600001 1
1.5880001 -0.0080000004 -0.53399998 1
1.586 -0.0080000004 -0.53399998 1
1.576 -0.0070000002 -0.53200001 1
1.571 -0.0060000001 -0.53100002 1
1.5599999 -0.0060000001 -0.52899998 1
1.5599999 -0.0049999999 -0.52999997 1
1.551 -0.0040000002 -0.528 1
1.55 -0.0040000002 -0.52899998 1
1.548 -0.003 -0.52999997 1
1.5470001 -0.0020000001 -0.52999997 1
1.545 -0.0020000001 -0.53100002 1
1.549 -0.001 -0.53299999 1
1.541 0 -0.53100002 1
1.535 0 -0.52999997 1
1.529 0 -0.52899998 1
1.529 0 -0.52999997 1
1.526 0.001 -0.52999997 1
1.529 0.0020000001 -0.53200001 1
1.525 0.0020000001 -0.53200001 1
1.5190001 0.003 -0.52999997 1
1.527 0.0040000002 -0.53399998 1
1.508 0.0040000002 -0.528 1
1.513 0.0049999999 -0.52999997 1
1.515 0.0049999999 -0.53200001 1
1.511 0.0060000001 -0.53100002 1
1.505 0.0070000002 -0.52999997 1
1.5039999 0.0070000002 -0.52999997 1
1.4960001 0.0080000004 -0.528 1
1.494 0.0089999996 -0.528 1
1.501 0.0089999996 -0.53100002 1
1.494 0.0099999998 -0.52899998 1
1.494 0.0099999998 -0.52999997 1
1.5 0.011 -0.53200001 1
1.492 0.012 -0.52999997 1
1.493 0.012 -0.53100002 1
1.485 0.013 -0.52899998 1
1.489 0.013 -0.52999997 1
1.479 0.014 -0.52700001 1
1.489 0.015 -0.53200001 1
1.488 0.015 -0.53200001 1
1.482 0.016000001 -0.52999997 1
1.478 0.016000001 -0.528 1
1.4809999 0.017000001 -0.52999997 1
1.479 0.017999999 -0.52999997 1
1.476 0.017999999 -0.52899998 1
1.479 0.018999999 -0.52999997 1
1.484 0.02 -0.53200001 1
1.472 0.02 -0.528 1
1.484 0.021 -0.53200001 1
1.483 0.021 -0.53299999 1
1.471 0.022 -0.528 1
1.479 0.023 -0.53100002 1
1.473 0.023 -0.52899998 1
1.471 0.024 -0.52899998 1
1.466 0.024 -0.52700001 1
1.472 0.025 -0.52899998 1
1.472 0.025 -0.52899998 1
1.4630001 0.026000001 -0.52600002 1
1.462 0.026000001 -0.52600002 1
1.471 0.027000001 -0.52899998 1
1.4630001 0.028000001 -0.52600002 1
1.4630001 0.028000001 -0.52600002 1
1.479 0.028999999 -0.53100002 1
1.472 0.029999999 -0.52899998 1
1.479 0.029999999 -0.53100002 1
1.474 0.030999999 -0.52899998 1
1.48 0.030999999 -0.53100002 1
1.473 0.032000002 -0.528 1
1.479 0.033 -0.52999997 1
1.479 0.033 -0.52999997 1
1.473 0.033 -0.528 1
1.487 0.034000002 -0.53200001 1
1.465 0.034000002 -0.52399999 1
1.483 0.035 -0.52999997 1
1.474 0.035999998 -0.52700001 1
1.4859999 0.037 -0.53100002 1
1.485 0.037 -0.52999997 1
1.4910001 0.037999999 -0.53100002 1
1.49 0.037999999 -0.53100002 1
1.487 0.039000001 -0.52899998 1
1.487 0.039000001 -0.528 1
1.502 0.039999999 -0.53299999 1
1.49 0.041000001 -0.52899998 1
1.493 0.041000001 -0.52899998 1
1.492 0.041999999 -0.528 1
1.505 0.043000001 -0.53200001 1
1.493 0.043000001 -0.52700001 1
1.5039999 0.044 -0.52999997 1
1.502 0.044 -0.52899998 1
1.503 0.045000002 -0.52899998 1
1.505 0.045000002 -0.52899998 1
1.506 0.046 -0.528 1
1.506 0.046 -0.528 1
1.511 0.046999998 -0.528 1
1.511 0.046999998 -0.528 1
1.518 0.048 -0.52899998 1
1.525 0.048999999 -0.53100002 1
1.528 0.048999999 -0.53100002 1
1.527 0.050000001 -0.52999997 1
1.5319999 0.050000001 -0.53100002 1
1.527 0.050999999 -0.528 1
1.535 0.052000001 -0.52999997 1
1.5420001 0.052000001 -0.53100002 1
1.546 0.052999999 -0.53100002 1
1.5470001 0.052999999 -0.53100002 1
1.546 0.054000001 -0.52899998 1
1.5470001 0.054000001 -0.528 1
1.556 0.055 -0.53100002 1
1.563 0.056000002 -0.53200001 1
1.567 0.056000002 -0.53200001 1
1.567 0.057 -0.53100002 1
1.577 0.057999998 -0.53299999 1
1.5700001 0.057999998 -0.52899998 1
1.587 0.059 -0.53399998 1
1.598 0.059999999 -0.53600001 1
1.595 0.059999999 -0.53399998 1
1.599 0.061000001 -0.53399998 1
1.601 0.061000001 -0.53299999 1
1.612 0.061999999 -0.53500003 1
1.6109999 0.061999999 -0.53399998 1
1.614 0.063000001 -0.53299999 1
1.624 0.064000003 -0.53500003 1
1.6289999 0.064000003 -0.53500003 1
1.631 0.064999998 -0.53399998 1
1.636 0.064999998 -0.53399998 1
1.6440001 0.066 -0.53500003 1
1.65 0.067000002 -0.53600001 1
1.6569999 0.067000002 -0.53600001 1
1.655 0.068000004 -0.53399998 1
1.668 0.068999998 -0.537 1
1.669 0.068999998 -0.53500003 1
1.673 0.068999998 -0.53500003 1
1.6799999 0.07 -0.53500003 1
1.684 0.071000002 -0.53500003 1
1.688 0.071000002 -0.53399998 1
1.692 0.071999997 -0.53399998 1
1.7180001 0.072999999 -0.54000002 1
1.726 0.074000001 -0.54100001 1
1.721 0.074000001 -0.537 1
1.734 0.075000003 -0.53899997 1
1.739 0.075000003 -0.53899997 1
1.747 0.075999998 -0.53899997 1
1.757 0.077 -0.54000002 1
1.7640001 0.077 -0.54000002 1
1.7690001 0.078000002 -0.54000002 1
1.785 0.079000004 -0.542 1
1.798 0.079999998 -0.54400003 1
1.798 0.079999998 -0.542 1
1.808 0.079999998 -0.54299998 1
1.8150001 0.081 -0.54299998 1
1.824 0.082000002 -0.54299998 1
1.8329999 0.082000002 -0.54299998 1
1.8430001 0.082999997 -0.54400003 1
1.849 0.082999997 -0.54299998 1
1.854 0.083999999 -0.542 1
1.873 0.085000001 -0.54500002 1
1.878 0.085000001 -0.54400003 1
1.886 0.086000003 -0.54400003 1
1.899 0.086999997 -0.54500002 1
1.91 0.086999997 -0.546 1
1.918 0.088 -0.54500002 1
1.9299999 0.089000002 -0.546 1
1.937 0.089000002 -0.54500002 1
1.952 0.090000004 -0.54699999 1
1.961 0.090000004 -0.54699999 1
1.967 0.090999998 -0.546 1
1.985 0.092 -0.54799998 1
1.998 0.093000002 -0.54799998 1
2.0109999 0.093000002 -0.54900002 1
2.0309999 0.093999997 -0.551 1
2.039 0.094999999 -0.551 1
2.0610001 0.096000001 -0.55400002 1
2.072 0.096000001 -0.55299997 1
2.086 0.097000003 -0.55400002 1
2.0999999 0.097999997 -0.55500001 1
2.115 0.097999997 -0.55500001 2
2.1329999 0.098999999 -0.55699998 2
2.1500001 0.1 -0.55800003 2
2.1589999 0.1 -0.55699998 2
2.177 0.101 -0.55800003 2
2.1830001 0.101 -0.55599999 2
2.204 0.102 -0.55800003 2
2.2179999 0.103 -0.55800003 2
2.2349999 0.104 -0.55900002 2
2.2520001 0.104 -0.55900002 2
2.2639999 0.105 -0.55900002 2
2.2920001 0.106 -0.56199998 2
2.306 0.106 -0.56199998 2
2.316 0.107 -0.56 2
2.3340001 0.107 -0.56099999 2
2.3529999 0.108 -0.56099999 2
2.3729999 0.109 -0.56199998 1
2.395 0.109 -0.56300002 2
2.4189999 0.11 -0.565 2
2.4360001 0.111 -0.565 2
2.45 0.111 -0.56400001 2
2.4679999 0.112 -0.56400001 2
2.5039999 0.113 -0.56800002 2
2.5239999 0.114 -0.56800002 2
2.5409999 0.114 -0.56800002 2
2.563 0.115 -0.56800002 2
2.5910001 0.116 -0.56999999 2
2.609 0.116 -0.56900001 2
2.6389999 0.117 -0.57099998 1
2.6589999 0.117 -0.57099998 1
2.7490001 0.121 -0.58499998 1
2.7090001 0.119 -0.57200003 1
2.793 0.122 -0.58499998 1
2.799 0.121 -0.58099997 1
2.8710001 0.124 -0.59100002 1
2.888 0.124 -0.58899999 1
2.927 0.125 -0.59200001 1
3.0369999 0.12899999 -0.60900003 1
2.9749999 0.126 -0.59100002 2
3.1530001 0.133 -0.62 2
3.056 0.12800001 -0.59600002 2
3.119 0.13 -0.602 2
3.122 0.12899999 -0.597 2
3.1199999 0.12800001 -0.59100002 2
3.3 0.13500001 -0.61900002 2
3.306 0.134 -0.61400002 2
3.3 0.133 -0.60699999 2
3.323 0.133 -0.60500002 2
3.3169999 0.132 -0.597 2
3.3599999 0.132 -0.59899998 2
3.48 0.13600001 -0.61299998 2
3.434 0.133 -0.59899998 2
3.467 0.133 -0.59799999 2
3.6400001 0.139 -0.62099999 2
3.6210001 0.13699999 -0.611 2
3.7160001 0.139 -0.62 2
3.7160001 0.138 -0.61299998 2
3.796 0.139 -0.61900002 2
3.8699999 0.141 -0.62300003 2
3.9619999 0.14300001 -0.63099998 2
3.925 0.14 -0.61699998 2
4.0560002 0.14300001 -0.63 2
4.0570002 0.141 -0.62199998 2
4.1360002 0.142 -0.62599999 2
4.2030001 0.14300001 -0.62800002 2
4.2940001 0.14399999 -0.634 2
4.3610001 0.145 -0.63499999 2
4.4229999 0.145 -0.63599998 3
4.5089998 0.146 -0.639 3
4.5879998 0.146 -0.64200002 3
4.671 0.147 -0.64399999 3
4.756 0.147 -0.64600003 3
4.8670001 0.149 -0.65200001 4
4.9629998 0.149 -0.65499997 3
5.0780001 0.15000001 -0.66000003 3
5.1859999 0.15099999 -0.66399997 3
5.3039999 0.152 -0.66900003 3
5.414 0.152 -0.67199999 3
5.5700002 0.154 -0.68000001 6
5.658 0.153 -0.68000001 6
5.7820001 0.154 -0.68300003 5
5.9549999 0.155 -0.69199997 3
6.1240001 0.156 -0.69999999 3
6.2930002 0.15700001 -0.70700002 5
6.4419999 0.15700001 -0.70999998 5
6.6090002 0.15800001 -0.71600002 5
6.7919998 0.15800001 -0.722 6
6.9819999 0.15899999 -0.72799999 6
7.1960001 0.15899999 -0.736 5
7.46 0.161 -0.74800003 5
7.6880002 0.161 -0.75599998 4
7.974 0.162 -0.76800001 3
8.2799997 0.163 -0.78100002 4
8.573 0.164 -0.792 3
8.9110003 0.16500001 -0.80500001 3
9.2969999 0.16599999 -0.82099998 3
9.7299995 0.168 -0.83999997 3
10.111 0.168 -0.85299999 2
10.551 0.168 -0.86900002 3
11.047 0.169 -0.88700002 3
11.538 0.169 -0.90399998 6
11.923 0.16599999 -0.91000003 4
12.545 0.16599999 -0.93300003 3
0 0 0 7
13.833 0.164 -0.97399998 5
14.292 0.16 -0.977 4
0 0 0 2
0 0 0 3
0 0 0 2
0 0 0 2
0 0 0 1
0 0 0 1
0 0 0 1
0 0 0 0
0 0 0 0
0 0 0 0
0 0 0 0
0 0 0 0
0 0 0 20
94.029999 0.059999999 -3.819 71
94.041 -0.015 -3.6329999 97
0 0 0 6
53.153999 -0.096000001 -1.842 18
53.176998 -0.139 -1.739 19
53.144001 -0.184 -1.633 150
0 0 0 0
0 0 0 24
94.101997 -0.565 -2.3380001 31
94.061996 -0.64600003 -2.152 21
0 0 0 0
0 0 0 0
0 0 0 21
94.105003 -0.97600001 -1.4170001 18
0 0 0 36
0 0 0 0
0 0 0 66
74.250999 -1.039 -0.53899997 60
73.560997 -1.096 -0.39300001 95
73.299004 -1.16 -0.25 83
0 0 0 43
68.583 -1.214 0.030999999 46
69.153999 -1.29 0.16599999 15
68.134003 -1.336 0.29499999 11
67.918999 -1.397 0.42399999 150
67.907997 -1.462 0.55500001 150
0 0 0 0
0 0 0 0
0 0 0 0
0 0 0 0
0 0 0 19
57.16 -1.566 1.115 20
56.985001 -1.618 1.2180001 8
55.451 -1.63 1.29 9
54.424 -1.655 1.368 21
53.471001 -1.681 1.444 26
52.919998 -1.717 1.527 34
52.226002 -1.749 1.605 55
52.125 -1.799 1.699 81
52.082001 -1.852 1.794 40
52.007 -1.903 1.886 6
0 0 0 0
0 0 0 0
0 0 0 0
0 0 0 0
0 0 0 0
0 0 0 0
0 0 0 49
48.047001 -2.1689999 2.4449999 55
48.039001 -2.221 2.5309999 34
0 0 0 8
44.136002 -2.138 2.4849999 20
44.115002 -2.1860001 2.563 7
0 0 0 26
48.105 -2.4909999 2.9660001 39
48.087002 -2.5439999 3.05 50
0 0 0 9
44.292999 -2.4419999 2.964 10
44.043999 -2.477 3.0220001 53
44.041 -2.527 3.0999999 68
43.368 -2.5369999 3.1270001 37
43.063999 -2.569 3.181 66
43.07 -2.619 3.256 64
42.555 -2.638 3.2909999 37
41.728001 -2.635 3.299 63
41.737 -2.684 3.372 63
41.706001 -2.73 3.4400001 58
40.431 -2.694 3.404 34
40.377998 -2.7379999 3.467 56
40.382999 -2.7850001 3.536 55
40.013 -2.806 3.569 34
39.046001 -2.7839999 3.5469999 58
39.048 -2.829 3.6110001 60
39.048 -2.8759999 3.6760001 59
38.556 -2.885 3.6930001 31
37.688999 -2.8659999 3.6730001 56
37.695 -2.911 3.7349999 60
37.672001 -2.954 3.7939999 53
36.465 -2.904 3.7309999 10
36.106998 -2.918 3.7520001 9
35.873001 -2.9419999 3.7850001 58
35.877998 -2.9860001 3.8429999 62
35.893002 -3.03 3.901 60
35.877998 -3.073 3.9560001 59
35.895 -3.118 4.0149999 61
35.886002 -3.1600001 4.0700002 60
35.896 -3.2049999 4.1269999 56
35.915001 -3.2509999 4.184 55
35.91 -3.293 4.2379999 55
35.924 -3.3380001 4.2950001 58
35.919998 -3.382 4.349 56
35.917999 -3.425 4.4029999 55
35.923 -3.47 4.4580002 53
35.931 -3.5150001 4.513 54
35.925999 -3.5580001 4.566 57
35.939999 -3.6040001 4.6209998 56
35.948002 -3.6489999 4.6750002 57
35.950001 -3.694 4.7280002 56
35.952999 -3.7390001 4.7810001 47
35.960999 -3.783 4.8330002 56
35.959 -3.8269999 4.8850002 55
35.972 -3.8729999 4.9380002 55
35.966999 -3.9170001 4.9889998 58
35.966999 -3.9619999 5.04 61
35.977001 -4.0089998 5.0929999 61
35.970001 -4.0510001 5.1420002 50
36.042 -4.1040001 5.2030001 6
36.160999 -4.1630001 5.27 4
36.119999 -4.2030001 5.3130002 3
36.237999 -4.2620001 5.3800001 2
0 0 0 0
0 0 0 2
36.286999 -4.402 5.533 2
0 0 0 0
0 0 0 0
0 0 0 2
36.237 -4.5739999 5.7160001 2
0 0 0 0
0 0 0 0
0 0 0 0
0 0 0 2
36.268002 -4.802 5.9510002 3
36.355999 -4.8579998 6.0110002 3
36.380001 -4.9050002 6.059 3
0 0 0 3
28.355 -3.8929999 4.7919998 14
28.257999 -3.914 4.8099999 22
28.202999 -3.941 4.8340001 27
28.163 -3.97 4.8600001 30
28.127001 -4 4.8870001 34
28.097 -4.0289998 4.915 37
28.066999 -4.059 4.9419999 39
28.048 -4.0900002 4.9710002 40
28.023001 -4.1209998 4.9990001 44
28.006001 -4.152 5.027 47
27.997 -4.1849999 5.0570002 48
27.985001 -4.217 5.086 54
27.971001 -4.2490001 5.1139998 54
27.974001 -4.2820001 5.145 57
27.955 -4.3130002 5.171 56
27.959999 -4.3470001 5.2020001 60
27.983999 -4.3839998 5.2360001 48
27.973 -4.4159999 5.2639999 49
27.978001 -4.4499998 5.2940001 47
27.981001 -4.4829998 5.323 44
27.990999 -4.5170002 5.3530002 43
28.014 -4.5539999 5.3860002 39
28.035 -4.5910001 5.4180002 37
28.042999 -4.625 5.447 34
28.084999 -4.664 5.4829998 33
28.114 -4.7020001 5.5149999 28
28.141001 -4.7379999 5.5469999 23
28.215 -4.783 5.5890002 18
28.306999 -4.8319998 5.6329999 7
0 0 0 24
31.882999 -5.5159998 6.4050002 25
31.756001 -5.5300002 6.408 24
31.636 -5.5450001 6.4120002 25
31.518999 -5.5609999 6.4159999 27
31.398001 -5.5739999 6.4180002 25
31.304001 -5.5929999 6.4260001 25
31.186001 -5.6059999 6.4289999 22
31.082001 -5.6230001 6.434 22
30.965 -5.6360002 6.4359999 20
30.861 -5.651 6.4400001 22
30.763 -5.6669998 6.4429998 24
30.681 -5.6859999 6.4510002 24
30.591999 -5.7020001 6.4559999 21
30.500999 -5.717 6.461 21
30.408001 -5.7329998 6.4640002 21
30.294001 -5.744 6.4629998 23
30.207001 -5.7600002 6.467 24
30.1 -5.7719998 6.467 25
30.033001 -5.7909999 6.474 23
29.924 -5.8010001 6.4720001 26
29.860001 -5.8210001 6.4790001 27
29.764999 -5.8319998 6.4790001 24
29.674999 -5.8460002 6.48 23
29.589001 -5.8590002 6.4809999 24
29.506001 -5.8730001 6.4819999 25
29.444 -5.8909998 6.4879999 25
29.355 -5.9029999 6.487 25
29.285 -5.9190001 6.4899998 28
29.209 -5.9330001 6.4920001 29
29.159 -5.9520001 6.4980001 26
29.080999 -5.9640002 6.4980001 25
29.014999 -5.9790001 6.5 27
28.931999 -5.9910002 6.4980001 27
28.867001 -6.0050001 6.5 25
28.801001 -6.0190001 6.5019999 24
28.725 -6.0310001 6.5 24
28.669001 -6.046 6.5019999 27
0 0 0 6
20.274 -4.3130002 4.619 16
20.233 -4.3239999 4.6199999 19
20.191 -4.3330002 4.6199999 21
20.146 -4.342 4.6199999 25
20.135 -4.3579998 4.6259999 23
20.111 -4.3709998 4.6300001 30
20.076 -4.381 4.631 32
20.063999 -4.3959999 4.6360002 32
20.042999 -4.4089999 4.6399999 32
19.997999 -4.4169998 4.638 35
19.989 -4.4320002 4.6440001 38
19.979 -4.447 4.6490002 40
19.965 -4.461 4.6529999 37
19.964001 -4.4770002 4.6609998 42
19.944 -4.4889998 4.6630001 40
19.934 -4.5040002 4.6669998 41
19.927 -4.5180001 4.6729999 42
19.924999 -4.5339999 4.678 32
19.917999 -4.5479999 4.6830001 45
19.910999 -4.5619998 4.6869998 48
19.896 -4.5739999 4.6890001 46
19.893 -4.5890002 4.6939998 34
19.877001 -4.6009998 4.6960001 48
19.879999 -4.6160002 4.7020001 50
19.868 -4.6290002 4.704 49
19.872999 -4.6440001 4.7090001 48
19.860001 -4.6560001 4.71 48
19.865999 -4.671 4.7160001 52
19.862 -4.6849999 4.7189999 50
19.865 -4.6989999 4.724 50
19.85 -4.71 4.724 50
19.853001 -4.724 4.7280002 48
19.841 -4.7350001 4.7280002 48
19.847 -4.75 4.7319999 48
19.846001 -4.7620001 4.7350001 49
19.851 -4.777 4.7379999 45
19.857 -4.7919998 4.7420001 37
19.855 -4.8039999 4.743 35
19.854 -4.816 4.7449999 43
19.853001 -4.8280001 4.7459998 43
19.857 -4.8410001 4.7490001 41
19.848 -4.8509998 4.7470002 43
19.85 -4.8629999 4.7490001 46
19.85 -4.875 4.7490001 44
19.856001 -4.8870001 4.7519999 44
19.858 -4.8990002 4.7519999 44
19.858999 -4.9099998 4.7519999 41
19.860001 -4.921 4.7519999 40
19.864 -4.9330001 4.7529998 41
19.868999 -4.9439998 4.7529998 40
19.858999 -4.9520001 4.75 41
19.871 -4.9650002 4.7519999 40
19.882 -4.9770002 4.7529998 40
19.882999 -4.987 4.7519999 36
19.879999 -4.9959998 4.75 36
19.909 -5.013 4.7540002 37
19.898001 -5.0190001 4.75 36
19.922001 -5.0339999 4.7529998 34
19.923 -5.0430002 4.7509999 34
19.924 -5.0510001 4.7490001 33
19.934999 -5.0619998 4.7480001 33
19.940001 -5.072 4.7459998 31
19.948999 -5.0819998 4.7449999 31
19.964001 -5.0939999 4.744 31
19.966999 -5.1020002 4.7420001 30
19.975 -5.1110001 4.7389998 29
19.974001 -5.118 4.7350001 28
19.995001 -5.1300001 4.7350001 27
20.002001 -5.138 4.7319999 25
19.997999 -5.1440001 4.7259998 25
20.016001 -5.1550002 4.7249999 22
20.025 -5.1630001 4.7220001 22
20.028 -5.1690001 4.717 20
20.052999 -5.1820002 4.7179999 19
20.056999 -5.1880002 4.7119999 18
20.066 -5.1960001 4.7080002 17
20.087999 -5.2059999 4.7069998 17
20.089001 -5.211 4.7010002 16
20.115999 -5.223 4.6999998 13
20.121 -5.2280002 4.6939998 12
20.122 -5.2329998 4.6869998 8
20.150999 -5.2449999 4.6859999 6
20.164 -5.2519999 4.6820002 5
20.146999 -5.2509999 4.6690001 3
20.188 -5.2639999 4.671 2
20.171 -5.2639999 4.6589999 1
20.188 -5.2709999 4.6539998 1
0 0 0 26
28.188999 -7.3670001 6.4749999 23
28.226 -7.3800001 6.4699998 26
28.282 -7.3979998 6.4699998 23
28.327999 -7.4120002 6.467 24
28.393999 -7.4310002 6.4689999 23
28.447001 -7.447 6.467 23
28.497999 -7.4619999 6.4640002 27
28.548 -7.4759998 6.461 24
28.593 -7.4889998 6.4569998 26
28.66 -7.507 6.4569998 27
28.709 -7.52 6.4520001 26
28.775 -7.5380001 6.4510002 25
28.832001 -7.552 6.448 26
28.905001 -7.5710001 6.448 24
28.962 -7.585 6.4439998 27
29.033001 -7.6020002 6.4429998 28
29.101 -7.618 6.441 28
29.176001 -7.6360002 6.4400001 28
29.243999 -7.651 6.4369998 25
29.315001 -7.6680002 6.434 24
29.386999 -7.684 6.4310002 24
29.466 -7.7010002 6.4299998 25
29.530001 -7.7140002 6.4250002 24
29.610001 -7.7309999 6.4219999 23
29.674 -7.744 6.4169998 23
0 0 0 1
20.115 -5.243 4.322 1
20.15 -5.2480001 4.316 2
20.139 -5.2420001 4.2989998 3
20.146999 -5.2399998 4.2870002 4
20.127001 -5.2309999 4.2680001 7
20.111 -5.2220001 4.25 10
20.105 -5.2150002 4.2340002 13
20.084 -5.2049999 4.2150002 15
20.072001 -5.197 4.197 16
20.066 -5.1900001 4.1799998 17
20.048 -5.1799998 4.1609998 18
20.027 -5.1690001 4.1420002 20
20.021 -5.1609998 4.125 20
20.025 -5.1560001 4.1090002 21
20.000999 -5.1440001 4.0879998 23
19.976 -5.1300001 4.0669999 23
19.98 -5.125 4.0510001 24
19.98 -5.118 4.0349998 25
19.955 -5.1040001 4.013 27
19.941999 -5.0929999 3.994 27
19.937 -5.0840001 3.9760001 28
19.927 -5.0739999 3.957 29
19.914 -5.0619998 3.937 29
19.903999 -5.0510001 3.9170001 33
19.906 -5.0440001 3.9000001 32
19.915001 -5.0370002 3.8840001 33
19.896 -5.0229998 3.8629999 34
19.872 -5.0079999 3.8410001 36
19.848 -4.9920001 3.8180001 35
19.851999 -4.9840002 3.8010001 35
19.847 -4.973 3.7820001 37
19.844999 -4.9619999 3.763 39
19.844 -4.9510002 3.744 39
19.837 -4.9390001 3.724 39
19.833 -4.928 3.7049999 40
