# .PCD v0.7 - Point Cloud Data file format
VERSION 0.7
FIELDS x y z intensity
SIZE 4 4 4 4
TYPE F F F F
COUNT 1 1 1 1
WIDTH 1802
HEIGHT 1
VIEWPOINT 0 0 0 1 0 0 0
POINTS 1802
DATA ascii
17.193001 0.34200001 1.332 60
17.195 0.352 1.367 61
17.218 0.36199999 1.402 34
17.215 0.37099999 1.436 58
17.229 0.38100001 1.471 55
17.245001 0.38999999 1.507 32
17.224001 0.39899999 1.539 42
17.247999 0.40799999 1.575 46
17.263 0.417 1.61 44
17.261 0.426 1.6440001 46
17.282 0.435 1.6799999 47
17.275999 0.44299999 1.7130001 41
17.299 0.45199999 1.75 31
17.301001 0.46000001 1.784 29
17.298 0.46799999 1.817 41
17.320999 0.477 1.853 39
17.330999 0.48500001 1.888 27
17.329 0.493 1.9220001 37
17.337 0.50099999 1.957 36
17.368999 0.509 1.994 26
17.370001 0.51599997 2.0280001 35
17.381001 0.52399999 2.063 33
17.403 0.53200001 2.099 23
17.410999 0.53899997 2.1340001 29
17.403 0.546 2.1670001 27
17.448 0.55400002 2.2060001 25
17.469999 0.56099999 2.2420001 23
17.485001 0.56800002 2.277 21
17.509001 0.57499999 2.3139999 19
17.531 0.58200002 2.3499999 16
17.556 0.58899999 2.3870001 12
17.563 0.59600002 2.421 7
17.615999 0.60299999 2.4619999 3
17.635 0.61000001 2.497 1
0 0 0 9
33.952999 1.196 4.9369998 15
33.926998 1.205 4.9970002 17
33.919998 1.216 5.0599999 16
33.914001 1.225 5.1230001 18
33.928001 1.2359999 5.1869998 17
33.939999 1.2460001 5.2529998 13
33.956001 1.256 5.3179998 9
33.962002 1.265 5.381 5
33.942001 1.273 5.4419999 2
33.932999 1.2819999 5.5019999 2
34.083 1.295 5.5900002 2
34.030998 1.302 5.6430001 2
34.014 1.309 5.7020001 2
33.992001 1.316 5.7600002 1
0 0 0 0
0 0 0 0
0 0 0 2
34.396999 1.36 6.0770001 2
34.438999 1.369 6.145 3
34.391998 1.373 6.198 4
34.216 1.372 6.2270002 5
33.898998 1.365 6.2290001 11
33.776001 1.3660001 6.2649999 17
33.759998 1.3710001 6.322 17
33.805 1.377 6.3889999 9
34.118 1.395 6.507 4
34.359001 1.411 6.6129999 4
34.208 1.409 6.6430001 3
34.216 1.414 6.704 5
33.944 1.4069999 6.7090001 12
33.759998 1.403 6.73 18
33.574001 1.399 6.7509999 23
33.354 1.3940001 6.763 27
33.157001 1.3890001 6.7800002 27
32.950001 1.383 6.7930002 27
32.716 1.375 6.7979999 24
32.472 1.368 6.8010001 26
32.233002 1.36 6.8039999 25
32.009998 1.353 6.809 24
31.802 1.346 6.8169999 24
31.596001 1.339 6.8239999 26
31.398001 1.332 6.8309999 24
31.194 1.325 6.8369999 25
30.997 1.317 6.8439999 24
30.804001 1.3099999 6.8509998 25
30.597 1.302 6.8530002 25
30.408001 1.294 6.8590002 25
30.209 1.288 6.862 28
30.028999 1.28 6.869 26
29.848 1.272 6.8730001 26
29.677999 1.265 6.8800001 29
29.511999 1.258 6.8870001 25
29.316 1.248 6.8850002 25
29.158001 1.2410001 6.8920002 26
28.982 1.233 6.8940001 26
28.847 1.227 6.9050002 29
28.695999 1.219 6.9120002 29
28.532 1.211 6.915 25
28.379999 1.2029999 6.9200001 30
28.233 1.196 6.9260001 24
28.08 1.187 6.928 29
27.941999 1.1799999 6.9349999 26
27.788 1.1720001 6.9359999 29
27.650999 1.164 6.9419999 30
27.507999 1.156 6.9450002 27
27.402 1.149 6.9569998 25
27.240999 1.14 6.9530001 24
27.111 1.132 6.9580002 24
26.969999 1.124 6.9590001 29
26.847 1.1160001 6.9629998 26
26.726999 1.108 6.9679999 29
26.612 1.1 6.974 26
26.472 1.091 6.9720001 25
26.344 1.0829999 6.974 29
26.211 1.074 6.973 26
26.106001 1.066 6.9790001 25
25.99 1.058 6.9809999 28
25.885 1.05 6.9860001 24
25.77 1.0420001 6.987 22
25.646 1.033 6.9860001 25
25.566999 1.026 6.9959998 26
25.451 1.017 6.9959998 25
25.344 1.0089999 6.9970002 23
25.264 1.001 7.006 26
25.158001 0.99299997 7.007 24
25.049999 0.98400003 7.007 22
24.950001 0.97600001 7.007 22
24.843 0.96700001 7.006 28
24.757 0.95899999 7.0110002 26
24.663 0.94999999 7.0120001 31
24.596001 0.94300002 7.0209999 31
24.516001 0.93599999 7.0250001 32
24.405001 0.926 7.02 28
24.337 0.91900003 7.026 25
24.243 0.91000003 7.026 24
24.16 0.90200001 7.0279999 25
24.066 0.89300001 7.026 32
23.996 0.88499999 7.0310001 27
23.924999 0.87699997 7.0349998 27
23.864 0.86900002 7.0409999 29
23.785999 0.861 7.0419998 34
23.701 0.852 7.04 31
23.625999 0.84299999 7.0409999 25
23.552 0.83399999 7.0419998 25
23.48 0.82599998 7.0430002 31
23.393 0.81699997 7.039 26
23.339001 0.80900002 7.0450001 31
23.271 0.801 7.046 32
23.221001 0.79299998 7.052 28
23.164 0.78399998 7.0549998 34
23.1 0.77600002 7.0560002 28
23.048 0.76800001 7.0599999 26
22.983999 0.75999999 7.0599999 27
22.916 0.75099999 7.059 31
22.879999 0.74400002 7.0669999 30
22.813999 0.73500001 7.0650001 26
22.757 0.72600001 7.0650001 26
22.688 0.71700001 7.0619998 32
22.639999 0.70899999 7.0650001 25
22.587 0.70099998 7.0650001 30
22.538 0.69300002 7.0669999 27
22.469 0.68300003 7.0619998 27
22.424999 0.67500001 7.0650001 27
0 0 0 1
17.733 0.52200001 5.6110001 2
17.674999 0.51499999 5.605 4
17.646 0.509 5.6069999 8
17.636 0.50300002 5.6160002 13
17.629999 0.49700001 5.625 15
17.611 0.491 5.6300001 17
17.584999 0.484 5.6329999 18
17.591999 0.47799999 5.6459999 17
17.555 0.47099999 5.6440001 17
17.558001 0.465 5.6550002 18
17.546 0.45899999 5.6609998 18
17.544001 0.454 5.6700001 20
17.51 0.447 5.6680002 21
17.507 0.44100001 5.6760001 21
17.506001 0.43399999 5.6849999 18
17.489 0.428 5.6880002 22
17.476999 0.42199999 5.6919999 24
17.474001 0.41499999 5.6989999 24
17.468 0.40900001 5.7049999 25
17.452999 0.40200001 5.7080002 25
17.431999 0.39500001 5.7080002 20
17.414 0.38800001 5.71 26
17.431 0.38299999 5.7220001 27
17.405001 0.37599999 5.7199998 29
17.417 0.36899999 5.73 28
17.403999 0.36199999 5.7319999 29
17.389 0.35499999 5.7329998 29
17.393 0.34900001 5.7399998 31
17.367001 0.34200001 5.7360001 29
17.374001 0.336 5.744 30
17.385 0.329 5.7519999 30
17.368999 0.322 5.7509999 32
17.370001 0.315 5.756 32
17.372999 0.30899999 5.7610002 34
17.354 0.30199999 5.7589998 32
17.355 0.29499999 5.763 25
17.365999 0.28799999 5.7690001 26
17.334999 0.28200001 5.7620001 34
17.341 0.27399999 5.7670002 34
17.334 0.26800001 5.7670002 38
17.326 0.26100001 5.7670002 38
17.339001 0.25400001 5.7729998 38
17.334999 0.24699999 5.7729998 39
17.341 0.23999999 5.777 37
17.322001 0.233 5.7719998 38
17.316999 0.226 5.7709999 40
17.337999 0.219 5.7789998 29
17.316 0.212 5.7719998 40
17.309999 0.205 5.7709999 42
17.316999 0.198 5.7729998 30
17.316999 0.191 5.7729998 42
17.309 0.184 5.77 42
17.311001 0.177 5.77 44
17.301001 0.17 5.7649999 43
17.311001 0.163 5.7670002 44
17.295 0.155 5.7600002 45
17.306 0.149 5.7620001 46
17.292 0.141 5.756 45
17.299999 0.13500001 5.756 31
17.292999 0.127 5.7519999 46
17.297001 0.12 5.75 46
17.292 0.113 5.7459998 45
17.283001 0.106 5.7389998 46
17.285 0.098999999 5.737 45
17.291 0.092 5.7350001 45
17.287001 0.085000001 5.73 43
17.273001 0.077 5.7210002 41
17.288 0.07 5.7210002 46
17.281 0.063000001 5.7140002 46
17.282 0.056000002 5.71 49
17.294001 0.048999999 5.7090001 51
17.282 0.041000001 5.6989999 49
17.285 0.034000002 5.6939998 47
17.292 0.027000001 5.691 51
17.292999 0.018999999 5.6849999 32
17.280001 0.013 5.6739998 52
17.291 0.0049999999 5.671 49
17.290001 -0.001 5.664 33
17.294001 -0.0080000004 5.658 51
17.290001 -0.015 5.6490002 49
17.282 -0.022 5.6389999 49
17.299 -0.029999999 5.6370001 31
17.285 -0.037 5.6240001 46
17.287001 -0.044 5.6160002 44
17.301001 -0.050999999 5.612 46
17.284 -0.057999998 5.598 48
17.280001 -0.064999998 5.5869999 47
17.306999 -0.071999997 5.5869999 51
17.313 -0.079999998 5.579 31
17.296 -0.086999997 5.5640001 42
17.313999 -0.093999997 5.559 30
17.305 -0.101 5.546 38
17.302 -0.108 5.5349998 36
17.327 -0.115 5.5320001 39
17.309999 -0.122 5.5149999 40
17.322001 -0.12899999 5.5079999 28
17.327999 -0.13600001 5.4980001 41
17.316999 -0.14300001 5.4829998 43
17.326 -0.15000001 5.474 44
17.339001 -0.15700001 5.4650002 44
17.327 -0.164 5.4489999 43
17.326 -0.171 5.4359999 40
17.34 -0.178 5.428 40
17.347 -0.185 5.4169998 28
17.346001 -0.192 5.4029999 28
17.349001 -0.199 5.3899999 37
17.368 -0.206 5.382 28
17.358 -0.213 5.3649998 40
17.364 -0.22 5.3520002 37
17.363001 -0.226 5.3379998 37
17.384001 -0.233 5.329 38
17.371 -0.23999999 5.3099999 36
17.399 -0.24699999 5.3039999 36
17.384001 -0.25299999 5.2839999 34
17.386 -0.25999999 5.2680001 30
17.389999 -0.26699999 5.2529998 31
17.403 -0.27399999 5.2410002 33
17.403999 -0.28 5.2249999 29
17.421 -0.287 5.2129998 31
17.417 -0.29300001 5.1950002 30
17.413 -0.29899999 5.177 29
17.423 -0.30599999 5.1620002 27
17.434999 -0.31299999 5.1479998 29
17.43 -0.31900001 5.1290002 28
17.448999 -0.32600001 5.1160002 28
17.485001 -0.333 5.1090002 26
17.490999 -0.33899999 5.092 24
17.504999 -0.345 5.0770001 24
17.514999 -0.352 5.0609999 23
17.52 -0.35800001 5.0440001 22
17.533001 -0.36399999 5.0279999 20
17.551001 -0.37099999 5.013 20
17.566999 -0.377 4.9980001 18
17.584999 -0.384 4.9829998 17
17.603001 -0.38999999 4.9679999 16
17.615 -0.396 4.9510002 14
17.646 -0.403 4.9390001 13
17.65 -0.40799999 4.9190001 11
17.667999 -0.41499999 4.9029999 7
17.683001 -0.41999999 4.8860002 3
17.728001 -0.428 4.8759999 1
0 0 0 28
25.452 -0.63 6.9380002 28
25.580999 -0.64099997 6.9400001 23
25.708 -0.65200001 6.9419999 23
25.809 -0.662 6.9369998 22
25.915001 -0.67299998 6.9320002 27
26.033001 -0.68400002 6.9289999 23
26.139999 -0.69499999 6.9229999 23
26.271999 -0.70599997 6.9229999 24
26.386 -0.71600002 6.9190001 26
26.488001 -0.727 6.9099998 25
26.639 -0.73799998 6.9130001 24
26.767 -0.74900001 6.9099998 24
26.867001 -0.75999999 6.8990002 23
27.007 -0.77100003 6.8969998 27
27.155001 -0.78299999 6.8969998 25
27.305 -0.79400003 6.8959999 24
27.452 -0.80500001 6.895 22
27.587999 -0.81599998 6.8889999 22
27.716999 -0.82700002 6.881 22
27.874001 -0.83899999 6.8800001 26
27.927 -0.847 6.8530002 26
27.959999 -0.85500002 6.8200002 26
27.950001 -0.861 6.776 25
27.927999 -0.86699998 6.7290001 23
27.813999 -0.87 6.6599998 24
27.566 -0.86900002 6.5599999 15
27.368 -0.86799997 6.4710002 15
27.271999 -0.87099999 6.4060001 24
27.379999 -0.88099998 6.3889999 28
27.533001 -0.89099997 6.382 25
27.695 -0.903 6.3759999 25
27.881001 -0.91399997 6.3759999 24
28.045 -0.92500001 6.369 24
28.209 -0.93599999 6.3610001 23
28.393 -0.94700003 6.3569999 23
28.577999 -0.95899999 6.3530002 25
28.781 -0.97000003 6.3520002 24
28.931999 -0.98000002 6.3390002 24
29.128 -0.99199998 6.3340001 24
29.341999 -1.0039999 6.3319998 25
29.545 -1.016 6.3270001 25
29.736 -1.027 6.3179998 24
29.944 -1.038 6.3140001 23
30.171 -1.051 6.3109999 22
30.372999 -1.061 6.302 23
30.604 -1.074 6.2979999 21
30.851999 -1.087 6.2969999 22
31.066 -1.098 6.289 23
31.277 -1.109 6.277 23
31.525 -1.1210001 6.2729998 21
31.747 -1.133 6.2620001 20
32 -1.145 6.256 21
32.273998 -1.158 6.2529998 21
32.537998 -1.17 6.2480001 22
32.773998 -1.182 6.2360001 23
33.068001 -1.1950001 6.2329998 23
33.341 -1.2079999 6.2259998 23
33.602001 -1.219 6.2150002 23
33.870998 -1.2309999 6.2049999 24
34.132999 -1.243 6.191 25
34.41 -1.255 6.1799998 25
34.615002 -1.2640001 6.1550002 18
34.785999 -1.272 6.1220002 10
34.936001 -1.279 6.085 4
34.974998 -1.2819999 6.027 3
34.827 -1.277 5.9390001 2
34.845001 -1.278 5.8779998 2
34.740002 -1.275 5.796 3
34.834 -1.279 5.7470002 4
34.844002 -1.279 5.684 6
34.833 -1.279 5.618 7
34.852001 -1.279 5.5549998 5
34.749001 -1.275 5.474 3
34.811001 -1.277 5.4180002 4
34.821999 -1.276 5.3540001 4
34.763 -1.273 5.2800002 3
34.775002 -1.272 5.2160001 3
34.766998 -1.27 5.1479998 3
34.714001 -1.266 5.0739999 3
34.791 -1.267 5.0190001 3
34.716999 -1.262 4.9419999 3
34.672001 -1.258 4.869 3
34.698002 -1.257 4.8049998 3
34.688999 -1.253 4.737 3
34.668999 -1.25 4.6669998 3
34.625 -1.245 4.5939999 2
34.683998 -1.244 4.5339999 6
34.757 -1.242 4.4759998 10
34.784 -1.239 4.4109998 10
34.784 -1.235 4.3429999 3
0 0 0 0
0 0 0 0
0 0 0 0
0 0 0 0
0 0 0 0
0 0 0 0
0 0 0 0
0 0 0 0
0 0 0 0
0 0 0 0
0 0 0 1
34.748001 -1.166 3.513 2
34.755001 -1.159 3.444 6
34.721001 -1.151 3.372 19
34.713001 -1.143 3.302 37
34.688999 -1.1339999 3.23 45
34.676998 -1.126 3.1589999 45
34.643002 -1.117 3.0869999 49
34.652 -1.108 3.017 51
34.645 -1.099 2.9460001 53
34.639999 -1.09 2.8740001 49
34.630001 -1.081 2.8039999 54
34.643002 -1.072 2.7349999 51
34.626999 -1.061 2.6630001 51
34.623001 -1.051 2.592 50
34.609001 -1.041 2.5209999 50
34.611 -1.031 2.45 37
34.623001 -1.02 2.3800001 15
34.655998 -1.01 2.312 6
34.650002 -0.99900001 2.2409999 5
34.672001 -0.98799998 2.171 3
34.589001 -0.97399998 2.095 2
0 0 0 0
0 0 0 1
34.841999 -0.94499999 1.896 2
0 0 0 2
38.639 -1.02 1.944 4
38.674999 -1.007 1.867 4
38.639 -0.991 1.785 4
38.608002 -0.97500002 1.705 5
38.638 -0.95999998 1.627 4
38.629002 -0.94499999 1.548 4
38.624001 -0.92900002 1.4680001 4
38.611 -0.912 1.386 4
38.59 -0.89499998 1.307 4
38.622002 -0.88 1.228 4
38.627998 -0.86299998 1.149 2
38.736 -0.84799999 1.073 2
0 0 0 0
0 0 0 2
0 0 0 0
0 0 0 2
38.824001 -0.75999999 0.67500001 2
0 0 0 0
0 0 0 2
38.962002 -0.70499998 0.43700001 2
0 0 0 0
0 0 0 7
15.327 -0.25400001 0.077 37
15.132 -0.242 0.046 52
15.005 -0.23199999 0.014 60
14.906 -0.223 -0.015 58
14.836 -0.214 -0.046 60
14.832 -0.206 -0.075999998 59
14.862 -0.198 -0.106 50
14.858 -0.189 -0.13699999 50
14.888 -0.18099999 -0.168 50
14.904 -0.17299999 -0.198 48
14.847 -0.163 -0.228 42
14.842 -0.154 -0.25799999 23
14.916 -0.146 -0.28999999 12
14.933 -0.138 -0.31999999 10
14.96 -0.12899999 -0.35100001 9
14.989 -0.12 -0.382 9
15.008 -0.111 -0.41299999 13
15.024 -0.101 -0.44400001 14
15.057 -0.092 -0.47499999 9
15.088 -0.082000002 -0.50700003 10
15.106 -0.072999999 -0.53799999 12
15.131 -0.063000001 -0.56900001 13
15.153 -0.052999999 -0.60100001 9
15.179 -0.043000001 -0.63200003 11
15.202 -0.033 -0.66399997 10
15.247 -0.022 -0.69599998 9
15.276 -0.012 -0.72799999 12
15.298 -0.0020000001 -0.759 12
15.305 0.0080000004 -0.79000002 10
15.347 0.018999999 -0.82300001 10
15.204 0.028999999 -0.84500003 10
14.739 0.039000001 -0.84899998 4
0 0 0 3
13.012 0.052999999 -0.801 3
12.388 0.059 -0.787 3
11.834 0.066 -0.77499998 3
11.374 0.071000002 -0.76700002 3
10.949 0.077 -0.75999999 2
10.489 0.081 -0.74800003 3
10.07 0.086000003 -0.73799998 4
9.71 0.090000004 -0.73000002 5
9.3800001 0.093999997 -0.72399998 5
9.0670004 0.097999997 -0.71700001 7
8.8050003 0.102 -0.713 11
8.5830002 0.106 -0.71200001 8
8.29 0.109 -0.704 5
7.9660001 0.111 -0.69099998 4
7.7290001 0.114 -0.68599999 4
7.513 0.117 -0.68099999 3
7.3150001 0.12 -0.67699999 3
7.1030002 0.122 -0.671 3
6.9299998 0.125 -0.667 3
6.7740002 0.127 -0.66500002 3
6.5809999 0.12899999 -0.65899998 4
6.4330001 0.132 -0.65600002 4
6.2659998 0.134 -0.65100002 3
6.1389999 0.13600001 -0.648 3
6.0009999 0.138 -0.64499998 3
5.8509998 0.139 -0.63999999 2
5.7220001 0.141 -0.63599998 2
5.5900002 0.14300001 -0.63200003 3
5.4809999 0.145 -0.63 3
5.3530002 0.146 -0.625 3
5.2459998 0.148 -0.62199998 3
5.145 0.149 -0.61900002 3
5.0310001 0.15000001 -0.61500001 3
4.9460001 0.152 -0.61299998 4
4.848 0.153 -0.61000001 3
4.7670002 0.155 -0.60799998 3
4.6760001 0.156 -0.60500002 3
4.599 0.15800001 -0.60299999 3
4.52 0.15899999 -0.60100001 4
4.4640002 0.161 -0.60100001 3
4.3639998 0.162 -0.59600002 2
4.302 0.163 -0.59500003 2
4.2140002 0.164 -0.58999997 2
4.21 0.168 -0.597 2
4.1339998 0.168 -0.59299999 2
4.0310001 0.168 -0.58499998 2
3.9809999 0.17 -0.58499998 2
3.9549999 0.17200001 -0.588 2
3.8889999 0.17299999 -0.58499998 1
3.8269999 0.17399999 -0.58200002 2
3.7880001 0.176 -0.58200002 2
3.73 0.176 -0.57999998 1
3.6960001 0.178 -0.58099997 3
3.6429999 0.17900001 -0.57800001 3
3.595 0.18000001 -0.57700002 2
3.5439999 0.18099999 -0.574 1
3.527 0.183 -0.57700002 1
3.4619999 0.183 -0.57200003 2
3.513 0.19 -0.58700001 2
3.415 0.18799999 -0.57599998 1
3.3900001 0.189 -0.57700002 2
3.352 0.191 -0.57599998 1
3.2920001 0.19 -0.57099998 1
3.303 0.19400001 -0.57800001 1
3.237 0.193 -0.57200003 1
3.267 0.198 -0.58200002 1
3.194 0.197 -0.574 1
3.188 0.2 -0.57800001 1
3.171 0.20200001 -0.57999998 1
3.073 0.199 -0.56699997 1
3.1259999 0.205 -0.58099997 2
3.006 0.2 -0.56300002 1
3.0409999 0.205 -0.57499999 1
2.9389999 0.20100001 -0.56 1
2.9690001 0.206 -0.56999999 1
2.9089999 0.205 -0.56300002 1
2.8740001 0.206 -0.56 1
2.9000001 0.20999999 -0.56999999 1
2.8469999 0.20900001 -0.56300002 1
2.829 0.211 -0.56400001 1
2.79 0.211 -0.56 1
2.7479999 0.20999999 -0.55599999 1
2.7449999 0.213 -0.55900002 1
2.697 0.212 -0.55299997 1
2.73 0.21699999 -0.56400001 1
2.7279999 0.22 -0.56699997 1
2.6170001 0.213 -0.54799998 1
2.6659999 0.22 -0.56199998 1
2.641 0.22 -0.56 1
2.556 0.21600001 -0.546 1
2.5369999 0.21699999 -0.54500002 1
2.5239999 0.21799999 -0.546 1
2.556 0.22400001 -0.55599999 1
2.559 0.226 -0.56 1
2.503 0.22400001 -0.551 1
2.4579999 0.222 -0.54400003 1
2.4990001 0.228 -0.55699998 1
2.4979999 0.23100001 -0.56 1
2.471 0.23100001 -0.55699998 1
2.444 0.23100001 -0.55400002 1
2.4300001 0.23199999 -0.55400002 1
2.3740001 0.229 -0.54400003 1
2.3469999 0.229 -0.54100001 1
2.325 0.229 -0.53799999 1
2.316 0.23 -0.53899997 1
2.3540001 0.236 -0.551 1
2.289 0.23199999 -0.53799999 1
2.276 0.233 -0.53799999 1
2.257 0.233 -0.53600001 1
2.2509999 0.235 -0.537 1
2.2520001 0.237 -0.54000002 1
2.26 0.23999999 -0.54500002 1
2.26 0.242 -0.54699999 1
2.3310001 0.252 -0.56699997 1
2.2709999 0.248 -0.55500001 1
2.1659999 0.23800001 -0.53200001 1
2.1500001 0.23899999 -0.52999997 1
2.151 0.241 -0.53299999 1
2.142 0.242 -0.53299999 1
2.128 0.242 -0.53100002 1
2.1210001 0.244 -0.53200001 1
2.1059999 0.244 -0.52999997 1
2.1029999 0.245 -0.53200001 1
2.095 0.24600001 -0.53200001 1
2.0840001 0.24699999 -0.53100002 1
2.072 0.248 -0.52999997 1
2.0550001 0.248 -0.528 1
2.059 0.25 -0.53100002 1
2.0439999 0.25 -0.52899998 1
2.0420001 0.252 -0.52999997 1
2.029 0.252 -0.52899998 1
2.0280001 0.25400001 -0.52999997 1
2.0190001 0.25400001 -0.52999997 1
2.006 0.255 -0.528 1
2.0050001 0.25600001 -0.52999997 1
1.99 0.25600001 -0.528 1
1.983 0.257 -0.528 1
1.9859999 0.259 -0.52999997 1
1.9680001 0.259 -0.52700001 1
1.972 0.26100001 -0.52999997 1
1.959 0.26100001 -0.528 1
1.947 0.26100001 -0.52600002 1
1.9450001 0.26300001 -0.52700001 1
1.941 0.264 -0.528 1
1.933 0.264 -0.52700001 1
1.926 0.26499999 -0.52700001 1
1.928 0.26699999 -0.52899998 1
1.9170001 0.26699999 -0.52700001 1
1.9119999 0.26800001 -0.52700001 1
1.911 0.27000001 -0.528 1
1.902 0.27000001 -0.52700001 1
1.897 0.271 -0.52700001 1
1.887 0.271 -0.52499998 1
1.876 0.271 -0.52399999 1
1.87 0.27200001 -0.523 1
1.862 0.27200001 -0.52200001 1
1.865 0.27399999 -0.52399999 1
1.8559999 0.27399999 -0.523 1
1.848 0.27399999 -0.52100003 1
1.848 0.27599999 -0.523 1
1.849 0.278 -0.52399999 1
1.8430001 0.278 -0.52399999 1
1.839 0.27900001 -0.523 1
1.829 0.27900001 -0.52200001 1
1.826 0.28 -0.52200001 1
1.822 0.28099999 -0.52100003 1
1.827 0.28299999 -0.52399999 1
1.8150001 0.28200001 -0.52100003 1
1.8150001 0.28400001 -0.52200001 1
1.812 0.285 -0.52200001 1
1.811 0.28600001 -0.523 1
1.806 0.28600001 -0.52200001 1
1.803 0.287 -0.52200001 1
1.798 0.28799999 -0.52100003 1
1.7970001 0.289 -0.52200001 1
1.795 0.28999999 -0.52200001 1
1.7869999 0.28999999 -0.51999998 1
1.783 0.28999999 -0.51999998 1
1.783 0.292 -0.52100003 1
1.777 0.292 -0.51899999 1
1.772 0.292 -0.51899999 1
1.772 0.29300001 -0.51899999 1
1.774 0.29499999 -0.51999998 1
1.767 0.29499999 -0.51899999 1
1.768 0.296 -0.51999998 1
1.771 0.29800001 -0.52100003 1
1.767 0.29800001 -0.51999998 1
1.765 0.29899999 -0.51999998 1
1.76 0.29899999 -0.51899999 1
1.7589999 0.30000001 -0.51899999 1
1.76 0.301 -0.51999998 1
1.755 0.30199999 -0.51899999 1
1.752 0.30199999 -0.51800001 1
1.753 0.30399999 -0.51899999 1
1.7589999 0.30500001 -0.52100003 1
1.755 0.30599999 -0.51999998 1
1.7589999 0.308 -0.52200001 1
1.7589999 0.30899999 -0.52200001 1
1.753 0.308 -0.51999998 1
1.7410001 0.30700001 -0.51700002 1
1.75 0.31 -0.51999998 1
1.748 0.31 -0.51899999 1
1.745 0.31099999 -0.51800001 1
1.7460001 0.31200001 -0.51899999 1
1.7460001 0.31299999 -0.51899999 1
1.7410001 0.31299999 -0.51800001 1
1.748 0.315 -0.51999998 1
1.744 0.315 -0.51800001 1
1.74 0.315 -0.51700002 1
1.745 0.317 -0.51899999 1
1.74 0.317 -0.51700002 1
1.742 0.31799999 -0.51800001 1
1.745 0.31900001 -0.51899999 1
1.752 0.32100001 -0.51999998 1
1.748 0.32100001 -0.51899999 1
1.75 0.322 -0.51899999 1
1.755 0.324 -0.52100003 1
1.751 0.324 -0.51999998 1
1.744 0.32300001 -0.51700002 1
1.751 0.32600001 -0.51899999 1
1.751 0.32600001 -0.51899999 1
1.76 0.32800001 -0.52100003 1
1.752 0.32800001 -0.51800001 1
1.753 0.32800001 -0.51800001 1
1.756 0.33000001 -0.51899999 1
1.756 0.33000001 -0.51899999 1
1.755 0.331 -0.51800001 1
1.761 0.33199999 -0.51899999 1
1.761 0.333 -0.51899999 1
1.762 0.33399999 -0.51899999 1
1.765 0.33500001 -0.51899999 1
1.768 0.336 -0.51999998 1
1.775 0.338 -0.52100003 1
1.777 0.338 -0.52100003 1
1.775 0.33899999 -0.51999998 1
1.777 0.33899999 -0.51999998 1
1.78 0.34 -0.51999998 1
1.778 0.34 -0.51899999 1
1.786 0.34200001 -0.51999998 1
1.778 0.34099999 -0.51800001 1
1.783 0.34299999 -0.51800001 1
1.7869999 0.34400001 -0.51899999 1
1.79 0.345 -0.51899999 1
1.793 0.34599999 -0.51899999 1
1.799 0.347 -0.51999998 1
1.8049999 0.34799999 -0.52100003 1
1.808 0.34900001 -0.52100003 1
1.809 0.34999999 -0.51999998 1
1.813 0.35100001 -0.52100003 1
1.8150001 0.35100001 -0.51999998 1
1.817 0.352 -0.51999998 1
1.817 0.352 -0.51899999 1
1.826 0.354 -0.52100003 1
1.83 0.35499999 -0.52100003 1
1.8279999 0.35499999 -0.51899999 1
1.836 0.35699999 -0.51999998 1
1.837 0.35699999 -0.51999998 1
1.849 0.359 -0.52200001 1
1.852 0.36000001 -0.52200001 1
1.852 0.36000001 -0.52100003 1
1.858 0.361 -0.52100003 1
1.864 0.36300001 -0.52200001 1
1.869 0.36399999 -0.52200001 1
1.8710001 0.36399999 -0.52100003 1
1.874 0.36500001 -0.52100003 1
1.885 0.36700001 -0.523 1
1.885 0.36700001 -0.52100003 1
1.885 0.366 -0.51999998 1
1.898 0.36899999 -0.52200001 1
1.897 0.36899999 -0.52100003 1
1.91 0.37099999 -0.523 1
1.91 0.37099999 -0.52100003 1
1.921 0.373 -0.523 1
1.92 0.373 -0.52100003 1
1.934 0.375 -0.52399999 1
1.944 0.377 -0.52499998 1
1.946 0.377 -0.52399999 1
1.951 0.37799999 -0.52399999 1
1.961 0.37900001 -0.52499998 1
1.964 0.38 -0.52399999 1
1.979 0.382 -0.52600002 1
1.98 0.382 -0.52499998 1
1.982 0.382 -0.52399999 1
1.99 0.38299999 -0.52399999 1
1.994 0.384 -0.52399999 1
2.003 0.38499999 -0.52399999 1
2.0109999 0.38600001 -0.52399999 1
2.017 0.38699999 -0.52399999 1
2.0309999 0.389 -0.52600002 1
2.039 0.38999999 -0.52600002 1
2.043 0.38999999 -0.52499998 1
2.052 0.39199999 -0.52600002 1
2.063 0.39300001 -0.52700001 1
2.069 0.39399999 -0.52600002 1
2.0799999 0.39500001 -0.52700001 1
2.082 0.39500001 -0.52499998 1
2.095 0.39700001 -0.52700001 1
2.108 0.398 -0.528 1
2.122 0.40000001 -0.52899998 1
2.128 0.40099999 -0.52899998 1
2.1359999 0.40099999 -0.528 1
2.145 0.40200001 -0.528 1
2.1600001 0.40400001 -0.52999997 1
2.1689999 0.405 -0.52999997 1
2.1830001 0.40700001 -0.53100002 1
2.1889999 0.40700001 -0.52999997 1
2.201 0.40900001 -0.53100002 1
2.223 0.412 -0.53399998 2
2.2379999 0.414 -0.53500003 3
2.247 0.414 -0.53399998 4
2.2650001 0.417 -0.53600001 4
2.27 0.417 -0.53500003 5
2.277 0.417 -0.53399998 5
2.2869999 0.41800001 -0.53399998 4
2.299 0.419 -0.53399998 3
2.3 0.41800001 -0.53200001 2
2.312 0.419 -0.53200001 1
2.326 0.41999999 -0.53200001 1
2.346 0.42199999 -0.53399998 1
2.3640001 0.42500001 -0.53600001 1
2.3710001 0.42399999 -0.53399998 1
2.3829999 0.42500001 -0.53399998 1
2.392 0.426 -0.53399998 1
2.4089999 0.42699999 -0.53399998 1
2.4189999 0.42699999 -0.53399998 1
2.4430001 0.43000001 -0.53600001 1
2.451 0.43000001 -0.53500003 1
2.4679999 0.43200001 -0.53600001 1
2.487 0.43399999 -0.537 1
2.5120001 0.43599999 -0.53899997 1
2.5309999 0.43799999 -0.54000002 1
2.546 0.43900001 -0.54000002 1
2.5669999 0.44100001 -0.54100001 1
2.575 0.44 -0.54000002 1
2.598 0.44299999 -0.54100001 1
2.609 0.44299999 -0.54000002 1
2.6289999 0.44400001 -0.54100001 1
2.7509999 0.463 -0.56300002 1
2.697 0.45199999 -0.54799998 1
2.72 0.454 -0.54900002 1
2.753 0.45699999 -0.55199999 1
2.753 0.45500001 -0.54799998 1
2.7709999 0.456 -0.54799998 1
2.8770001 0.47099999 -0.56599998 2
2.7880001 0.45500001 -0.54400003 2
2.8210001 0.458 -0.54699999 1
2.829 0.45699999 -0.54500002 1
2.9590001 0.47600001 -0.56599998 2
3.02 0.48300001 -0.574 2
2.99 0.47600001 -0.56400001 2
2.9990001 0.47499999 -0.56199998 1
2.99 0.47099999 -0.55599999 1
3.0109999 0.472 -0.55599999 1
3.0999999 0.48300001 -0.56800002 1
3.115 0.48199999 -0.56599998 1
3.1589999 0.486 -0.56999999 1
3.201 0.49000001 -0.57300001 1
3.2839999 0.5 -0.58399999 1
3.207 0.48500001 -0.56599998 1
3.2550001 0.49000001 -0.56900001 2
3.2720001 0.48899999 -0.56800002 1
3.3280001 0.49399999 -0.57300001 2
3.323 0.49000001 -0.56699997 1
3.3469999 0.491 -0.56699997 2
3.3699999 0.491 -0.56599998 2
3.494 0.50599998 -0.58200002 2
3.418 0.491 -0.56400001 1
3.5209999 0.50300002 -0.57700002 2
3.483 0.49399999 -0.565 2
3.5309999 0.49700001 -0.56800002 2
3.5580001 0.49700001 -0.56699997 2
3.6159999 0.50199997 -0.57200003 2
3.711 0.51099998 -0.58099997 3
3.6800001 0.50300002 -0.57099998 2
3.744 0.50800002 -0.57599998 3
3.796 0.51099998 -0.57800001 2
3.8210001 0.50999999 -0.57599998 2
3.96 0.52499998 -0.59200001 3
3.8900001 0.51099998 -0.57599998 3
3.9389999 0.51300001 -0.57700002 4
3.961 0.51200002 -0.57499999 4
4.0029998 0.51300001 -0.57499999 3
4.0679998 0.51599997 -0.579 2
4.1789999 0.52600002 -0.588 2
4.1939998 0.523 -0.58399999 2
4.2480001 0.52499998 -0.58600003 2
4.3369999 0.53100002 -0.59200001 2
4.3959999 0.53299999 -0.59299999 3
4.5180001 0.542 -0.60299999 3
4.4840002 0.53299999 -0.59200001 3
4.5450001 0.53500003 -0.59399998 3
4.618 0.53799999 -0.59600002 3
4.684 0.54000002 -0.59799999 3
4.75 0.542 -0.60000002 3
4.829 0.54500002 -0.602 4
4.8889999 0.546 -0.60299999 3
4.9759998 0.54900002 -0.60600001 3
5.053 0.55199999 -0.60799998 3
5.1440001 0.55500001 -0.61199999 4
5.2270002 0.55699998 -0.61400002 4
5.3169999 0.56 -0.61699998 3
5.4130001 0.56300002 -0.62 4
5.5100002 0.56599998 -0.62300003 4
5.6059999 0.56900001 -0.62599999 4
5.697 0.57099998 -0.62699997 4
5.7950001 0.57300001 -0.63 3
5.8990002 0.57599998 -0.63200003 4
5.9990001 0.57800001 -0.63499999 4
6.1440001 0.583 -0.64099997 4
6.3049998 0.58999997 -0.64899999 8
6.4219999 0.59200001 -0.65100002 9
6.527 0.59299999 -0.65200001 9
6.5869999 0.58999997 -0.64899999 10
6.697 0.58999997 -0.64999998 10
6.9070001 0.59899998 -0.66000003 6
7.0539999 0.602 -0.66399997 5
7.21 0.60600001 -0.66799998 4
7.3470001 0.60699999 -0.671 4
7.5 0.60900003 -0.67400002 4
7.6430001 0.61000001 -0.67500001 4
7.8189998 0.61299998 -0.68000001 4
7.9990001 0.61500001 -0.68400002 4
8.177 0.61699998 -0.68699998 3
8.408 0.62300003 -0.69499999 4
8.625 0.62599999 -0.69999999 3
8.8610001 0.63 -0.70700002 4
9.0869999 0.63300002 -0.71200001 5
9.2950001 0.634 -0.71499997 5
9.552 0.63700002 -0.72100002 5
9.8929996 0.64499998 -0.73299998 5
10.183 0.64899999 -0.74000001 7
10.389 0.64600003 -0.74000001 8
10.612 0.64399999 -0.741 5
10.945 0.64700001 -0.74800003 4
11.292 0.65100002 -0.75599998 3
11.631 0.65200001 -0.76200002 3
11.95 0.65200001 -0.76599997 2
12.39 0.65700001 -0.778 3
12.857 0.662 -0.78899997 3
13.393 0.66900003 -0.80299997 3
13.868 0.671 -0.81199998 4
14.381 0.67299998 -0.82300001 3
14.932 0.67500001 -0.833 3
15.628 0.68199998 -0.85100001 2
15.318 0.64399999 -0.81300002 2
0 0 0 7
17.327999 0.67400002 -0.87199998 17
17.323999 0.64600003 -0.84799999 24
17.285 0.616 -0.82200003 30
17.253 0.588 -0.79799998 29
17.221001 0.55800003 -0.773 33
17.197001 0.52999997 -0.74900001 35
17.179001 0.50099999 -0.72500002 45
17.17 0.47299999 -0.70099998 42
17.134001 0.44299999 -0.67699999 45
17.146 0.41600001 -0.65499997 33
17.129 0.38699999 -0.63099998 48
17.122 0.35800001 -0.60799998 58
17.114 0.329 -0.58600003 54
17.112 0.301 -0.56300002 57
17.101 0.271 -0.54000002 62
17.104 0.242 -0.51700002 37
17.105 0.213 -0.495 36
17.107 0.184 -0.47299999 66
17.111 0.155 -0.45100001 55
0 0 0 5
15.558 0.086999997 -0.37 13
15.462 0.059999999 -0.34799999 10
15.381 0.033 -0.32600001 12
15.327 0.0070000002 -0.30599999 9
15.35 -0.018999999 -0.287 6
15.343 -0.045000002 -0.26800001 15
15.169 -0.071999997 -0.245 29
14.992 -0.097000003 -0.22400001 51
14.844 -0.122 -0.20299999 52
14.903 -0.149 -0.185 50
14.855 -0.17399999 -0.16599999 49
14.958 -0.20200001 -0.149 34
14.851 -0.227 -0.13 45
14.827 -0.25299999 -0.112 50
14.845 -0.28 -0.093999997 56
14.89 -0.30700001 -0.077 54
14.966 -0.33500001 -0.059 56
14.972 -0.36199999 -0.041000001 56
15.01 -0.389 -0.024 51
15.021 -0.41600001 -0.0060000001 51
15.162 -0.44800001 0.0099999998 38
15.142 -0.47400001 0.028000001 12
15.004 -0.49700001 0.045000002 4
15.03 -0.52499998 0.061999999 1
15 -0.551 0.079999998 1
0 0 0 0
0 0 0 0
0 0 0 0
0 0 0 0
0 0 0 2
35.136002 -1.676 0.42500001 9
35.096001 -1.74 0.463 10
34.911999 -1.795 0.49900001 6
34.810001 -1.852 0.53500003 16
34.862 -1.919 0.574 15
0 0 0 1
0 0 0 14
0 0 0 2
30.584999 -1.909 0.63300002 7
30.513 -1.96 0.66299999 2
30.575001 -2.0209999 0.69700003 1
30.575001 -2.0780001 0.72799999 1
30.6 -2.1370001 0.76099998 1
30.65 -2.197 0.79299998 1
30.694 -2.257 0.82499999 1
30.652 -2.3110001 0.85500002 1
30.771999 -2.3770001 0.889 2
30.665001 -2.4260001 0.91600001 1
30.705 -2.487 0.94800001 1
30.773001 -2.549 0.98000002 1
30.768 -2.6070001 1.01 1
30.787001 -2.6659999 1.04 2
30.886 -2.7309999 1.073 1
30.826 -2.783 1.1 1
30.781 -2.8380001 1.128 2
30.906 -2.9059999 1.161 2
30.961 -2.97 1.192 4
31.695999 -3.0999999 1.249 7
31.642 -3.154 1.276 12
31.565001 -3.204 1.301 12
31.454 -3.2520001 1.325 12
31.370001 -3.302 1.349 16
31.379999 -3.3599999 1.377 20
31.429001 -3.424 1.4069999 22
31.436001 -3.483 1.434 22
31.448 -3.5420001 1.461 22
31.478001 -3.6059999 1.49 22
31.493999 -3.6659999 1.517 21
31.525 -3.7290001 1.545 18
31.539 -3.7880001 1.572 18
31.556 -3.849 1.598 18
31.573999 -3.9100001 1.625 11
0 0 0 0
0 0 0 5
31.334 -4.0539999 1.687 1
31.318001 -4.1100001 1.711 1
31.292 -4.164 1.734 1
31.320999 -4.2249999 1.7589999 1
31.416 -4.296 1.789 1
31.393 -4.3509998 1.811 1
0 0 0 14
36.004002 -5.1209998 2.1289999 16
0 0 0 1
0 0 0 7
0 0 0 1
31.513 -4.7150002 1.955 1
31.485001 -4.7680001 1.975 1
0 0 0 10
35.987999 -5.5809999 2.3069999 9
35.660999 -5.5949998 2.3099999 4
0 0 0 3
27.806999 -4.4640002 1.8380001 21
27.725 -4.5009999 1.851 30
27.671 -4.5409999 1.865 36
27.631001 -4.585 1.88 33
27.589001 -4.6279998 1.8940001 43
27.556 -4.6719999 1.91 44
27.527 -4.7160001 1.924 51
27.504999 -4.7620001 1.939 51
27.509001 -4.8109999 1.956 57
27.490999 -4.8569999 1.971 61
27.478001 -4.9029999 1.9859999 56
27.471001 -4.9499998 2.0009999 57
27.497 -5.0040002 2.0190001 47
27.496 -5.052 2.0339999 46
27.528 -5.1069999 2.0510001 40
27.532 -5.1550002 2.0669999 37
27.573 -5.211 2.085 32
27.639 -5.2719998 2.1040001 24
27.694 -5.3309999 2.1229999 20
0 0 0 6
9.8940001 -1.939 0.76800001 11
9.8240004 -1.942 0.76800001 22
9.7849998 -1.951 0.76999998 19
9.7519999 -1.961 0.77200001 17
9.7340002 -1.974 0.77499998 18
9.7069998 -1.985 0.77700001 26
9.6899996 -1.998 0.77999997 26
9.6739998 -2.0109999 0.78399998 27
9.6490002 -2.0220001 0.78600001 27
9.6379995 -2.036 0.78899997 28
9.6160002 -2.0469999 0.792 30
9.6020002 -2.0599999 0.79400003 30
9.5889997 -2.073 0.79699999 31
9.5839996 -2.0880001 0.801 32
9.573 -2.1010001 0.80400002 32
9.5480003 -2.112 0.80599999 33
9.5509996 -2.128 0.80900002 37
9.54 -2.141 0.81199998 37
9.5279999 -2.154 0.815 35
9.526 -2.1689999 0.81800002 37
9.5150003 -2.1819999 0.82099998 40
9.5089998 -2.1949999 0.82300001 39
9.4969997 -2.2079999 0.82499999 41
9.4890003 -2.221 0.82800001 42
9.4849997 -2.2349999 0.83099997 42
9.4709997 -2.247 0.83200002 44
9.4770002 -2.263 0.83600003 43
9.4759998 -2.2780001 0.83899999 44
9.4790001 -2.293 0.84200001 44
9.4639997 -2.3039999 0.84399998 44
9.4630003 -2.3180001 0.84600002 44
9.4680004 -2.3340001 0.84899998 43
9.4610004 -2.346 0.85100001 42
9.4530001 -2.359 0.85299999 39
9.4700003 -2.3770001 0.85699999 39
9.4519997 -2.3870001 0.85799998 35
9.4560003 -2.402 0.86000001 33
9.4580002 -2.4170001 0.86299998 34
9.4589996 -2.431 0.86500001 34
9.4560003 -2.444 0.86699998 32
9.4510002 -2.4560001 0.86900002 30
9.4729996 -2.4760001 0.87300003 30
9.4619999 -2.4860001 0.87400001 29
9.4630003 -2.5 0.87599999 27
9.4619999 -2.513 0.87699997 26
9.4650002 -2.5280001 0.87900001 26
9.4770002 -2.5439999 0.88200003 27
9.4809999 -2.5580001 0.884 27
9.4770002 -2.5699999 0.88499999 28
9.4890003 -2.5869999 0.88800001 28
9.5030003 -2.6040001 0.89099997 28
9.4940004 -2.6140001 0.89099997 27
9.5100002 -2.631 0.89399999 26
9.5129995 -2.6440001 0.89600003 23
9.5319996 -2.6619999 0.898 26
9.5340004 -2.6760001 0.89999998 26
9.5530005 -2.6930001 0.903 17
9.5679998 -2.71 0.90499997 18
9.5699997 -2.723 0.90600002 16
9.5909996 -2.7409999 0.90899998 18
9.6070004 -2.7579999 0.91100001 15
9.6309996 -2.777 0.91399997 14
9.658 -2.796 0.917 12
9.6920004 -2.8180001 0.921 11
9.7250004 -2.839 0.92500001 10
9.7700005 -2.8640001 0.93000001 2
0 0 0 0
0 0 0 5
34.008999 -10.093 3.2420001 8
33.966999 -10.121 3.2379999 5
33.995998 -10.168 3.2420001 5
33.409 -10.031 3.1860001 6
33.797001 -10.186 3.224 4
34.126999 -10.323 3.2550001 6
34.25 -10.398 3.267 5
34.273998 -10.443 3.2690001 5
34.188999 -10.455 3.26 4
34.262001 -10.514 3.266 3
34.416 -10.597 3.28 3
34.209999 -10.57 3.2590001 2
34.233002 -10.613 3.26 2
0 0 0 0
0 0 0 0
0 0 0 0
0 0 0 0
0 0 0 2
34.379002 -10.864 3.2620001 2
0 0 0 0
0 0 0 2
0 0 0 0
0 0 0 4
30.679001 -9.8380003 2.8959999 6
0 0 0 2
34.411999 -11.096 3.24 3
34.441002 -11.135 3.2390001 2
34.417 -11.156 3.233 2
34.487 -11.209 3.234 2
0 0 0 0
0 0 0 2
0 0 0 0
0 0 0 2
0 0 0 0
0 0 0 0
0 0 0 0
0 0 0 0
0 0 0 0
0 0 0 0
0 0 0 0
0 0 0 0
0 0 0 0
0 0 0 0
0 0 0 0
0 0 0 0
0 0 0 4
33.84 -11.437 3.062 10
33.838001 -11.456 3.0539999 12
33.801998 -11.463 3.043 8
0 0 0 0
0 0 0 0
0 0 0 0
0 0 0 0
0 0 0 0
0 0 0 0
0 0 0 4
33.535999 -11.512 2.95 5
33.473999 -11.506 2.9349999 5
33.469002 -11.519 2.925 5
33.341 -11.489 2.904 5
33.262001 -11.476 2.8870001 5
33.16 -11.454 2.868 5
33.080002 -11.439 2.852 5
33.101002 -11.458 2.8429999 5
33.102001 -11.471 2.8329999 5
33.018002 -11.453 2.8150001 4
33.033001 -11.469 2.8069999 2
0 0 0 0
0 0 0 2
20.389 -7.0970001 1.712 5
20.364 -7.0939999 1.702 7
20.316 -7.0830002 1.692 12
20.334 -7.0939999 1.687 14
20.304001 -7.0879998 1.677 15
20.289 -7.0869999 1.669 17
20.282 -7.0890002 1.661 18
20.264999 -7.0869999 1.652 19
20.254999 -7.0869999 1.6440001 20
20.247 -7.0869999 1.636 20
20.24 -7.0869999 1.628 21
20.257999 -7.0970001 1.6210001 21
20.232 -7.0900002 1.6109999 22
20.226 -7.0900002 1.603 22
20.216 -7.0879998 1.594 22
20.219 -7.0910001 1.587 24
20.219999 -7.092 1.579 22
20.222 -7.0939999 1.571 25
20.215 -7.092 1.562 23
20.224001 -7.0949998 1.5549999 23
20.231001 -7.098 1.5470001 23
20.209 -7.0900002 1.5369999 23
20.216999 -7.092 1.529 22
20.209 -7.0879998 1.52 22
20.221001 -7.0910001 1.512 22
20.214001 -7.0869999 1.5039999 23
20.219 -7.0869999 1.495 22
20.219 -7.085 1.4859999 23
20.229 -7.0869999 1.478 21
20.245001 -7.0890002 1.471 21
20.240999 -7.085 1.461 21
20.257 -7.0879998 1.4529999 22
20.256001 -7.0840001 1.444 20
20.274 -7.086 1.436 19
20.280001 -7.0840001 1.427 15
20.287001 -7.0819998 1.418 16
20.296 -7.0809999 1.409 16
20.315001 -7.0819998 1.401 14
20.329 -7.0819998 1.393 12
20.356001 -7.086 1.385 8
20.372999 -7.086 1.377 6
20.403999 -7.0910001 1.368 3
20.386 -7.0780001 1.358 1
0 0 0 42
30.740999 -10.653 2.0179999 43
30.74 -10.641 2.0020001 43
30.73 -10.626 1.987 44
30.722 -10.611 1.971 43
30.723 -10.599 1.955 44
30.712999 -10.583 1.9400001 46
30.702 -10.566 1.924 46
30.700001 -10.552 1.908 46
30.702 -10.538 1.893 46
30.698999 -10.523 1.877 48
30.690001 -10.504 1.862 47
30.693001 -10.49 1.846 48
30.665001 -10.465 1.8279999 48
30.669001 -10.45 1.813 47
30.666 -10.432 1.7970001 39
30.658001 -10.412 1.781 46
30.65 -10.392 1.7640001 49
30.634001 -10.369 1.747 49
30.639999 -10.353 1.732 47
30.611 -10.324 1.714 46
30.627001 -10.31 1.699 50
30.611 -10.285 1.681 49
30.604 -10.263 1.665 46
30.591 -10.238 1.648 48
30.580999 -10.214 1.631 46
30.575001 -10.191 1.615 47
30.570999 -10.168 1.599 49
30.563999 -10.143 1.581 45
30.556 -10.118 1.564 48
30.535 -10.088 1.5470001 45
30.530001 -10.063 1.53 46
30.528999 -10.039 1.5140001 45
30.504 -10.007 1.4960001 47
30.509001 -9.9840002 1.48 45
30.503 -9.9569998 1.4630001 47
30.489 -9.927 1.4450001 47
30.476999 -9.8970003 1.428 48
30.472 -9.8690004 1.411 48
30.450001 -9.8360004 1.393 44
30.441 -9.8059998 1.375 45
30.422001 -9.7729998 1.358 46
30.427999 -9.7469997 1.342 47
30.415001 -9.7150002 1.325 47
30.403 -9.6820002 1.308 47
30.389999 -9.6490002 1.29 46
30.382999 -9.618 1.273 45
30.375 -9.5860004 1.257 45
30.349001 -9.5469999 1.239 44
30.351 -9.5179996 1.222 45
30.333 -9.4820004 1.204 48
30.311001 -9.4440002 1.187 46
30.311001 -9.4130001 1.17 46
30.304001 -9.3789997 1.152 48
30.296 -9.3439999 1.136 47
30.264 -9.302 1.118 47
30.26 -9.2679996 1.101 48
30.243 -9.2290001 1.0829999 49
30.231001 -9.1929998 1.067 47
30.237 -9.1599998 1.05 40
30.198999 -9.1149998 1.0319999 47
30.207001 -9.0819998 1.016 46
30.177999 -9.0389996 0.99800003 43
30.167 -9 0.98199999 36
30.153999 -8.9610004 0.96499997 33
30.135 -8.9189997 0.94700003 27
30.125 -8.8800001 0.93099999 21
30.117001 -8.8409996 0.91399997 15
30.111 -8.802 0.898 13
0 0 0 1
9.46 -2.7420001 0.271 2
9.4020004 -2.7130001 0.26499999 1
9.2810001 -2.6659999 0.25600001 1
0 0 0 0
0 0 0 0
0 0 0 0
0 0 0 0
0 0 0 0
0 0 0 0
0 0 0 0
0 0 0 0
0 0 0 0
0 0 0 1
9.0559998 -2.4679999 0.197 3
9.3199997 -2.527 0.198 4
9.4119997 -2.539 0.19499999 11
9.4169998 -2.527 0.19 15
9.427 -2.516 0.185 17
9.2399998 -2.4530001 0.177 2
9.0340004 -2.385 0.168 1
9.0229998 -2.369 0.164 1
9.0129995 -2.352 0.15899999 1
9.0129995 -2.339 0.154 3
9.0299997 -2.3299999 0.15000001 2
9.4259996 -2.418 0.152 14
9.4370003 -2.4059999 0.147 35
9.4300003 -2.3900001 0.142 37
9.4309998 -2.375 0.138 38
9.4399996 -2.3629999 0.133 39
9.4289999 -2.345 0.12899999 42
9.4449997 -2.335 0.124 41
9.4329996 -2.3169999 0.119 42
9.4440002 -2.3039999 0.115 42
9.4580002 -2.293 0.111 41
9.4580002 -2.277 0.106 41
9.46 -2.2620001 0.101 40
9.4630003 -2.247 0.097000003 39
9.474 -2.2349999 0.093000002 39
9.4750004 -2.2190001 0.089000002 40
9.4720001 -2.2030001 0.083999999 37
9.4700003 -2.187 0.079999998 38
9.4890003 -2.175 0.075000003 37
9.5010004 -2.1619999 0.071000002 36
9.5 -2.1459999 0.067000002 32
9.5109997 -2.132 0.063000001 33
9.5200005 -2.118 0.059 34
9.5319996 -2.1040001 0.055 32
9.5500002 -2.092 0.050999999 32
9.5509996 -2.075 0.046999998 31
9.5679998 -2.062 0.043000001 31
9.573 -2.0469999 0.039000001 30
9.5810003 -2.0320001 0.035 29
9.6110001 -2.0209999 0.030999999 29
9.6230001 -2.007 0.027000001 28
9.6490002 -1.995 0.023 27
9.6619997 -1.9809999 0.02 26
9.6759996 -1.966 0.016000001 15
9.698 -1.9529999 0.012 16
9.7370005 -1.943 0.0080000004 14
9.7659998 -1.931 0.0040000002 16
9.809 -1.9220001 0.001 19
9.8710003 -1.916 -0.0020000001 9
9.9490004 -1.913 -0.0060000001 5
0 0 0 12
27.580999 -5.204 -0.035999998 23
27.52 -5.1409998 -0.046 30
27.487 -5.0840001 -0.056000002 37
27.468 -5.0289998 -0.064999998 41
27.451 -4.9749999 -0.074000001 43
27.448 -4.9229999 -0.083999999 40
27.433001 -4.869 -0.093000002 43
27.427 -4.8150001 -0.101 65
27.410999 -4.7600002 -0.11 66
27.451 -4.7150002 -0.119 64
27.465 -4.665 -0.12800001 50
27.489 -4.6170001 -0.13600001 47
27.521999 -4.5689998 -0.145 41
27.563999 -4.5229998 -0.153 36
27.620001 -4.4780002 -0.162 33
27.677 -4.434 -0.17 28
27.785999 -4.3969998 -0.178 19
0 0 0 1
6.487 -1.001 -0.045000002 2
6.4770002 -0.98699999 -0.046 3
6.4829998 -0.97500002 -0.048 3
6.4819999 -0.96200001 -0.050000001 2
6.4829998 -0.949 -0.050999999 2
6.4819999 -0.93599999 -0.052999999 2
6.441 -0.917 -0.054000001 3
6.4910002 -0.91100001 -0.056000002 1
6.5419998 -0.90600002 -0.057999998 1
6.5570002 -0.89499998 -0.059999999 1
0 0 0 43
28.35 -3.756 -0.271 45
28.336 -3.6960001 -0.27700001 48
28.316999 -3.6359999 -0.28200001 51
28.288 -3.575 -0.287 49
28.256001 -3.513 -0.292 48
28.261999 -3.4560001 -0.29699999 49
28.215 -3.3929999 -0.30199999 46
28.198 -3.3329999 -0.30599999 46
28.173 -3.273 -0.31 47
0 0 0 2
12.468 -1.397 -0.141 6
12.436 -1.368 -0.142 18
12.427 -1.34 -0.14399999 39
12.372 -1.309 -0.145 35
12.34 -1.28 -0.146 40
12.384 -1.2589999 -0.148 35
12.333 -1.228 -0.149 44
12.336 -1.2029999 -0.15000001 46
12.392 -1.183 -0.152 43
12.341 -1.152 -0.152 53
12.353 -1.127 -0.154 47
12.341 -1.1 -0.154 43
12.395 -1.079 -0.156 44
12.521 -1.0650001 -0.15800001 44
12.559 -1.041 -0.16 44
12.556 -1.015 -0.16 45
12.545 -0.98699999 -0.161 36
12.507 -0.958 -0.161 44
12.651 -0.94199997 -0.163 36
12.745 -0.92199999 -0.164 37
12.626 -0.88700002 -0.163 36
12.717 -0.86699998 -0.164 37
12.894 -0.85100001 -0.167 38
12.945 -0.82700002 -0.167 38
12.972 -0.80199999 -0.168 28
13.034 -0.778 -0.168 24
13.056 -0.75199997 -0.168 19
13.051 -0.72399998 -0.168 1
0 0 0 7
30.413 -1.5599999 -0.38999999 3
0 0 0 11
35.108002 -1.65 -0.44600001 19
35.147999 -1.5779999 -0.44499999 3
0 0 0 8
14.878 -0.60500002 -0.186 39
14.897 -0.57499999 -0.185 32
14.915 -0.54400003 -0.184 49
14.943 -0.51300001 -0.183 45
14.937 -0.48100001 -0.18099999 50
15.042 -0.45199999 -0.18099999 51
15.041 -0.41999999 -0.17900001 51
14.947 -0.38600001 -0.176 50
15.027 -0.35499999 -0.175 37
14.865 -0.31999999 -0.171 50
14.841 -0.28799999 -0.169 50
14.792 -0.25600001 -0.16599999 49
14.812 -0.22499999 -0.164 48
14.917 -0.19499999 -0.162 37
14.879 -0.163 -0.15899999 50
14.87 -0.131 -0.15700001 43
14.937 -0.1 -0.155 50
14.988 -0.068000004 -0.152 51
15.175 -0.037 -0.15099999 44
15.338 -0.0040000002 -0.15000001 53
15.354 0.026000001 -0.147 18
15.383 0.059 -0.14399999 4
15.394 0.090999998 -0.14 4
15.53 0.125 -0.138 16
15.576 0.15800001 -0.13500001 37
0 0 0 0
0 0 0 41
17.118999 0.28200001 -0.13500001 63
17.121 0.31799999 -0.131 33
17.143 0.35499999 -0.126 33
17.132999 0.38999999 -0.122 47
17.169001 0.42699999 -0.117 33
17.183001 0.463 -0.112 45
17.198999 0.49900001 -0.107 38
17.226 0.53600001 -0.102 38
17.268 0.57300001 -0.097000003 33
17.309999 0.611 -0.092 27
17.368999 0.64899999 -0.086999997 21
17.466 0.68900001 -0.081 14
0 0 0 53
33.721001 1.469 -0.13500001 54
33.705002 1.538 -0.123 45
33.692001 1.607 -0.111 47
33.660999 1.676 -0.098999999 55
33.632999 1.745 -0.086000003 51
33.601002 1.811 -0.074000001 50
33.578999 1.8789999 -0.061000001 51
33.555 1.947 -0.048 53
33.523998 2.013 -0.035999998 50
33.647999 2.0899999 -0.022 11
0 0 0 0
0 0 0 0
0 0 0 1
17.17 1.205 0.016000001 58
17.1 1.235 0.023 12
16.966 1.2589999 0.029999999 7
16.924 1.29 0.037999999 6
16.888 1.321 0.045000002 2
16.812 1.349 0.052999999 1
16.782 1.38 0.059999999 2
16.746 1.411 0.068000004 2
16.695999 1.4400001 0.075000003 2
16.690001 1.472 0.082999997 2
16.636999 1.5 0.090999998 1
16.631001 1.5319999 0.097999997 3
16.652 1.567 0.107 1
16.607 1.595 0.114 1
16.573 1.624 0.123 1
16.573999 1.6569999 0.131 1
16.57 1.688 0.139 1
16.646 1.729 0.148 1
0 0 0 0
0 0 0 0
0 0 0 0
0 0 0 0
0 0 0 0
0 0 0 0
0 0 0 0
0 0 0 0
0 0 0 0
0 0 0 0
0 0 0 1
17.004999 2.155 0.26300001 1
17.105 2.2 0.27399999 1
17.146999 2.2360001 0.285 1
17.228001 2.279 0.296 1
17.256001 2.3139999 0.30700001 1
17.231001 2.342 0.31600001 1
17.356001 2.391 0.329 1
17.403999 2.4289999 0.34 1
17.614 2.49 0.35499999 1
17.608999 2.5220001 0.366 1
0 0 0 0
0 0 0 0
0 0 0 0
0 0 0 0
0 0 0 0
0 0 0 0
0 0 0 0
0 0 0 0
0 0 0 0
0 0 0 1
17.729 2.885 0.49200001 1
0 0 0 0
0 0 0 0
0 0 0 0
0 0 0 0
0 0 0 1
0 0 0 0
0 0 0 1
19.495001 3.437 0.64499998 1
0 0 0 64
32.265999 5.7950001 1.113 32
32.598999 5.908 1.146 7
32.974998 6.0310001 1.182 8
33.290001 6.1430001 1.217 8
33.672001 6.2680001 1.2539999 8
33.984001 6.3800001 1.289 7
35.887001 6.7950001 1.386 52
35.974998 6.868 1.415 80
35.955002 6.921 1.439 80
35.938999 6.9749999 1.464 81
35.93 7.0289998 1.489 74
36.213001 7.1409998 1.527 5
36.563 7.2649999 1.567 5
37.162998 7.4419999 1.619 7
37.404999 7.5469999 1.6569999 45
37.466999 7.6160002 1.686 35
37.643002 7.7080002 1.72 3
39.819 8.2130003 1.849 110
39.796001 8.2679996 1.877 107
39.771999 8.3210001 1.904 93
39.859001 8.3990002 1.937 10
40.396 8.5710001 1.993 4
40.605999 8.6730003 2.033 7
42.119999 9.0559998 2.1389999 20
40.650002 8.7980003 2.0940001 11
40.582001 8.842 2.1199999 18
40.546001 8.8920002 2.1489999 23
40.567001 8.9530001 2.1789999 3
40.615002 9.0200005 2.211 3
0 0 0 50
43.800999 9.8459997 2.448 39
43.794998 9.9029999 2.4809999 27
0 0 0 5
40.499001 9.2670002 2.3540001 5
0 0 0 71
43.734001 10.123 2.6070001 82
43.706001 10.173 2.6370001 45
0 0 0 0
0 0 0 0
0 0 0 0
0 0 0 0
0 0 0 0
0 0 0 0
0 0 0 0
0 0 0 6
50.561001 12.337 3.3870001 23
51.785999 12.697 3.506 44
51.830002 12.769 3.5480001 49
53.007 13.121 3.668 62
53.132999 13.214 3.7160001 62
54.368 13.583 3.842 65
54.467999 13.67 3.8900001 65
55.661999 14.032 4.0159998 51
56.111 14.208 4.0900002 41
56.945999 14.481 4.191 55
57.818001 14.766 4.2979999 46
58.257 14.941 4.3720002 62
59.410999 15.298 4.5040002 63
59.784 15.459 4.5749998 54
60.792999 15.781 4.6960001 46
61.653 16.068001 4.8070002 44
62.146 16.26 4.8909998 62
63.355999 16.639999 5.0310001 59
64.174004 16.917999 5.1420002 44
64.711998 17.125 5.2309999 54
65.898003 17.503 5.375 49
66.769997 17.799 5.494 42
67.401001 18.031 5.5949998 53
68.504997 18.389999 5.7360001 57
69.621002 18.754 5.8790002 62
70.251999 18.988001 5.9809999 49
71.072998 19.273001 6.1020002 45
0 0 0 37
114.211 31.172001 9.9680004 41
114.208 31.268999 10.045 33
114.175 31.357 10.123 23
114.13 31.440001 10.199 33
114.14 31.537001 10.28 38
114.101 31.618 10.353 35
114.066 31.698999 10.429 34
113.945 31.754999 10.497 43
113.934 31.84 10.571 40
113.927 31.924999 10.649 48
113.845 31.983999 10.719 43
113.799 32.055 10.792 41
113.7 32.109001 10.86 35
113.726 32.200001 10.937 29
113.708 32.273998 11.012 25
0 0 0 0
0 0 0 0
0 0 0 0
0 0 0 0
0 0 0 0
0 0 0 32
113.619 32.763 11.528 32
113.619 32.830002 11.602 38
113.531 32.870998 11.666 33
113.474 32.918999 11.733 33
113.565 33.007999 11.815 35
113.482 33.044998 11.879 33
113.533 33.123001 11.953 33
113.582 33.195999 12.03 34
113.506 33.23 12.093 31
113.468 33.275002 12.159 34
113.499 33.338001 12.232 34
113.517 33.396 12.304 28
113.408 33.415001 12.358 33
113.391 33.459 12.425 29
113.342 33.493 12.488 29
113.388 33.553001 12.557 31
113.295 33.570999 12.614 36
113.336 33.626999 12.685 37
113.314 33.661999 12.746 42
113.179 33.662998 12.796 45
113.213 33.712002 12.865 59
113.202 33.745998 12.929 62
113.213 33.785 12.994 66
113.174 33.807999 13.054 68
113.12 33.825001 13.107 81
113.094 33.848999 13.167 75
113.098 33.880001 13.229 67
113.081 33.903999 13.286 74
113.075 33.929001 13.346 67
113.066 33.952 13.406 71
113.068 33.976002 13.466 80
113.017 33.984001 13.516 71
113.078 34.022999 13.582 65
113.052 34.034 13.637 78
112.985 34.030998 13.687 81
113.033 34.062 13.75 76
113.012 34.07 13.804 80
113.021 34.088001 13.858 82
113.004 34.094002 13.911 76
113.033 34.112 13.969 69
113.031 34.120998 14.023 76
113.044 34.132 14.078 72
113.038 34.137001 14.128 57
113.049 34.144001 14.181 58
113.011 34.136002 14.229 56
113.029 34.141998 14.282 51
113.006 34.136002 14.326 48
113.117 34.167999 14.391 36
113.055 34.146 14.432 34
113.078 34.148998 14.481 33
113.032 34.127998 14.523 27
0 0 0 25
0 0 0 25
0 0 0 25
0 0 0 0
0 0 0 0
0 0 0 0
0 0 0 0
0 0 0 0
0 0 0 0
0 0 0 0
0 0 0 0
0 0 0 0
0 0 0 0
0 0 0 26
113.539 34.008999 15.223 30
113.481 33.962002 15.252 32
113.553 33.951 15.299 34
113.577 33.926998 15.335 34
113.528 33.876999 15.364 29
0 0 0 0
0 0 0 0
0 0 0 0
0 0 0 0
0 0 0 0
0 0 0 0
0 0 0 0
0 0 0 0
0 0 0 0
0 0 0 0
0 0 0 0
0 0 0 0
0 0 0 0
0 0 0 0
0 0 0 0
0 0 0 0
0 0 0 0
0 0 0 0
0 0 0 0
0 0 0 0
0 0 0 0
0 0 0 0
0 0 0 0
0 0 0 0
0 0 0 0
0 0 0 22
0 0 0 0
0 0 0 0
0 0 0 0
0 0 0 0
0 0 0 0
0 0 0 0
0 0 0 0
0 0 0 0
0 0 0 0
0 0 0 0
0 0 0 0
0 0 0 0
0 0 0 0
0 0 0 0
0 0 0 0
0 0 0 0
0 0 0 0
0 0 0 0
0 0 0 0
0 0 0 0
0 0 0 0
0 0 0 26
69.896004 18.752001 9.9209995 42
68.887001 18.417999 9.7749996 37
68.401001 18.225 9.7030001 40
67.319 17.875999 9.5450001 41
66.121002 17.495001 9.3730001 42
65.679001 17.316999 9.3039999 33
64.694 16.995001 9.1590004 27
0 0 0 0
0 0 0 0
0 0 0 0
0 0 0 23
112.496 28.993 15.864 34
0 0 0 0
0 0 0 0
0 0 0 23
0 0 0 0
0 0 0 0
0 0 0 0
0 0 0 22
0 0 0 0
0 0 0 5
52.851002 13.054 7.3670001 8
52.210999 12.838 7.2670002 7
51.570999 12.621 7.1669998 7
50.958 12.413 7.0700002 8
50.319 12.2 6.9689999 8
49.741001 12.002 6.8769999 10
49.331001 11.845 6.809 22
49.306 11.781 6.7909999 28
48.206001 11.46 6.6269999 39
48.046001 11.365 6.592 39
47.104 11.085 6.4499998 35
