# .PCD v0.7 - Point Cloud Data file format
VERSION 0.7
FIELDS x y z intensity
SIZE 4 4 4 4
TYPE F F F F
COUNT 1 1 1 1
WIDTH 1827
HEIGHT 1
VIEWPOINT 0 0 0 1 0 0 0
POINTS 1827
DATA ascii
9.1859999 -1.819 -0.88300002 3
9.2930002 -1.824 -0.889 3
9.3800001 -1.825 -0.89200002 2
9.4809999 -1.8279999 -0.89700001 3
9.5600004 -1.826 -0.89999998 3
9.6379995 -1.824 -0.90200001 4
9.7299995 -1.824 -0.90600002 4
9.8389997 -1.827 -0.91100001 3
9.9230003 -1.825 -0.91399997 2
10.043 -1.829 -0.91900003 3
10.144 -1.83 -0.92299998 2
10.268 -1.834 -0.92799997 3
10.363 -1.832 -0.93099999 3
10.487 -1.835 -0.93599999 3
10.595 -1.835 -0.94 3
10.736 -1.84 -0.94599998 3
10.871 -1.844 -0.95200002 2
10.992 -1.844 -0.95599997 2
11.104 -1.8430001 -0.95899999 2
11.239 -1.845 -0.963 2
11.429 -1.855 -0.972 2
11.576 -1.858 -0.97799999 2
11.766 -1.867 -0.986 2
11.982 -1.8789999 -0.99699998 3
12.145 -1.882 -1.002 3
12.352 -1.892 -1.011 3
12.483 -1.8890001 -1.0140001 3
12.677 -1.895 -1.021 3
12.872 -1.9 -1.028 3
13.072 -1.905 -1.035 3
13.298 -1.914 -1.044 3
13.5 -1.918 -1.05 3
13.77 -1.931 -1.061 3
13.994 -1.936 -1.068 3
14.261 -1.947 -1.0779999 3
14.523 -1.956 -1.0880001 3
14.917 -1.9809999 -1.1059999 4
15.201 -1.99 -1.1160001 3
15.518 -2.003 -1.127 3
15.874 -2.02 -1.141 3
15.412 -1.932 -1.096 3
0 0 0 4
16.973 -2.0650001 -1.181 6
17.332001 -2.076 -1.192 6
17.576 -2.073 -1.1950001 5
17.250999 -2.0020001 -1.159 5
17.694 -2.02 -1.174 4
18.034 -2.0250001 -1.182 3
18.356001 -2.027 -1.188 2
18.780001 -2.0380001 -1.199 1
19.709 -2.102 -1.242 2
20.662001 -2.1659999 -1.285 6
20.51 -2.1110001 -1.258 6
20.444 -2.066 -1.2359999 4
20.445999 -2.029 -1.219 3
20.405001 -1.9859999 -1.199 3
20.423 -1.949 -1.181 4
20.424 -1.91 -1.163 3
20.412001 -1.8710001 -1.1440001 3
0 0 0 2
0 0 0 3
23.062 -1.984 -1.229 3
23.031 -1.938 -1.206 3
23.031 -1.895 -1.1849999 4
23.041 -1.853 -1.163 3
23.216 -1.824 -1.15 4
23.591999 -1.8099999 -1.147 4
0 0 0 43
40.516998 -2.9560001 -1.891 6
0 0 0 3
27.785999 -1.924 -1.242 159
27.750999 -1.869 -1.2130001 159
27.789 -1.821 -1.188 176
27.757 -1.768 -1.159 153
27.822001 -1.721 -1.1339999 59
29.002001 -1.74 -1.152 2
0 0 0 0
0 0 0 14
40.116001 -2.1849999 -1.47 7
39.916 -2.102 -1.4220001 11
0 0 0 30
32.349998 -1.585 -1.085 152
32.398998 -1.527 -1.052 30
0 0 0 27
41.637001 -1.8099999 -1.263 13
0 0 0 41
45.061001 -1.793 -1.2690001 42
45.526001 -1.728 -1.232 36
45.93 -1.66 -1.193 33
46.035 -1.5779999 -1.1440001 4
0 0 0 122
60.112 -1.842 -1.359 44
0 0 0 0
0 0 0 150
68.150002 -1.72 -1.311 150
68.194 -1.601 -1.2359999 73
68.181999 -1.478 -1.1569999 75
68.394997 -1.36 -1.082 88
68.986 -1.248 -1.011 21
0 0 0 118
74.574997 -1.084 -0.92000002 57
74.477997 -0.94999999 -0.83099997 77
74.517998 -0.81800002 -0.74299997 76
74.487999 -0.685 -0.65399998 67
74.494003 -0.55299997 -0.565 54
0 0 0 0
0 0 0 0
0 0 0 0
0 0 0 38
87.279999 0.12 -0.132 17
87.283997 0.27200001 -0.025 18
87.132004 0.421 0.079999998 25
86.567001 0.56900001 0.18700001 30
0 0 0 0
0 0 0 25
0 0 0 0
0 0 0 0
0 0 0 0
0 0 0 0
0 0 0 14
91.877998 1.858 1.12 21
91.947998 2.0150001 1.239 24
91.819 2.1689999 1.357 19
91.713997 2.3199999 1.474 16
0 0 0 0
0 0 0 0
0 0 0 0
0 0 0 41
0 0 0 0
0 0 0 0
0 0 0 15
90.602997 3.4860001 2.401 20
89.998001 3.609 2.5039999 20
89.710999 3.743 2.615 32
89.390999 3.872 2.723 34
89.330002 4.013 2.8410001 29
0 0 0 0
0 0 0 23
91.757004 4.5599999 3.286 51
92.047997 4.7220001 3.4230001 16
89.587997 4.737 3.4530001 15
0 0 0 0
0 0 0 0
0 0 0 55
118.577 7.007 5.2140002 35
0 0 0 0
0 0 0 18
90.694 5.7729998 4.3579998 16
91.314003 5.9520001 4.513 15
91.181 6.079 4.631 16
91.064003 6.2129998 4.7540002 13
0 0 0 26
118.833 8.4580002 6.5300002 24
0 0 0 25
91.502998 6.7870002 5.2839999 34
0 0 0 0
0 0 0 0
0 0 0 38
127.463 10.197 8.0699997 33
0 0 0 0
0 0 0 0
0 0 0 0
0 0 0 22
118.789 10.352 8.3559999 47
118.695 10.51 8.5170002 53
118.688 10.674 8.6809998 58
118.753 10.846 8.8559999 44
118.839 11.017 9.0279999 43
118.89 11.183 9.1969995 29
0 0 0 0
0 0 0 0
0 0 0 39
0 0 0 18
50.459 5.0869999 4.2620001 41
50.395 5.1490002 4.3270001 45
50.431 5.2189999 4.402 48
50.308998 5.2719998 4.4629998 46
50.306999 5.3369999 4.5339999 32
50.342999 5.4060001 4.6090002 17
50.437 5.4790001 4.6880002 7
0 0 0 81
118.297 13.156 11.332 83
118.327 13.309 11.503 72
0 0 0 0
0 0 0 34
72.535004 8.4289999 7.3610001 27
72.459999 8.5089998 7.4559999 13
0 0 0 24
118.531 14.207 12.534 28
118.457 14.341 12.694 30
118.556 14.494 12.872 34
118.584 14.638 13.043 32
0 0 0 0
0 0 0 0
0 0 0 0
0 0 0 0
0 0 0 0
0 0 0 0
0 0 0 0
0 0 0 28
47.388 6.336 5.8119998 38
47.306 6.3759999 5.8670001 48
47.320999 6.4289999 5.9349999 48
47.271999 6.473 5.994 28
47.359001 6.5359998 6.0710001 20
0 0 0 0
0 0 0 54
118.15 16.677 15.637 76
118.144 16.799 15.8 71
118.131 16.917 15.958 63
118.115 17.035 16.118999 67
118.173 17.162001 16.290001 58
118.136 17.274 16.448 51
118.141 17.388 16.607 53
118.176 17.511999 16.778 58
118.153 17.622999 16.931999 50
118.148 17.736 17.097 47
118.068 17.836 17.246 50
118.153 17.959999 17.415001 51
0 0 0 0
0 0 0 24
60.098 9.3009996 9.1009998 36
59.858002 9.3179998 9.1440001 39
59.576 9.3280001 9.1800003 33
59.453999 9.3610001 9.2410002 24
59.492001 9.4189997 9.3260002 19
59.618999 9.4910002 9.4250002 17
0 0 0 0
0 0 0 0
0 0 0 0
0 0 0 55
118.094 19.294001 19.447001 56
118.033 19.379999 19.587 56
118.114 19.488001 19.75 58
118.09 19.577 19.899 57
0 0 0 7
0 0 0 0
0 0 0 21
61.02 10.303 10.595 28
60.568001 10.272 10.591 23
59.832001 10.191 10.538 26
59.597 10.194 10.572 41
59.623001 10.241 10.651 40
59.713001 10.298 10.741 32
59.810001 10.357 10.833 32
59.800999 10.396 10.905 34
59.778 10.432 10.973 38
59.750999 10.467 11.041 24
59.636002 10.486 11.092 24
59.477001 10.497 11.135 17
59.450001 10.53 11.201 23
59.490002 10.573 11.279 32
59.548 10.622 11.361 32
59.500999 10.649 11.422 19
0 0 0 0
0 0 0 11
44.925999 8.1199999 8.7819996 23
44.640999 8.0939999 8.7790003 26
44.481998 8.0900002 8.7980003 31
44.379002 8.0950003 8.8290005 33
44.359001 8.1149998 8.8760004 33
44.263 8.1219997 8.9049997 36
44.187 8.1309996 8.9390001 42
44.141998 8.1450005 8.9799995 34
44.115002 8.1619997 9.0229998 33
44.112 8.1829996 9.0719995 34
44.061001 8.1949997 9.1099997 27
44.028999 8.21 9.1499996 21
43.979 8.2209997 9.1870003 12
0 0 0 0
0 0 0 25
118.258 22.261999 25.083 27
118.145 22.290001 25.183001 29
0 0 0 0
0 0 0 0
0 0 0 25
118.31 22.511999 25.700001 31
118.358 22.565001 25.830999 25
118.333 22.603001 25.944 26
118.411 22.66 26.079 25
0 0 0 0
0 0 0 0
0 0 0 0
0 0 0 0
0 0 0 0
0 0 0 0
0 0 0 0
0 0 0 0
0 0 0 30
118.18 22.971001 27.146 31
118.103 22.986 27.232 31
0 0 0 0
0 0 0 10
46.078999 8.9989996 10.746 14
46.048 9.0030003 10.778 21
45.995998 9.0019999 10.805 28
45.939999 9 10.83 35
45.855999 8.9919996 10.849 37
45.722 8.974 10.854 35
45.591999 8.9549999 10.86 36
45.466999 8.9379997 10.867 27
45.294998 8.9110003 10.861 27
45.131001 8.8830004 10.858 31
44.995998 8.8629999 10.859 36
44.911999 8.8509998 10.873 36
44.880001 8.849 10.9 35
44.863998 8.8500004 10.929 33
44.849998 8.8509998 10.959 26
44.834 8.8509998 10.988 25
44.847 8.8579998 11.023 21
44.819 8.8549995 11.048 15
44.776001 8.8479996 11.068 13
44.731998 8.8400002 11.088 9
44.653999 8.8269997 11.098 10
44.616001 8.8210001 11.119 12
44.563 8.8100004 11.135 17
44.514999 8.8009996 11.151 18
44.48 8.7930002 11.171 24
44.431 8.7819996 11.186 30
44.384998 8.7720003 11.202 34
44.308998 8.7550001 11.21 35
44.282001 8.7480001 11.228 35
44.202 8.7299995 11.234 35
44.132999 8.7130003 11.242 35
44.082001 8.6999998 11.253 33
44.028999 8.6850004 11.264 35
43.963001 8.6680002 11.271 34
43.883999 8.6470003 11.274 34
43.834999 8.6339998 11.283 35
43.814999 8.6239996 11.3 35
43.763 8.6079998 11.308 36
43.731998 8.5959997 11.322 35
43.669998 8.5780001 11.325 34
43.655998 8.5679998 11.342 33
43.598 8.5489998 11.347 33
43.563 8.5340004 11.356 32
43.494999 8.5129995 11.357 31
43.472 8.5 11.369 35
43.424 8.4820004 11.374 31
43.394001 8.467 11.383 31
43.347 8.4490004 11.387 34
43.305 8.4289999 11.393 27
43.286999 8.415 11.404 26
43.292999 8.4069996 11.42 23
43.285999 8.3940001 11.432 21
43.339001 8.3929996 11.461 18
43.356998 8.3839998 11.479 15
43.431 8.3859997 11.512 14
43.493 8.3859997 11.54 9
43.464001 8.3669996 11.545 9
43.452 8.3520002 11.554 8
43.411999 8.3310003 11.553 10
43.393002 8.3129997 11.559 10
43.389999 8.2980003 11.568 8
0 0 0 0
0 0 0 0
0 0 0 0
0 0 0 47
118.285 22.408001 31.653 49
118.256 22.357 31.665001 51
118.256 22.309999 31.683001 54
118.251 22.261 31.698 57
118.241 22.209999 31.711 61
118.234 22.159 31.723 45
118.267 22.117001 31.742001 58
118.256 22.063 31.75 60
118.294 22.017 31.77 48
118.269 21.959 31.771999 60
118.289 21.910999 31.782 56
118.328 21.858999 31.799999 54
118.326 21.802 31.802999 56
118.263 21.736 31.787001 53
118.37 21.697001 31.816999 63
118.315 21.627001 31.802 62
118.314 21.57 31.798 56
118.349 21.511999 31.806 56
118.338 21.451 31.797001 57
118.355 21.391001 31.795 59
118.332 21.323 31.782 60
118.333 21.257999 31.774 59
118.376 21.200001 31.775999 61
118.379 21.134001 31.764999 61
118.338 21.059 31.740999 56
118.397 21.000999 31.742001 64
118.376 20.931 31.718 62
118.373 20.863001 31.698 54
118.402 20.794001 31.688999 66
118.349 20.716999 31.653999 64
118.401 20.653 31.646 61
118.426 20.584 31.629 55
118.443 20.514999 31.608 56
118.406 20.434 31.573999 55
118.443 20.365 31.556 53
118.438 20.287001 31.525999 62
118.45 20.214001 31.497999 53
118.462 20.138 31.469 55
118.451 20.056999 31.433001 44
118.438 19.974001 31.395 54
118.498 19.903 31.375 41
118.462 19.819 31.327 44
118.556 19.752001 31.313 39
118.6 19.676001 31.284 38
118.53 19.577 31.225 35
118.508 19.488001 31.176001 32
118.475 19.4 31.118999 45
118.488 19.315001 31.077 60
118.468 19.225 31.024 44
118.506 19.146999 30.983999 40
118.509 19.059 30.934999 45
118.49 18.964001 30.881001 51
118.603 18.892 30.857 52
118.563 18.797001 30.789 48
118.542 18.702999 30.726999 49
118.618 18.622 30.690001 48
118.586 18.528 30.622 47
118.508 18.422001 30.541 50
118.577 18.337 30.5 52
118.555 18.240999 30.427999 47
118.572 18.150999 30.367001 48
118.544 18.049 30.297001 55
118.554 17.954 30.232 56
118.611 17.868999 30.177999 43
118.572 17.764999 30.098 45
118.563 17.665001 30.024 47
118.63 17.575001 29.968 47
118.559 17.466999 29.872 55
118.643 17.379 29.816999 45
118.632 17.275999 29.737 48
118.614 17.172001 29.653999 47
118.653 17.072001 29.584 42
118.675 16.976 29.507999 46
118.604 16.858999 29.407 49
118.625 16.761999 29.327999 46
118.649 16.660999 29.249001 72
118.977 16.601 29.242001 28
0 0 0 0
0 0 0 0
0 0 0 0
0 0 0 0
0 0 0 0
0 0 0 0
0 0 0 0
0 0 0 0
0 0 0 0
0 0 0 28
118.734 15.387 28.134001 32
118.703 15.272 28.024 43
118.74 15.166 27.927999 59
118.745 15.055 27.822001 65
118.715 14.939 27.708 69
118.785 14.836 27.615999 62
118.778 14.722 27.504 55
118.768 14.611 27.391001 53
118.765 14.495 27.273001 58
118.781 14.387 27.163 45
118.903 14.287 27.076 47
118.954 14.179 26.969999 41
118.924 14.06 26.844999 33
0 0 0 0
0 0 0 28
119.124 13.738 26.531 30
119.178 13.63 26.417 30
0 0 0 0
0 0 0 0
0 0 0 0
0 0 0 0
0 0 0 0
0 0 0 0
0 0 0 0
0 0 0 0
0 0 0 0
0 0 0 28
119.141 12.333 24.969 29
119.11 12.214 24.825001 24
0 0 0 0
0 0 0 0
0 0 0 0
0 0 0 25
118.923 11.597 24.075001 37
118.951 11.479 23.934999 44
118.889 11.353 23.775999 62
118.949 11.24 23.636 62
118.948 11.116 23.485001 61
118.959 10.996 23.336 61
118.948 10.878 23.183001 70
118.914 10.755 23.024 61
119.053 10.646 22.896 40
119.099 10.529 22.749001 43
119.068 10.409 22.587999 27
119.192 10.299 22.454 27
119.098 10.17 22.277 24
119.165 10.054 22.129 29
119.179 9.9379997 21.972 27
119.278 9.8249998 21.827 29
119.11 9.6899996 21.632999 24
119.281 9.5830002 21.499001 25
119.1 9.4469995 21.299999 28
119.189 9.3330002 21.149 30
119.202 9.2130003 20.983 35
119.124 9.0860004 20.799999 28
119.175 8.9689999 20.638 34
119.18 8.849 20.468 30
119.158 8.7270002 20.291 36
119.135 8.6040001 20.114 39
119.014 8.4759998 19.915001 48
119.048 8.3579998 19.745001 66
119.08 8.2399998 19.573 70
119.031 8.1169996 19.388 67
119.015 7.9959998 19.205999 61
119.074 7.8829999 19.037001 65
119.078 7.7639999 18.857 49
119.199 7.652 18.698 44
119.282 7.5380001 18.527 25
119.245 7.4169998 18.334 28
119.173 7.2930002 18.136999 32
119.27 7.1830001 17.968 34
119.247 7.0630002 17.777 33
119.331 6.947 17.599001 30
119.301 6.8299999 17.407 31
119.252 6.7090001 17.209999 27
119.374 6.598 17.035999 27
119.212 6.4720001 16.82 31
119.384 6.3639998 16.650999 26
0 0 0 0
0 0 0 25
119.136 6.0040002 16.034 39
119.066 5.8850002 15.828 50
119.116 5.7719998 15.637 62
119.088 5.6560001 15.434 76
119.083 5.5430002 15.237 81
119.15 5.4289999 15.042 71
119.193 5.3189998 14.849 50
119.117 5.2020001 14.637 23
0 0 0 0
0 0 0 0
0 0 0 27
0 0 0 0
0 0 0 0
0 0 0 0
0 0 0 0
0 0 0 25
0 0 0 0
0 0 0 0
0 0 0 0
0 0 0 0
0 0 0 0
0 0 0 0
0 0 0 42
121.626 3.517 11.539 63
121.661 3.4100001 11.325 79
121.682 3.302 11.102 71
121.626 3.1919999 10.875 74
121.656 3.085 10.655 80
121.668 2.9809999 10.435 90
121.668 2.875 10.21 65
127.553 2.901 10.465 35
127.604 2.7939999 10.235 36
0 0 0 0
0 0 0 28
0 0 0 0
0 0 0 36
123.888 2.1849999 8.7770004 29
121.695 2.0450001 8.3909998 38
121.781 1.9450001 8.1660004 46
121.757 1.844 7.9330001 47
121.816 1.744 7.7010002 38
121.854 1.645 7.4710002 38
121.847 1.548 7.243 37
121.808 1.45 7.007 35
121.815 1.352 6.7729998 31
121.89 1.256 6.5419998 36
122.01 1.16 6.3119998 38
121.83 1.0650001 6.0689998 34
121.821 0.97000003 5.8319998 43
121.688 0.87400001 5.5879998 56
121.679 0.78100002 5.3499999 82
121.692 0.68800002 5.112 61
0 0 0 0
0 0 0 0
0 0 0 34
0 0 0 0
0 0 0 0
0 0 0 32
0 0 0 0
0 0 0 0
0 0 0 29
0 0 0 0
0 0 0 36
84.961998 -0.259 1.546 24
87.498001 -0.32499999 1.421 24
87.856003 -0.38699999 1.248 20
0 0 0 25
0 0 0 25
0 0 0 27
73.856003 -0.52200001 0.45199999 61
73.012001 -0.56400001 0.29899999 44
72.251999 -0.60500002 0.147 17
0 0 0 0
0 0 0 0
0 0 0 14
0 0 0 36
74.507004 -0.85600001 -0.602 62
74.466003 -0.89999998 -0.75300002 77
74.514 -0.94599998 -0.90600002 57
74.600998 -0.991 -1.0599999 54
74.605003 -1.035 -1.2130001 20
73.882004 -1.067 -1.353 61
73.581001 -1.105 -1.499 109
73.554001 -1.145 -1.645 78
71.473 -1.153 -1.7460001 11
71.332001 -1.191 -1.891 83
71.346001 -1.229 -2.036 75
71.357002 -1.268 -2.1819999 17
0 0 0 0
0 0 0 7
68.125 -1.318 -2.5050001 40
68.100998 -1.352 -2.645 39
0 0 0 6
59.027 -1.2309999 -2.5350001 6
0 0 0 0
0 0 0 0
0 0 0 0
0 0 0 0
0 0 0 0
0 0 0 0
0 0 0 0
0 0 0 1
0 0 0 1
0 0 0 1
0 0 0 1
16.375 -0.43000001 -1.109 5
15.954 -0.426 -1.113 6
15.196 -0.412 -1.092 4
0 0 0 3
13.462 -0.375 -1.023 3
12.816 -0.36199999 -1 2
12.222 -0.34999999 -0.97899997 3
11.693 -0.33899999 -0.96100003 2
11.188 -0.329 -0.94199997 2
10.699 -0.31799999 -0.92299998 2
10.23 -0.308 -0.903 3
9.7539997 -0.29699999 -0.88200003 3
9.3620005 -0.28799999 -0.86500001 3
9.0010004 -0.28 -0.85100001 3
8.6090002 -0.27000001 -0.83099997 3
8.302 -0.26300001 -0.81900001 4
7.9860001 -0.255 -0.80400002 4
7.7319999 -0.25 -0.79400003 5
7.4850001 -0.244 -0.78399998 6
7.2410002 -0.23800001 -0.773 4
6.9899998 -0.23199999 -0.76099998 6
6.7649999 -0.226 -0.75 10
6.5679998 -0.221 -0.74199998 9
6.4250002 -0.21799999 -0.73900002 11
6.2550001 -0.214 -0.73199999 11
6.0809999 -0.20900001 -0.72399998 11
5.9460001 -0.206 -0.72000003 11
5.835 -0.204 -0.71799999 9
5.7179999 -0.20100001 -0.71499997 7
5.5799999 -0.197 -0.70899999 4
5.427 -0.193 -0.70099998 3
5.3000002 -0.189 -0.69499999 3
5.1820002 -0.186 -0.69 3
5.0700002 -0.183 -0.685 3
4.9569998 -0.18000001 -0.67900002 3
4.855 -0.177 -0.67500001 3
4.7550001 -0.17399999 -0.671 2
4.6690001 -0.17200001 -0.66799998 2
4.5900002 -0.17 -0.66600001 2
4.506 -0.167 -0.662 2
4.4070001 -0.164 -0.65600002 4
4.3439999 -0.163 -0.65600002 2
4.2579999 -0.16 -0.65100002 2
4.1950002 -0.15800001 -0.64999998 2
4.1420002 -0.15700001 -0.64999998 2
4.039 -0.153 -0.64200002 2
4.0100002 -0.152 -0.64499998 2
3.954 -0.15099999 -0.64399999 2
3.905 -0.149 -0.64300001 2
3.881 -0.149 -0.64700001 3
3.8429999 -0.147 -0.648 3
3.7720001 -0.145 -0.64300001 3
3.677 -0.142 -0.634 2
3.5999999 -0.139 -0.62800002 2
3.585 -0.138 -0.63200003 2
3.461 -0.134 -0.61699998 2
3.4649999 -0.134 -0.62400001 2
3.4979999 -0.13600001 -0.63700002 2
3.346 -0.13 -0.61500001 3
3.2950001 -0.12800001 -0.61199999 2
3.2509999 -0.126 -0.61000001 2
3.372 -0.131 -0.639 2
3.2579999 -0.127 -0.62300003 2
3.256 -0.127 -0.62900001 1
3.1670001 -0.123 -0.61799997 1
3.049 -0.118 -0.60000002 2
3.01 -0.117 -0.59799999 2
2.984 -0.116 -0.59899998 4
2.9649999 -0.115 -0.60000002 5
2.944 -0.114 -0.602 4
2.918 -0.113 -0.60100001 3
2.8599999 -0.111 -0.59500003 2
2.825 -0.109 -0.59200001 2
2.806 -0.108 -0.59399998 2
2.7720001 -0.107 -0.59100002 2
2.7449999 -0.106 -0.58999997 2
2.7049999 -0.104 -0.58700001 2
2.6849999 -0.103 -0.58700001 2
2.654 -0.101 -0.58499998 2
2.632 -0.1 -0.58499998 2
2.598 -0.098999999 -0.58200002 2
2.5799999 -0.097999997 -0.58200002 2
2.5580001 -0.097000003 -0.58200002 2
2.5420001 -0.096000001 -0.58200002 2
2.5150001 -0.094999999 -0.57999998 2
2.4909999 -0.093000002 -0.579 2
2.4649999 -0.092 -0.57700002 2
2.448 -0.090999998 -0.57800001 2
2.431 -0.090000004 -0.57800001 2
2.4000001 -0.089000002 -0.574 2
2.391 -0.088 -0.57599998 2
2.3659999 -0.086999997 -0.574 2
2.345 -0.086000003 -0.57300001 2
2.3310001 -0.085000001 -0.57300001 1
2.313 -0.083999999 -0.57300001 1
2.293 -0.082999997 -0.57099998 1
2.2720001 -0.082000002 -0.56999999 1
2.2479999 -0.079999998 -0.56800002 1
2.2390001 -0.079999998 -0.56900001 1
2.2309999 -0.079000004 -0.56999999 1
2.21 -0.078000002 -0.56800002 1
2.1960001 -0.077 -0.56800002 1
2.181 -0.075999998 -0.56800002 1
2.1659999 -0.075000003 -0.56699997 1
2.1489999 -0.074000001 -0.56599998 1
2.135 -0.072999999 -0.56599998 1
2.1140001 -0.071999997 -0.56300002 1
2.1010001 -0.071000002 -0.56300002 1
2.0940001 -0.07 -0.56400001 1
2.0840001 -0.068999998 -0.565 1
2.0680001 -0.068000004 -0.56300002 1
2.049 -0.067000002 -0.56099999 1
2.039 -0.066 -0.56199998 1
2.0250001 -0.066 -0.56099999 1
2.0090001 -0.064000003 -0.55900002 1
2.007 -0.064000003 -0.56199998 1
1.989 -0.063000001 -0.55900002 1
1.978 -0.061999999 -0.55900002 1
1.976 -0.061000001 -0.56099999 1
1.962 -0.061000001 -0.56 1
1.946 -0.059999999 -0.55800003 1
1.939 -0.059 -0.55900002 1
1.926 -0.057999998 -0.55800003 1
1.925 -0.057 -0.56 1
1.911 -0.056000002 -0.55800003 1
1.897 -0.055 -0.55699998 1
1.882 -0.054000001 -0.55500001 1
1.877 -0.054000001 -0.55599999 1
1.865 -0.052999999 -0.55500001 1
1.8559999 -0.052000001 -0.55400002 1
1.853 -0.050999999 -0.55599999 1
1.834 -0.050000001 -0.55199999 1
1.83 -0.050000001 -0.55299997 1
1.816 -0.048999999 -0.551 1
1.812 -0.048 -0.55299997 1
1.801 -0.046999998 -0.551 1
1.789 -0.046 -0.55000001 1
1.7869999 -0.046 -0.551 1
1.779 -0.045000002 -0.551 1
1.767 -0.044 -0.54900002 1
1.766 -0.043000001 -0.551 1
1.7539999 -0.043000001 -0.54900002 1
1.745 -0.041999999 -0.54799998 1
1.738 -0.041000001 -0.54799998 1
1.732 -0.039999999 -0.54799998 1
1.723 -0.039000001 -0.54699999 1
1.721 -0.039000001 -0.54799998 1
1.712 -0.037999999 -0.54699999 1
1.704 -0.037 -0.54699999 1
1.696 -0.037 -0.546 1
1.698 -0.035999998 -0.54799998 1
1.683 -0.035 -0.54500002 1
1.6849999 -0.035 -0.54699999 1
1.681 -0.034000002 -0.54799998 1
1.675 -0.033 -0.54699999 1
1.652 -0.032000002 -0.54100001 1
1.649 -0.030999999 -0.542 1
1.645 -0.030999999 -0.542 1
1.642 -0.029999999 -0.54299998 1
1.6390001 -0.028999999 -0.54299998 1
1.631 -0.028999999 -0.542 1
1.622 -0.028000001 -0.54100001 1
1.617 -0.027000001 -0.54000002 1
1.6210001 -0.027000001 -0.54299998 1
1.607 -0.026000001 -0.54000002 1
1.604 -0.025 -0.54000002 1
1.597 -0.024 -0.53899997 1
1.595 -0.024 -0.54000002 1
1.582 -0.023 -0.53600001 1
1.584 -0.022 -0.53799999 1
1.584 -0.022 -0.53899997 1
1.575 -0.021 -0.53799999 1
1.575 -0.02 -0.53899997 1
1.575 -0.02 -0.54000002 1
1.566 -0.018999999 -0.53799999 1
1.554 -0.017999999 -0.53500003 1
1.562 -0.017999999 -0.53899997 1
1.5549999 -0.017000001 -0.537 1
1.554 -0.016000001 -0.53799999 1
1.551 -0.016000001 -0.53799999 1
1.5420001 -0.015 -0.53600001 1
1.544 -0.014 -0.537 1
1.541 -0.014 -0.537 1
1.5369999 -0.013 -0.537 1
1.534 -0.013 -0.537 1
1.5369999 -0.012 -0.53799999 1
1.536 -0.011 -0.53899997 1
1.535 -0.011 -0.53899997 1
1.521 -0.0099999998 -0.53500003 1
1.5319999 -0.0089999996 -0.54000002 1
1.522 -0.0089999996 -0.537 1
1.525 -0.0080000004 -0.53899997 1
1.515 -0.0070000002 -0.53600001 1
1.505 -0.0070000002 -0.53299999 1
1.5089999 -0.0060000001 -0.53500003 1
1.5039999 -0.0060000001 -0.53399998 1
1.511 -0.0049999999 -0.537 1
1.502 -0.0040000002 -0.53399998 1
1.51 -0.0040000002 -0.53799999 1
1.506 -0.003 -0.537 1
1.502 -0.0020000001 -0.53600001 1
1.501 -0.0020000001 -0.53600001 1
1.501 -0.001 -0.537 1
1.499 -0.001 -0.53600001 1
1.499 0 -0.537 1
1.501 0 -0.53799999 1
1.5 0 -0.53799999 1
1.493 0.001 -0.53600001 1
1.488 0.001 -0.53399998 1
1.499 0.0020000001 -0.53799999 1
1.4910001 0.003 -0.53600001 1
1.49 0.003 -0.53600001 1
1.487 0.0040000002 -0.53500003 1
1.4859999 0.0040000002 -0.53500003 1
1.4859999 0.0049999999 -0.53500003 1
1.492 0.0060000001 -0.537 1
1.49 0.0060000001 -0.53600001 1
1.4859999 0.0070000002 -0.53500003 1
1.48 0.0070000002 -0.53299999 1
1.483 0.0080000004 -0.53399998 1
1.484 0.0089999996 -0.53500003 1
1.4859999 0.0089999996 -0.53500003 1
1.48 0.0099999998 -0.53299999 1
1.4809999 0.0099999998 -0.53399998 1
1.4859999 0.011 -0.53500003 1
1.487 0.012 -0.53600001 1
1.483 0.012 -0.53399998 1
1.4859999 0.013 -0.53500003 1
1.4859999 0.013 -0.53500003 1
1.484 0.014 -0.53399998 1
1.492 0.015 -0.537 1
1.4859999 0.015 -0.53500003 1
1.485 0.016000001 -0.53399998 1
1.4859999 0.016000001 -0.53399998 1
1.489 0.017000001 -0.53500003 1
1.4910001 0.017999999 -0.53600001 1
1.487 0.017999999 -0.53399998 1
1.493 0.018999999 -0.53600001 1
1.493 0.018999999 -0.53500003 1
1.493 0.02 -0.53500003 1
1.489 0.02 -0.53299999 1
1.49 0.021 -0.53299999 1
1.494 0.022 -0.53399998 1
1.501 0.022 -0.53600001 1
1.5 0.023 -0.53500003 1
1.502 0.023 -0.53500003 1
1.502 0.024 -0.53500003 1
1.502 0.024 -0.53399998 1
1.502 0.025 -0.53399998 1
1.499 0.026000001 -0.53200001 1
1.515 0.026000001 -0.537 1
1.511 0.027000001 -0.53500003 1
1.524 0.028000001 -0.53899997 1
1.52 0.028000001 -0.537 1
1.522 0.028999999 -0.537 1
1.526 0.028999999 -0.53799999 1
1.522 0.029999999 -0.53500003 1
1.528 0.029999999 -0.537 1
1.5319999 0.030999999 -0.53799999 1
1.536 0.032000002 -0.53799999 1
1.5369999 0.032000002 -0.537 1
1.5369999 0.033 -0.537 1
1.541 0.033 -0.537 1
1.5369999 0.034000002 -0.53500003 1
1.5420001 0.034000002 -0.53600001 1
1.554 0.035 -0.53899997 1
1.549 0.035999998 -0.53600001 1
1.5549999 0.035999998 -0.537 1
1.563 0.037 -0.53899997 1
1.567 0.037999999 -0.53899997 1
1.5650001 0.037999999 -0.53799999 1
1.5650001 0.039000001 -0.537 1
1.575 0.039000001 -0.53899997 1
1.581 0.039999999 -0.54000002 1
1.584 0.041000001 -0.53899997 1
1.584 0.041000001 -0.53799999 1
1.584 0.041999999 -0.537 1
1.59 0.041999999 -0.53799999 1
1.597 0.043000001 -0.53899997 1
1.597 0.043000001 -0.53799999 1
1.604 0.044 -0.53899997 1
1.615 0.045000002 -0.54100001 1
1.619 0.045000002 -0.54100001 1
1.626 0.046 -0.542 1
1.631 0.046999998 -0.542 1
1.631 0.046999998 -0.54100001 1
1.6390001 0.048 -0.542 1
1.642 0.048 -0.54100001 1
1.645 0.048999999 -0.54100001 1
1.65 0.048999999 -0.54100001 1
1.656 0.050000001 -0.54100001 1
1.6670001 0.050999999 -0.54299998 1
1.676 0.052000001 -0.54500002 1
1.686 0.052000001 -0.546 1
1.691 0.052999999 -0.546 1
1.692 0.052999999 -0.54500002 1
1.7029999 0.054000001 -0.546 1
1.707 0.055 -0.546 1
1.711 0.055 -0.54500002 1
1.724 0.056000002 -0.54699999 1
1.726 0.056000002 -0.546 1
1.73 0.057 -0.546 1
1.74 0.057999998 -0.54699999 1
1.7410001 0.057999998 -0.54500002 1
1.752 0.059 -0.54699999 1
1.763 0.059999999 -0.54799998 1
1.777 0.061000001 -0.55000001 1
1.781 0.061000001 -0.54900002 1
1.786 0.061999999 -0.54900002 1
1.7920001 0.061999999 -0.54900002 1
1.798 0.063000001 -0.54799998 1
1.808 0.063000001 -0.54900002 1
1.821 0.064000003 -0.551 1
1.84 0.064999998 -0.55400002 1
1.8329999 0.064999998 -0.55000001 1
1.847 0.066 -0.55199999 1
1.854 0.067000002 -0.551 1
1.869 0.067000002 -0.55299997 1
1.88 0.068000004 -0.55400002 1
1.892 0.068999998 -0.55500001 1
1.904 0.07 -0.55599999 1
1.9170001 0.07 -0.55800003 1
1.923 0.071000002 -0.55699998 1
1.932 0.071000002 -0.55699998 1
1.947 0.071999997 -0.55800003 1
1.957 0.072999999 -0.55900002 1
1.956 0.072999999 -0.55599999 1
1.966 0.074000001 -0.55599999 1
1.975 0.074000001 -0.55599999 1
1.994 0.075000003 -0.55800003 1
2.0079999 0.075999998 -0.55900002 1
2.013 0.075999998 -0.55800003 1
2.03 0.077 -0.56 1
2.0469999 0.078000002 -0.56099999 1
2.056 0.078000002 -0.56099999 1
2.072 0.079000004 -0.56199998 1
2.082 0.079999998 -0.56199998 1
2.0929999 0.079999998 -0.56099999 1
2.1059999 0.081 -0.56199998 1
2.1159999 0.081 -0.56099999 1
2.132 0.082000002 -0.56199998 1
2.142 0.082999997 -0.56199998 1
2.1659999 0.083999999 -0.565 1
2.177 0.083999999 -0.56400001 1
2.1949999 0.085000001 -0.565 1
2.201 0.085000001 -0.56300002 1
2.227 0.086000003 -0.56599998 1
2.247 0.086999997 -0.56800002 1
2.2609999 0.088 -0.56800002 1
2.286 0.089000002 -0.56999999 1
2.2980001 0.089000002 -0.56999999 1
2.319 0.090000004 -0.57099998 2
2.336 0.090999998 -0.57200003 2
2.359 0.090999998 -0.57300001 2
2.378 0.092 -0.574 2
2.4030001 0.093000002 -0.57599998 2
2.414 0.093000002 -0.57499999 2
2.4449999 0.093999997 -0.57800001 2
2.4630001 0.094999999 -0.57800001 2
2.4790001 0.094999999 -0.57800001 2
2.494 0.096000001 -0.57700002 2
2.5150001 0.097000003 -0.57800001 2
2.543 0.097000003 -0.57999998 2
2.572 0.097999997 -0.58200002 2
2.595 0.098999999 -0.583 2
2.6159999 0.1 -0.583 2
2.6400001 0.1 -0.58399999 2
2.6670001 0.101 -0.58499998 2
2.6860001 0.101 -0.58399999 2
2.7179999 0.102 -0.58600003 2
2.744 0.103 -0.58700001 2
2.779 0.104 -0.58999997 2
2.802 0.104 -0.58999997 2
2.8310001 0.105 -0.58999997 2
2.8629999 0.106 -0.59200001 2
2.8829999 0.106 -0.59100002 2
2.925 0.107 -0.59399998 2
0 0 0 2
3.0539999 0.111 -0.61000001 2
3.152 0.114 -0.62300003 2
3.2579999 0.117 -0.63800001 1
3.1259999 0.112 -0.60699999 1
3.2479999 0.116 -0.62400001 1
3.2690001 0.116 -0.62199998 2
3.23 0.114 -0.60900003 1
3.3540001 0.117 -0.62599999 2
3.3659999 0.117 -0.62199998 2
3.4460001 0.119 -0.63 2
3.5350001 0.121 -0.63999999 2
3.424 0.117 -0.61299998 1
3.516 0.119 -0.62300003 2
3.6110001 0.121 -0.63300002 3
3.628 0.121 -0.62900001 2
3.6670001 0.121 -0.62900001 2
3.743 0.122 -0.63499999 2
3.796 0.123 -0.63700002 2
3.902 0.126 -0.64700001 2
3.8740001 0.123 -0.63499999 2
3.974 0.125 -0.64300001 2
4.0240002 0.126 -0.64399999 2
4.0999999 0.127 -0.648 3
4.164 0.127 -0.64999998 3
4.2340002 0.12800001 -0.653 3
4.2789998 0.12800001 -0.65100002 2
4.3369999 0.12800001 -0.65200001 2
4.4099998 0.12899999 -0.65399998 4
4.5009999 0.13 -0.65899998 3
4.5910001 0.131 -0.66299999 2
4.671 0.131 -0.66500002 3
4.7600002 0.132 -0.66799998 3
4.868 0.133 -0.67400002 4
4.961 0.134 -0.67699999 3
5.0580001 0.134 -0.68099999 3
5.178 0.13500001 -0.68599999 3
5.296 0.13600001 -0.69099998 4
5.4089999 0.13699999 -0.69499999 4
5.5430002 0.138 -0.70200002 4
5.6729999 0.138 -0.70700002 3
5.8249998 0.14 -0.71399999 4
5.954 0.14 -0.71799999 3
6.1079998 0.141 -0.72399998 3
6.2740002 0.142 -0.73199999 3
6.4640002 0.14300001 -0.741 4
6.6570001 0.14399999 -0.74900001 5
6.829 0.14399999 -0.755 5
7.0190001 0.145 -0.76200002 7
7.2020001 0.145 -0.76800001 6
7.4419999 0.146 -0.778 5
7.6880002 0.147 -0.78799999 5
7.9489999 0.147 -0.79900002 4
8.2849998 0.149 -0.81699997 4
8.6149998 0.15099999 -0.83200002 3
8.96 0.152 -0.847 3
9.3179998 0.152 -0.86199999 3
9.7580004 0.154 -0.88300002 3
10.165 0.155 -0.89899999 3
10.606 0.155 -0.917 3
11.135 0.15700001 -0.94 3
11.712 0.15800001 -0.96600002 6
12.113 0.156 -0.97399998 4
12.66 0.155 -0.99199998 3
0 0 0 6
14.099 0.156 -1.048 4
14.534 0.15099999 -1.051 4
0 0 0 2
0 0 0 2
17.448 0.148 -1.1569999 2
0 0 0 2
0 0 0 1
0 0 0 1
0 0 0 0
0 0 0 0
0 0 0 0
0 0 0 0
0 0 0 0
0 0 0 0
0 0 0 0
0 0 0 24
94.343002 0.015 -3.984 34
94.336998 -0.054000001 -3.7939999 37
0 0 0 0
0 0 0 35
94.308998 -0.26800001 -3.2249999 43
94.348999 -0.34099999 -3.0380001 83
94.349998 -0.414 -2.849 53
94.363998 -0.48800001 -2.6630001 26
94.362999 -0.56199998 -2.4749999 16
0 0 0 25
0 0 0 17
94.599998 -0.79299998 -1.913 45
94.663002 -0.87 -1.729 42
0 0 0 0
0 0 0 36
74.467003 -0.86900002 -0.91900003 64
74.488998 -0.93199998 -0.77200001 82
74.550003 -0.99699998 -0.625 97
74.553001 -1.061 -0.47799999 51
73.563004 -1.11 -0.32699999 22
0 0 0 0
0 0 0 8
69.720001 -1.234 0.094999999 28
69.607002 -1.294 0.23100001 14
0 0 0 0
0 0 0 0
0 0 0 0
0 0 0 0
0 0 0 10
58.000999 -1.395 0.86900002 23
57.539001 -1.437 0.97299999 33
57.254002 -1.483 1.077 68
56.506001 -1.517 1.173 35
55.528 -1.544 1.2589999 26
55.166 -1.586 1.3559999 42
54.483002 -1.618 1.442 30
53.839001 -1.65 1.526 27
53.306999 -1.686 1.612 22
52.650002 -1.716 1.692 15
52.467999 -1.761 1.784 11
0 0 0 0
0 0 0 4
54.134998 -1.979 2.148 16
52.983002 -1.989 2.2 25
52.787998 -2.0350001 2.29 42
52.421001 -2.0739999 2.372 43
51.442001 -2.0880001 2.4230001 56
51.438 -2.141 2.5179999 66
50.428001 -2.151 2.563 53
50.09 -2.187 2.6359999 66
49.097 -2.1949999 2.6730001 14
48.467999 -2.217 2.7279999 24
48.379002 -2.2639999 2.8110001 52
48.375 -2.3139999 2.8989999 66
48.376999 -2.365 2.9860001 68
48.387001 -2.418 3.075 64
48.402 -2.4690001 3.1619999 66
48.410999 -2.5209999 3.2490001 67
0 0 0 3
44.942001 -2.437 3.1760001 11
44.455002 -2.4590001 3.221 19
44.356998 -2.5020001 3.293 62
44.362 -2.5510001 3.372 60
43.532001 -2.5510001 3.385 37
43.396999 -2.5910001 3.451 62
43.400002 -2.6389999 3.526 66
42.68 -2.642 3.5420001 38
42.062 -2.6500001 3.563 58
42.069 -2.697 3.6359999 59
42.054001 -2.743 3.707 54
40.776001 -2.7060001 3.664 33
40.703999 -2.747 3.727 51
40.703999 -2.793 3.796 51
40.445 -2.8210001 3.8410001 44
39.393002 -2.7920001 3.8069999 56
39.370998 -2.8340001 3.8699999 60
39.372002 -2.8789999 3.9360001 60
39.071999 -2.901 3.97 42
38.027 -2.8670001 3.927 50
38.009998 -2.911 3.9890001 57
38.009998 -2.954 4.0500002 59
37.59 -2.9649999 4.0669999 16
36.573002 -2.927 4.0170002 8
36.203999 -2.9389999 4.0349998 30
36.196999 -2.98 4.092 52
36.207001 -3.023 4.151 62
36.216999 -3.066 4.21 57
36.227001 -3.109 4.2680001 56
36.229 -3.151 4.3249998 57
36.227001 -3.1930001 4.381 48
36.229 -3.2360001 4.4380002 57
36.233002 -3.279 4.4949999 56
36.245998 -3.323 4.553 61
36.250999 -3.3670001 4.6090002 59
36.255001 -3.4100001 4.665 55
36.248001 -3.451 4.7189999 58
36.266998 -3.4960001 4.777 57
36.259998 -3.5380001 4.8299999 61
36.269001 -3.5829999 4.8860002 63
36.268002 -3.625 4.9390001 64
36.277 -3.6689999 4.994 60
36.289001 -3.714 5.0489998 60
36.300999 -3.757 5.1030002 61
36.292 -3.8 5.1550002 61
36.292999 -3.8440001 5.2090001 61
36.284 -3.8870001 5.2600002 59
36.297001 -3.9319999 5.3140001 56
36.313999 -3.977 5.368 56
36.323002 -4.0209999 5.421 56
36.327999 -4.0650001 5.4720001 47
36.356998 -4.1110001 5.527 7
36.407001 -4.1620002 5.586 3
36.369999 -4.1999998 5.6300001 3
36.41 -4.2490001 5.6859999 2
36.451 -4.2969999 5.7420001 2
36.536999 -4.3509998 5.8060002 3
36.528 -4.3940001 5.8530002 3
36.669998 -4.454 5.9239998 4
36.692001 -4.5 5.9759998 4
36.654999 -4.54 6.0180001 5
36.532001 -4.5679998 6.0450001 7
36.303001 -4.5819998 6.0539999 15
36.178001 -4.6100001 6.0799999 19
36.034 -4.6339998 6.0999999 26
35.852001 -4.6529999 6.1149998 27
35.685001 -4.6739998 6.131 27
35.499001 -4.6919999 6.1440001 27
35.306 -4.7090001 6.1539998 27
35.076 -4.7189999 6.1570001 26
0 0 0 12
28.603001 -3.915 5.0890002 20
28.554001 -3.9430001 5.1160002 27
28.514 -3.971 5.1430001 32
28.462999 -3.9979999 5.1669998 35
28.443001 -4.0289998 5.197 38
28.412001 -4.0580001 5.224 38
28.403 -4.0890002 5.2550001 41
28.355 -4.1149998 5.2779999 44
28.353001 -4.1479998 5.3099999 46
28.337999 -4.1789999 5.3390002 47
28.332001 -4.2119999 5.369 42
28.308001 -4.2410002 5.3959999 53
28.309 -4.2740002 5.427 51
28.309 -4.3070002 5.4580002 51
28.304001 -4.3390002 5.4879999 53
28.306999 -4.3720002 5.5180001 49
28.292 -4.402 5.5450001 41
28.311001 -4.4380002 5.5780001 44
28.305 -4.4699998 5.6069999 43
28.322001 -4.5050001 5.6389999 42
28.323 -4.5359998 5.6669998 40
28.375 -4.5780001 5.7059999 35
28.381001 -4.6100001 5.7350001 38
28.385 -4.6430001 5.7639999 36
28.410999 -4.6789999 5.7969999 32
28.457001 -4.7189999 5.8330002 29
28.483 -4.7550001 5.8660002 23
28.545 -4.7969999 5.9050002 18
28.648001 -4.8449998 5.9530001 7
0 0 0 26
30.263 -5.1859999 6.3439999 26
30.166 -5.2020001 6.3499999 26
30.073 -5.2189999 6.3569999 25
29.938999 -5.2280002 6.355 25
29.815001 -5.2389998 6.3540001 24
29.715 -5.2540002 6.3579998 28
29.620001 -5.2680001 6.362 24
29.534 -5.2849998 6.368 24
29.441999 -5.3000002 6.3720002 25
29.346001 -5.3140001 6.375 29
29.254 -5.3280001 6.3779998 25
29.156 -5.3400002 6.3800001 29
29.068001 -5.355 6.3829999 29
28.990999 -5.3709998 6.3889999 28
28.908001 -5.3860002 6.3920002 24
28.819 -5.3990002 6.3940001 24
28.733999 -5.4120002 6.3969998 24
28.643999 -5.4250002 6.3969998 26
28.568001 -5.4390001 6.401 26
28.466999 -5.4489999 6.3979998 24
28.393999 -5.4640002 6.401 26
28.337999 -5.48 6.4070001 24
28.267 -5.4949999 6.4099998 24
28.194 -5.5089998 6.4120002 26
28.138 -5.5250001 6.4169998 27
28.084 -5.5419998 6.4229999 27
28.01 -5.5549998 6.4229999 24
27.941 -5.5679998 6.4239998 27
27.863001 -5.5799999 6.4229999 28
27.799999 -5.5929999 6.4250002 28
27.750999 -5.6100001 6.4299998 25
27.683001 -5.6220002 6.4299998 26
27.632999 -5.6370001 6.4330001 30
27.569 -5.6500001 6.434 29
27.532 -5.6669998 6.4390001 25
27.472 -5.6799998 6.4400001 29
27.431 -5.697 6.4439998 30
0 0 0 2
20.653999 -4.3260002 4.8720002 11
20.59 -4.3309999 4.8670001 16
20.542999 -4.3390002 4.8649998 19
20.495001 -4.3470001 4.8629999 22
20.476 -4.3600001 4.8670001 23
20.458 -4.3740001 4.8720002 27
20.423 -4.3829999 4.8730001 27
20.393999 -4.3940001 4.8740001 29
20.382999 -4.4099998 4.8790002 30
20.368999 -4.4229999 4.8839998 35
20.344999 -4.4349999 4.8860002 35
20.330999 -4.448 4.8899999 35
20.32 -4.4619999 4.8940001 37
20.283001 -4.4699998 4.8920002 38
20.274 -4.4840002 4.8969998 41
20.264999 -4.4980001 4.901 41
20.252001 -4.5110002 4.9039998 40
20.24 -4.5240002 4.9070001 43
20.238001 -4.5380001 4.9120002 44
20.231001 -4.552 4.9159999 47
20.245001 -4.5700002 4.9250002 36
20.216 -4.5780001 4.9229999 48
20.212999 -4.592 4.927 47
20.214001 -4.6059999 4.9320002 49
20.211 -4.6199999 4.9349999 49
20.200001 -4.632 4.9369998 49
20.186001 -4.6430001 4.9369998 47
20.190001 -4.6570001 4.9419999 48
20.195999 -4.6719999 4.9460001 57
20.184 -4.6830001 4.947 49
20.18 -4.6960001 4.9489999 49
20.187 -4.71 4.9530001 51
20.16 -4.717 4.9489999 51
20.177999 -4.7329998 4.9559999 49
20.172001 -4.7449999 4.9559999 49
20.166 -4.7550001 4.9569998 49
20.173 -4.7690001 4.96 47
20.181999 -4.7839999 4.9640002 50
20.162001 -4.7909999 4.96 43
20.166 -4.803 4.961 45
20.176001 -4.8169999 4.9650002 47
20.172001 -4.8270001 4.9640002 42
20.17 -4.8379998 4.9640002 42
20.165001 -4.848 4.9629998 46
20.172001 -4.8600001 4.9640002 44
20.171 -4.8699999 4.9640002 47
20.177999 -4.882 4.9640002 46
20.177 -4.8920002 4.9629998 44
20.179001 -4.9029999 4.9619999 44
20.18 -4.9130001 4.9619999 43
20.176001 -4.921 4.9590001 41
20.17 -4.9289999 4.9559999 40
20.184999 -4.9419999 4.9580002 40
20.197001 -4.9530001 4.9590001 30
20.197001 -4.9619999 4.9559999 37
20.193001 -4.9699998 4.9520001 39
20.194 -4.9790001 4.9489999 40
20.197001 -4.987 4.947 39
20.215 -5 4.948 37
20.218 -5.0089998 4.9450002 35
20.232 -5.02 4.9450002 34
20.24 -5.0289998 4.9429998 33
20.239 -5.0359998 4.9380002 34
20.242001 -5.0440001 4.9349999 31
20.235001 -5.0479999 4.928 32
20.243 -5.0570002 4.9260001 30
20.26 -5.0679998 4.9250002 31
20.250999 -5.072 4.9169998 30
20.278999 -5.0840001 4.9180002 31
20.268 -5.0869999 4.9099998 29
20.281 -5.0960002 4.9070001 28
20.278 -5.1009998 4.9000001 30
20.288 -5.1090002 4.8959999 26
20.289 -5.1139998 4.8899999 26
20.297001 -5.1209998 4.8850002 22
20.297001 -5.1259999 4.8779998 26
20.311001 -5.1329999 4.8740001 24
20.309999 -5.1370001 4.8660002 27
20.313999 -5.1420002 4.8590002 26
20.322001 -5.1479998 4.8530002 25
20.327999 -5.1529999 4.8460002 25
20.326 -5.1560001 4.8369999 25
20.332001 -5.1599998 4.8309999 22
20.336 -5.164 4.823 24
20.333 -5.1659999 4.8130002 21
20.346001 -5.171 4.8070002 21
20.344 -5.1729999 4.7969999 20
20.355 -5.178 4.79 20
20.355 -5.1799998 4.7800002 19
20.370001 -5.1859999 4.7740002 16
20.364 -5.1849999 4.7620001 19
20.361 -5.1849999 4.7509999 19
20.375 -5.1900001 4.744 18
20.375 -5.191 4.7329998 19
20.361 -5.1880002 4.7179999 18
20.375999 -5.1919999 4.711 18
20.365999 -5.1890001 4.697 18
20.382999 -5.1929998 4.6890001 16
20.370001 -5.1900001 4.6750002 18
20.363001 -5.1880002 4.6609998 18
20.368 -5.1880002 4.6500001 18
20.370001 -5.1869998 4.638 19
20.372 -5.1869998 4.6259999 18
20.354 -5.1810002 4.6079998 19
20.356001 -5.1789999 4.5960002 19
20.362 -5.1789999 4.5840001 19
20.351 -5.1739998 4.5679998 20
20.344 -5.1700001 4.553 20
20.35 -5.1690001 4.5409999 21
20.333 -5.1620002 4.5229998 21
20.32 -5.1560001 4.506 21
20.323999 -5.1529999 4.493 22
20.326 -5.1500001 4.4790001 21
20.308001 -5.1420002 4.46 22
20.309999 -5.1389999 4.4460001 24
20.305 -5.1329999 4.4299998 23
20.302 -5.1279998 4.414 24
20.292 -5.1209998 4.3959999 25
20.283001 -5.1139998 4.3790002 25
20.287001 -5.1100001 4.3639998 25
20.275 -5.1020002 4.3460002 26
20.257 -5.092 4.3260002 27
20.253 -5.086 4.309 28
20.250999 -5.0799999 4.2919998 29
20.246 -5.072 4.2740002 29
20.242001 -5.0650001 4.257 30
20.238001 -5.0570002 4.2399998 32
20.226999 -5.0479999 4.2199998 33
20.221001 -5.04 4.2020001 34
20.212999 -5.0300002 4.1830001 35
20.207001 -5.0209999 4.165 35
20.201 -5.0120001 4.1459999 37
20.195999 -5.0029998 4.1269999 36
20.177 -4.9899998 4.105 39
20.165001 -4.98 4.085 40
20.173 -4.973 4.0679998 41
20.173 -4.9650002 4.0500002 40
20.158001 -4.9520001 4.0279999 41
20.152 -4.941 4.0079999 43
20.149 -4.9310002 3.9890001 42
20.143999 -4.9200001 3.97 43
20.139999 -4.9099998 3.9489999 43
20.131001 -4.8969998 3.9289999 43
20.131001 -4.888 3.9089999 47
20.134001 -4.8779998 3.8900001 46
20.146 -4.8699999 3.8729999 46
20.139999 -4.8579998 3.852 46
20.134001 -4.8449998 3.8310001 47
20.131001 -4.8340001 3.8110001 46
20.120001 -4.8200002 3.7880001 43
20.111 -4.8060002 3.766 41
20.118999 -4.796 3.747 41
20.127001 -4.7849998 3.7279999 45
20.124001 -4.7719998 3.707 47
20.127001 -4.7610002 3.687 55
20.118 -4.7459998 3.664 52
20.124001 -4.7340002 3.645 49
20.125999 -4.7220001 3.6240001 48
20.122 -4.7069998 3.6010001 54
20.121 -4.6939998 3.5799999 48
20.139999 -4.6849999 3.562 52
20.135 -4.6700001 3.539 37
20.121 -4.652 3.5150001 59
20.113001 -4.6350002 3.4920001 48
20.125 -4.6240001 3.471 50
20.127001 -4.6090002 3.45 49
20.138 -4.5970001 3.4300001 46
20.143999 -4.5830002 3.4089999 48
20.148001 -4.5689998 3.3870001 46
20.146 -4.552 3.3640001 47
20.158001 -4.539 3.3429999 46
20.167999 -4.5250001 3.322 48
20.163 -4.5079999 3.299 46
20.177 -4.494 3.2780001 46
20.181999 -4.4790001 3.2550001 43
20.194 -4.4650002 3.234 44
20.202 -4.4489999 3.2119999 39
20.211 -4.4330001 3.1900001 42
20.228001 -4.4190001 3.1689999 38
20.219 -4.4000001 3.1440001 35
20.249001 -4.3889999 3.125 34
20.26 -4.3730001 3.1029999 35
20.299 -4.362 3.085 32
20.329 -4.3499999 3.066 31
20.336 -4.3330002 3.0420001 29
20.372999 -4.3210001 3.0239999 28
20.396999 -4.3070002 3.003 25
20.440001 -4.2969999 2.9849999 22
20.466 -4.2820001 2.964 20
20.514999 -4.2719998 2.947 17
20.58 -4.2659998 2.931 7
0 0 0 0
0 0 0 0
0 0 0 0
0 0 0 0
0 0 0 0
0 0 0 0
0 0 0 0
0 0 0 0
0 0 0 2
0 0 0 0
0 0 0 0
0 0 0 0
0 0 0 0
0 0 0 0
0 0 0 0
0 0 0 2
0 0 0 0
0 0 0 2
0 0 0 0
0 0 0 0
0 0 0 3
36.442001 -6.6739998 4.1999998 19
36.439999 -6.6300001 4.1539998 10
36.334999 -6.566 4.0960002 2
0 0 0 0
0 0 0 2
36.382 -6.4400001 3.964 3
36.386002 -6.3959999 3.918 7
36.436001 -6.3579998 3.8770001 10
36.446999 -6.3150001 3.8329999 10
36.458 -6.27 3.7869999 7
36.455002 -6.2220001 3.74 2
0 0 0 0
0 0 0 0
0 0 0 4
28.419001 -4.7020001 2.7709999 17
28.360001 -4.6539998 2.7290001 24
28.315001 -4.6090002 2.6889999 30
28.271999 -4.5640001 2.6489999 35
28.24 -4.5209999 2.6099999 38
28.214001 -4.4780002 2.572 42
28.205999 -4.4380002 2.5350001 46
28.200001 -4.3979998 2.4990001 49
28.177 -4.3559999 2.461 51
28.181999 -4.3169999 2.4260001 37
28.171 -4.276 2.3889999 58
28.171 -4.2360001 2.3529999 58
28.169001 -4.1950002 2.3169999 58
28.188 -4.158 2.283 57
28.188999 -4.118 2.2479999 52
28.198 -4.0780001 2.2130001 48
28.233 -4.0419998 2.1800001 49
28.256001 -4.0050001 2.1470001 44
28.281 -3.967 2.1129999 40
28.325001 -3.931 2.0799999 36
28.358 -3.8929999 2.0469999 31
28.41 -3.859 2.016 26
28.485001 -3.8269999 1.9859999 19
28.617001 -3.802 1.959 8
0 0 0 54
36.215 -4.7010002 2.3870001 52
36.214001 -4.6459999 2.3429999 60
36.206001 -4.5890002 2.2969999 67
36.188999 -4.5310001 2.2509999 81
36.186001 -4.474 2.2049999 85
36.167 -4.414 2.1589999 81
36.172001 -4.3590002 2.115 79
36.172001 -4.303 2.0710001 80
36.154999 -4.244 2.0250001 89
36.157001 -4.1869998 1.98 83
36.140999 -4.1269999 1.9349999 79
36.140999 -4.0700002 1.891 75
36.141998 -4.0120001 1.848 74
36.133999 -3.954 1.803 66
36.125 -3.8940001 1.7589999 71
36.126999 -3.836 1.716 78
36.124001 -3.777 1.6720001 68
36.116001 -3.717 1.628 84
36.110001 -3.6570001 1.584 84
35.455002 -3.5320001 1.513 42
35.348 -3.4649999 1.467 96
35.444 -3.414 1.428 30
36.050999 -3.4130001 1.41 26
36.078999 -3.355 1.368 78
36.087002 -3.2939999 1.325 90
36.299999 -3.2520001 1.29 7
36.305 -3.1919999 1.248 11
36.161999 -3.1170001 1.2 43
36.548 -3.089 1.17 11
38.162998 -3.1600001 1.177 7
39.875999 -3.2320001 1.183 59
39.950001 -3.171 1.14 74
39.966 -3.1029999 1.095 86
39.959999 -3.033 1.048 42
40.493999 -3.003 1.017 4
41.070999 -2.974 0.98400003 4
41.627998 -2.941 0.94999999 9
41.743 -2.8770001 0.90600002 6
44.002998 -2.954 0.90399998 106
44.007999 -2.8770001 0.85600001 104
44.007 -2.8 0.80699998 61
44.562 -2.756 0.76700002 4
46.470001 -2.7909999 0.74800003 12
44.928001 -2.618 0.67400002 8
44.880001 -2.5339999 0.62400001 45
44.887001 -2.4560001 0.57599998 55
44.890999 -2.3740001 0.52600002 23
44.903999 -2.2950001 0.47799999 13
44.93 -2.2160001 0.43000001 5
0 0 0 50
0 0 0 44
52.391998 -2.2969999 0.333 20
52.835999 -2.2190001 0.28 26
52.717999 -2.118 0.223 41
0 0 0 15
60.119999 -2.1930001 0.12800001 32
60.167999 -2.0840001 0.066 114
60.179001 -1.973 0.0040000002 102
60.188 -1.863 -0.056000002 56
60.902 -1.771 -0.12 19
60.819 -1.6569999 -0.18000001 34
0 0 0 102
68.195 -1.603 -0.34 102
68.212997 -1.475 -0.40900001 79
0 0 0 0
0 0 0 16
0 0 0 87
74.558998 -1.051 -0.741 59
74.474998 -0.91100001 -0.81199998 57
74.469002 -0.76899999 -0.88300002 43
74.476997 -0.62800002 -0.95499998 30
0 0 0 0
0 0 0 0
0 0 0 35
94.639 -0.082000002 -1.569 44
94.613998 0.094999999 -1.655 57
94.628998 0.273 -1.7410001 57
94.586998 0.45500001 -1.827 53
94.407997 0.63499999 -1.909 21
94.278 0.81199998 -1.9910001 16
94.257004 0.98799998 -2.073 21
94.316002 1.171 -2.158 16
94.372002 1.353 -2.243 39
94.334 1.534 -2.3239999 68
94.314003 1.714 -2.405 111
94.314003 1.896 -2.487 115
94.321999 2.0780001 -2.5680001 150
94.289001 2.26 -2.6470001 150
94.319 2.4430001 -2.727 150
94.291 2.625 -2.8050001 107
0 0 0 33
0 0 0 61
0 0 0 0
0 0 0 47
94.314003 3.539 -3.191 66
94.297997 3.721 -3.2650001 61
94.245003 3.9000001 -3.3369999 151
0 0 0 51
0 0 0 3
41.339001 1.951 -1.559 9
41.167 2.023 -1.584 12
41.009998 2.095 -1.609 15
40.911999 2.1689999 -1.636 17
40.741001 2.24 -1.659 18
40.720001 2.3180001 -1.688 17
40.796001 2.4000001 -1.721 11
40.583 2.467 -1.7410001 5
42.022999 2.638 -1.8329999 9
42.067001 2.721 -1.864 5
42.092999 2.8050001 -1.895 4
42.131001 2.8889999 -1.926 3
0 0 0 0
0 0 0 3
0 0 0 0
0 0 0 25
0 0 0 25
0 0 0 25
0 0 0 25
0 0 0 25
0 0 0 0
0 0 0 25
0 0 0 25
0 0 0 4
26.735001 2.5050001 -1.444 4
0 0 0 0
0 0 0 1
0 0 0 2
21.639999 2.194 -1.219 2
21.122 2.1819999 -1.202 1
20.489 2.1559999 -1.177 1
0 0 0 0
0 0 0 2
0 0 0 0
0 0 0 2
18.913 2.1700001 -1.137 6
18.438 2.151 -1.118 2
18.087999 2.1440001 -1.105 2
18.091 2.1789999 -1.115 4
17.561001 2.148 -1.091 3
17.079 2.1210001 -1.069 3
0 0 0 3
0 0 0 4
16.542999 2.148 -1.059 3
16.223 2.1370001 -1.046 2
15.892 2.1229999 -1.031 3
15.803 2.141 -1.0319999 3
15.557 2.1359999 -1.023 3
15.168 2.1110001 -1.0039999 4
15.331 2.1619999 -1.021 5
15.237 2.177 -1.021 4
14.888 2.155 -1.0039999 2
14.669 2.1500001 -0.995 2
14.522 2.155 -0.991 2
14.431 2.168 -0.99000001 2
14.227 2.1630001 -0.98100001 2
14.097 2.1689999 -0.977 3
13.969 2.175 -0.97399998 3
13.843 2.1800001 -0.97000003 3
13.746 2.1900001 -0.96799999 3
13.611 2.1930001 -0.963 3
13.484 2.1960001 -0.958 3
13.415 2.2090001 -0.958 3
13.275 2.21 -0.95200002 3
13.196 2.221 -0.94999999 3
13.088 2.2260001 -0.94700003 3
13.04 2.2409999 -0.94700003 3
12.912 2.2409999 -0.94199997 3
12.792 2.243 -0.93699998 3
12.549 2.2219999 -0.92199999 3
12.504 2.237 -0.92199999 3
12.513 2.26 -0.926 3
12.473 2.2739999 -0.92699999 3
12.374 2.2780001 -0.92299998 3
12.3 2.2850001 -0.92000002 3
12.229 2.293 -0.91799998 3
12.167 2.302 -0.91600001 3
11.944 2.2809999 -0.90200001 2
11.907 2.2939999 -0.90200001 3
11.979 2.3280001 -0.91000003 2
11.947 2.342 -0.91000003 3
11.936 2.3599999 -0.91100001 4
11.846 2.362 -0.90700001 6
11.888 2.391 -0.912 6
11.853 2.4030001 -0.912 6
11.785 2.4089999 -0.90899998 7
11.715 2.414 -0.90499997 7
11.655 2.4200001 -0.90200001 7
11.64 2.4360001 -0.903 6
11.586 2.444 -0.89999998 9
11.572 2.4590001 -0.90100002 8
11.526 2.4679999 -0.89899999 7
11.469 2.474 -0.89600003 6
11.371 2.471 -0.88999999 5
11.323 2.4790001 -0.88700002 3
11.283 2.487 -0.88599998 3
11.266 2.5009999 -0.88499999 3
11.247 2.5139999 -0.88499999 3
11.199 2.5209999 -0.88200003 3
11.163 2.53 -0.88099998 4
11.152 2.5450001 -0.88 3
11.136 2.5580001 -0.88 3
11.119 2.5710001 -0.88 4
11.134 2.5910001 -0.88099998 5
11.063 2.5910001 -0.87599999 4
11.02 2.598 -0.87400001 4
11.025 2.615 -0.875 4
11.021 2.631 -0.875 4
11.033 2.6500001 -0.87599999 5
11.038 2.6670001 -0.87699997 6
11.047 2.6849999 -0.87800002 5
11.026 2.6949999 -0.87599999 6
11.018 2.7090001 -0.87599999 5
10.815 2.674 -0.86000001 6
0 0 0 5
0 0 0 6
11.053 2.779 -0.87800002 6
11.065 2.7980001 -0.87900001 8
11.083 2.8169999 -0.88099998 7
11.042 2.822 -0.87699997 7
11.015 2.8299999 -0.875 6
11.02 2.846 -0.875 5
11.021 2.8599999 -0.87400001 6
11.035 2.878 -0.875 6
11.034 2.8929999 -0.87400001 7
11.037 2.908 -0.87300003 6
10.99 2.9089999 -0.86900002 5
10.956 2.914 -0.866 5
10.96 2.9289999 -0.86500001 5
10.991 2.951 -0.86699998 5
10.998 2.967 -0.86699998 5
11.011 2.984 -0.866 4
11.015 2.9979999 -0.866 4
11.026 3.0139999 -0.866 4
11.043 3.0320001 -0.866 4
11.063 3.0510001 -0.866 4
11.089 3.0710001 -0.86699998 4
11.16 3.1040001 -0.87099999 7
11.21 3.131 -0.87300003 7
11.181 3.135 -0.87 5
11.206 3.155 -0.87 3
11.263 3.1830001 -0.87300003 5
11.361 3.224 -0.87900001 5
11.37 3.2390001 -0.87800002 5
11.331 3.24 -0.87400001 4
11.38 3.266 -0.87599999 5
11.43 3.293 -0.87800002 5
11.443 3.3080001 -0.87699997 5
11.488 3.3329999 -0.87900001 5
11.492 3.346 -0.87699997 7
11.54 3.3710001 -0.87800002 5
11.58 3.395 -0.87900001 7
11.608 3.414 -0.87900001 6
11.633 3.4330001 -0.87900001 9
11.675 3.457 -0.88 6
11.705 3.477 -0.88 5
11.746 3.5 -0.88 6
11.796 3.526 -0.88099998 5
11.824 3.5450001 -0.88099998 5
11.851 3.5639999 -0.88099998 5
11.878 3.5829999 -0.88 6
11.914 3.6040001 -0.88 6
11.905 3.612 -0.87699997 5
11.911 3.6229999 -0.87400001 6
11.88 3.6240001 -0.86900002 7
11.859 3.6270001 -0.86500001 6
11.814 3.6229999 -0.85900003 8
11.786 3.6240001 -0.85399997 8
11.753 3.6229999 -0.84799999 7
11.723 3.6229999 -0.84299999 6
11.652 3.6099999 -0.83499998 6
11.624 3.6099999 -0.82999998 6
11.606 3.6129999 -0.82599998 6
11.576 3.612 -0.81999999 6
11.487 3.592 -0.81099999 6
11.418 3.5780001 -0.80299997 6
0 0 0 4
10.563 3.3239999 -0.73699999 5
10.419 3.286 -0.72399998 4
10.472 3.309 -0.72399998 4
10.576 3.349 -0.72799999 5
0 0 0 6
11.596 3.6860001 -0.79100001 7
11.601 3.694 -0.78799999 8
11.605 3.7019999 -0.78500003 9
11.591 3.704 -0.78100002 10
11.602 3.7130001 -0.778 10
11.605 3.721 -0.77399999 11
11.602 3.7260001 -0.77100003 11
11.571 3.721 -0.76499999 12
11.569 3.7260001 -0.76099998 12
