# .PCD v0.7 - Point Cloud Data file format
VERSION 0.7
FIELDS x y z intensity
SIZE 4 4 4 4
TYPE F F F F
COUNT 1 1 1 1
WIDTH 1677
HEIGHT 1
VIEWPOINT 0 0 0 1 0 0 0
POINTS 1677
DATA ascii
1.663 -0.064000003 -0.52999997 1
1.668 -0.064000003 -0.52999997 1
1.691 -0.064000003 -0.53600001 1
1.693 -0.063000001 -0.53399998 1
1.699 -0.061999999 -0.53500003 1
1.707 -0.061999999 -0.53500003 1
1.712 -0.061000001 -0.53500003 1
1.716 -0.061000001 -0.53399998 1
1.721 -0.059999999 -0.53399998 1
1.735 -0.059999999 -0.53600001 1
1.7410001 -0.059 -0.53600001 1
1.743 -0.057999998 -0.53500003 1
1.751 -0.057999998 -0.53500003 1
1.762 -0.057 -0.53600001 1
1.7690001 -0.057 -0.537 1
1.776 -0.056000002 -0.537 1
1.781 -0.056000002 -0.53600001 1
1.79 -0.055 -0.53600001 1
1.808 -0.055 -0.54000002 1
1.812 -0.054000001 -0.53899997 1
1.821 -0.052999999 -0.53899997 1
1.825 -0.052999999 -0.53799999 1
1.836 -0.052000001 -0.53899997 1
1.842 -0.052000001 -0.53799999 1
1.853 -0.050999999 -0.53899997 1
1.862 -0.050999999 -0.53899997 1
1.868 -0.050000001 -0.53799999 1
1.8839999 -0.050000001 -0.54000002 1
1.891 -0.048999999 -0.54000002 1
1.902 -0.048 -0.54000002 1
1.9119999 -0.048 -0.54100001 1
1.92 -0.046999998 -0.54000002 1
1.938 -0.046999998 -0.54299998 1
1.944 -0.046 -0.54100001 1
1.95 -0.046 -0.54000002 1
1.961 -0.045000002 -0.54100001 1
1.972 -0.044 -0.54100001 1
1.9809999 -0.044 -0.54000002 1
2.003 -0.043000001 -0.54299998 1
2.007 -0.043000001 -0.542 1
2.02 -0.041999999 -0.542 1
2.0369999 -0.041999999 -0.54400003 1
2.052 -0.041000001 -0.54500002 1
2.059 -0.041000001 -0.54299998 1
2.0840001 -0.039999999 -0.54699999 1
2.096 -0.039999999 -0.54699999 1
2.105 -0.039000001 -0.546 1
2.125 -0.039000001 -0.54799998 1
2.142 -0.037999999 -0.54900002 1
2.1500001 -0.037 -0.54799998 1
2.1600001 -0.037 -0.54699999 1
2.181 -0.035999998 -0.54799998 1
2.1919999 -0.035999998 -0.54799998 1
2.2060001 -0.035 -0.54799998 1
2.233 -0.035 -0.551 1
2.243 -0.034000002 -0.54900002 1
2.263 -0.034000002 -0.551 1
2.276 -0.033 -0.55000001 1
2.2920001 -0.033 -0.55000001 1
2.3069999 -0.032000002 -0.55000001 1
2.323 -0.032000002 -0.55000001 1
2.345 -0.030999999 -0.551 1
2.3759999 -0.030999999 -0.55400002 1
2.3889999 -0.029999999 -0.55299997 1
2.404 -0.029999999 -0.55199999 1
2.424 -0.028999999 -0.55299997 1
2.484 -0.028999999 -0.56199998 1
2.4849999 -0.028000001 -0.55800003 1
2.5239999 -0.028000001 -0.56300002 1
2.5869999 -0.028000001 -0.57200003 1
2.5810001 -0.027000001 -0.56599998 1
2.638 -0.027000001 -0.574 1
2.6559999 -0.026000001 -0.57300001 1
2.6459999 -0.026000001 -0.56599998 1
2.6960001 -0.025 -0.57200003 1
2.747 -0.025 -0.57800001 1
2.7090001 -0.024 -0.565 1
2.723 -0.023 -0.56300002 1
2.743 -0.023 -0.56199998 1
2.8870001 -0.023 -0.58700001 1
2.8759999 -0.023 -0.579 1
2.8789999 -0.022 -0.574 1
2.961 -0.022 -0.58499998 1
0 0 0 2
3.006 -0.021 -0.583 2
3.029 -0.02 -0.58200002 2
3.0610001 -0.02 -0.58200002 2
3.141 -0.02 -0.59200001 2
3.0880001 -0.018999999 -0.57599998 2
3.1159999 -0.018999999 -0.57499999 2
3.1630001 -0.017999999 -0.57800001 2
3.1989999 -0.017999999 -0.57800001 2
3.244 -0.017999999 -0.57999998 2
3.355 -0.017999999 -0.59399998 2
3.5009999 -0.017999999 -0.61299998 2
3.4749999 -0.017000001 -0.60100001 2
3.4890001 -0.017000001 -0.597 2
3.46 -0.016000001 -0.58499998 2
3.5179999 -0.016000001 -0.588 1
3.609 -0.016000001 -0.597 3
3.668 -0.015 -0.59899998 3
3.7079999 -0.015 -0.59799999 2
3.7390001 -0.015 -0.59600002 2
3.8180001 -0.015 -0.60100001 1
3.8599999 -0.014 -0.60000002 3
3.928 -0.014 -0.60299999 2
3.9820001 -0.014 -0.60299999 2
4.0409999 -0.014 -0.60399997 2
4.1199999 -0.014 -0.60799998 2
4.1789999 -0.014 -0.60799998 2
4.256 -0.014 -0.611 2
4.3319998 -0.014 -0.61299998 2
4.447 -0.014 -0.62 3
4.5209999 -0.014 -0.62099999 3
4.6009998 -0.014 -0.62300003 4
4.7080002 -0.014 -0.62800002 3
4.8000002 -0.014 -0.63 3
4.8899999 -0.014 -0.63200003 4
4.9980001 -0.014 -0.63599998 4
5.0949998 -0.014 -0.63800001 3
5.2140002 -0.015 -0.64200002 4
5.322 -0.015 -0.64399999 4
5.441 -0.015 -0.648 5
5.579 -0.016000001 -0.653 5
5.7249999 -0.016000001 -0.65799999 5
5.8800001 -0.017000001 -0.66399997 5
6.0450001 -0.017999999 -0.67000002 4
6.2069998 -0.017999999 -0.67400002 5
6.4369998 -0.018999999 -0.68599999 9
6.6389999 -0.02 -0.69400001 10
6.7919998 -0.021 -0.69599998 13
6.98 -0.022 -0.69999999 14
7.1989999 -0.024 -0.70700002 14
7.3839998 -0.025 -0.70999998 12
7.6100001 -0.026000001 -0.71600002 13
7.9790001 -0.028000001 -0.73400003 5
8.2880001 -0.029999999 -0.745 4
8.5760002 -0.032000002 -0.75300002 4
8.9510002 -0.034000002 -0.76700002 4
9.3000002 -0.037 -0.77700001 6
9.6309996 -0.039000001 -0.78500003 5
10.012 -0.041999999 -0.79500002 5
10.405 -0.045000002 -0.80400002 5
10.811 -0.048999999 -0.81199998 3
11.354 -0.052999999 -0.829 3
11.856 -0.057 -0.84100002 3
12.424 -0.061999999 -0.85500002 3
13.019 -0.067000002 -0.86799997 3
13.653 -0.072999999 -0.88200003 3
14.384 -0.079999998 -0.89899999 3
0 0 0 2
0 0 0 2
0 0 0 0
0 0 0 2
0 0 0 1
0 0 0 1
24.676001 -0.17399999 -1.177 1
0 0 0 0
0 0 0 0
0 0 0 0
0 0 0 11
48.415001 -0.405 -1.7970001 33
48.415001 -0.419 -1.692 153
48.437 -0.43200001 -1.5930001 176
48.48 -0.447 -1.49 200
48.470001 -0.46200001 -1.386 197
48.473 -0.47600001 -1.283 168
48.431999 -0.491 -1.181 152
48.487 -0.50700003 -1.08 6
0 0 0 29
116.61 -1.2970001 -2.1040001 31
0 0 0 0
0 0 0 0
0 0 0 0
0 0 0 0
0 0 0 0
0 0 0 58
0 0 0 29
72.577003 -1.0190001 -0.083999999 60
72.607002 -1.048 0.066 82
72.616997 -1.077 0.219 68
72.637001 -1.107 0.37200001 41
72.594002 -1.137 0.52399999 12
0 0 0 0
0 0 0 0
0 0 0 0
0 0 0 0
0 0 0 20
63.783001 -1.1670001 1.261 44
63.577 -1.192 1.388 49
63.136002 -1.2130001 1.51 38
61.710999 -1.215 1.605 40
61.27 -1.2359999 1.721 42
60.792 -1.256 1.8329999 32
60.303001 -1.276 1.944 24
60.032001 -1.3 2.0580001 14
0 0 0 0
0 0 0 20
62.999001 -1.4630001 2.5510001 46
62.612999 -1.4859999 2.664 62
61.841 -1.501 2.76 79
61.631001 -1.53 2.8770001 92
61.568001 -1.561 2.9990001 75
60.820999 -1.576 3.0869999 59
60.327 -1.597 3.184 64
60.308998 -1.63 3.3050001 80
59.93 -1.654 3.405 58
59.062 -1.664 3.4760001 72
58.967999 -1.6950001 3.5899999 62
58.890999 -1.728 3.704 72
58.071999 -1.738 3.766 54
57.650002 -1.76 3.8540001 70
57.629002 -1.794 3.9690001 75
57.242001 -1.816 4.0549998 54
56.425999 -1.825 4.1100001 66
56.282001 -1.8559999 4.211 74
56.255001 -1.89 4.323 68
55.526001 -1.901 4.3769999 37
54.945 -1.916 4.4390001 48
54.937 -1.951 4.5469999 60
54.764999 -1.9809999 4.6399999 62
53.828999 -1.9809999 4.665 60
53.605 -2.0090001 4.7490001 62
53.605999 -2.0439999 4.8520002 68
53.18 -2.063 4.9169998 45
52.317001 -2.0639999 4.9369998 57
52.247002 -2.0969999 5.0320001 61
52.262001 -2.1329999 5.1339998 55
51.629002 -2.1429999 5.171 32
50.917999 -2.1489999 5.197 55
50.914001 -2.1849999 5.2940001 57
50.820999 -2.217 5.381 54
49.863998 -2.21 5.3730001 52
49.574001 -2.2320001 5.4359999 54
49.575001 -2.2679999 5.5289998 54
49.488998 -2.3 5.6129999 51
48.473 -2.2869999 5.5869999 49
48.243999 -2.312 5.651 60
48.109001 -2.3410001 5.724 28
47.073002 -2.325 5.6880002 9
46.687 -2.3410001 5.7280002 13
46.52 -2.3670001 5.7919998 36
46.526001 -2.402 5.8779998 54
46.521 -2.437 5.9619999 58
46.523998 -2.473 6.0469999 56
46.523998 -2.5090001 6.132 57
46.528 -2.5439999 6.2150002 54
46.506001 -2.5799999 6.2969999 37
46.287998 -2.6029999 6.3509998 24
45.653 -2.6029999 6.3460002 15
45.194 -2.612 6.3600001 14
44.311001 -2.596 6.3140001 8
43.146 -2.562 6.224 9
42.835999 -2.5769999 6.2529998 9
42.518002 -2.592 6.2810001 21
42.500999 -2.6240001 6.3520002 50
42.494999 -2.658 6.4239998 57
42.402 -2.6860001 6.4829998 49
41.639 -2.6719999 6.4380002 35
41.514 -2.697 6.4889998 50
41.519001 -2.7309999 6.5599999 48
41.516998 -2.7650001 6.6290002 50
41.209 -2.7780001 6.6500001 36
40.256001 -2.747 6.5630002 33
40.188 -2.7750001 6.618 45
40.167 -2.8069999 6.6810002 47
40.195999 -2.842 6.7519999 45
40.084999 -2.868 6.7979999 34
39.007 -2.823 6.678 32
38.818001 -2.8410001 6.7080002 39
38.819 -2.8740001 6.7709999 39
38.827 -2.9070001 6.835 39
38.824001 -2.9400001 6.8969998 38
38.119999 -2.9189999 6.8330002 26
37.492001 -2.9030001 6.7779999 43
37.487 -2.934 6.836 45
37.495998 -2.9660001 6.8959999 44
37.487 -2.997 6.9520001 44
37.452999 -3.026 7.0029998 39
36.428001 -2.9749999 6.8670001 28
36.119999 -2.98 6.8639998 39
36.127998 -3.0120001 6.9200001 41
36.127998 -3.043 6.973 41
36.125 -3.0739999 7.0279999 39
35.866001 -3.082 7.0289998 21
34.886002 -3.0280001 6.888 10
34.637001 -3.0369999 6.8909998 9
34.425999 -3.0480001 6.8990002 9
34.223999 -3.059 6.9070001 9
33.987999 -3.0669999 6.908 9
33.806 -3.0799999 6.9190001 10
33.622002 -3.0929999 6.9289999 9
33.389 -3.0999999 6.928 9
33.202 -3.1110001 6.9349999 10
33.028999 -3.1240001 6.9439998 9
32.832001 -3.1329999 6.947 10
32.626999 -3.142 6.9489999 10
32.446999 -3.1530001 6.954 9
32.263 -3.164 6.9580002 10
32.069 -3.1730001 6.9590001 9
31.91 -3.184 6.9660001 10
31.722 -3.1930001 6.967 9
31.546 -3.2030001 6.9699998 10
31.372 -3.2119999 6.9720001 11
31.190001 -3.221 6.9720001 9
31.059999 -3.234 6.9829998 10
30.872 -3.2420001 6.9790001 10
30.707001 -3.2509999 6.98 10
30.545 -3.26 6.9809999 10
30.368999 -3.2679999 6.9780002 10
30.212999 -3.277 6.9790001 11
30.061001 -3.2869999 6.9809999 10
29.875999 -3.2920001 6.973 9
29.722 -3.3010001 6.973 9
29.568001 -3.309 6.9710002 10
29.441999 -3.3199999 6.9759998 10
29.268999 -3.326 6.9679999 9
29.139 -3.335 6.9699998 9
28.982 -3.342 6.9660001 9
28.832001 -3.3499999 6.9619999 9
28.684 -3.3570001 6.9580002 9
28.525999 -3.3629999 6.9510002 9
28.389999 -3.3710001 6.948 10
28.254999 -3.3789999 6.9460001 10
28.138 -3.3889999 6.9460001 13
28.002001 -3.3959999 6.9419999 9
27.849001 -3.401 6.9330001 10
27.726999 -3.4089999 6.9320002 10
27.579 -3.414 6.9219999 9
27.461 -3.4219999 6.9200001 9
27.34 -3.4300001 6.9169998 10
27.200001 -3.4349999 6.908 10
27.068001 -3.441 6.901 10
26.973 -3.451 6.902 9
26.846001 -3.457 6.895 9
26.719 -3.4619999 6.8870001 10
26.580999 -3.467 6.8769999 10
26.493 -3.477 6.8779998 10
26.353001 -3.48 6.8649998 11
26.274 -3.49 6.868 11
26.176001 -3.4979999 6.8649998 12
26.080999 -3.507 6.862 11
26.009001 -3.5179999 6.8660002 12
25.931999 -3.5280001 6.8670001 14
25.846001 -3.5369999 6.8649998 15
25.761999 -3.5450001 6.8629999 18
25.677999 -3.5539999 6.8610001 20
25.603001 -3.5639999 6.862 23
25.532 -3.573 6.862 24
25.479 -3.586 6.8670001 22
25.42 -3.5969999 6.8709998 27
25.337 -3.605 6.8670001 28
25.274 -3.6159999 6.868 30
25.198999 -3.6229999 6.8660002 26
25.141001 -3.6340001 6.868 32
25.075001 -3.6440001 6.8670001 26
25.007 -3.6530001 6.8649998 25
24.951 -3.6630001 6.8660002 30
24.892 -3.6730001 6.8660002 29
24.84 -3.6830001 6.868 29
24.799999 -3.6960001 6.8720002 25
24.747999 -3.7049999 6.8730001 27
24.698999 -3.7160001 6.8740001 26
24.653 -3.7279999 6.8759999 32
24.614 -3.7390001 6.8790002 30
24.549999 -3.747 6.875 26
24.504999 -3.756 6.8759999 30
24.483 -3.77 6.8829999 26
24.431999 -3.78 6.881 27
24.402 -3.7920001 6.8850002 32
24.351 -3.8 6.8829999 26
24.302 -3.809 6.881 28
24.268 -3.8199999 6.8829999 27
24.23 -3.8310001 6.8829999 27
24.198 -3.842 6.8850002 26
24.164 -3.8529999 6.8860002 32
24.135 -3.8640001 6.888 31
24.106001 -3.875 6.8889999 30
24.082001 -3.8859999 6.8920002 27
24.042 -3.8959999 6.8899999 32
24.017 -3.9059999 6.8909998 33
23.988001 -3.9170001 6.8920002 30
23.964001 -3.928 6.8930001 27
23.940001 -3.9389999 6.8940001 25
23.931 -3.9519999 6.8990002 26
23.893 -3.961 6.895 25
23.870001 -3.971 6.8959999 29
23.837999 -3.9790001 6.8930001 28
23.830999 -3.993 6.8979998 26
23.808001 -4.0019999 6.8969998 24
23.795 -4.0139999 6.8990002 26
23.764999 -4.0219998 6.8959999 30
23.753 -4.0339999 6.8969998 31
23.718 -4.0419998 6.8920002 29
23.712 -4.0539999 6.895 30
23.716999 -4.0679998 6.9000001 26
23.688 -4.0749998 6.8959999 30
23.681 -4.0869999 6.8969998 31
23.673 -4.098 6.8979998 25
23.653999 -4.1059999 6.8959999 28
23.652 -4.118 6.8979998 30
23.625999 -4.1259999 6.8920002 32
23.629 -4.1389999 6.895 32
23.617001 -4.1479998 6.8930001 32
23.618 -4.1599998 6.895 33
23.614 -4.171 6.895 32
23.601999 -4.1799998 6.8920002 27
23.620001 -4.1939998 6.8979998 27
23.601999 -4.2010002 6.8930001 33
23.601 -4.2119999 6.8930001 28
23.605 -4.223 6.8940001 32
23.601 -4.2329998 6.8920002 31
23.617001 -4.2470002 6.895 28
23.612 -4.2550001 6.8920002 33
23.613001 -4.2659998 6.8909998 32
23.625 -4.2779999 6.8920002 27
23.624001 -4.2880001 6.8899999 32
23.641001 -4.3000002 6.8920002 28
23.639999 -4.309 6.8889999 33
23.65 -4.3200002 6.8889999 31
23.666 -4.3319998 6.8899999 32
23.674999 -4.342 6.8889999 31
23.693001 -4.355 6.8899999 30
23.709 -4.3660002 6.8899999 31
23.715 -4.3759999 6.8870001 30
23.724001 -4.3860002 6.8850002 30
23.743 -4.3969998 6.8850002 30
23.759001 -4.408 6.8839998 29
23.787001 -4.4200001 6.8870001 25
23.797001 -4.4299998 6.8829999 25
23.834999 -4.4439998 6.888 29
23.851999 -4.4549999 6.8850002 30
23.858 -4.4629998 6.8800001 25
23.903 -4.4780002 6.8860002 25
23.92 -4.4879999 6.8829999 24
23.938999 -4.4980001 6.8800001 30
23.957001 -4.507 6.8769999 31
23.996 -4.5209999 6.8800001 32
24.028 -4.5320001 6.8800001 33
24.047001 -4.5419998 6.8759999 31
24.087 -4.5539999 6.8779998 28
24.113001 -4.5650001 6.875 27
24.143 -4.5760002 6.8740001 27
24.18 -4.5879998 6.8730001 27
24.195999 -4.5960002 6.8670001 33
24.229 -4.6069999 6.8660002 32
24.259001 -4.6170001 6.8629999 34
24.294001 -4.6279998 6.8610001 32
24.323999 -4.6370001 6.8579998 33
24.368999 -4.6500001 6.8579998 31
24.41 -4.6609998 6.8559999 31
24.447001 -4.6719999 6.8540001 29
24.49 -4.684 6.8530002 29
24.538 -4.6960001 6.8520002 24
24.589001 -4.7080002 6.8530002 29
24.66 -4.7249999 6.8579998 25
24.695999 -4.7340002 6.8540001 30
24.754999 -4.7480001 6.855 30
24.812 -4.7610002 6.855 28
24.856001 -4.7719998 6.8520002 29
24.893 -4.7810001 6.8460002 30
24.944 -4.7919998 6.8439999 30
25.003 -4.8039999 6.8439999 26
25.056 -4.816 6.842 31
25.120001 -4.829 6.842 30
25.167 -4.8379998 6.8379998 29
25.224001 -4.8499999 6.835 24
25.285 -4.862 6.8330002 28
25.370001 -4.8790002 6.8379998 27
25.431 -4.8899999 6.836 25
25.483999 -4.8990002 6.8309999 26
25.541 -4.9099998 6.8260002 28
25.610001 -4.9229999 6.8249998 30
25.667999 -4.9330001 6.8200002 29
25.738001 -4.9450002 6.8189998 26
25.809 -4.9569998 6.8169999 27
25.905001 -4.974 6.8200002 25
25.968 -4.9840002 6.816 27
26.040001 -4.9959998 6.8130002 29
26.115 -5.0079999 6.8099999 25
26.184 -5.0190001 6.8060002 25
26.263 -5.0300002 6.803 29
26.332001 -5.0409999 6.7969999 29
26.43 -5.0560002 6.8000002 28
26.507999 -5.0669999 6.796 27
26.604 -5.0819998 6.796 26
26.704 -5.0970001 6.7979999 29
26.785 -5.1090002 6.7919998 28
26.872999 -5.1209998 6.79 29
26.975 -5.1360002 6.79 28
27.056999 -5.1459999 6.7849998 30
27.148001 -5.158 6.7810001 26
27.233 -5.1690001 6.776 29
27.334999 -5.1830001 6.7750001 32
27.437 -5.1960001 6.7729998 31
27.527 -5.2069998 6.7670002 29
27.615 -5.217 6.7610002 30
27.714001 -5.2290001 6.756 29
27.819 -5.2420001 6.7540002 24
27.954 -5.2600002 6.757 29
28.066999 -5.2740002 6.7550001 27
28.183001 -5.2880001 6.7519999 25
28.284 -5.2979999 6.7470002 25
28.382 -5.3080001 6.7389998 29
28.488001 -5.3189998 6.7329998 28
28.653 -5.3410001 6.7399998 26
28.766001 -5.3520002 6.7350001 26
28.881001 -5.3639998 6.7290001 25
29.007999 -5.3779998 6.7259998 26
29.121 -5.388 6.7189999 25
29.249001 -5.401 6.7160001 29
29.400999 -5.4180002 6.717 31
29.521 -5.4299998 6.71 30
29.663 -5.4450002 6.7059999 27
29.801001 -5.4580002 6.7020001 25
29.938 -5.4710002 6.698 27
0 0 0 2
26.653999 -4.849 5.8990002 6
26.620001 -4.8309999 5.8590002 10
26.591 -4.8140001 5.8210001 13
26.542999 -4.7930002 5.7779999 18
26.516001 -4.777 5.7389998 20
26.488001 -4.7589998 5.6999998 21
26.466 -4.743 5.6620002 23
26.466 -4.73 5.6290002 26
26.448999 -4.7140002 5.592 27
26.438999 -4.6989999 5.5560002 27
26.429001 -4.6830001 5.52 27
26.406 -4.6659999 5.4819999 30
26.399 -4.651 5.4460001 31
26.379 -4.632 5.408 33
26.378 -4.618 5.3740001 34
26.363001 -4.6009998 5.336 34
26.370001 -4.5879998 5.302 36
26.351999 -4.5700002 5.263 37
26.354 -4.5549998 5.2290001 33
26.337999 -4.5359998 5.1900001 41
26.322001 -4.5170002 5.151 43
26.316999 -4.5 5.1149998 45
26.304001 -4.4819999 5.0760002 42
26.309 -4.4660001 5.0419998 46
26.295 -4.447 5.0029998 45
26.309 -4.4330001 4.9689999 49
26.297001 -4.414 4.9310002 46
26.302 -4.3969998 4.895 45
26.298 -4.3790002 4.8569999 45
26.287001 -4.3590002 4.8179998 52
26.292 -4.342 4.7820001 54
26.284 -4.323 4.744 56
26.289 -4.3049998 4.7080002 56
26.297001 -4.2880001 4.6719999 51
26.301001 -4.2690001 4.6360002 52
26.294001 -4.2490001 4.5970001 52
26.311001 -4.2319999 4.5619998 52
26.292999 -4.21 4.5209999 51
26.309 -4.1929998 4.4860001 51
26.32 -4.1739998 4.4499998 46
26.337999 -4.1570001 4.414 35
26.339001 -4.1370001 4.3769999 43
26.341 -4.1170001 4.3379998 40
26.337999 -4.0949998 4.2989998 42
26.382999 -4.0809999 4.2680001 42
26.398001 -4.0619998 4.2309999 35
26.392 -4.039 4.191 41
26.431 -4.0229998 4.158 38
26.433001 -4 4.119 33
26.455 -3.9820001 4.0830002 34
26.465 -3.961 4.0450001 33
26.481001 -3.9400001 4.0079999 29
26.530001 -3.924 3.9749999 25
26.563999 -3.9059999 3.941 22
26.601 -3.888 3.9070001 19
26.691999 -3.8770001 3.8789999 13
26.740999 -3.859 3.846 6
0 0 0 0
0 0 0 0
0 0 0 0
0 0 0 0
0 0 0 0
0 0 0 0
0 0 0 0
0 0 0 0
0 0 0 0
0 0 0 0
0 0 0 0
0 0 0 0
0 0 0 0
0 0 0 0
0 0 0 0
0 0 0 0
0 0 0 4
0 0 0 0
0 0 0 0
0 0 0 0
0 0 0 2
34.514999 -4.2199998 3.7950001 3
34.494999 -4.1799998 3.7379999 2
34.450001 -4.1360002 3.681 2
34.316002 -4.0819998 3.612 8
34.259998 -4.0370002 3.553 47
34.258999 -3.9979999 3.4990001 53
34.262001 -3.9590001 3.4449999 53
34.266998 -3.921 3.392 50
34.249001 -3.8789999 3.336 54
34.243 -3.839 3.2820001 55
34.237 -3.7980001 3.2279999 55
34.223 -3.756 3.1730001 63
34.210999 -3.714 3.118 71
34.198002 -3.6719999 3.0639999 81
34.206001 -3.632 3.0109999 81
34.199001 -3.5899999 2.957 80
34.199001 -3.549 2.9030001 82
34.188 -3.506 2.849 80
34.188 -3.464 2.796 91
34.187 -3.421 2.7420001 80
34.174 -3.3770001 2.687 80
34.176998 -3.336 2.635 69
34.176998 -3.293 2.582 87
34.166 -3.2490001 2.527 76
34.151001 -3.2030001 2.4719999 77
34.144001 -3.1589999 2.4189999 76
34.153 -3.115 2.3659999 66
34.158001 -3.0710001 2.313 61
34.154999 -3.027 2.26 51
34.171001 -2.983 2.207 45
34.154999 -2.938 2.155 37
34.173 -2.8940001 2.1029999 24
34.221001 -2.8529999 2.053 15
34.321999 -2.816 2.006 10
34.334 -2.77 1.9529999 11
34.328999 -2.724 1.901 10
34.311001 -2.677 1.847 13
34.296001 -2.6289999 1.793 7
34.314999 -2.5829999 1.742 3
0 0 0 2
40.612 -2.9449999 1.937 3
41.233002 -2.9330001 1.903 5
41.478001 -2.892 1.851 27
42.104 -2.8770001 1.8150001 5
42.682999 -2.8559999 1.775 6
43.053001 -2.8199999 1.725 9
44.539001 -2.8529999 1.716 17
43.154999 -2.7019999 1.597 4
42.980999 -2.6289999 1.525 47
42.987 -2.5669999 1.46 105
43.008999 -2.507 1.397 44
42.997002 -2.4449999 1.3329999 42
43.013 -2.3829999 1.2690001 43
43.007999 -2.3199999 1.205 43
43 -2.2539999 1.138 30
43.005001 -2.191 1.075 18
42.987999 -2.1270001 1.011 10
0 0 0 37
50.827 -2.362 1.044 10
50.91 -2.289 0.97000003 26
50.803001 -2.2090001 0.89399999 42
50.860001 -2.1340001 0.82099998 19
0 0 0 54
58.223999 -2.266 0.76899999 100
58.257999 -2.178 0.68400002 150
58.255001 -2.0880001 0.59899998 127
58.257999 -1.998 0.51499999 109
58.504002 -1.916 0.43200001 31
58.630001 -1.829 0.34900001 15
0 0 0 111
66.261002 -1.8609999 0.205 90
66.286003 -1.758 0.11 107
66.283997 -1.653 0.016000001 69
66.278 -1.55 -0.075999998 68
66.469002 -1.449 -0.17 91
66.933998 -1.353 -0.266 22
0 0 0 54
72.217003 -1.229 -0.49000001 44
0 0 0 0
0 0 0 0
0 0 0 0
0 0 0 0
0 0 0 0
0 0 0 0
0 0 0 36
116.544 -0.47999999 -2.0710001 25
0 0 0 0
0 0 0 0
0 0 0 13
60.389999 0.146 -1.397 150
0 0 0 0
0 0 0 160
0 0 0 15
38.659 0.34900001 -1.098 15
38.599998 0.41299999 -1.147 16
38.594002 0.477 -1.197 13
38.769001 0.54400003 -1.253 7
39.263 0.61699998 -1.319 3
39.235001 0.68099999 -1.368 3
39.188 0.74699998 -1.416 3
39.348999 0.81599998 -1.472 2
0 0 0 0
0 0 0 3
0 0 0 1
0 0 0 0
0 0 0 1
0 0 0 2
0 0 0 0
0 0 0 2
20.114 0.72299999 -0.97600001 4
19.462999 0.73299998 -0.96799999 1
0 0 0 2
18.167 0.74599999 -0.94700003 3
0 0 0 2
15.872 0.70700002 -0.86500001 3
16.223 0.75 -0.903 3
15.612 0.74800003 -0.88700002 2
14.84 0.73699999 -0.86000001 3
14.596 0.75 -0.86299998 3
14.193 0.75400001 -0.85600001 3
13.781 0.75599998 -0.847 3
13.366 0.75599998 -0.83600003 3
12.991 0.75800002 -0.82700002 3
12.647 0.759 -0.81900001 3
12.365 0.764 -0.815 3
12.12 0.76899999 -0.81199998 2
11.846 0.77200001 -0.80699998 2
11.554 0.773 -0.80000001 2
11.269 0.77399999 -0.792 2
11.014 0.77499998 -0.78600001 2
10.787 0.778 -0.78100002 3
10.558 0.77999997 -0.77600002 2
10.334 0.78100002 -0.76999998 3
10.135 0.78399998 -0.76599997 3
9.9300003 0.78500003 -0.76099998 4
9.7530003 0.78799999 -0.75700003 4
9.5719995 0.79000002 -0.75300002 4
9.3970003 0.79100001 -0.74800003 3
9.2159996 0.792 -0.74299997 3
9.0620003 0.79400003 -0.74000001 4
8.9280005 0.79799998 -0.73799998 4
8.7609997 0.79799998 -0.73199999 4
8.6309996 0.801 -0.73000002 4
8.4580002 0.80000001 -0.72399998 4
8.3149996 0.801 -0.71899998 4
8.1920004 0.80299997 -0.71700001 4
8.0509996 0.80299997 -0.71200001 4
7.9200001 0.80400002 -0.708 5
7.802 0.80500001 -0.70499998 6
7.6739998 0.80500001 -0.69999999 4
7.5440001 0.80500001 -0.69499999 4
7.4169998 0.80299997 -0.69 3
7.303 0.80400002 -0.68599999 4
7.2150002 0.80599999 -0.68400002 5
7.086 0.80400002 -0.67799997 5
6.9910002 0.80500001 -0.67500001 5
6.8979998 0.80599999 -0.67199999 5
6.829 0.81 -0.67199999 4
6.7579999 0.81300002 -0.67000002 4
6.6729999 0.81400001 -0.66799998 3
6.585 0.815 -0.66399997 3
6.506 0.81599998 -0.662 3
6.4060001 0.81400001 -0.65700001 3
6.3379998 0.81699997 -0.65499997 3
6.2449999 0.815 -0.65100002 3
6.1950002 0.81900001 -0.64999998 4
6.1279998 0.82099998 -0.648 4
6.0770001 0.824 -0.648 4
6.0079999 0.82499999 -0.64499998 4
5.9419999 0.82599998 -0.64200002 4
5.8790002 0.82700002 -0.63999999 4
5.8369999 0.83099997 -0.63999999 4
5.7859998 0.833 -0.639 4
5.7399998 0.83600003 -0.63800001 3
5.6830001 0.83700001 -0.63599998 3
5.618 0.83700001 -0.63200003 3
5.566 0.838 -0.63099998 3
5.5240002 0.84100002 -0.63 3
5.4759998 0.84299999 -0.62800002 3
5.427 0.84500003 -0.62599999 3
5.3969998 0.84899998 -0.62599999 3
5.3649998 0.852 -0.62599999 3
5.3150001 0.85299999 -0.62400001 3
5.276 0.85600001 -0.62300003 4
5.2280002 0.85699999 -0.62099999 4
5.1880002 0.85799998 -0.61900002 4
5.158 0.86199999 -0.61900002 2
5.1079998 0.86199999 -0.616 3
5.0869999 0.866 -0.61699998 3
5.0599999 0.87 -0.61699998 2
5.0219998 0.87099999 -0.61500001 3
5.006 0.87699997 -0.616 2
4.9590001 0.87599999 -0.61400002 3
4.9169998 0.87599999 -0.611 3
4.8909998 0.88 -0.611 3
4.875 0.88499999 -0.61199999 2
4.835 0.88499999 -0.60900003 4
4.8140001 0.889 -0.60900003 2
4.7750001 0.889 -0.60699999 3
4.7470002 0.89099997 -0.60600001 3
4.7280002 0.89499998 -0.60600001 3
4.7020001 0.89700001 -0.60500002 5
4.6950002 0.903 -0.60699999 3
4.6849999 0.90799999 -0.60799998 3
4.6669998 0.91100001 -0.60799998 3
4.6420002 0.91399997 -0.60699999 3
4.6100001 0.91399997 -0.60500002 3
4.6079998 0.921 -0.60699999 3
4.5809999 0.92199999 -0.60500002 3
4.553 0.92299998 -0.60299999 2
4.5339999 0.926 -0.60299999 4
4.5040002 0.92699999 -0.60100001 2
4.4860001 0.93000001 -0.60100001 2
4.46 0.93099999 -0.59899998 4
4.447 0.935 -0.59899998 2
4.4289999 0.93699998 -0.59799999 2
4.4169998 0.94099998 -0.59899998 2
4.3979998 0.94300002 -0.59799999 3
4.375 0.94499999 -0.59600002 4
4.3559999 0.94700003 -0.59500003 4
4.3439999 0.94999999 -0.59500003 4
4.3429999 0.95599997 -0.597 2
4.316 0.95599997 -0.59500003 2
4.2940001 0.95700002 -0.59299999 4
4.283 0.96100003 -0.59299999 2
4.296 0.96899998 -0.59600002 4
4.25 0.96499997 -0.59100002 2
4.2270002 0.96499997 -0.58899999 3
4.289 0.98500001 -0.59899998 3
4.2140002 0.97399998 -0.58999997 3
4.197 0.97500002 -0.58899999 3
4.1539998 0.97100002 -0.58399999 2
4.1420002 0.97299999 -0.58399999 2
4.1420002 0.97899997 -0.58499998 3
4.1589999 0.98799998 -0.588 4
4.1100001 0.98199999 -0.58200002 2
4.112 0.98799998 -0.58399999 3
4.1240001 0.99599999 -0.58700001 3
4.132 1.003 -0.58899999 3
4.1059999 1.002 -0.58600003 4
4.0689998 0.99800003 -0.58099997 2
4.1389999 1.02 -0.59200001 4
4.0440001 1.002 -0.57999998 3
4.0949998 1.0190001 -0.588 2
4.1469998 1.0369999 -0.59600002 4
4.0570002 1.0190001 -0.58399999 2
4.086 1.031 -0.58899999 4
4.0939999 1.038 -0.58999997 2
4.0840001 1.04 -0.58999997 2
4.0279999 1.031 -0.58200002 2
4.0650001 1.045 -0.588 2
4.0580001 1.048 -0.588 4
4.098 1.063 -0.59399998 3
4.0209999 1.0470001 -0.583 4
3.9979999 1.045 -0.57999998 2
4.0560002 1.0650001 -0.58899999 2
4.0840001 1.077 -0.59399998 2
4.0749998 1.0779999 -0.59299999 2
3.9849999 1.059 -0.57999998 2
4.0159998 1.071 -0.58499998 2
4.0310001 1.08 -0.58700001 2
3.9820001 1.071 -0.58099997 2
4.0159998 1.084 -0.58600003 2
3.994 1.082 -0.583 2
3.994 1.086 -0.583 2
4.0100002 1.094 -0.58499998 2
3.9960001 1.094 -0.58399999 2
3.9760001 1.0930001 -0.58099997 2
3.9860001 1.099 -0.58200002 2
3.967 1.098 -0.579 2
3.9990001 1.11 -0.58399999 2
4 1.114 -0.58399999 4
4.0139999 1.1210001 -0.58600003 2
4.013 1.125 -0.58600003 2
3.9779999 1.119 -0.58099997 2
4.0110002 1.131 -0.58499998 2
4.0560002 1.147 -0.59200001 2
3.9860001 1.131 -0.58200002 2
3.9749999 1.131 -0.57999998 2
3.951 1.128 -0.57599998 2
3.951 1.131 -0.57599998 2
4.0599999 1.165 -0.59100002 4
4.039 1.163 -0.588 4
3.99 1.152 -0.58099997 2
3.9820001 1.152 -0.579 2
4.0050001 1.1619999 -0.58200002 4
3.9960001 1.1619999 -0.57999998 2
4.046 1.1799999 -0.58700001 2
3.9890001 1.166 -0.57800001 2
4.039 1.183 -0.58499998 2
4.0019999 1.175 -0.579 2
4.0019999 1.178 -0.579 2
4.0710001 1.201 -0.588 4
4.0469999 1.197 -0.58399999 2
4.059 1.2029999 -0.58499998 2
4.0110002 1.191 -0.57700002 4
4.086 1.216 -0.588 4
4.0240002 1.2 -0.57800001 2
4.0250001 1.202 -0.57700002 2
4.0739999 1.219 -0.58399999 2
4.0890002 1.226 -0.58499998 2
4.0549998 1.2180001 -0.579 3
4.0489998 1.219 -0.57800001 2
4.0700002 1.227 -0.57999998 3
4.0780001 1.232 -0.57999998 3
4.0630002 1.229 -0.57700002 3
4.1290002 1.251 -0.58499998 3
4.125 1.252 -0.58399999 2
4.1329999 1.256 -0.58399999 4
4.092 1.2460001 -0.57700002 2
4.2360001 1.291 -0.59600002 4
4.1389999 1.263 -0.58200002 3
4.1570001 1.271 -0.583 3
4.165 1.275 -0.583 3
4.171 1.278 -0.583 3
4.178 1.2819999 -0.583 3
4.204 1.291 -0.58499998 2
4.2059999 1.294 -0.58399999 4
4.2179999 1.299 -0.58399999 4
4.2490001 1.309 -0.58700001 2
4.2389998 1.308 -0.58499998 4
4.2600002 1.3150001 -0.58600003 4
4.2589998 1.316 -0.58499998 4
4.2839999 1.325 -0.58700001 2
4.3010001 1.331 -0.588 2
4.3070002 1.334 -0.58700001 2
4.3130002 1.337 -0.58600003 4
4.3340001 1.344 -0.58700001 2
4.336 1.346 -0.58600003 4
4.3579998 1.354 -0.588 4
4.3660002 1.357 -0.58700001 4
4.3839998 1.363 -0.588 2
4.4120002 1.372 -0.58999997 2
4.4169998 1.375 -0.58899999 4
4.428 1.3789999 -0.58899999 4
4.4530001 1.387 -0.58999997 2
4.4749999 1.3940001 -0.59200001 2
4.4790001 1.395 -0.58999997 3
4.493 1.4 -0.58999997 5
4.5180001 1.408 -0.59200001 3
4.5300002 1.4119999 -0.59100002 5
4.5539999 1.419 -0.59200001 2
4.573 1.425 -0.59299999 3
4.6040001 1.4349999 -0.59500003 3
4.6110001 1.437 -0.59399998 3
4.6300001 1.443 -0.59399998 2
4.651 1.449 -0.59500003 3
4.6680002 1.454 -0.59500003 4
4.691 1.461 -0.59600002 2
4.7119999 1.467 -0.59600002 4
4.7290001 1.472 -0.59600002 5
4.75 1.478 -0.597 3
4.777 1.4859999 -0.59799999 3
4.8010001 1.493 -0.59899998 3
4.8330002 1.502 -0.60000002 3
4.8649998 1.511 -0.602 2
4.8720002 1.512 -0.60000002 3
4.9060001 1.521 -0.602 3
4.9190001 1.524 -0.60100001 3
4.947 1.5319999 -0.602 3
4.9720001 1.539 -0.60299999 3
4.9949999 1.545 -0.60299999 3
5.0149999 1.549 -0.60299999 3
5.0650001 1.563 -0.60600001 3
5.0780001 1.566 -0.60500002 3
5.1040001 1.572 -0.60500002 3
5.1240001 1.577 -0.60500002 3
5.1589999 1.586 -0.60600001 2
5.1820002 1.591 -0.60600001 2
5.2160001 1.6 -0.60699999 2
5.2509999 1.608 -0.60799998 2
5.2849998 1.617 -0.60900003 2
5.3239999 1.626 -0.611 3
5.3449998 1.631 -0.61000001 3
5.3979998 1.6440001 -0.61299998 3
5.4190001 1.648 -0.61299998 3
5.4569998 1.6569999 -0.61400002 3
5.5050001 1.669 -0.616 3
5.5349998 1.676 -0.616 3
5.572 1.684 -0.61699998 3
5.5999999 1.6900001 -0.61699998 3
5.6389999 1.698 -0.61799997 3
5.6760001 1.707 -0.61900002 3
5.723 1.7180001 -0.62099999 3
5.7719998 1.729 -0.62199998 3
5.809 1.737 -0.62300003 3
5.869 1.751 -0.62599999 3
5.902 1.757 -0.62599999 3
5.9330001 1.763 -0.62599999 4
5.9770002 1.772 -0.62699997 4
6.033 1.785 -0.62900001 3
6.0809999 1.795 -0.63 3
6.1209998 1.803 -0.63 3
6.1810002 1.816 -0.63300002 3
6.2550001 1.834 -0.63599998 3
6.2909999 1.84 -0.63599998 3
6.3390002 1.849 -0.63700002 3
6.3969998 1.8609999 -0.639 3
6.447 1.8710001 -0.63999999 3
6.5019999 1.882 -0.64099997 3
6.559 1.893 -0.64300001 3
6.625 1.9069999 -0.64499998 3
6.6999998 1.923 -0.648 4
6.7449999 1.931 -0.648 3
6.7989998 1.941 -0.64899999 3
6.8590002 1.952 -0.64999998 3
6.9029999 1.959 -0.64999998 5
6.9780002 1.974 -0.653 3
7.053 1.989 -0.65499997 3
7.1170001 2 -0.65600002 3
7.1830001 2.0120001 -0.65799999 3
7.2789998 2.033 -0.662 4
7.3699999 2.0510001 -0.66500002 4
7.441 2.0639999 -0.66600001 4
7.5250001 2.0799999 -0.66900003 4
7.6149998 2.098 -0.67199999 4
7.7249999 2.1210001 -0.67699999 3
7.8099999 2.1359999 -0.67900002 4
7.8850002 2.1489999 -0.68000001 5
7.993 2.1700001 -0.68400002 3
8.0970001 2.1900001 -0.68800002 4
8.2150002 2.2130001 -0.69199997 3
8.3009996 2.2279999 -0.69400001 4
8.427 2.253 -0.699 4
8.5209999 2.2679999 -0.70099998 4
8.5979996 2.279 -0.70200002 5
8.7040005 2.2980001 -0.70499998 4
8.8219995 2.319 -0.708 6
8.9390001 2.3399999 -0.71200001 5
9.0220003 2.3510001 -0.71200001 5
9.1619997 2.3770001 -0.71700001 4
9.316 2.4070001 -0.72299999 5
9.4610004 2.4330001 -0.72799999 7
9.5690002 2.45 -0.73000002 9
9.6829996 2.467 -0.73199999 9
9.7740002 2.4790001 -0.73299998 8
9.8299999 2.4809999 -0.73000002 12
9.9239998 2.493 -0.73100001 9
10.031 2.507 -0.73199999 8
10.12 2.516 -0.73199999 9
10.222 2.529 -0.73199999 10
10.336 2.5439999 -0.73400003 6
10.453 2.559 -0.73500001 8
10.585 2.5780001 -0.73699999 4
10.722 2.598 -0.74000001 3
10.858 2.6159999 -0.74199998 2
10.994 2.635 -0.74400002 3
11.128 2.652 -0.745 4
11.375 2.6949999 -0.75400001 2
11.575 2.727 -0.75999999 2
11.727 2.747 -0.76200002 2
11.905 2.7720001 -0.76599997 2
12.092 2.799 -0.76999998 3
12.267 2.822 -0.773 3
12.415 2.8380001 -0.77499998 3
12.591 2.8610001 -0.778 3
12.772 2.8840001 -0.77999997 3
12.953 2.9059999 -0.78299999 3
13.13 2.9260001 -0.78500003 3
13.373 2.961 -0.79100001 3
13.707 3.0150001 -0.80199999 4
13.95 3.0469999 -0.80699998 4
14.23 3.0869999 -0.81400001 4
14.424 3.108 -0.81599998 4
14.639 3.132 -0.81900001 5
14.932 3.1719999 -0.82599998 4
15.256 3.217 -0.83399999 4
15.452 3.2349999 -0.83499998 7
15.551 3.2320001 -0.83099997 5
15.816 3.2620001 -0.83499998 4
16.107 3.2969999 -0.83999997 3
15.675 3.184 -0.80800003 3
15.982 3.221 -0.81400001 4
16.415001 3.2820001 -0.82599998 5
16.614 3.2950001 -0.82599998 5
17.045 3.3529999 -0.83700001 5
17.158001 3.3469999 -0.83200002 6
17.326 3.3510001 -0.829 5
17.582001 3.372 -0.83099997 3
17.794001 3.382 -0.82999998 3
18.266001 3.4419999 -0.84100002 2
18.643999 3.4820001 -0.84799999 3
0 0 0 4
20.667999 3.79 -0.91500002 2
0 0 0 0
0 0 0 0
0 0 0 0
0 0 0 0
0 0 0 2
24.993 4.3239999 -1.02 1
0 0 0 0
0 0 0 1
30.736 5.1570001 -1.2029999 2
0 0 0 4
0 0 0 6
30.792999 5.0019999 -1.155 20
30.787001 4.9460001 -1.138 20
30.796 4.8920002 -1.1210001 5
30.865 4.8460002 -1.108 3
32.193001 4.9970002 -1.138 6
31.829 4.8829999 -1.109 5
30.915001 4.6859999 -1.061 3
30.879 4.6230001 -1.044 2
30.907 4.5700002 -1.029 2
0 0 0 0
0 0 0 6
35.790001 5.092 -1.137 21
0 0 0 1
0 0 0 12
35.812 4.8940001 -1.086 7
0 0 0 1
31.83 4.23 -0.935 12
0 0 0 47
36.001999 4.6469998 -1.024 2
36.217999 4.6040001 -1.013 8
36.283001 4.5419998 -0.99900001 73
36.748001 4.5289998 -0.995 28
0 0 0 22
48.437 5.7839999 -1.2690001 150
48.479 5.6929998 -1.249 140
48.465 5.5970001 -1.228 150
48.528999 5.5089998 -1.209 40
48.838001 5.4499998 -1.197 15
0 0 0 10
40.009998 4.3080001 -0.94800001 24
39.941002 4.2220001 -0.93099999 13
39.895 4.138 -0.91399997 6
39.862 4.0549998 -0.898 7
39.817001 3.971 -0.88099998 10
39.676998 3.8770001 -0.86299998 14
39.601002 3.79 -0.847 25
39.535 3.704 -0.83099997 36
39.446999 3.6159999 -0.815 32
39.393002 3.5320001 -0.79900002 35
39.334999 3.4460001 -0.78399998 36
39.244999 3.3599999 -0.76999998 36
39.198002 3.277 -0.75599998 38
39.123001 3.191 -0.741 38
39.058998 3.108 -0.72799999 36
38.991001 3.0220001 -0.71399999 39
38.945 2.938 -0.70099998 38
38.870998 2.8529999 -0.68800002 38
38.803001 2.7690001 -0.67500001 36
38.737999 2.6849999 -0.66299999 39
38.683998 2.5999999 -0.65100002 39
38.631001 2.516 -0.639 38
38.561001 2.4319999 -0.62699997 40
38.499001 2.348 -0.616 39
38.445 2.2650001 -0.60500002 39
38.387001 2.181 -0.59399998 37
38.328999 2.098 -0.58399999 39
38.264999 2.0139999 -0.574 36
38.223 1.932 -0.56400001 35
38.157001 1.848 -0.55400002 39
38.118999 1.7690001 -0.54500002 39
38.057999 1.686 -0.53600001 40
38.021 1.605 -0.528 39
37.976002 1.523 -0.51999998 42
37.941002 1.441 -0.51200002 33
37.918999 1.3609999 -0.50400001 17
37.908001 1.281 -0.49700001 20
37.895 1.2 -0.49000001 39
37.880001 1.12 -0.484 28
37.924999 1.041 -0.47799999 31
37.987 0.963 -0.47299999 32
38.084 0.88300002 -0.46900001 37
38.202999 0.80500001 -0.465 75
38.285999 0.72500002 -0.461 68
38.355999 0.64499998 -0.45699999 34
38.460999 0.565 -0.45300001 24
38.574001 0.484 -0.44999999 16
38.733002 0.403 -0.44800001 4
0 0 0 0
0 0 0 0
0 0 0 0
0 0 0 0
0 0 0 0
0 0 0 0
0 0 0 0
0 0 0 103
0 0 0 0
0 0 0 0
0 0 0 0
0 0 0 38
71.669998 -1.247 -0.77399999 120
69.446999 -1.358 -0.75 123
66.291 -1.436 -0.71499997 19
66.264999 -1.5779999 -0.71499997 74
66.259003 -1.722 -0.71600002 100
66.265999 -1.863 -0.71700001 117
66.289001 -2.0079999 -0.71899998 11
0 0 0 38
58.214001 -2.0109999 -0.63599998 104
0 0 0 6
44.097 -1.712 -0.486 50
43.849998 -1.7970001 -0.486 38
43.485001 -1.874 -0.484 39
43.143002 -1.951 -0.484 38
43.278 -2.05 -0.48899999 39
43.255001 -2.141 -0.49200001 37
43.035 -2.2219999 -0.49399999 32
43.016998 -2.312 -0.498 38
42.761002 -2.3889999 -0.49900001 36
41.964001 -2.434 -0.495 36
41.627998 -2.5020001 -0.49599999 36
41.625 -2.5899999 -0.50099999 36
41.594002 -2.675 -0.50599998 35
41.976002 -2.79 -0.51700002 46
42.02 -2.881 -0.52399999 110
42.039001 -2.973 -0.52999997 119
42.041 -3.063 -0.53799999 96
39.708 -2.977 -0.514 7
0 0 0 27
37.108002 -2.9389999 -0.49399999 43
37.037998 -3.0120001 -0.5 65
0 0 0 6
21.231001 -1.8150001 -0.29499999 1
0 0 0 0
0 0 0 1
0 0 0 0
0 0 0 1
0 0 0 0
0 0 0 1
19.041 -1.9069999 -0.29499999 2
19.039 -1.946 -0.29899999 5
18.864 -1.967 -0.30199999 4
18.409 -1.9579999 -0.29899999 1
0 0 0 25
0 0 0 25
0 0 0 1
18.156 -2.0799999 -0.315 1
18.128 -2.1140001 -0.31999999 1
18.091 -2.1470001 -0.32499999 1
0 0 0 25
0 0 0 1
17.948 -2.24 -0.33899999 1
17.981001 -2.28 -0.34599999 1
17.947001 -2.312 -0.35100001 2
17.908001 -2.3429999 -0.35699999 3
17.879999 -2.3759999 -0.36199999 5
17.843 -2.4070001 -0.368 7
17.825001 -2.4400001 -0.373 9
17.822001 -2.4749999 -0.38 11
17.83 -2.5120001 -0.38699999 2
17.843 -2.549 -0.39300001 1
17.867001 -2.5869999 -0.40099999 7
17.837999 -2.618 -0.40700001 4
17.785 -2.645 -0.412 150
17.82 -2.6849999 -0.41999999 189
17.826 -2.721 -0.42699999 189
17.844 -2.7590001 -0.435 189
17.833 -2.7920001 -0.442 189
17.833 -2.826 -0.449 189
17.855 -2.8640001 -0.45699999 189
17.837 -2.8959999 -0.46399999 189
17.868 -2.9349999 -0.47299999 189
17.867001 -2.9690001 -0.48100001 189
17.872 -3.0050001 -0.48899999 189
17.858999 -3.0369999 -0.49599999 189
17.826 -3.0650001 -0.50300002 189
17.851999 -3.1029999 -0.51200002 163
17.813999 -3.131 -0.51899999 4
17.905001 -3.1800001 -0.52999997 1
17.846001 -3.2030001 -0.537 1
17.924999 -3.25 -0.54799998 1
17.924 -3.283 -0.55599999 1
17.934999 -3.319 -0.565 1
17.902 -3.346 -0.57300001 1
17.927999 -3.3829999 -0.58200002 1
17.941 -3.418 -0.59100002 1
17.976999 -3.4579999 -0.60100001 1
17.997999 -3.4949999 -0.611 1
18.000999 -3.5280001 -0.62099999 1
18.058001 -3.572 -0.63099998 1
18.084999 -3.6099999 -0.64200002 1
18.190001 -3.664 -0.65499997 2
18.066 -3.671 -0.66000003 1
0 0 0 42
20.622999 -4.263 -0.77499998 43
20.624001 -4.2989998 -0.78600001 67
20.632 -4.336 -0.79699999 65
20.653999 -4.3769999 -0.80900002 27
0 0 0 25
34.181 -7.362 -1.377 38
34.317001 -7.4499998 -1.401 45
34.303001 -7.506 -1.42 36
33.943001 -7.4840002 -1.423 8
33.853001 -7.5209999 -1.438 10
33.986 -7.6079998 -1.4630001 10
0 0 0 11
18.409 -4.1820002 -0.81300002 21
18.351 -4.1989999 -0.82099998 25
18.313 -4.2210002 -0.82999998 25
18.266001 -4.2399998 -0.838 22
18.216999 -4.257 -0.847 31
18.190001 -4.2800002 -0.85600001 34
18.17 -4.3049998 -0.866 37
18.152 -4.3299999 -0.87599999 38
18.131001 -4.3540001 -0.88499999 31
18.105 -4.3769999 -0.89499998 44
18.101999 -4.4039998 -0.90499997 31
18.075001 -4.4250002 -0.91399997 47
18.065001 -4.4510002 -0.92500001 49
18.07 -4.4790001 -0.93599999 34
18.052999 -4.5029998 -0.94599998 34
18.047001 -4.5289998 -0.95700002 53
18.034 -4.553 -0.96700001 52
17.954 -4.5599999 -0.97299999 35
0 0 0 5
16.473 -4.2329998 -0.91299999 7
16.407 -4.2399998 -0.92000002 8
16.305 -4.2379999 -0.92400002 9
16.212999 -4.237 -0.92900002 10
16.153 -4.2449999 -0.935 10
16.063999 -4.244 -0.94 9
15.995 -4.2490001 -0.94599998 12
15.897 -4.2449999 -0.94999999 11
15.779 -4.2360001 -0.95300001 9
15.691 -4.2340002 -0.958 8
15.557 -4.2189999 -0.95899999 7
15.448 -4.21 -0.96200001 10
15.412 -4.2220001 -0.97000003 14
14.59 -4.0159998 -0.92699999 8
14.28 -3.95 -0.917 4
13.662 -3.7969999 -0.88499999 2
13.454 -3.756 -0.88 2
13.92 -3.905 -0.92000002 2
13.638 -3.8429999 -0.91000003 2
13.373 -3.7850001 -0.90100002 3
13.17 -3.7449999 -0.89499998 3
12.976 -3.7060001 -0.89099997 3
12.772 -3.664 -0.884 3
12.622 -3.6359999 -0.88200003 3
12.469 -3.6070001 -0.87900001 3
12.302 -3.5739999 -0.875 3
12.127 -3.5369999 -0.87 3
11.971 -3.506 -0.86699998 3
11.768 -3.46 -0.86000001 2
11.6 -3.424 -0.85500002 2
11.453 -3.3940001 -0.85100001 2
11.302 -3.362 -0.847 2
11.14 -3.326 -0.84200001 2
10.997 -3.296 -0.838 2
10.852 -3.2639999 -0.83399999 3
10.715 -3.2349999 -0.82999998 3
10.575 -3.204 -0.82599998 3
10.453 -3.178 -0.82300001 3
10.296 -3.141 -0.81699997 2
10.178 -3.115 -0.81400001 4
10.089 -3.098 -0.81400001 3
9.974 -3.073 -0.81099999 3
9.8579998 -3.0469999 -0.80699998 3
9.7220001 -3.0150001 -0.80199999 3
9.6160002 -2.9909999 -0.80000001 3
9.4639997 -2.9530001 -0.79299998 4
9.3599997 -2.9300001 -0.79000002 4
9.2559996 -2.9059999 -0.787 3
9.1520004 -2.881 -0.78399998 3
9.0439997 -2.8559999 -0.77999997 3
8.9460001 -2.8329999 -0.77700001 4
8.8509998 -2.8099999 -0.77499998 4
8.7690001 -2.7920001 -0.773 3
8.6859999 -2.773 -0.77100003 4
8.592 -2.75 -0.76800001 5
8.5229998 -2.7349999 -0.76700002 4
8.4189997 -2.7090001 -0.76300001 5
8.3430004 -2.691 -0.76099998 3
8.2559996 -2.6700001 -0.75800002 4
8.1669998 -2.6470001 -0.75400001 6
8.0740004 -2.6229999 -0.75099999 8
7.9949999 -2.6029999 -0.74800003 9
7.9099998 -2.582 -0.745 10
7.8590002 -2.5710001 -0.745 8
7.7919998 -2.5539999 -0.74299997 12
7.7220001 -2.536 -0.741 15
7.6719999 -2.5250001 -0.741 12
7.6139998 -2.5109999 -0.74000001 14
7.5830002 -2.506 -0.741 10
7.5320001 -2.494 -0.74000001 11
7.4790001 -2.4809999 -0.73900002 14
7.4200001 -2.4660001 -0.73799998 13
7.3740001 -2.4549999 -0.73699999 9
7.3080001 -2.437 -0.73500001 9
7.244 -2.4200001 -0.73299998 7
7.178 -2.402 -0.73000002 6
7.1240001 -2.388 -0.72899997 5
7.0440001 -2.365 -0.72399998 5
6.9840002 -2.348 -0.722 5
6.9190001 -2.3299999 -0.71899998 5
6.8649998 -2.3150001 -0.71700001 5
6.8189998 -2.303 -0.71600002 5
6.7690001 -2.289 -0.71499997 5
6.7210002 -2.276 -0.713 6
6.6859999 -2.267 -0.713 5
6.6300001 -2.2509999 -0.71100003 6
6.5799999 -2.2360001 -0.70899999 5
6.546 -2.227 -0.70899999 6
6.4809999 -2.2079999 -0.70499998 5
6.4429998 -2.197 -0.704 5
6.3899999 -2.181 -0.70200002 5
6.3439999 -2.168 -0.69999999 5
6.3109999 -2.158 -0.69999999 5
6.2680001 -2.1459999 -0.69800001 5
6.2280002 -2.1340001 -0.69700003 5
6.184 -2.1199999 -0.69499999 5
6.1409998 -2.1070001 -0.69300002 5
6.118 -2.1010001 -0.69300002 5
6.0609999 -2.0829999 -0.69 5
6.0279999 -2.073 -0.68900001 5
5.9879999 -2.0599999 -0.68699998 4
5.9580002 -2.0510001 -0.68699998 4
5.9200001 -2.039 -0.685 4
5.895 -2.0309999 -0.685 4
5.8559999 -2.0190001 -0.68300003 4
5.8169999 -2.006 -0.68099999 4
5.796 -2 -0.68099999 4
5.7740002 -1.993 -0.68099999 4
5.7309999 -1.978 -0.67900002 4
5.698 -1.9680001 -0.67799997 4
5.671 -1.9579999 -0.67699999 3
5.6399999 -1.948 -0.676 3
5.619 -1.941 -0.67500001 4
5.5840001 -1.929 -0.67400002 4
5.5560002 -1.919 -0.67299998 3
5.5359998 -1.9119999 -0.67299998 3
5.5110002 -1.904 -0.67199999 3
5.4910002 -1.897 -0.67199999 3
5.461 -1.886 -0.67000002 3
5.4450002 -1.88 -0.67000002 3
5.4130001 -1.869 -0.66799998 3
5.381 -1.857 -0.667 3
5.368 -1.852 -0.667 4
5.3270001 -1.837 -0.66399997 3
5.316 -1.8329999 -0.66500002 4
5.2969999 -1.825 -0.66399997 3
5.2750001 -1.817 -0.66299999 4
5.2579999 -1.8099999 -0.66299999 3
5.224 -1.7970001 -0.66100001 3
5.2140002 -1.793 -0.66100001 4
5.1869998 -1.7819999 -0.66000003 3
5.1729999 -1.776 -0.66000003 3
5.1620002 -1.771 -0.66000003 3
5.1360002 -1.761 -0.65799999 3
5.118 -1.7539999 -0.65799999 3
5.092 -1.743 -0.65600002 3
5.0999999 -1.744 -0.65799999 3
5.0760002 -1.734 -0.65700001 3
5.0440001 -1.722 -0.65399998 3
5.0430002 -1.72 -0.65600002 3
5.0300002 -1.7130001 -0.65600002 3
4.9980001 -1.701 -0.653 3
4.9959998 -1.698 -0.65399998 3
4.9829998 -1.691 -0.653 3
4.9759998 -1.687 -0.65399998 3
4.954 -1.678 -0.65200001 3
4.934 -1.669 -0.65100002 3
4.9219999 -1.6619999 -0.65100002 3
4.9109998 -1.656 -0.64999998 3
4.8899999 -1.647 -0.64899999 3
4.8920002 -1.645 -0.64999998 3
4.8790002 -1.638 -0.64999998 3
4.8660002 -1.631 -0.64899999 3
4.8429999 -1.6210001 -0.64700001 6
4.8429999 -1.618 -0.648 3
4.8270001 -1.61 -0.64700001 3
4.8130002 -1.603 -0.64600003 3
4.8130002 -1.6 -0.64700001 3
4.8010001 -1.5930001 -0.64600003 3
4.7789998 -1.5829999 -0.64399999 3
4.7750001 -1.579 -0.64399999 3
4.7779999 -1.576 -0.64499998 3
4.7620001 -1.568 -0.64399999 3
4.7540002 -1.562 -0.64399999 3
4.7410002 -1.5549999 -0.64300001 3
4.737 -1.55 -0.64300001 3
4.724 -1.5420001 -0.64200002 3
4.7140002 -1.536 -0.64099997 3
4.7129998 -1.5319999 -0.64200002 3
4.7049999 -1.526 -0.64099997 3
4.6830001 -1.515 -0.639 3
4.678 -1.51 -0.63800001 4
4.6680002 -1.503 -0.63800001 4
4.671 -1.5 -0.63800001 4
4.6680002 -1.4960001 -0.639 4
4.6570001 -1.488 -0.63700002 4
4.6669998 -1.487 -0.639 3
4.651 -1.478 -0.63700002 3
4.6599998 -1.477 -0.639 3
4.652 -1.471 -0.63800001 3
4.638 -1.462 -0.63599998 5
4.6420002 -1.459 -0.63700002 3
4.645 -1.456 -0.63800001 3
4.6570001 -1.456 -0.639 4
4.645 -1.448 -0.63800001 3
4.6399999 -1.441 -0.63700002 3
4.6529999 -1.441 -0.639 3
4.638 -1.432 -0.63700002 3
4.6479998 -1.431 -0.639 3
4.6370001 -1.423 -0.63700002 3
4.6389999 -1.418 -0.63700002 3
4.6339998 -1.4119999 -0.63599998 3
4.6360002 -1.408 -0.63599998 3
4.651 -1.408 -0.63800001 3
4.6420002 -1.4 -0.63700002 2
4.6539998 -1.399 -0.63800001 3
4.6529999 -1.3940001 -0.63800001 3
4.6550002 -1.3890001 -0.63800001 3
4.6539998 -1.3839999 -0.63800001 3
4.6620002 -1.381 -0.63800001 3
4.6719999 -1.3789999 -0.639 3
4.6690001 -1.373 -0.63800001 3
4.6589999 -1.364 -0.63700002 3
4.6680002 -1.362 -0.63700002 3
4.6570001 -1.353 -0.63499999 5
4.6750002 -1.353 -0.63700002 3
4.6739998 -1.347 -0.63700002 3
4.6869998 -1.345 -0.63800001 3
4.6859999 -1.339 -0.63700002 3
4.6939998 -1.336 -0.63800001 3
4.7049999 -1.3329999 -0.63800001 3
4.7220001 -1.3329999 -0.63999999 3
4.7129998 -1.324 -0.63800001 3
4.7290001 -1.323 -0.639 3
4.7399998 -1.3200001 -0.63999999 3
4.7420001 -1.314 -0.639 3
4.7529998 -1.311 -0.63999999 3
4.7480001 -1.304 -0.63800001 3
4.7709999 -1.304 -0.63999999 3
4.776 -1.299 -0.63999999 3
4.777 -1.293 -0.639 3
4.7919998 -1.291 -0.63999999 3
4.7969999 -1.286 -0.639 3
4.802 -1.28 -0.639 3
4.8369999 -1.283 -0.64200002 3
4.8369999 -1.276 -0.64099997 3
4.8559999 -1.275 -0.64200002 3
4.8740001 -1.273 -0.64300001 3
4.8699999 -1.265 -0.64099997 3
4.895 -1.265 -0.64300001 3
4.901 -1.2589999 -0.64300001 4
4.915 -1.256 -0.64300001 2
4.9320002 -1.253 -0.64399999 3
4.9439998 -1.249 -0.64399999 3
4.9569998 -1.245 -0.64399999 3
4.9679999 -1.2410001 -0.64399999 5
4.9910002 -1.239 -0.64499998 3
5.006 -1.2359999 -0.64499998 5
5.0159998 -1.2309999 -0.64499998 3
5.0510001 -1.232 -0.64700001 3
5.0640001 -1.227 -0.64700001 3
5.0760002 -1.223 -0.64700001 3
5.105 -1.222 -0.648 3
5.1030002 -1.214 -0.64600003 4
5.1409998 -1.215 -0.64899999 3
5.164 -1.2130001 -0.64999998 3
5.184 -1.209 -0.64999998 3
5.2049999 -1.206 -0.64999998 3
5.2290001 -1.204 -0.65100002 3
5.2420001 -1.199 -0.64999998 3
5.2589998 -1.194 -0.64999998 3
5.303 -1.196 -0.653 3
5.3309999 -1.194 -0.65399998 3
5.3559999 -1.191 -0.65499997 3
5.388 -1.1900001 -0.65600002 3
5.4060001 -1.1849999 -0.65600002 3
5.4450002 -1.1849999 -0.65799999 4
5.4819999 -1.184 -0.66000003 3
5.4970002 -1.179 -0.65899998 3
5.533 -1.178 -0.66000003 4
5.5580001 -1.174 -0.66000003 4
5.5999999 -1.173 -0.662 3
5.6129999 -1.1670001 -0.66100001 3
5.6529999 -1.166 -0.66299999 3
5.6900001 -1.165 -0.66399997 3
5.7259998 -1.163 -0.66500002 4
5.757 -1.159 -0.66500002 3
5.8000002 -1.158 -0.667 3
5.842 -1.1569999 -0.66799998 3
5.8730001 -1.153 -0.66799998 4
5.9320002 -1.155 -0.671 4
5.9619999 -1.151 -0.671 4
6.0009999 -1.148 -0.67199999 4
6.0489998 -1.147 -0.67299998 4
6.0970001 -1.146 -0.67500001 4
6.1440001 -1.1440001 -0.676 4
6.1859999 -1.141 -0.67699999 4
6.217 -1.137 -0.676 4
6.289 -1.1390001 -0.68000001 5
6.3439999 -1.138 -0.68199998 4
6.3870001 -1.135 -0.68199998 4
6.4439998 -1.1339999 -0.68400002 4
6.5040002 -1.133 -0.68599999 4
6.5760002 -1.1339999 -0.68900001 4
6.6329999 -1.133 -0.69 4
6.7189999 -1.136 -0.69400001 4
6.7639999 -1.132 -0.69400001 4
6.8400002 -1.133 -0.69700003 4
6.9000001 -1.13 -0.69800001 4
6.9790001 -1.131 -0.70099998 4
7.0510001 -1.131 -0.70200002 4
7.1259999 -1.13 -0.70499998 3
7.2290001 -1.1339999 -0.70899999 4
7.2919998 -1.131 -0.70999998 4
7.368 -1.13 -0.71100003 3
7.4559999 -1.13 -0.71399999 3
7.5469999 -1.13 -0.71700001 4
7.6550002 -1.133 -0.72100002 4
7.7529998 -1.1339999 -0.72399998 4
7.882 -1.1390001 -0.73000002 5
8.007 -1.143 -0.73400003 3
8.1359997 -1.147 -0.74000001 5
8.2659998 -1.151 -0.74400002 5
8.4160004 -1.156 -0.75099999 5
8.5270004 -1.156 -0.75300002 8
8.6440001 -1.1569999 -0.75599998 9
8.7849998 -1.16 -0.76099998 11
8.9309998 -1.163 -0.76499999 10
9.0570002 -1.163 -0.76800001 8
9.1820002 -1.163 -0.77100003 11
9.3219995 -1.164 -0.77399999 11
9.4530001 -1.163 -0.77600002 8
9.5679998 -1.16 -0.77700001 14
9.717 -1.161 -0.77999997 10
9.8900003 -1.164 -0.78500003 9
10.074 -1.168 -0.79000002 8
10.168 -1.16 -0.787 7
10.319 -1.159 -0.78899997 6
10.482 -1.158 -0.792 6
10.659 -1.159 -0.79500002 5
10.881 -1.163 -0.801 3
11.095 -1.166 -0.80599999 3
11.354 -1.174 -0.81300002 2
11.663 -1.1849999 -0.824 2
11.908 -1.188 -0.829 2
12.197 -1.1950001 -0.83700001 2
12.485 -1.201 -0.84399998 3
12.752 -1.2029999 -0.84899998 3
13.05 -1.2079999 -0.85500002 3
13.338 -1.211 -0.86000001 3
13.69 -1.2180001 -0.86799997 3
14.058 -1.226 -0.87699997 3
14.524 -1.2410001 -0.89099997 2
14.914 -1.247 -0.898 2
15.267 -1.25 -0.90399998 2
15.735 -1.26 -0.91399997 3
16.343 -1.28 -0.93199998 4
16.785 -1.284 -0.93900001 2
17.488001 -1.307 -0.95899999 6
17.874001 -1.304 -0.95999998 3
18.629999 -1.326 -0.98000002 2
19.617001 -1.3609999 -1.01 1
19.854 -1.3430001 -1 1
0 0 0 0
0 0 0 0
0 0 0 0
0 0 0 3
0 0 0 3
0 0 0 0
0 0 0 0
0 0 0 6
30.422001 -1.575 -1.2130001 23
30.448 -1.523 -1.178 45
30.509001 -1.472 -1.1440001 15
0 0 0 74
41.984001 -1.881 -1.472 47
41.942001 -1.804 -1.419 56
42.005001 -1.735 -1.37 36
42.311001 -1.674 -1.3279999 56
42.216999 -1.597 -1.273 51
42.485001 -1.535 -1.228 37
43.013 -1.48 -1.1900001 40
43.445 -1.419 -1.147 46
43.561001 -1.349 -1.095 10
43.596001 -1.276 -1.041 10
43.639999 -1.202 -0.986 17
0 0 0 0
0 0 0 32
66.239998 -1.487 -1.242 35
69.459999 -1.442 -1.212 13
69.484001 -1.3279999 -1.125 27
71.683998 -1.249 -1.066 101
72.710999 -1.1440001 -0.986 39
