# .PCD v0.7 - Point Cloud Data file format
VERSION 0.7
FIELDS x y z intensity
SIZE 4 4 4 4
TYPE F F F F
COUNT 1 1 1 1
WIDTH 1858
HEIGHT 1
VIEWPOINT 0 0 0 1 0 0 0
POINTS 1858
DATA ascii
3.6140001 -0.78200001 -0.62800002 3
3.5320001 -0.76700002 -0.61799997 3
3.4920001 -0.76200002 -0.61500001 2
3.46 -0.75800002 -0.61299998 2
3.4360001 -0.75599998 -0.61299998 2
3.378 -0.74599999 -0.60699999 1
3.3469999 -0.74199998 -0.60500002 1
3.3629999 -0.74900001 -0.61199999 2
3.3840001 -0.75599998 -0.62 2
3.3239999 -0.74599999 -0.61299998 2
3.3239999 -0.74900001 -0.616 2
3.3180001 -0.75 -0.61900002 2
3.27 -0.74199998 -0.61400002 2
3.1989999 -0.72799999 -0.60399997 1
3.25 -0.74299997 -0.61799997 2
3.247 -0.74400002 -0.62099999 1
3.154 -0.72600001 -0.60600001 1
3.2379999 -0.74699998 -0.62599999 2
3.2279999 -0.74800003 -0.62800002 2
3.191 -0.74199998 -0.62400001 2
3.1110001 -0.72500002 -0.61199999 1
3.122 -0.73000002 -0.61799997 1
3.115 -0.73100001 -0.62 2
3.1500001 -0.741 -0.63 1
2.9879999 -0.70499998 -0.60100001 1
3.016 -0.71399999 -0.61000001 1
3.0409999 -0.722 -0.61799997 1
3.0039999 -0.71499997 -0.61400002 2
2.9260001 -0.69800001 -0.60100001 1
2.948 -0.70599997 -0.60900003 1
2.882 -0.69199997 -0.59799999 1
2.8870001 -0.69499999 -0.602 1
2.8870001 -0.69700003 -0.60500002 1
2.823 -0.68300003 -0.59399998 1
2.822 -0.68400002 -0.597 1
2.79 -0.67799997 -0.59299999 1
2.7479999 -0.66900003 -0.58700001 1
2.75 -0.671 -0.58999997 1
2.8440001 -0.69599998 -0.61299998 1
2.7690001 -0.67900002 -0.60000002 1
2.773 -0.68099999 -0.60299999 1
2.661 -0.65499997 -0.58099997 1
2.7190001 -0.671 -0.597 1
2.698 -0.667 -0.59500003 1
2.622 -0.64999998 -0.58099997 1
2.605 -0.64700001 -0.579 1
2.595 -0.64499998 -0.579 1
2.579 -0.64300001 -0.57800001 1
2.5699999 -0.64200002 -0.579 1
2.556 -0.639 -0.57800001 1
2.552 -0.639 -0.579 1
2.5320001 -0.63499999 -0.57700002 1
2.5190001 -0.63300002 -0.57599998 1
2.513 -0.63200003 -0.57700002 1
2.4990001 -0.63 -0.57599998 1
2.493 -0.62900001 -0.57700002 1
2.487 -0.62900001 -0.57700002 1
2.467 -0.62400001 -0.57499999 1
2.46 -0.62300003 -0.57499999 1
2.4530001 -0.62199998 -0.57599998 1
2.4449999 -0.62099999 -0.57599998 1
2.4289999 -0.61799997 -0.574 1
2.4200001 -0.616 -0.574 1
2.4070001 -0.61400002 -0.57300001 1
2.3970001 -0.61199999 -0.57200003 1
2.395 -0.61199999 -0.57300001 1
2.3829999 -0.60900003 -0.57200003 1
2.3729999 -0.60699999 -0.57200003 1
2.362 -0.60500002 -0.57099998 1
2.358 -0.60399997 -0.57200003 1
2.348 -0.602 -0.57099998 1
2.3429999 -0.602 -0.57099998 1
2.335 -0.60000002 -0.57099998 1
2.3199999 -0.59600002 -0.56900001 1
2.312 -0.59500003 -0.56900001 1
2.3069999 -0.59399998 -0.56900001 1
2.2980001 -0.59200001 -0.56900001 1
2.289 -0.58999997 -0.56800002 1
2.2880001 -0.58999997 -0.56900001 1
2.2780001 -0.58700001 -0.56800002 1
2.279 -0.588 -0.56999999 1
2.27 -0.58600003 -0.56900001 1
2.2550001 -0.58200002 -0.56699997 1
2.244 -0.579 -0.565 1
2.2449999 -0.57999998 -0.56699997 1
2.243 -0.579 -0.56800002 1
2.2320001 -0.57599998 -0.56599998 1
2.2309999 -0.57599998 -0.56699997 1
2.221 -0.574 -0.56599998 1
2.217 -0.57300001 -0.56599998 1
2.2119999 -0.57099998 -0.56599998 1
2.2060001 -0.56999999 -0.565 1
2.2030001 -0.56900001 -0.56599998 1
2.1919999 -0.56599998 -0.56400001 1
2.187 -0.565 -0.56400001 1
2.187 -0.56400001 -0.565 1
2.1830001 -0.56300002 -0.565 1
2.1789999 -0.56199998 -0.565 1
2.1700001 -0.55900002 -0.56400001 2
2.1689999 -0.55900002 -0.565 2
2.165 -0.55699998 -0.56400001 2
2.158 -0.55500001 -0.56300002 2
2.1559999 -0.55500001 -0.56400001 2
2.154 -0.55400002 -0.56400001 2
2.1459999 -0.551 -0.56300002 2
2.1489999 -0.55199999 -0.56400001 2
2.1440001 -0.55000001 -0.56400001 2
2.141 -0.54900002 -0.56400001 2
2.1359999 -0.54699999 -0.56400001 2
2.135 -0.546 -0.56400001 2
2.1340001 -0.54500002 -0.56400001 2
2.1289999 -0.54400003 -0.56400001 2
2.1259999 -0.542 -0.56400001 2
2.1259999 -0.542 -0.56400001 2
2.1199999 -0.54000002 -0.56300002 2
2.1159999 -0.53799999 -0.56300002 2
2.122 -0.53899997 -0.565 1
2.1140001 -0.53600001 -0.56300002 2
2.1070001 -0.53399998 -0.56199998 2
2.109 -0.53399998 -0.56300002 2
2.1010001 -0.53100002 -0.56099999 1
2.1029999 -0.53100002 -0.56199998 1
2.0999999 -0.52899998 -0.56199998 1
2.099 -0.528 -0.56199998 1
2.0969999 -0.52700001 -0.56199998 1
2.0969999 -0.52600002 -0.56199998 1
2.0910001 -0.52399999 -0.56099999 1
2.0940001 -0.52399999 -0.56199998 1
2.086 -0.52100003 -0.56 1
2.092 -0.52200001 -0.56199998 1
2.086 -0.51899999 -0.56099999 1
2.0829999 -0.51700002 -0.56 1
2.0829999 -0.51700002 -0.56 1
2.085 -0.51599997 -0.56099999 1
2.082 -0.514 -0.56 1
2.0840001 -0.514 -0.56099999 1
2.0810001 -0.51200002 -0.56 1
2.0840001 -0.51200002 -0.56099999 1
2.0840001 -0.51099998 -0.56099999 1
2.085 -0.50999999 -0.56099999 1
2.0769999 -0.50700003 -0.55900002 1
2.0840001 -0.50700003 -0.56099999 1
2.0829999 -0.50599998 -0.56099999 1
2.0810001 -0.50400001 -0.56 1
2.0880001 -0.505 -0.56199998 1
2.085 -0.50300002 -0.56099999 1
2.086 -0.50199997 -0.56099999 1
2.086 -0.50099999 -0.56099999 1
2.086 -0.49900001 -0.56099999 1
2.0829999 -0.49700001 -0.56 1
2.0840001 -0.49599999 -0.56 1
2.0840001 -0.495 -0.56 1
2.089 -0.495 -0.56099999 1
2.0929999 -0.49399999 -0.56099999 1
2.095 -0.493 -0.56199998 1
2.0969999 -0.49200001 -0.56199998 1
2.096 -0.491 -0.56099999 1
2.0940001 -0.48899999 -0.56 1
2.0969999 -0.48800001 -0.56099999 1
2.0999999 -0.48699999 -0.56099999 1
2.1029999 -0.48699999 -0.56099999 1
2.102 -0.48500001 -0.56099999 1
2.1070001 -0.484 -0.56099999 1
2.1129999 -0.484 -0.56199998 1
2.109 -0.48199999 -0.56099999 1
2.1129999 -0.48100001 -0.56099999 1
2.1229999 -0.48199999 -0.56300002 1
2.1210001 -0.47999999 -0.56199998 1
2.1199999 -0.47799999 -0.56099999 1
2.1259999 -0.477 -0.56199998 1
2.135 -0.47799999 -0.56400001 1
2.138 -0.477 -0.56400001 1
2.1389999 -0.47499999 -0.56300002 1
2.1400001 -0.47400001 -0.56300002 1
2.1470001 -0.47299999 -0.56300002 1
2.152 -0.47299999 -0.56400001 1
2.1530001 -0.47099999 -0.56300002 1
2.1600001 -0.47099999 -0.56400001 1
2.161 -0.46900001 -0.56400001 1
2.1589999 -0.46700001 -0.56199998 1
2.1700001 -0.46700001 -0.56400001 1
2.178 -0.46700001 -0.565 1
2.1830001 -0.46599999 -0.565 1
2.1800001 -0.46399999 -0.56300002 1
2.191 -0.46399999 -0.565 1
2.184 -0.461 -0.56199998 1
2.197 -0.461 -0.56400001 1
2.201 -0.46000001 -0.56400001 1
2.2030001 -0.45899999 -0.56300002 1
2.2049999 -0.45699999 -0.56300002 1
2.2149999 -0.45699999 -0.56400001 1
2.217 -0.45500001 -0.56300002 1
2.23 -0.456 -0.565 1
2.2360001 -0.45500001 -0.565 1
2.2420001 -0.454 -0.56599998 1
2.25 -0.45300001 -0.56599998 1
2.253 -0.45199999 -0.565 1
2.2620001 -0.45100001 -0.56599998 1
2.2679999 -0.44999999 -0.56599998 1
2.276 -0.449 -0.56699997 1
2.2869999 -0.449 -0.56800002 1
2.29 -0.44800001 -0.56699997 1
2.303 -0.44800001 -0.56900001 1
2.312 -0.447 -0.56900001 1
2.313 -0.44499999 -0.56800002 1
2.332 -0.44600001 -0.57099998 1
2.3280001 -0.44299999 -0.56800002 1
2.3380001 -0.442 -0.56900001 1
2.349 -0.442 -0.56999999 1
2.359 -0.44100001 -0.56999999 1
2.3599999 -0.43900001 -0.56900001 1
2.3740001 -0.43900001 -0.56999999 1
2.385 -0.43900001 -0.57099998 1
2.395 -0.43799999 -0.57099998 1
2.4119999 -0.43900001 -0.57300001 1
2.4170001 -0.43700001 -0.57200003 1
2.4319999 -0.43700001 -0.574 1
2.434 -0.435 -0.57200003 1
2.4489999 -0.435 -0.574 1
2.46 -0.43399999 -0.574 1
2.4679999 -0.43200001 -0.574 1
2.4820001 -0.43200001 -0.57499999 1
2.494 -0.43200001 -0.57499999 1
2.5139999 -0.43200001 -0.57700002 1
2.5239999 -0.43099999 -0.57700002 1
2.572 -0.43599999 -0.58600003 1
2.6259999 -0.442 -0.59500003 1
2.6270001 -0.44 -0.59299999 1
2.573 -0.428 -0.57800001 1
2.576 -0.42500001 -0.57700002 1
2.6159999 -0.42899999 -0.583 1
2.687 -0.43799999 -0.59600002 1
2.6760001 -0.433 -0.59100002 1
2.6960001 -0.433 -0.59299999 1
2.697 -0.43000001 -0.58999997 1
2.756 -0.43599999 -0.60000002 1
2.7839999 -0.43700001 -0.60299999 1
2.6789999 -0.417 -0.57700002 1
2.717 -0.41999999 -0.583 1
2.73 -0.419 -0.58200002 2
2.7509999 -0.419 -0.58399999 1
2.7720001 -0.419 -0.58499998 2
2.789 -0.41800001 -0.58600003 2
2.812 -0.41800001 -0.58700001 2
2.8239999 -0.417 -0.58700001 2
2.8410001 -0.41600001 -0.58700001 2
2.8570001 -0.41499999 -0.58700001 2
3.0190001 -0.435 -0.61699998 2
3.0250001 -0.43200001 -0.61400002 2
2.9809999 -0.42199999 -0.602 2
3.0050001 -0.42199999 -0.60299999 2
3.0409999 -0.42300001 -0.60699999 2
3.0710001 -0.42399999 -0.60900003 1
3.171 -0.43399999 -0.625 1
3.151 -0.42699999 -0.61699998 1
3.22 -0.433 -0.62599999 1
3.201 -0.426 -0.61900002 1
3.1760001 -0.419 -0.61000001 1
3.253 -0.42500001 -0.62 2
3.277 -0.42500001 -0.62099999 1
3.2750001 -0.41999999 -0.616 1
3.256 -0.414 -0.60799998 1
3.29 -0.414 -0.61000001 2
3.3340001 -0.41600001 -0.61400002 1
3.3629999 -0.41499999 -0.61500001 2
3.3789999 -0.41299999 -0.61299998 1
3.4419999 -0.417 -0.62 1
3.4749999 -0.417 -0.62099999 1
3.4230001 -0.40599999 -0.60799998 1
3.4690001 -0.40799999 -0.611 2
3.5109999 -0.40799999 -0.61299998 2
3.5339999 -0.40599999 -0.61199999 1
3.585 -0.40799999 -0.616 3
3.6470001 -0.41100001 -0.62199998 3
3.6530001 -0.40700001 -0.61799997 2
3.6930001 -0.40700001 -0.61900002 1
3.7690001 -0.41100001 -0.62599999 3
3.8 -0.40900001 -0.62599999 3
3.8340001 -0.40799999 -0.62599999 3
3.892 -0.41 -0.63 2
3.9560001 -0.412 -0.63499999 3
3.9449999 -0.40599999 -0.62699997 3
4.039 -0.41100001 -0.63599998 3
4.0539999 -0.40700001 -0.63200003 2
4.1360002 -0.41100001 -0.639 3
4.132 -0.405 -0.63200003 2
4.191 -0.40599999 -0.63499999 2
4.2680001 -0.40900001 -0.63999999 2
4.323 -0.40900001 -0.64200002 3
4.3990002 -0.41100001 -0.64600003 2
4.461 -0.41100001 -0.648 3
4.5300002 -0.412 -0.65100002 3
4.5939999 -0.412 -0.653 3
4.6690001 -0.414 -0.65700001 2
4.7309999 -0.41299999 -0.65799999 2
4.8010001 -0.414 -0.66000003 2
4.8839998 -0.41499999 -0.66399997 3
4.9840002 -0.41800001 -0.66900003 2
5.0500002 -0.417 -0.67000002 3
5.1100001 -0.41600001 -0.67000002 4
5.171 -0.41499999 -0.66900003 6
5.2919998 -0.419 -0.676 4
5.3839998 -0.41999999 -0.67900002 4
5.4879999 -0.421 -0.68300003 5
5.6110001 -0.42399999 -0.68900001 4
5.7249999 -0.426 -0.69400001 4
5.836 -0.428 -0.69800001 3
5.9590001 -0.43000001 -0.70200002 3
6.072 -0.43099999 -0.70599997 4
6.23 -0.435 -0.713 4
6.375 -0.43799999 -0.71899998 4
6.5170002 -0.44 -0.72399998 3
6.6830001 -0.44400001 -0.73100001 4
6.829 -0.44600001 -0.736 4
7.0190001 -0.44999999 -0.74400002 4
7.1890001 -0.45300001 -0.75 5
7.3309999 -0.454 -0.75199997 4
7.553 -0.45899999 -0.76200002 5
7.789 -0.465 -0.77200001 4
7.994 -0.46799999 -0.778 4
8.2270002 -0.47299999 -0.787 4
8.4549999 -0.47600001 -0.79299998 3
8.7489996 -0.48300001 -0.80500001 3
9.0120001 -0.48800001 -0.81400001 4
9.3109999 -0.49399999 -0.824 4
9.5769997 -0.498 -0.83099997 4
9.8590002 -0.50199997 -0.83700001 4
10.216 -0.509 -0.84899998 3
10.594 -0.51599997 -0.86199999 3
11 -0.52399999 -0.875 2
11.429 -0.53299999 -0.88800001 3
11.829 -0.53899997 -0.898 2
12.278 -0.546 -0.91000003 3
12.836 -0.55699998 -0.92699999 2
13.457 -0.56999999 -0.94800001 3
14.068 -0.58099997 -0.96399999 3
14.732 -0.59299999 -0.98299998 2
15.424 -0.60500002 -1 2
16.243999 -0.62099999 -1.023 2
0 0 0 2
17.334 -0.62699997 -1.028 1
0 0 0 0
0 0 0 0
0 0 0 0
0 0 0 1
0 0 0 0
0 0 0 2
31.503 -0.92000002 -1.4529999 1
0 0 0 31
43.027 -1.1720001 -1.8200001 50
43.136002 -1.1339999 -1.743 58
43.389999 -1.099 -1.671 39
43.759998 -1.067 -1.601 20
0 0 0 5
56.938999 -1.2819999 -1.868 5
0 0 0 5
43.437 -0.89700001 -1.258 11
43.334999 -0.85500002 -1.171 11
0 0 0 17
65.959999 -1.181 -1.528 45
65.969002 -1.1210001 -1.398 77
65.991997 -1.064 -1.273 39
0 0 0 0
0 0 0 60
69.163002 -0.93199998 -0.93099999 108
71.366997 -0.89899999 -0.82099998 17
71.399002 -0.838 -0.68400002 142
71.800003 -0.78100002 -0.54699999 62
72.403 -0.72600001 -0.40900001 71
72.319 -0.66399997 -0.266 82
72.303001 -0.60299999 -0.124 77
72.295998 -0.54100001 0.02 51
72.294998 -0.48100001 0.163 18
0 0 0 13
0 0 0 10
0 0 0 19
71.629997 -0.245 0.72799999 44
72.068001 -0.189 0.87599999 62
72.892998 -0.134 1.03 10
0 0 0 0
0 0 0 25
85.920998 0.039999999 1.725 19
85.572998 0.105 1.888 18
0 0 0 0
0 0 0 34
82.303001 0.28400001 2.306 35
0 0 0 0
0 0 0 12
0 0 0 0
0 0 0 23
85.028 0.59799999 3.2290001 26
88.375 0.68300003 3.5320001 24
0 0 0 21
83.196999 0.75700003 3.6559999 41
0 0 0 0
0 0 0 0
0 0 0 61
119.43 1.406 6.2059999 83
119.463 1.483 6.447 59
119.648 1.562 6.6929998 40
119.672 1.638 6.9369998 38
119.629 1.712 7.1700001 37
119.689 1.7869999 7.4159999 36
119.709 1.86 7.6529999 37
119.598 1.9299999 7.8850002 33
119.613 2.003 8.1269999 39
119.58 2.073 8.3640003 38
119.517 2.141 8.5979996 44
119.5 2.21 8.835 50
119.538 2.2780001 9.0749998 56
119.499 2.3440001 9.3100004 48
119.553 2.411 9.5530005 48
119.592 2.477 9.79 38
119.555 2.54 10.024 24
0 0 0 0
0 0 0 36
0 0 0 0
0 0 0 68
119.455 2.845 11.192 93
119.419 2.901 11.422 86
119.446 2.96 11.657 84
119.448 3.017 11.892 77
119.431 3.073 12.126 82
119.485 3.132 12.369 63
119.537 3.187 12.609 42
0 0 0 0
0 0 0 0
0 0 0 0
0 0 0 0
0 0 0 0
0 0 0 0
0 0 0 0
0 0 0 0
0 0 0 0
0 0 0 33
119.661 3.733 15.17 39
119.525 3.773 15.38 58
119.506 3.816 15.607 73
119.491 3.858 15.834 85
119.512 3.902 16.069 77
119.487 3.9400001 16.291 63
119.576 3.983 16.531 56
119.618 4.0240002 16.761 38
119.672 4.066 16.997999 38
119.643 4.0999999 17.218 33
119.686 4.1389999 17.447001 33
119.701 4.1750002 17.674 30
119.696 4.211 17.895 33
119.673 4.244 18.115999 33
119.714 4.2789998 18.346001 40
119.726 4.3130002 18.568001 36
119.72 4.3439999 18.790001 37
119.791 4.3779998 19.023001 34
119.69 4.4050002 19.225 42
119.56 4.4289999 19.424999 53
119.529 4.4559999 19.639 65
119.53 4.4840002 19.858999 74
119.542 4.5110002 20.079 68
119.554 4.5370002 20.299 69
119.586 4.5640001 20.521999 82
119.557 4.5879998 20.73 87
119.572 4.612 20.948 94
119.556 4.6339998 21.160999 93
119.569 4.6560001 21.377001 91
119.578 4.678 21.591999 92
119.58 4.7010002 21.808001 85
119.563 4.7199998 22.017 58
0 0 0 0
0 0 0 51
159.40401 6.3649998 30.195 92
159.304 6.382 30.455 96
159.233 6.4000001 30.718 54
156.832 6.323 30.527 48
156.69901 6.3400002 30.774 55
0 0 0 0
0 0 0 53
151.047 6.158 30.433001 67
150.94299 6.1690001 30.664 56
0 0 0 0
0 0 0 0
0 0 0 0
0 0 0 0
0 0 0 0
0 0 0 0
0 0 0 0
0 0 0 55
142.66701 5.9159999 31.104 64
142.562 5.9159999 31.312 63
140.006 5.8140001 30.976 56
139.912 5.8130002 31.179001 71
139.757 5.8109999 31.363001 52
0 0 0 0
0 0 0 31
134.16 5.5809999 30.747 41
134.18201 5.5830002 30.958 67
134.158 5.5799999 31.16 93
134.071 5.5739999 31.346001 89
134.041 5.5689998 31.544001 56
0 0 0 0
0 0 0 68
131.69 5.4580002 31.587999 69
131.601 5.4499998 31.76 34
128.692 5.3239999 31.254 30
128.741 5.3189998 31.455999 32
0 0 0 0
0 0 0 58
125.898 5.178 31.308001 89
125.879 5.1680002 31.483999 91
125.869 5.1589999 31.658001 83
125.768 5.1440001 31.809999 69
125.706 5.1300001 31.971001 51
0 0 0 0
0 0 0 0
0 0 0 39
119.863 4.842 31.139999 57
119.88 4.829 31.306 65
119.891 4.8150001 31.469999 70
119.868 4.7989998 31.624001 68
119.895 4.7870002 31.791 66
119.925 4.7709999 31.952 60
119.915 4.7540002 32.105 50
119.887 4.7350001 32.251999 55
119.931 4.7189999 32.417999 49
119.979 4.7049999 32.584 37
120.047 4.6880002 32.749001 29
0 0 0 0
0 0 0 0
0 0 0 0
0 0 0 0
0 0 0 0
0 0 0 0
0 0 0 0
0 0 0 0
0 0 0 0
0 0 0 0
0 0 0 0
0 0 0 0
0 0 0 0
0 0 0 0
0 0 0 0
0 0 0 24
120.295 4.3039999 35.168999 30
120.285 4.2779999 35.289001 28
120.227 4.2480001 35.396 38
120.091 4.2140002 35.479 46
120.144 4.1859999 35.616001 46
120.099 4.1539998 35.722 60
120.072 4.1230001 35.832001 65
120.099 4.0929999 35.956001 68
120.112 4.0619998 36.076 74
120.077 4.033 36.176998 76
120.097 4.0009999 36.294998 57
120.112 3.9690001 36.41 65
120.094 3.9360001 36.513 66
120.117 3.9070001 36.627998 81
120.098 3.872 36.728001 72
120.148 3.8429999 36.846001 82
120.157 3.809 36.952 83
120.149 3.7739999 37.049999 73
120.126 3.7379999 37.143002 80
120.136 3.7049999 37.242001 88
120.163 3.6700001 37.347 83
120.169 3.6340001 37.444 83
120.202 3.598 37.547001 88
120.18 3.5639999 37.630001 73
120.157 3.5250001 37.713001 70
120.131 3.487 37.792999 66
120.15 3.4489999 37.886002 48
120.065 3.408 37.944 46
120.18 3.3729999 38.063999 32
120.139 3.3329999 38.132999 28
0 0 0 0
0 0 0 0
0 0 0 0
0 0 0 0
0 0 0 0
0 0 0 0
0 0 0 0
0 0 0 0
0 0 0 0
0 0 0 0
0 0 0 0
0 0 0 0
0 0 0 0
0 0 0 0
0 0 0 0
0 0 0 0
0 0 0 0
0 0 0 0
0 0 0 0
0 0 0 0
0 0 0 0
0 0 0 0
0 0 0 0
0 0 0 0
0 0 0 0
0 0 0 0
0 0 0 0
0 0 0 0
0 0 0 0
0 0 0 0
0 0 0 0
0 0 0 0
0 0 0 0
0 0 0 0
0 0 0 0
0 0 0 0
0 0 0 0
0 0 0 0
0 0 0 0
0 0 0 0
0 0 0 0
0 0 0 0
0 0 0 0
0 0 0 0
0 0 0 0
0 0 0 0
0 0 0 0
0 0 0 0
0 0 0 0
0 0 0 0
0 0 0 0
0 0 0 0
0 0 0 0
0 0 0 0
0 0 0 0
0 0 0 0
0 0 0 0
0 0 0 0
0 0 0 0
0 0 0 0
0 0 0 0
0 0 0 0
0 0 0 0
0 0 0 0
0 0 0 0
0 0 0 0
0 0 0 0
0 0 0 0
0 0 0 0
0 0 0 0
0 0 0 0
0 0 0 0
0 0 0 0
0 0 0 0
0 0 0 0
0 0 0 0
0 0 0 0
0 0 0 0
0 0 0 0
0 0 0 0
0 0 0 0
0 0 0 0
0 0 0 0
0 0 0 0
0 0 0 0
0 0 0 0
0 0 0 0
0 0 0 0
0 0 0 0
0 0 0 0
0 0 0 0
0 0 0 0
0 0 0 0
0 0 0 0
0 0 0 0
0 0 0 0
0 0 0 0
0 0 0 31
120.56 -1.3200001 37.897999 38
120.632 -1.369 37.832001 54
120.598 -1.414 37.730999 54
120.631 -1.4630001 37.648998 70
120.622 -1.511 37.551998 69
120.624 -1.559 37.457001 73
120.658 -1.607 37.369999 73
120.627 -1.654 37.261002 80
120.634 -1.701 37.162998 78
120.639 -1.748 37.062 78
120.652 -1.7920001 36.960999 76
120.669 -1.839 36.861 79
120.677 -1.883 36.757999 82
120.677 -1.932 36.646999 75
120.714 -1.976 36.549999 72
120.668 -2.0209999 36.424999 72
120.682 -2.0669999 36.314999 63
120.671 -2.109 36.199001 55
120.665 -2.1570001 36.078999 56
120.708 -2.2 35.976002 66
120.655 -2.244 35.841 63
120.659 -2.2880001 35.721001 57
120.701 -2.3329999 35.611 59
120.691 -2.3740001 35.486 46
120.723 -2.421 35.368 38
120.789 -2.46 35.259998 35
120.707 -2.5009999 35.108002 33
120.927 -2.552 35.042999 27
121.081 -2.5940001 34.953999 28
121.058 -2.6359999 34.813999 31
120.963 -2.6760001 34.652 29
120.997 -2.7190001 34.526001 31
121.184 -2.7609999 34.443001 25
121.11 -2.8010001 34.283001 29
120.992 -2.839 34.109001 28
120.996 -2.8770001 33.971001 31
120.981 -2.9159999 33.823002 31
120.91 -2.954 33.658001 30
120.934 -2.9909999 33.521 28
120.852 -3.0280001 33.351002 27
121.008 -3.0710001 33.244999 27
121.031 -3.1099999 33.101002 30
0 0 0 0
0 0 0 28
120.891 -3.2160001 32.605999 28
120.737 -3.2490001 32.409 38
120.665 -3.283 32.233002 51
120.66 -3.316 32.076 62
120.644 -3.3510001 31.912001 59
120.628 -3.3859999 31.747 57
120.619 -3.4200001 31.583 65
120.64 -3.4549999 31.424999 62
120.586 -3.4849999 31.249001 61
120.601 -3.5190001 31.087 65
120.699 -3.5550001 30.945 60
120.718 -3.5880001 30.781 35
120.731 -3.618 30.617001 25
0 0 0 0
0 0 0 37
126.53 -3.8900001 31.546 75
126.653 -3.925 31.393 86
126.699 -3.9579999 31.219999 100
126.689 -3.9879999 31.032 80
126.798 -4.0190001 30.874001 59
126.841 -4.0500002 30.691 40
0 0 0 0
0 0 0 0
0 0 0 39
132.686 -4.3530002 31.305 55
132.745 -4.381 31.118 56
0 0 0 0
0 0 0 63
134.998 -4.5380001 31.017 80
135.026 -4.5630002 30.813999 74
135.04201 -4.5900002 30.604 55
0 0 0 0
0 0 0 0
0 0 0 34
140.802 -4.8870001 31.004999 57
0 0 0 0
0 0 0 19
51.243 -1.803 11.034 37
51.244999 -1.8099999 10.951 46
51.251999 -1.818 10.867 50
51.241001 -1.825 10.779 51
51.228001 -1.831 10.69 59
51.224998 -1.8380001 10.603 64
51.242001 -1.845 10.52 68
51.229 -1.851 10.43 60
51.223999 -1.857 10.342 63
51.223999 -1.862 10.255 65
51.209 -1.867 10.164 64
51.229 -1.873 10.079 62
51.220001 -1.878 9.9879999 45
51.210999 -1.882 9.8979998 43
51.216 -1.886 9.8100004 41
51.195999 -1.8890001 9.7159996 32
51.191002 -1.893 9.625 21
51.173 -1.896 9.533 12
51.033001 -1.8940001 9.4160004 7
50.971001 -1.8940001 9.3140001 7
50.825001 -1.892 9.1960001 7
50.862999 -1.896 9.1110001 8
50.904999 -1.899 9.0279999 8
50.703999 -1.893 8.8999996 7
50.727001 -1.896 8.8120003 9
50.706001 -1.895 8.7139997 8
50.599998 -1.892 8.6029997 10
50.589001 -1.893 8.5080004 12
50.584999 -1.893 8.4130001 14
50.499001 -1.89 8.3050003 15
50.483002 -1.8890001 8.2089996 16
50.465 -1.888 8.1129999 18
50.457001 -1.887 8.0170002 20
50.426998 -1.8839999 7.9169998 22
50.451 -1.8839999 7.8260002 21
50.439999 -1.881 7.73 22
50.431999 -1.8789999 7.6339998 20
50.425999 -1.877 7.5370002 20
50.416 -1.874 7.4390001 19
50.410999 -1.87 7.3429999 19
50.464001 -1.869 7.2540002 19
50.389 -1.862 7.1469998 17
50.450001 -1.86 7.059 14
50.466999 -1.857 6.9640002 12
50.491001 -1.853 6.8699999 14
50.521 -1.85 6.776 13
50.555 -1.846 6.6820002 11
50.568001 -1.841 6.585 9
50.709999 -1.84 6.5040002 9
50.761002 -1.836 6.4109998 8
50.835999 -1.832 6.322 9
50.856998 -1.825 6.2249999 9
50.98 -1.822 6.1399999 13
51.160999 -1.821 6.0609999 15
51.813999 -1.837 6.0339999 22
52.007999 -1.835 5.9549999 28
52.030998 -1.827 5.8540001 39
52.026001 -1.818 5.75 43
52.013 -1.808 5.6459999 44
52.021 -1.798 5.5430002 43
52.007 -1.788 5.4380002 45
52.027 -1.777 5.3340001 51
52.027 -1.767 5.23 46
52.013 -1.755 5.1240001 45
52.057999 -1.745 5.0229998 56
52.215 -1.738 4.9330001 46
52.477001 -1.735 4.8530002 40
52.792999 -1.732 4.7750001 34
53.105999 -1.729 4.6960001 47
53.319 -1.723 4.6069999 59
53.346001 -1.71 4.5009999 64
53.334 -1.6950001 4.3930001 61
53.337002 -1.6799999 4.2849998 63
53.324001 -1.665 4.1760001 62
53.334 -1.649 4.0679998 50
53.389999 -1.635 3.964 59
53.722 -1.6289999 3.8800001 47
54.155998 -1.626 3.8010001 42
54.544998 -1.6210001 3.7179999 62
54.672001 -1.6059999 3.6129999 55
54.640999 -1.587 3.4990001 59
54.644001 -1.569 3.3870001 61
54.661999 -1.551 3.276 55
54.719002 -1.533 3.168 62
55.117001 -1.524 3.0780001 43
55.647999 -1.5190001 2.993 52
55.962002 -1.507 2.898 70
55.981998 -1.4859999 2.7820001 81
55.967999 -1.464 2.6659999 74
55.997002 -1.443 2.552 49
56.490002 -1.433 2.4579999 16
0 0 0 0
0 0 0 0
0 0 0 14
54.209 -1.285 1.913 25
54.308998 -1.263 1.803 30
54.498001 -1.243 1.6950001 28
54.929001 -1.228 1.597 44
55.203999 -1.209 1.4910001 47
55.527 -1.191 1.385 37
55.826 -1.171 1.278 22
56.131001 -1.151 1.169 6
0 0 0 0
0 0 0 0
0 0 0 0
0 0 0 10
65.997002 -1.1900001 0.69599998 91
65.991997 -1.155 0.56 61
66.033997 -1.122 0.42699999 60
66.137001 -1.089 0.29100001 52
66.558998 -1.059 0.154 18
66.606003 -1.024 0.017999999 15
66.281998 -0.98299998 -0.118 20
66.335999 -0.94599998 -0.25400001 17
66.612 -0.91299999 -0.39199999 21
0 0 0 0
0 0 0 0
0 0 0 65
71.373001 -0.81300002 -1.002 119
71.441002 -0.77200001 -1.147 106
72.114998 -0.736 -1.3049999 54
72.415001 -0.69499999 -1.4579999 43
72.452003 -0.65200001 -1.602 34
74.634003 -0.62599999 -1.8 12
0 0 0 22
45.208 -0.322 -1.273 152
45.231998 -0.29300001 -1.365 150
45.183998 -0.264 -1.455 32
45.261002 -0.235 -1.549 19
45.228001 -0.205 -1.6390001 10
0 0 0 0
0 0 0 150
47.987 -0.121 -2.027 5
0 0 0 0
0 0 0 0
0 0 0 1
0 0 0 0
0 0 0 4
0 0 0 3
19.452999 0.046 -1.0930001 1
0 0 0 1
17.011999 0.064999998 -1.024 2
16.01 0.071999997 -0.99400002 2
15.172 0.079999998 -0.972 2
14.368 0.086000003 -0.94800001 2
13.679 0.092 -0.93000001 3
13.027 0.097999997 -0.91100001 3
12.508 0.103 -0.89899999 3
12.001 0.108 -0.88599998 3
11.532 0.113 -0.87300003 3
11.118 0.117 -0.86299998 3
10.607 0.12 -0.84399998 3
10.186 0.124 -0.82999998 6
9.8059998 0.127 -0.81800002 12
9.5059996 0.13 -0.81199998 20
9.2440004 0.134 -0.80699998 19
9.0380001 0.138 -0.80599999 18
8.7939997 0.142 -0.801 8
8.3830004 0.142 -0.77999997 4
8.0950003 0.14399999 -0.76800001 4
7.855 0.146 -0.75999999 4
7.618 0.148 -0.75199997 4
7.3649998 0.149 -0.74000001 3
7.1550002 0.15099999 -0.73299998 3
6.9439998 0.152 -0.72399998 3
6.7719998 0.154 -0.71899998 3
6.6020002 0.156 -0.713 3
6.4590001 0.15800001 -0.70899999 3
6.2880001 0.15899999 -0.70200002 3
6.1269999 0.161 -0.69599998 3
5.96 0.162 -0.68699998 3
5.8340001 0.163 -0.68400002 3
5.6999998 0.16500001 -0.67900002 3
5.5819998 0.16599999 -0.67500001 3
5.4549999 0.167 -0.66900003 3
5.3740001 0.17 -0.66900003 3
5.23 0.17 -0.66000003 3
5.1110001 0.17 -0.65499997 3
5.0190001 0.17200001 -0.65200001 3
4.9260001 0.17299999 -0.648 3
4.8429999 0.175 -0.64600003 4
4.7839999 0.177 -0.64700001 3
4.6900001 0.178 -0.64200002 3
4.619 0.17900001 -0.64099997 2
4.5279999 0.18000001 -0.63599998 3
4.4699998 0.182 -0.63599998 3
4.4099998 0.183 -0.63499999 4
4.3140001 0.184 -0.62800002 2
4.2449999 0.185 -0.62599999 2
4.204 0.18700001 -0.62699997 2
4.0970001 0.186 -0.61799997 2
4.0809999 0.189 -0.62199998 2
4.0359998 0.191 -0.62199998 2
3.96 0.191 -0.61699998 2
3.914 0.192 -0.61699998 3
3.892 0.19499999 -0.61900002 3
3.803 0.19400001 -0.61199999 2
3.7939999 0.197 -0.616 2
3.7119999 0.197 -0.60900003 2
3.665 0.198 -0.60799998 3
3.5910001 0.197 -0.60100001 3
3.625 0.20299999 -0.61299998 3
3.5220001 0.2 -0.60100001 1
3.503 0.20299999 -0.60299999 2
3.4519999 0.20299999 -0.60000002 2
3.4560001 0.207 -0.60600001 1
3.4330001 0.20900001 -0.60799998 2
3.4530001 0.213 -0.61699998 2
3.428 0.215 -0.61699998 2
3.395 0.21600001 -0.61699998 2
3.26 0.211 -0.597 1
3.234 0.213 -0.597 1
3.2809999 0.219 -0.611 2
3.2539999 0.22 -0.611 2
3.1949999 0.22 -0.60500002 2
3.0599999 0.213 -0.58399999 2
3.0280001 0.214 -0.58200002 2
3 0.215 -0.58099997 2
2.9760001 0.21600001 -0.58099997 2
2.9560001 0.21799999 -0.58200002 2
2.9200001 0.21799999 -0.579 2
2.8900001 0.219 -0.57700002 2
2.8659999 0.22 -0.57599998 2
2.846 0.221 -0.57599998 2
2.825 0.222 -0.57599998 2
2.7969999 0.223 -0.574 2
2.7780001 0.22400001 -0.574 2
2.753 0.22499999 -0.57300001 2
2.7309999 0.226 -0.57200003 2
2.7079999 0.226 -0.57099998 2
2.687 0.227 -0.56999999 2
2.6600001 0.228 -0.56800002 1
2.641 0.229 -0.56800002 1
2.6359999 0.23100001 -0.56999999 2
2.602 0.23100001 -0.56599998 2
2.592 0.23199999 -0.56800002 2
2.5699999 0.233 -0.56599998 1
2.5539999 0.234 -0.56599998 1
2.5450001 0.236 -0.56699997 1
2.52 0.236 -0.565 1
2.5009999 0.237 -0.56400001 1
2.4849999 0.23800001 -0.56300002 1
2.4779999 0.23899999 -0.565 1
2.454 0.23999999 -0.56300002 1
2.4400001 0.241 -0.56199998 1
2.427 0.242 -0.56199998 1
2.408 0.242 -0.56099999 1
2.3970001 0.244 -0.56099999 1
2.3770001 0.244 -0.55900002 1
2.3659999 0.245 -0.55900002 1
2.358 0.24699999 -0.56 1
2.3429999 0.24699999 -0.55900002 1
2.3280001 0.248 -0.55800003 1
2.313 0.249 -0.55800003 1
2.299 0.249 -0.55699998 1
2.2880001 0.25 -0.55699998 1
2.277 0.25099999 -0.55599999 1
2.2650001 0.252 -0.55599999 1
2.253 0.25299999 -0.55599999 1
2.243 0.25400001 -0.55500001 1
2.2290001 0.255 -0.55400002 1
2.214 0.255 -0.55299997 1
2.211 0.257 -0.55500001 1
2.1949999 0.257 -0.55299997 1
2.1789999 0.257 -0.551 1
2.1760001 0.259 -0.55199999 1
2.1630001 0.25999999 -0.551 1
2.1589999 0.26100001 -0.55199999 1
2.154 0.26300001 -0.55299997 1
2.141 0.26300001 -0.55199999 1
2.1300001 0.264 -0.551 1
2.118 0.264 -0.55000001 1
2.1129999 0.26499999 -0.551 1
2.1010001 0.266 -0.55000001 1
2.095 0.26699999 -0.55000001 1
2.0840001 0.26699999 -0.54900002 1
2.076 0.26800001 -0.54900002 1
2.076 0.27000001 -0.55000001 1
2.0639999 0.27000001 -0.54900002 1
2.0610001 0.27200001 -0.55000001 1
2.0550001 0.273 -0.55000001 1
2.0539999 0.27500001 -0.551 2
2.0339999 0.27399999 -0.54799998 1
2.0320001 0.27500001 -0.54900002 1
2.02 0.27599999 -0.54699999 1
2.0150001 0.27700001 -0.54699999 1
2.0039999 0.27700001 -0.546 1
1.998 0.278 -0.546 1
1.998 0.28 -0.54699999 1
1.994 0.28099999 -0.54799998 1
1.9809999 0.28099999 -0.546 1
1.973 0.28099999 -0.54500002 1
1.971 0.28299999 -0.546 1
1.966 0.28400001 -0.546 1
1.955 0.28400001 -0.54400003 1
1.9579999 0.28600001 -0.546 1
1.95 0.28600001 -0.54500002 1
1.944 0.287 -0.54500002 1
1.937 0.287 -0.54400003 1
1.938 0.289 -0.54500002 1
1.9299999 0.28999999 -0.54400003 1
1.925 0.28999999 -0.54400003 1
1.92 0.29100001 -0.54400003 1
1.908 0.29100001 -0.54100001 1
1.906 0.292 -0.542 1
1.901 0.29300001 -0.54100001 1
1.896 0.29300001 -0.54100001 1
1.8940001 0.294 -0.54100001 1
1.8940001 0.296 -0.542 1
1.886 0.296 -0.54100001 1
1.88 0.29699999 -0.54000002 1
1.88 0.29800001 -0.54100001 1
1.876 0.29899999 -0.54100001 1
1.876 0.30000001 -0.542 1
1.873 0.301 -0.54100001 1
1.867 0.301 -0.54100001 1
1.865 0.30199999 -0.54100001 1
1.86 0.303 -0.54000002 1
1.8559999 0.303 -0.54000002 1
1.853 0.30399999 -0.54000002 1
1.855 0.30599999 -0.54100001 1
1.852 0.30700001 -0.54000002 1
1.846 0.30700001 -0.53899997 1
1.845 0.308 -0.54000002 1
1.845 0.30899999 -0.54000002 1
1.84 0.31 -0.53899997 1
1.8430001 0.31099999 -0.54100001 1
1.84 0.31200001 -0.54000002 1
1.837 0.31299999 -0.54000002 1
1.831 0.31299999 -0.53899997 1
1.832 0.31400001 -0.53899997 1
1.832 0.315 -0.54000002 1
1.827 0.315 -0.53899997 1
1.827 0.317 -0.53899997 1
1.825 0.317 -0.53899997 1
1.823 0.31799999 -0.53899997 1
1.827 0.31999999 -0.54000002 1
1.819 0.31900001 -0.53799999 1
1.823 0.32100001 -0.53899997 1
1.822 0.322 -0.53899997 1
1.822 0.32300001 -0.53899997 1
1.816 0.32300001 -0.53799999 1
1.823 0.32499999 -0.54000002 1
1.819 0.32600001 -0.53899997 1
1.812 0.32499999 -0.537 1
1.821 0.32800001 -0.54000002 1
1.817 0.32800001 -0.53899997 1
1.814 0.32800001 -0.53799999 1
1.816 0.329 -0.53799999 1
1.821 0.331 -0.54000002 1
1.8200001 0.33199999 -0.54000002 1
1.818 0.333 -0.53899997 1
1.816 0.333 -0.53799999 1
1.816 0.33399999 -0.53799999 1
1.817 0.33500001 -0.53799999 1
1.816 0.33500001 -0.53799999 1
1.819 0.33700001 -0.53899997 1
1.819 0.338 -0.53899997 1
1.8200001 0.338 -0.53899997 1
1.817 0.33899999 -0.53799999 1
1.814 0.33899999 -0.53600001 1
1.826 0.34200001 -0.54000002 1
1.8200001 0.34099999 -0.53799999 1
1.822 0.34200001 -0.53799999 1
1.822 0.34299999 -0.53799999 1
1.825 0.34400001 -0.53799999 1
1.822 0.34400001 -0.537 1
1.827 0.34599999 -0.53799999 1
1.83 0.347 -0.53899997 1
1.834 0.34799999 -0.53899997 1
1.839 0.34999999 -0.54000002 1
1.836 0.34999999 -0.53899997 1
1.839 0.35100001 -0.53899997 1
1.8380001 0.35100001 -0.53799999 1
1.8430001 0.35299999 -0.53899997 1
1.844 0.35299999 -0.53899997 1
1.849 0.35499999 -0.54000002 1
1.852 0.35600001 -0.54000002 1
1.853 0.35600001 -0.54000002 1
1.852 0.35699999 -0.53899997 1
1.854 0.35699999 -0.53899997 1
1.85 0.35699999 -0.537 1
1.862 0.36000001 -0.53899997 1
1.8660001 0.361 -0.54000002 1
1.864 0.361 -0.53899997 1
1.869 0.36199999 -0.53899997 1
1.872 0.36300001 -0.53899997 1
1.875 0.36399999 -0.53899997 1
1.8789999 0.36500001 -0.53899997 1
1.8789999 0.36500001 -0.53899997 1
1.887 0.36700001 -0.54000002 1
1.888 0.368 -0.53899997 1
1.897 0.37 -0.54100001 1
1.901 0.37099999 -0.54100001 1
1.9069999 0.37200001 -0.542 1
1.91 0.373 -0.542 1
1.914 0.37400001 -0.542 1
1.918 0.375 -0.542 1
1.921 0.375 -0.54100001 1
1.924 0.37599999 -0.54100001 1
1.934 0.37799999 -0.54299998 1
1.936 0.37799999 -0.542 2
1.9400001 0.37900001 -0.542 1
1.936 0.37799999 -0.54000002 2
1.951 0.38100001 -0.54299998 1
1.954 0.382 -0.542 1
1.962 0.38299999 -0.54299998 1
1.9680001 0.38499999 -0.54299998 1
1.9680001 0.38499999 -0.542 2
1.976 0.38600001 -0.54299998 2
1.9859999 0.38800001 -0.54400003 1
1.9910001 0.389 -0.54400003 1
1.995 0.389 -0.54400003 2
2 0.38999999 -0.54400003 1
2.0079999 0.39199999 -0.54500002 1
2.0109999 0.39199999 -0.54400003 2
2.0190001 0.39300001 -0.54400003 2
2.03 0.39500001 -0.546 2
2.0369999 0.396 -0.546 1
2.046 0.398 -0.54699999 1
2.046 0.398 -0.54500002 1
2.0550001 0.39899999 -0.546 1
2.0650001 0.40099999 -0.54699999 1
2.0710001 0.40099999 -0.54699999 1
2.0739999 0.40200001 -0.546 1
2.082 0.403 -0.546 1
2.086 0.403 -0.54500002 1
2.096 0.40400001 -0.546 1
2.1059999 0.40599999 -0.54699999 1
2.1140001 0.40700001 -0.54699999 1
2.122 0.40799999 -0.54699999 1
2.132 0.41 -0.54799998 1
2.1400001 0.41 -0.54799998 1
2.152 0.412 -0.54900002 1
2.1619999 0.41299999 -0.54900002 1
2.1659999 0.414 -0.54799998 1
2.181 0.41600001 -0.55000001 1
2.1900001 0.417 -0.55000001 1
2.2 0.41800001 -0.551 1
2.2079999 0.419 -0.55000001 1
2.2160001 0.41999999 -0.55000001 1
2.234 0.42199999 -0.55199999 2
2.2409999 0.42300001 -0.55199999 2
2.2449999 0.42300001 -0.55000001 2
2.2539999 0.42399999 -0.55000001 2
2.267 0.42500001 -0.551 1
2.279 0.426 -0.55199999 2
2.293 0.428 -0.55299997 2
2.3050001 0.43000001 -0.55299997 1
2.3210001 0.43099999 -0.55400002 1
2.3269999 0.43200001 -0.55299997 1
2.3440001 0.43399999 -0.55500001 1
2.3599999 0.43599999 -0.55599999 1
2.3710001 0.43700001 -0.55599999 1
2.385 0.43799999 -0.55699998 1
2.402 0.44 -0.55800003 1
2.4100001 0.44 -0.55699998 1
2.4260001 0.442 -0.55800003 1
2.441 0.44299999 -0.55900002 1
2.4530001 0.44400001 -0.55800003 1
2.4690001 0.44600001 -0.55900002 1
2.4779999 0.44600001 -0.55800003 1
2.503 0.449 -0.56099999 1
2.5139999 0.44999999 -0.56 1
2.5280001 0.45100001 -0.56099999 1
2.5469999 0.45300001 -0.56199998 2
2.5639999 0.454 -0.56199998 2
2.5780001 0.45500001 -0.56199998 2
2.599 0.45699999 -0.56400001 2
2.6159999 0.45899999 -0.56400001 2
2.6370001 0.461 -0.56599998 2
2.6589999 0.463 -0.56699997 2
2.6800001 0.465 -0.56800002 2
2.7 0.46599999 -0.56900001 2
2.711 0.46700001 -0.56800002 2
2.7360001 0.46900001 -0.56999999 2
2.757 0.47099999 -0.57099998 2
2.7679999 0.47099999 -0.56900001 2
2.8 0.47400001 -0.57200003 2
2.8239999 0.47600001 -0.574 2
2.8399999 0.477 -0.57300001 2
2.8670001 0.479 -0.57499999 2
2.891 0.48100001 -0.57599998 2
2.9059999 0.48100001 -0.57499999 2
2.925 0.48199999 -0.57499999 2
2.9530001 0.48500001 -0.57700002 2
2.9809999 0.48699999 -0.57800001 2
3.0039999 0.48800001 -0.579 2
3.026 0.48899999 -0.579 2
3.053 0.491 -0.57999998 2
3.0810001 0.493 -0.58099997 2
3.1099999 0.495 -0.583 2
3.138 0.49700001 -0.58399999 2
3.2809999 0.51700002 -0.60600001 2
3.2650001 0.51200002 -0.59799999 2
3.2539999 0.50700003 -0.59200001 2
3.2609999 0.505 -0.58899999 1
3.335 0.514 -0.59799999 2
3.438 0.52700001 -0.611 2
3.3540001 0.51099998 -0.59200001 2
3.4330001 0.51999998 -0.60100001 2
3.404 0.51200002 -0.59100002 2
3.4820001 0.52100003 -0.60000002 2
3.49 0.51899999 -0.59600002 2
3.5090001 0.51800001 -0.59399998 1
3.5280001 0.51700002 -0.59299999 1
3.608 0.52600002 -0.60100001 1
3.622 0.52399999 -0.59799999 1
3.714 0.53399998 -0.60799998 3
3.756 0.53600001 -0.61000001 3
3.809 0.54000002 -0.61299998 3
3.888 0.54699999 -0.62 3
3.8429999 0.537 -0.60799998 2
3.9360001 0.546 -0.61699998 2
3.9170001 0.53899997 -0.60799998 2
3.993 0.54500002 -0.61400002 2
4.0630002 0.551 -0.61900002 2
4.1209998 0.55400002 -0.62199998 2
4.1810002 0.55800003 -0.625 4
4.2509999 0.56199998 -0.63 2
4.3189998 0.56699997 -0.63300002 2
4.3559999 0.56699997 -0.63300002 3
4.5110002 0.58200002 -0.64899999 3
4.4229999 0.56599998 -0.63 4
4.4619999 0.56599998 -0.62900001 4
4.533 0.56999999 -0.63200003 3
4.5949998 0.57200003 -0.634 3
4.645 0.57300001 -0.63499999 3
4.7249999 0.57700002 -0.639 4
4.8010001 0.58099997 -0.64200002 4
4.8660002 0.583 -0.64300001 4
4.9349999 0.58499998 -0.64499998 3
5.0110002 0.588 -0.648 3
5.0970001 0.59200001 -0.65200001 3
5.177 0.59500003 -0.65399998 4
5.2750001 0.60000002 -0.65899998 3
5.3709998 0.60399997 -0.66299999 4
5.46 0.60799998 -0.66600001 4
5.5549998 0.611 -0.67000002 5
5.665 0.616 -0.67500001 5
5.7449999 0.61799997 -0.676 4
5.8520002 0.62199998 -0.68000001 5
5.9520001 0.625 -0.68300003 4
6.085 0.63099998 -0.68900001 4
6.2179999 0.63700002 -0.69499999 3
6.3330002 0.63999999 -0.699 3
6.4689999 0.64499998 -0.704 3
6.6230001 0.65200001 -0.71100003 4
6.7620001 0.65700001 -0.71600002 4
6.9070001 0.66100001 -0.722 5
7.0630002 0.667 -0.72799999 5
7.296 0.67900002 -0.741 6
7.4840002 0.68599999 -0.75 10
7.6149998 0.68800002 -0.75199997 8
7.7729998 0.69199997 -0.75599998 6
7.9689999 0.69800001 -0.764 5
8.1730003 0.70499998 -0.77100003 5
8.3520002 0.70899999 -0.77600002 6
8.566 0.71399999 -0.78399998 5
8.7650003 0.71899998 -0.79000002 5
8.9890003 0.72500002 -0.79699999 4
9.2040005 0.72899997 -0.80199999 5
9.4180002 0.73199999 -0.80800003 5
9.6490002 0.736 -0.81400001 4
9.9420004 0.74400002 -0.824 4
10.222 0.75 -0.833 3
10.497 0.755 -0.83999997 3
10.82 0.76200002 -0.85000002 3
11.155 0.76899999 -0.861 2
11.535 0.778 -0.87300003 3
11.843 0.78100002 -0.88 3
12.143 0.78299999 -0.88499999 3
12.532 0.78899997 -0.89499998 3
13.04 0.801 -0.91299999 3
13.447 0.80599999 -0.92299998 3
13.94 0.81400001 -0.93699998 4
14.309 0.81300002 -0.94199997 4
14.951 0.82700002 -0.963 2
15.637 0.84100002 -0.986 3
15.678 0.81900001 -0.96700001 3
15.972 0.80900002 -0.96200001 3
0 0 0 2
17.634001 0.838 -1.0140001 3
18.268999 0.83899999 -1.025 1
0 0 0 1
0 0 0 0
0 0 0 0
0 0 0 1
0 0 0 0
0 0 0 0
0 0 0 1
0 0 0 0
0 0 0 3
38.963001 1.1619999 -1.656 5
39.011002 1.097 -1.605 7
38.754002 1.026 -1.5420001 7
38.217999 0.94800001 -1.47 10
38.094002 0.88200003 -1.415 20
38.105999 0.81900001 -1.365 26
38.129002 0.755 -1.3150001 23
38.188 0.69199997 -1.267 21
38.292999 0.62900001 -1.22 24
38.422001 0.565 -1.174 114
0 0 0 150
0 0 0 0
0 0 0 25
0 0 0 25
0 0 0 25
0 0 0 31
116.258 0.31 -2.5009999 31
0 0 0 61
132.841 -0.103 -2.5250001 100
0 0 0 0
0 0 0 0
0 0 0 0
0 0 0 46
0 0 0 28
71.396004 -0.80800003 -0.824 121
0 0 0 17
66.198997 -0.98400003 -0.602 70
66.010002 -1.097 -0.52200001 75
66.001999 -1.214 -0.442 86
66.022003 -1.3329999 -0.36300001 128
65.999001 -1.45 -0.28400001 134
0 0 0 17
58.181 -1.4859999 -0.114 59
57.974998 -1.585 -0.045000002 100
57.976002 -1.689 0.021 121
57.974998 -1.794 0.089000002 136
57.931 -1.896 0.155 107
56.938 -1.967 0.21699999 104
57.924 -2.1059999 0.287 29
0 0 0 22
50.146999 -2.0039999 0.36199999 29
49.880001 -2.085 0.41600001 86
49.872002 -2.175 0.47099999 96
0 0 0 17
46.835999 -2.214 0.546 4
46.314999 -2.2739999 0.59100002 7
46.060001 -2.346 0.63800001 74
46.035 -2.428 0.68599999 24
44.638 -2.4360001 0.71399999 9
44.462002 -2.507 0.75800002 28
43.000999 -2.5039999 0.77899998 4
42.334 -2.5439999 0.81099999 5
41.817001 -2.5899999 0.84500003 73
41.811001 -2.6670001 0.889 102
41.810001 -2.7449999 0.93199998 105
39.699001 -2.6789999 0.926 11
39.351002 -2.7279999 0.958 47
39.063 -2.7809999 0.99000001 8
38.362 -2.802 1.011 6
37.762001 -2.829 1.033 23
37.756001 -2.8970001 1.0700001 94
37.772999 -2.9690001 1.108 89
37.771999 -3.04 1.145 88
35.987999 -2.9630001 1.126 6
35.516998 -2.99 1.145 8
35.092999 -3.0179999 1.164 8
34.672001 -3.046 1.183 8
34.220001 -3.0699999 1.2 8
33.901001 -3.1040001 1.22 61
33.873001 -3.165 1.251 111
33.886002 -3.2279999 1.2819999 103
33.882999 -3.2909999 1.312 119
33.872002 -3.3529999 1.3430001 108
33.886002 -3.418 1.374 78
33.884998 -3.4809999 1.404 78
33.898998 -3.546 1.4349999 119
33.896 -3.609 1.464 102
33.897999 -3.671 1.494 103
33.912998 -3.7360001 1.524 96
33.917 -3.8 1.553 105
33.914001 -3.8629999 1.581 101
33.925999 -3.928 1.61 98
33.939999 -3.993 1.6390001 97
33.951 -4.0560002 1.668 92
33.943001 -4.119 1.6950001 88
33.967999 -4.1849999 1.724 88
33.959999 -4.2470002 1.751 82
33.980999 -4.3140001 1.779 83
33.981998 -4.3769999 1.806 88
34.012001 -4.4419999 1.8329999 55
34.139 -4.5219998 1.867 16
34.193001 -4.5939999 1.897 14
34.179001 -4.6529999 1.921 14
0 0 0 8
26.280001 -3.6760001 1.517 22
26.181999 -3.71 1.53 30
26.132999 -3.7520001 1.546 38
26.079 -3.7920001 1.562 44
26.051001 -3.836 1.579 38
26.018 -3.8789999 1.595 51
25.999001 -3.9230001 1.612 58
25.975 -3.967 1.628 57
25.931 -4.007 1.643 60
25.931999 -4.0539999 1.66 63
25.923 -4.0999999 1.677 61
25.957001 -4.1529999 1.696 52
25.969 -4.2020001 1.714 44
25.966 -4.2490001 1.73 49
25.986 -4.2979999 1.748 38
26.013 -4.3499999 1.766 40
26.041 -4.401 1.784 34
26.084999 -4.4559999 1.803 27
26.146 -4.513 1.824 20
26.297001 -4.585 1.849 7
0 0 0 56
34.125999 -6.073 2.4400001 55
34.133999 -6.1350002 2.46 54
34.125999 -6.1939998 2.4790001 56
34.143002 -6.2579999 2.5 56
34.150002 -6.3200002 2.5190001 53
34.146999 -6.3779998 2.5369999 51
34.154999 -6.4400001 2.556 51
34.152 -6.4990001 2.573 50
34.168999 -6.5609999 2.5929999 51
34.160999 -6.619 2.609 53
34.168999 -6.6810002 2.628 53
34.174 -6.7399998 2.645 52
34.176998 -6.8000002 2.6619999 54
34.173 -6.8579998 2.6789999 54
34.191002 -6.9200001 2.6960001 50
34.185001 -6.9770002 2.711 49
34.191002 -7.0349998 2.727 50
34.187 -7.0929999 2.7420001 49
34.210999 -7.1560001 2.76 50
34.214001 -7.2129998 2.7750001 51
34.223 -7.2729998 2.79 50
34.229 -7.3319998 2.8050001 53
34.240002 -7.3909998 2.8199999 50
34.250999 -7.4510002 2.835 51
34.263 -7.5100002 2.8499999 49
34.271999 -7.5679998 2.8640001 50
34.285 -7.6269999 2.8789999 49
0 0 0 1
18.299 -4.1300001 1.55 16
18.218 -4.1420002 1.55 23
18.142 -4.1529999 1.55 27
18.093 -4.1719999 1.552 32
18.069 -4.1950002 1.556 33
18.045 -4.2179999 1.5599999 41
18.013 -4.2389998 1.563 38
17.99 -4.2620001 1.567 42
17.966999 -4.2839999 1.571 44
17.941999 -4.3070002 1.574 49
17.934999 -4.3330002 1.579 33
17.921 -4.3569999 1.5829999 37
17.899 -4.3790002 1.586 52
17.886 -4.4039998 1.59 59
17.877001 -4.4289999 1.594 39
17.867001 -4.454 1.598 41
17.867001 -4.48 1.603 41
17.844999 -4.5019999 1.605 67
17.872 -4.5349998 1.612 44
17.851999 -4.5570002 1.614 56
17.856001 -4.5840001 1.619 38
17.857 -4.6100001 1.623 56
17.851999 -4.6350002 1.626 43
17.857 -4.6620002 1.63 50
17.851999 -4.6869998 1.6339999 44
17.872999 -4.7179999 1.6390001 44
17.865 -4.7410002 1.642 41
17.877001 -4.7690001 1.646 45
17.896 -4.7989998 1.651 40
17.900999 -4.8260002 1.654 39
17.927999 -4.8579998 1.66 27
17.931999 -4.8839998 1.663 31
17.93 -4.908 1.665 29
17.997 -4.9510002 1.674 21
18.031 -4.9850001 1.679 21
18.086 -5.0240002 1.687 17
18.129 -5.0599999 1.693 4
0 0 0 3
0 0 0 0
0 0 0 0
0 0 0 0
0 0 0 0
0 0 0 0
0 0 0 0
0 0 0 0
0 0 0 0
0 0 0 0
0 0 0 0
0 0 0 0
0 0 0 0
0 0 0 0
0 0 0 0
0 0 0 0
0 0 0 0
0 0 0 0
0 0 0 0
0 0 0 10
34.456001 -10.492 3.2550001 17
34.466999 -10.533 3.256 12
0 0 0 0
0 0 0 0
0 0 0 0
0 0 0 0
0 0 0 0
0 0 0 0
0 0 0 2
0 0 0 0
0 0 0 0
0 0 0 0
0 0 0 0
0 0 0 0
0 0 0 0
0 0 0 0
0 0 0 0
0 0 0 0
0 0 0 0
0 0 0 0
0 0 0 0
0 0 0 0
0 0 0 0
0 0 0 3
0 0 0 0
0 0 0 0
0 0 0 0
0 0 0 0
0 0 0 0
0 0 0 0
0 0 0 0
0 0 0 0
0 0 0 0
0 0 0 4
34.591 -11.58 3.138 9
34.536999 -11.585 3.1259999 14
34.519001 -11.602 3.1170001 20
34.509998 -11.621 3.1099999 15
34.578999 -11.666 3.108 9
34.521999 -11.667 3.095 5
34.428001 -11.656 3.0780001 2
0 0 0 0
0 0 0 0
0 0 0 0
0 0 0 0
0 0 0 0
0 0 0 0
0 0 0 0
0 0 0 0
0 0 0 0
0 0 0 0
0 0 0 2
32.949001 -11.357 2.842 5
33.339001 -11.505 2.8670001 13
33.348 -11.522 2.858 18
33.285 -11.513 2.842 19
33.132 -11.473 2.819 15
32.845001 -11.385 2.7839999 14
32.627998 -11.322 2.756 14
32.566002 -11.311 2.74 15
32.512001 -11.303 2.7249999 14
32.465 -11.297 2.71 16
32.456001 -11.303 2.698 17
32.423 -11.301 2.6849999 16
32.382999 -11.295 2.671 15
32.397999 -11.309 2.661 19
32.370998 -11.306 2.648 17
32.355 -11.308 2.635 17
32.32 -11.303 2.6199999 18
32.330002 -11.312 2.609 17
32.300999 -11.308 2.596 17
32.301998 -11.314 2.5840001 17
32.282001 -11.312 2.569 16
32.266998 -11.311 2.5569999 16
32.249001 -11.308 2.543 17
32.257 -11.314 2.5309999 18
32.231998 -11.309 2.516 17
32.234001 -11.312 2.5039999 16
32.229 -11.312 2.49 16
32.229 -11.314 2.4779999 17
32.219002 -11.311 2.464 16
32.226002 -11.314 2.451 15
32.221001 -11.313 2.438 17
32.214001 -11.31 2.424 17
32.203999 -11.305 2.4100001 17
32.233002 -11.315 2.3989999 16
32.207001 -11.304 2.3840001 17
32.23 -11.31 2.372 17
32.243999 -11.312 2.358 16
32.241001 -11.308 2.3440001 17
32.255001 -11.309 2.332 17
32.264 -11.308 2.3169999 17
32.269001 -11.305 2.3039999 17
32.300999 -11.312 2.2920001 18
32.294998 -11.304 2.277 17
32.306999 -11.302 2.263 18
32.330002 -11.304 2.25 17
32.362 -11.308 2.237 18
32.354 -11.298 2.2219999 16
32.396 -11.305 2.2090001 16
32.398998 -11.298 2.194 19
32.414001 -11.294 2.181 19
32.43 -11.291 2.1659999 17
32.471001 -11.296 2.1530001 17
32.472 -11.285 2.138 16
32.500999 -11.285 2.1240001 17
32.514999 -11.279 2.109 17
32.571999 -11.287 2.0969999 17
32.608002 -11.288 2.0840001 16
32.625999 -11.281 2.069 16
32.667999 -11.283 2.0550001 16
32.723 -11.288 2.0420001 17
32.798 -11.3 2.03 19
32.877998 -11.313 2.02 20
32.942001 -11.32 2.0079999 20
33.049999 -11.341 1.998 20
33.179001 -11.37 1.988 19
33.34 -11.408 1.9809999 18
33.553001 -11.464 1.976 15
33.778 -11.524 1.972 17
33.956001 -11.566 1.966 26
34.091999 -11.593 1.956 28
34.199001 -11.61 1.9450001 44
34.261002 -11.611 1.931 50
34.298 -11.603 1.915 53
34.344002 -11.598 1.9 58
34.348 -11.578 1.882 69
34.379002 -11.567 1.865 73
34.370998 -11.542 1.847 73
34.374001 -11.52 1.829 81
34.370998 -11.496 1.811 81
34.361 -11.468 1.7920001 84
34.368 -11.447 1.774 79
34.362 -11.42 1.755 81
34.368 -11.397 1.738 83
34.355 -11.368 1.7180001 82
34.366001 -11.345 1.7 80
34.361 -11.317 1.681 85
34.355999 -11.289 1.663 64
34.358002 -11.262 1.645 78
34.346001 -11.23 1.625 80
34.342999 -11.201 1.607 76
34.334 -11.169 1.5880001 71
34.356998 -11.147 1.5700001 19
34.433998 -11.143 1.5549999 26
34.498001 -11.133 1.539 59
34.546001 -11.118 1.523 59
34.57 -11.094 1.505 55
34.582001 -11.067 1.487 49
34.647999 -11.055 1.471 10
34.672001 -11.03 1.452 3
34.634998 -10.985 1.432 2
34.620998 -10.948 1.4119999 2
34.550999 -10.891 1.39 2
0 0 0 0
0 0 0 2
34.554001 -10.788 1.3329999 2
0 0 0 0
0 0 0 0
0 0 0 2
34.657001 -10.674 1.261 2
34.709 -10.652 1.244 3
34.584999 -10.576 1.22 19
34.609001 -10.545 1.202 32
34.597 -10.503 1.183 27
34.650002 -10.48 1.166 12
0 0 0 0
0 0 0 0
0 0 0 0
0 0 0 4
38.268002 -11.35 1.183 4
38.273998 -11.306 1.1619999 4
38.243 -11.251 1.141 4
38.250999 -11.206 1.1210001 4
38.210999 -11.147 1.099 3
0 0 0 0
0 0 0 0
0 0 0 0
0 0 0 0
0 0 0 0
0 0 0 0
0 0 0 4
0 0 0 0
0 0 0 0
0 0 0 2
18.069 -5.0110002 0.41299999 12
17.997 -4.9660001 0.40200001 19
17.965 -4.9320002 0.391 26
17.899 -4.8889999 0.38100001 27
17.9 -4.8639998 0.37099999 24
17.881001 -4.8330002 0.36199999 35
17.863001 -4.803 0.352 26
17.841 -4.7709999 0.34200001 39
17.820999 -4.7399998 0.333 44
17.823 -4.7150002 0.324 47
17.816 -4.6869998 0.315 49
17.816 -4.6599998 0.30599999 38
17.802 -4.6300001 0.296 53
17.799999 -4.6020002 0.28799999 45
17.802999 -4.5760002 0.27900001 36
17.806 -4.5500002 0.27000001 37
17.799 -4.5209999 0.26100001 40
17.811001 -4.4970002 0.25299999 38
17.808001 -4.4689999 0.244 42
17.808001 -4.441 0.235 69
17.827999 -4.4180002 0.227 43
17.823 -4.3889999 0.21799999 60
17.841 -4.3649998 0.20999999 57
17.858 -4.3400002 0.20100001 50
17.877001 -4.3150001 0.193 33
17.889 -4.29 0.185 48
17.912001 -4.2670002 0.177 49
17.937 -4.243 0.169 40
17.959 -4.2189999 0.16 30
17.985001 -4.1960001 0.153 39
18.007999 -4.171 0.145 35
18.044001 -4.1490002 0.13699999 31
18.098 -4.132 0.12899999 20
18.166 -4.1170001 0.122 17
18.226 -4.099 0.114 17
18.351 -4.0960002 0.107 1
0 0 0 115
34.118999 -7.4980001 0.17 117
34.118999 -7.4390001 0.155 93
34.098999 -7.375 0.141 118
34.105 -7.3169999 0.127 88
34.09 -7.2550001 0.113 116
34.096001 -7.1960001 0.098999999 124
34.111 -7.138 0.083999999 56
34.103001 -7.0749998 0.071000002 46
34.323002 -7.0599999 0.057999998 35
34.418999 -7.0180001 0.045000002 16
0 0 0 6
63.990002 -12.816 0.034000002 7
0 0 0 0
0 0 0 0
0 0 0 0
0 0 0 0
0 0 0 0
0 0 0 1
18.948999 -3.552 -0.037999999 1
18.329 -3.402 -0.043000001 1
18.18 -3.3410001 -0.048999999 1
18.150999 -3.3010001 -0.055 1
18.223 -3.28 -0.061000001 1
18.202 -3.2420001 -0.067000002 1
18.007 -3.1730001 -0.071999997 1
0 0 0 0
0 0 0 0
0 0 0 0
0 0 0 0
0 0 0 0
0 0 0 0
0 0 0 0
0 0 0 0
0 0 0 0
0 0 0 1
17.634001 -2.7320001 -0.127 1
17.615999 -2.6949999 -0.132 1
17.66 -2.6670001 -0.13699999 1
17.636 -2.6289999 -0.141 2
17.625999 -2.5929999 -0.145 3
17.632 -2.559 -0.15000001 7
17.601 -2.5190001 -0.153 22
17.624001 -2.487 -0.15700001 4
17.681999 -2.46 -0.162 2
17.681 -2.424 -0.16599999 3
17.728001 -2.395 -0.17 2
17.726999 -2.359 -0.17399999 2
17.781 -2.3299999 -0.178 2
17.784 -2.2950001 -0.18099999 2
17.823999 -2.2639999 -0.185 3
17.830999 -2.2279999 -0.18799999 3
17.865999 -2.1960001 -0.192 3
17.896999 -2.164 -0.19499999 4
17.881001 -2.1259999 -0.198 2
18.004999 -2.1040001 -0.20200001 5
18.037001 -2.0710001 -0.205 150
18.059 -2.0369999 -0.208 10
0 0 0 25
0 0 0 25
0 0 0 25
0 0 0 25
0 0 0 25
0 0 0 25
0 0 0 1
0 0 0 0
0 0 0 0
0 0 0 0
0 0 0 0
0 0 0 0
0 0 0 0
0 0 0 0
0 0 0 0
0 0 0 0
0 0 0 24
37.201 -2.8 -0.48500001 68
37.191002 -2.72 -0.486 18
36.958 -2.625 -0.48300001 19
36.873001 -2.5420001 -0.48300001 27
36.730999 -2.4530001 -0.48100001 34
36.611 -2.368 -0.479 63
36.569 -2.29 -0.47799999 68
36.535 -2.2090001 -0.477 57
36.605999 -2.1359999 -0.477 2
0 0 0 40
41.699001 -2.256 -0.54100001 41
42.308998 -2.1989999 -0.54699999 40
43.050999 -2.1470001 -0.55400002 27
43.379002 -2.0710001 -0.55599999 17
42.75 -1.951 -0.54500002 17
43.106998 -1.876 -0.54699999 39
43.192001 -1.788 -0.54400003 24
43.370998 -1.702 -0.54299998 20
43.833 -1.625 -0.54400003 10
