# .PCD v0.7 - Point Cloud Data file format
VERSION 0.7
FIELDS x y z intensity
SIZE 4 4 4 4
TYPE F F F F
COUNT 1 1 1 1
WIDTH 1744
HEIGHT 1
VIEWPOINT 0 0 0 1 0 0 0
POINTS 1744
DATA ascii
116.56 6.9429998 6.6479998 41
0 0 0 0
0 0 0 0
0 0 0 19
89.637001 4.7729998 4.6479998 12
89.75 4.6360002 4.5359998 33
91.537003 4.5830002 4.5040002 13
91.374001 4.4289999 4.3720002 21
0 0 0 0
0 0 0 25
87.402 3.823 3.8280001 32
87.856003 3.704 3.7279999 26
88.216003 3.5810001 3.622 25
88.412003 3.45 3.5079999 17
0 0 0 0
0 0 0 0
0 0 0 45
89.773003 2.9400001 3.059 20
0 0 0 0
0 0 0 0
0 0 0 14
89.625 2.381 2.546 12
89.792 2.247 2.4219999 21
90.050003 2.115 2.299 23
0 0 0 0
0 0 0 0
0 0 0 0
0 0 0 0
0 0 0 0
0 0 0 0
0 0 0 0
0 0 0 0
0 0 0 0
0 0 0 0
0 0 0 25
0 0 0 25
0 0 0 0
0 0 0 0
0 0 0 0
0 0 0 58
133.048 -0.27700001 0.016000001 80
133.071 -0.47499999 -0.192 105
133.114 -0.67000002 -0.39899999 88
133.267 -0.86299998 -0.60399997 42
0 0 0 0
0 0 0 0
0 0 0 32
0 0 0 0
0 0 0 48
71.581001 -1.0829999 -1.001 81
69.362999 -1.149 -1.08 85
0 0 0 0
0 0 0 34
66.169998 -1.376 -1.347 27
0 0 0 5
0 0 0 6
43.505001 -1.086 -1.095 3
0 0 0 0
0 0 0 5
43.334 -1.262 -1.302 47
43.280998 -1.319 -1.37 75
43.02 -1.37 -1.433 69
42.550999 -1.413 -1.487 42
42.251999 -1.46 -1.546 46
41.963001 -1.507 -1.605 27
0 0 0 1
30.004999 -1.158 -1.247 3
0 0 0 0
0 0 0 0
0 0 0 0
0 0 0 1
0 0 0 0
0 0 0 1
0 0 0 3
0 0 0 2
16.385 -0.82499999 -0.92699999 3
15.912 -0.82099998 -0.92699999 3
15.136 -0.80000001 -0.90700001 2
14.469 -0.78299999 -0.89200002 2
13.901 -0.76999998 -0.88 2
13.25 -0.75 -0.861 2
12.705 -0.73500001 -0.847 2
12.219 -0.722 -0.83600003 3
11.819 -0.713 -0.829 2
11.424 -0.70300001 -0.81999999 2
10.978 -0.68900001 -0.80699998 2
10.621 -0.67900002 -0.79900002 2
10.298 -0.671 -0.792 2
9.9650002 -0.66100001 -0.78299999 2
9.651 -0.65200001 -0.77499998 2
9.3649998 -0.64399999 -0.76899999 2
9.0649996 -0.634 -0.75999999 3
8.8079996 -0.62599999 -0.75300002 3
8.5319996 -0.616 -0.74400002 3
8.3170004 -0.61000001 -0.74000001 4
8.0939999 -0.60299999 -0.73400003 3
7.8319998 -0.59200001 -0.72299999 3
7.5780001 -0.58200002 -0.713 4
7.4239998 -0.57800001 -0.71100003 4
7.237 -0.57200003 -0.70599997 3
7.0430002 -0.56400001 -0.699 3
6.875 -0.55800003 -0.69400001 3
6.6960001 -0.551 -0.68699998 3
6.5419998 -0.54500002 -0.68300003 3
6.3909998 -0.54000002 -0.67799997 3
6.2249999 -0.53200001 -0.671 3
6.0939999 -0.528 -0.66799998 3
5.9749999 -0.52399999 -0.66500002 4
5.8509998 -0.51899999 -0.66100001 4
5.7340002 -0.51499999 -0.65799999 5
5.5900002 -0.50700003 -0.65100002 4
5.4749999 -0.50300002 -0.64700001 4
5.388 -0.5 -0.64600003 3
5.2880001 -0.49599999 -0.64300001 4
5.2129998 -0.49399999 -0.64300001 3
5.099 -0.48899999 -0.63800001 3
5.0159998 -0.486 -0.63599998 3
4.9289999 -0.48199999 -0.63300002 3
4.849 -0.479 -0.63200003 3
4.7600002 -0.47499999 -0.62800002 3
4.6820002 -0.472 -0.62599999 2
4.6020002 -0.46799999 -0.62300003 3
4.5380001 -0.46599999 -0.62199998 2
4.4510002 -0.461 -0.61799997 3
4.3930001 -0.45899999 -0.61699998 2
4.2870002 -0.45199999 -0.61000001 2
4.2210002 -0.449 -0.60799998 1
4.1729999 -0.447 -0.60799998 2
4.1370001 -0.447 -0.61000001 3
4.073 -0.44400001 -0.60699999 3
4.0240002 -0.442 -0.60600001 3
3.9400001 -0.43599999 -0.60100001 3
3.892 -0.43399999 -0.60000002 2
3.924 -0.44100001 -0.611 3
3.7839999 -0.42899999 -0.59600002 1
3.777 -0.43099999 -0.60100001 3
3.714 -0.42699999 -0.59799999 3
3.6559999 -0.42399999 -0.59399998 1
3.595 -0.419 -0.58999997 2
3.572 -0.41999999 -0.59299999 1
3.5369999 -0.41800001 -0.59299999 2
3.4860001 -0.41499999 -0.58999997 2
3.461 -0.41499999 -0.59200001 1
3.4389999 -0.41499999 -0.59399998 2
3.3610001 -0.40799999 -0.58600003 2
3.392 -0.414 -0.597 2
3.313 -0.40700001 -0.588 1
3.3180001 -0.41 -0.59500003 2
3.2839999 -0.40900001 -0.59399998 1
3.1600001 -0.39500001 -0.57700002 1
3.2390001 -0.40799999 -0.597 1
3.1500001 -0.39899999 -0.58499998 1
3.0869999 -0.39300001 -0.579 1
3.1819999 -0.40700001 -0.602 2
3.046 -0.39199999 -0.58099997 1
3.0580001 -0.396 -0.588 1
3.0539999 -0.39700001 -0.59200001 1
3.0380001 -0.39700001 -0.59399998 1
2.9649999 -0.38999999 -0.58499998 1
2.9300001 -0.38699999 -0.58200002 1
2.8380001 -0.37599999 -0.56800002 1
2.8529999 -0.38 -0.57599998 1
2.7939999 -0.37400001 -0.56800002 1
2.8180001 -0.37900001 -0.57800001 1
2.7079999 -0.366 -0.55900002 1
2.717 -0.36899999 -0.565 1
2.72 -0.37099999 -0.56999999 1
2.6960001 -0.36899999 -0.56999999 1
2.6719999 -0.36700001 -0.56900001 1
2.6659999 -0.368 -0.57200003 1
2.6889999 -0.373 -0.58099997 1
2.5829999 -0.359 -0.56199998 1
2.5710001 -0.359 -0.56300002 1
2.533 -0.35499999 -0.55900002 1
2.4990001 -0.352 -0.55500001 1
2.477 -0.34999999 -0.55400002 1
2.4719999 -0.35100001 -0.55599999 1
2.448 -0.34900001 -0.55500001 1
2.4330001 -0.34799999 -0.55500001 1
2.414 -0.34599999 -0.55400002 1
2.398 -0.345 -0.55400002 1
2.3759999 -0.34299999 -0.55199999 1
2.359 -0.34200001 -0.55199999 1
2.345 -0.34099999 -0.55199999 1
2.3329999 -0.34 -0.55199999 1
2.3169999 -0.33899999 -0.55199999 1
2.2950001 -0.336 -0.55000001 1
2.279 -0.33500001 -0.54900002 1
2.2639999 -0.33399999 -0.54900002 1
2.2509999 -0.333 -0.54900002 1
2.2360001 -0.33199999 -0.54900002 1
2.2190001 -0.33000001 -0.54699999 1
2.2130001 -0.33000001 -0.54900002 1
2.191 -0.32699999 -0.546 1
2.187 -0.32800001 -0.54900002 1
2.174 -0.32600001 -0.54799998 1
2.154 -0.324 -0.546 1
2.1400001 -0.32300001 -0.546 1
2.131 -0.322 -0.546 1
2.1240001 -0.322 -0.54699999 1
2.1029999 -0.31900001 -0.54400003 1
2.0929999 -0.31799999 -0.54500002 1
2.0799999 -0.317 -0.54400003 1
2.0669999 -0.31600001 -0.54299998 1
2.0550001 -0.31400001 -0.54299998 1
2.046 -0.31400001 -0.54299998 1
2.0369999 -0.31299999 -0.54299998 1
2.03 -0.31200001 -0.54400003 1
2.0120001 -0.31 -0.54100001 1
2.0109999 -0.31099999 -0.54400003 2
1.9960001 -0.30899999 -0.542 3
1.985 -0.30700001 -0.54100001 4
1.982 -0.308 -0.54299998 5
1.971 -0.30599999 -0.542 5
1.9630001 -0.30500001 -0.54299998 6
1.9579999 -0.30500001 -0.54299998 5
1.943 -0.303 -0.542 5
1.9349999 -0.30199999 -0.542 5
1.927 -0.301 -0.542 6
1.918 -0.30000001 -0.54100001 6
1.9119999 -0.30000001 -0.542 6
1.899 -0.29800001 -0.54000002 6
1.892 -0.29699999 -0.54000002 6
1.8839999 -0.296 -0.54000002 6
1.875 -0.29499999 -0.53899997 6
1.87 -0.294 -0.54000002 6
1.863 -0.29300001 -0.54000002 6
1.852 -0.292 -0.53899997 6
1.842 -0.29100001 -0.53799999 6
1.835 -0.28999999 -0.53799999 6
1.8279999 -0.289 -0.537 6
1.822 -0.28799999 -0.537 6
1.8200001 -0.28799999 -0.53899997 5
1.814 -0.287 -0.53899997 5
1.803 -0.285 -0.537 4
1.7970001 -0.285 -0.537 4
1.795 -0.28400001 -0.53799999 4
1.785 -0.28299999 -0.537 4
1.783 -0.28299999 -0.53799999 4
1.776 -0.28200001 -0.53799999 3
1.771 -0.28099999 -0.53799999 2
1.76 -0.27900001 -0.53600001 2
1.758 -0.27900001 -0.537 2
1.755 -0.278 -0.537 2
1.7460001 -0.27700001 -0.53600001 2
1.7410001 -0.27599999 -0.53600001 1
1.738 -0.27500001 -0.537 1
1.73 -0.27399999 -0.53600001 1
1.721 -0.273 -0.53399998 1
1.709 -0.271 -0.53200001 1
1.711 -0.271 -0.53399998 1
1.707 -0.27000001 -0.53399998 1
1.7 -0.26899999 -0.53299999 1
1.688 -0.26699999 -0.53100002 1
1.686 -0.266 -0.53100002 1
1.693 -0.26699999 -0.53500003 1
1.678 -0.26499999 -0.53100002 1
1.682 -0.26499999 -0.53399998 1
1.676 -0.264 -0.53299999 1
1.6720001 -0.26300001 -0.53299999 1
1.67 -0.26300001 -0.53299999 1
1.664 -0.26199999 -0.53200001 1
1.6619999 -0.26100001 -0.53299999 1
1.661 -0.26100001 -0.53399998 1
1.6569999 -0.25999999 -0.53299999 1
1.642 -0.257 -0.52899998 1
1.64 -0.257 -0.52999997 1
1.642 -0.257 -0.53100002 1
1.637 -0.25600001 -0.52999997 1
1.636 -0.255 -0.53100002 1
1.636 -0.255 -0.53200001 1
1.6289999 -0.25400001 -0.53100002 1
1.628 -0.25299999 -0.53100002 1
1.628 -0.25299999 -0.53200001 1
1.618 -0.25099999 -0.52999997 1
1.619 -0.25099999 -0.53100002 1
1.615 -0.25 -0.52999997 1
1.612 -0.249 -0.52999997 1
1.609 -0.248 -0.52999997 1
1.6109999 -0.248 -0.53100002 1
1.604 -0.24600001 -0.52899998 1
1.599 -0.245 -0.528 1
1.61 -0.24600001 -0.53200001 1
1.59 -0.243 -0.52600002 1
1.591 -0.243 -0.52700001 1
1.5930001 -0.242 -0.528 1
1.6 -0.243 -0.53100002 1
1.598 -0.242 -0.53100002 1
1.595 -0.241 -0.53100002 1
1.587 -0.23999999 -0.528 1
1.587 -0.23899999 -0.52899998 1
1.586 -0.23800001 -0.52899998 1
1.581 -0.237 -0.52700001 1
1.581 -0.237 -0.528 1
1.582 -0.236 -0.528 1
1.575 -0.235 -0.52700001 1
1.581 -0.235 -0.52899998 1
1.58 -0.234 -0.52899998 1
1.5779999 -0.233 -0.528 1
1.568 -0.23100001 -0.52499998 1
1.58 -0.233 -0.52899998 1
1.577 -0.23199999 -0.52899998 1
1.569 -0.23 -0.52600002 1
1.571 -0.229 -0.52700001 1
1.572 -0.229 -0.52700001 1
1.572 -0.228 -0.52700001 1
1.574 -0.228 -0.528 1
1.569 -0.227 -0.52700001 1
1.574 -0.227 -0.528 1
1.572 -0.226 -0.528 1
1.574 -0.22499999 -0.528 1
1.572 -0.22400001 -0.528 1
1.569 -0.223 -0.52700001 1
1.5779999 -0.22400001 -0.52899998 1
1.5700001 -0.222 -0.52700001 1
1.5700001 -0.221 -0.52600002 1
1.573 -0.221 -0.52700001 1
1.58 -0.221 -0.52999997 1
1.579 -0.22 -0.52899998 1
1.582 -0.22 -0.52999997 1
1.579 -0.219 -0.52899998 1
1.577 -0.21799999 -0.528 1
1.579 -0.21699999 -0.528 1
1.584 -0.21699999 -0.52999997 1
1.579 -0.215 -0.52700001 1
1.579 -0.215 -0.52700001 1
1.584 -0.215 -0.528 1
1.5930001 -0.215 -0.53100002 1
1.584 -0.213 -0.528 1
1.589 -0.213 -0.52899998 1
1.59 -0.212 -0.52899998 1
1.59 -0.211 -0.528 1
1.592 -0.211 -0.528 1
1.601 -0.211 -0.53100002 1
1.591 -0.20900001 -0.52700001 1
1.605 -0.20999999 -0.53100002 1
1.605 -0.20900001 -0.53100002 1
1.612 -0.20900001 -0.53200001 1
1.6 -0.206 -0.528 1
1.613 -0.207 -0.53100002 1
1.614 -0.206 -0.53100002 1
1.613 -0.205 -0.52999997 1
1.6160001 -0.205 -0.52999997 1
1.618 -0.204 -0.52999997 1
1.617 -0.20299999 -0.52899998 1
1.619 -0.20200001 -0.52899998 1
1.626 -0.20200001 -0.52999997 1
1.626 -0.20100001 -0.52999997 1
1.636 -0.20100001 -0.53200001 1
1.625 -0.199 -0.52700001 1
1.631 -0.199 -0.528 1
1.637 -0.199 -0.52899998 1
1.643 -0.198 -0.52999997 1
1.637 -0.19599999 -0.52700001 1
1.649 -0.197 -0.52999997 1
1.65 -0.19599999 -0.52999997 1
1.655 -0.19499999 -0.52999997 1
1.664 -0.19499999 -0.53200001 1
1.668 -0.19499999 -0.53200001 1
1.681 -0.19499999 -0.53500003 1
1.682 -0.19400001 -0.53399998 1
1.688 -0.19400001 -0.53500003 1
1.688 -0.193 -0.53399998 1
1.692 -0.192 -0.53399998 1
1.693 -0.191 -0.53299999 1
1.693 -0.19 -0.53100002 1
1.705 -0.19 -0.53399998 1
1.7029999 -0.189 -0.53200001 1
1.71 -0.189 -0.53299999 1
1.72 -0.189 -0.53500003 1
1.724 -0.18799999 -0.53399998 1
1.727 -0.18700001 -0.53399998 1
1.733 -0.186 -0.53399998 1
1.74 -0.186 -0.53500003 1
1.742 -0.185 -0.53399998 1
1.75 -0.185 -0.53500003 1
1.752 -0.184 -0.53399998 1
1.763 -0.184 -0.53500003 1
1.767 -0.183 -0.53500003 1
1.779 -0.183 -0.537 1
1.7869999 -0.182 -0.53799999 1
1.79 -0.18099999 -0.537 1
1.802 -0.18099999 -0.53899997 1
1.803 -0.18000001 -0.537 1
1.8099999 -0.18000001 -0.537 1
1.819 -0.17900001 -0.53799999 1
1.819 -0.178 -0.53600001 1
1.832 -0.178 -0.53799999 1
1.837 -0.177 -0.53799999 1
1.85 -0.177 -0.54000002 1
1.857 -0.177 -0.54000002 1
1.862 -0.176 -0.53899997 1
1.864 -0.175 -0.53799999 1
1.875 -0.17399999 -0.53899997 1
1.886 -0.17399999 -0.54000002 1
1.895 -0.17299999 -0.54000002 1
1.905 -0.17299999 -0.54100001 1
1.908 -0.17200001 -0.54000002 1
1.914 -0.171 -0.53899997 1
1.927 -0.171 -0.54000002 1
1.944 -0.171 -0.54299998 1
1.9529999 -0.17 -0.54299998 1
1.964 -0.17 -0.54400003 1
1.976 -0.169 -0.54500002 1
1.979 -0.168 -0.54299998 1
1.985 -0.167 -0.542 1
1.994 -0.167 -0.542 1
2.01 -0.167 -0.54400003 1
2.0209999 -0.16599999 -0.54400003 1
2.029 -0.16500001 -0.54400003 1
2.0369999 -0.164 -0.54299998 1
2.049 -0.164 -0.54400003 1
2.066 -0.164 -0.546 1
2.0739999 -0.163 -0.54500002 1
2.0880001 -0.162 -0.546 1
2.0929999 -0.161 -0.54400003 1
2.1129999 -0.161 -0.546 1
2.1210001 -0.161 -0.546 1
2.141 -0.16 -0.54699999 1
2.1489999 -0.16 -0.54699999 1
2.1630001 -0.15899999 -0.54699999 1
2.1800001 -0.15899999 -0.54799998 1
2.1989999 -0.15899999 -0.55000001 1
2.2079999 -0.15800001 -0.54900002 1
2.223 -0.15700001 -0.54900002 1
2.2409999 -0.15700001 -0.551 1
2.2509999 -0.156 -0.55000001 1
2.266 -0.155 -0.55000001 1
2.2839999 -0.155 -0.551 1
2.2980001 -0.154 -0.551 1
2.3180001 -0.154 -0.55199999 1
2.336 -0.154 -0.55299997 1
2.3529999 -0.153 -0.55299997 1
2.3629999 -0.152 -0.55199999 1
2.3859999 -0.152 -0.55400002 1
2.401 -0.15099999 -0.55299997 1
2.4189999 -0.15099999 -0.55400002 1
2.447 -0.15099999 -0.55599999 1
2.457 -0.15000001 -0.55500001 1
2.474 -0.149 -0.55400002 1
2.4979999 -0.149 -0.55599999 1
2.527 -0.149 -0.55800003 1
2.5420001 -0.148 -0.55699998 1
2.5610001 -0.147 -0.55699998 1
2.5899999 -0.147 -0.55900002 1
2.612 -0.147 -0.56 1
2.632 -0.146 -0.55900002 1
2.6619999 -0.146 -0.56099999 2
2.6819999 -0.145 -0.56099999 2
2.704 -0.145 -0.56099999 2
2.727 -0.14399999 -0.56199998 2
2.7620001 -0.14399999 -0.56400001 2
2.79 -0.14399999 -0.565 2
2.813 -0.14300001 -0.565 2
2.8369999 -0.14300001 -0.565 2
2.8710001 -0.14300001 -0.56599998 2
2.9000001 -0.142 -0.56699997 2
2.928 -0.142 -0.56699997 2
2.9790001 -0.142 -0.57200003 2
3.007 -0.142 -0.57200003 2
3.0439999 -0.142 -0.57300001 2
0 0 0 2
3.21 -0.146 -0.59299999 2
3.2390001 -0.145 -0.59299999 1
3.237 -0.14300001 -0.58600003 2
3.303 -0.14399999 -0.59200001 2
3.3610001 -0.14399999 -0.597 2
3.4690001 -0.147 -0.61000001 2
3.3970001 -0.142 -0.59100002 2
3.461 -0.142 -0.59500003 2
3.4920001 -0.142 -0.59399998 2
3.441 -0.138 -0.579 1
3.536 -0.139 -0.58899999 2
3.5969999 -0.14 -0.59200001 3
3.671 -0.141 -0.597 3
3.7880001 -0.14300001 -0.60900003 3
3.76 -0.14 -0.597 2
3.813 -0.14 -0.59899998 2
3.964 -0.14300001 -0.61500001 3
3.925 -0.14 -0.60100001 2
3.9679999 -0.139 -0.60000002 2
4.066 -0.14 -0.60699999 2
4.1100001 -0.14 -0.60600001 3
4.184 -0.14 -0.60799998 4
4.27 -0.141 -0.61299998 6
4.342 -0.141 -0.61500001 9
4.4099998 -0.141 -0.616 11
4.494 -0.141 -0.61900002 12
4.559 -0.141 -0.61799997 12
4.6409998 -0.141 -0.62 11
4.7189999 -0.141 -0.62099999 8
4.8280001 -0.142 -0.62599999 5
4.941 -0.14300001 -0.63099998 4
5.0419998 -0.14399999 -0.634 5
5.1630001 -0.145 -0.639 4
5.2600002 -0.145 -0.63999999 4
5.3559999 -0.145 -0.64099997 5
5.507 -0.147 -0.648 5
5.632 -0.148 -0.65200001 5
5.7940001 -0.15000001 -0.65899998 4
5.9369998 -0.15099999 -0.66299999 4
6.0910001 -0.152 -0.66799998 4
6.2849998 -0.154 -0.676 5
6.4619999 -0.156 -0.68199998 6
6.5879998 -0.15700001 -0.68300003 6
6.8189998 -0.15899999 -0.69199997 4
7.0409999 -0.162 -0.70099998 4
7.2820001 -0.16500001 -0.70999998 4
7.4679999 -0.16599999 -0.71200001 4
7.7119999 -0.168 -0.72000003 5
8.0190001 -0.17200001 -0.73199999 4
8.2989998 -0.175 -0.74000001 4
8.5740004 -0.178 -0.74699998 4
8.9329996 -0.182 -0.75999999 4
9.2729998 -0.186 -0.76999998 5
9.5699997 -0.189 -0.77499998 5
9.9399996 -0.193 -0.78399998 4
10.371 -0.198 -0.796 3
10.796 -0.20299999 -0.80599999 3
11.274 -0.208 -0.81800002 3
11.783 -0.214 -0.83099997 3
12.357 -0.22 -0.84500003 3
12.881 -0.226 -0.85399997 3
13.53 -0.234 -0.86799997 3
14.321 -0.243 -0.889 3
15.135 -0.25299999 -0.90799999 2
16.009001 -0.26300001 -0.926 2
0 0 0 2
17.488001 -0.27900001 -0.93800002 1
0 0 0 1
0 0 0 0
0 0 0 1
0 0 0 1
0 0 0 0
0 0 0 2
0 0 0 0
0 0 0 151
45.375 -0.634 -1.5650001 156
45.432999 -0.62599999 -1.47 166
45.448002 -0.61799997 -1.373 173
45.439999 -0.61000001 -1.276 174
45.456001 -0.60299999 -1.178 163
45.423 -0.59600002 -1.082 152
45.442001 -0.58899999 -0.986 11
0 0 0 46
72.644997 -0.921 -1.262 44
72.667 -0.912 -1.1109999 31
0 0 0 0
0 0 0 16
74.848999 -0.91399997 -0.66500002 14
74.910004 -0.90700001 -0.505 12
0 0 0 0
0 0 0 24
72.504997 -0.85799998 -0.027000001 62
72.512001 -0.85299999 0.13 82
72.515999 -0.84799999 0.285 72
72.528 -0.84399998 0.44100001 32
0 0 0 25
0 0 0 0
0 0 0 0
0 0 0 0
0 0 0 0
0 0 0 0
0 0 0 0
0 0 0 0
0 0 0 0
0 0 0 20
67.816002 -0.77499998 2.003 64
67.809998 -0.77600002 2.1470001 60
67.799004 -0.778 2.2909999 12
70.969002 -0.81699997 2.5539999 74
70.974998 -0.82099998 2.7 80
70.987999 -0.824 2.852 89
70.970001 -0.82800001 3.0020001 85
70.997002 -0.833 3.1530001 79
70.975998 -0.838 3.3 82
70.986 -0.84299999 3.4549999 84
70.972 -0.84899998 3.605 82
70.961998 -0.85500002 3.7520001 81
70.889 -0.86199999 3.8989999 74
70.799004 -0.86799997 4.0409999 61
70.726997 -0.875 4.1859999 58
70.649002 -0.88200003 4.3299999 57
69.780998 -0.88 4.4229999 38
70.232002 -0.89499998 4.599 49
70.07 -0.903 4.7350001 56
69.889 -0.91100001 4.868 59
69.792999 -0.92000002 5.0050001 65
69.754997 -0.93099999 5.1479998 58
69.720001 -0.94199997 5.29 63
69.724998 -0.954 5.4349999 61
69.702003 -0.96600002 5.5770001 65
69.669998 -0.97799999 5.717 59
69.491997 -0.98900002 5.8460002 56
69.095001 -0.99699998 5.9549999 44
68.765999 -1.006 6.0679998 54
68.588997 -1.018 6.1929998 55
68.417 -1.03 6.3169999 54
68.405998 -1.044 6.454 41
68.365997 -1.059 6.5879998 37
68.344002 -1.075 6.723 27
0 0 0 0
0 0 0 8
66.989998 -1.103 6.9949999 9
0 0 0 0
0 0 0 25
0 0 0 0
0 0 0 0
0 0 0 0
0 0 0 0
0 0 0 0
0 0 0 0
0 0 0 0
0 0 0 0
0 0 0 0
0 0 0 26
117.713 -2.388 15.331 34
117.735 -2.427 15.563 55
117.644 -2.464 15.776 82
117.505 -2.503 15.988 97
117.415 -2.5409999 16.200001 63
117.426 -2.5829999 16.427 58
117.375 -2.6240001 16.645 48
117.382 -2.668 16.870001 30
0 0 0 0
0 0 0 0
0 0 0 0
0 0 0 0
0 0 0 0
0 0 0 0
0 0 0 0
0 0 0 0
0 0 0 0
0 0 0 0
0 0 0 0
0 0 0 0
0 0 0 0
0 0 0 0
0 0 0 0
0 0 0 0
0 0 0 0
0 0 0 0
0 0 0 0
0 0 0 0
0 0 0 0
0 0 0 0
0 0 0 0
0 0 0 0
0 0 0 0
0 0 0 0
0 0 0 0
0 0 0 0
0 0 0 0
0 0 0 12
51.351002 -1.864 10.231 44
51.351002 -1.89 10.317 71
51.353001 -1.916 10.403 75
51.361 -1.943 10.489 74
51.362 -1.969 10.573 77
51.375999 -1.9960001 10.66 70
51.390999 -2.0239999 10.746 69
51.380001 -2.049 10.826 61
51.383999 -2.0769999 10.909 32
51.277 -2.0999999 10.968 16
50.992001 -2.1140001 10.987 13
50.639 -2.1259999 10.991 10
50.380001 -2.1429999 11.013 9
50.083 -2.1570001 11.026 8
49.838001 -2.1730001 11.049 9
49.525002 -2.1860001 11.055 9
49.306999 -2.2049999 11.081 9
49.078999 -2.22 11.103 9
48.804001 -2.234 11.113 8
48.548 -2.25 11.127 11
48.331001 -2.266 11.15 11
48.089001 -2.2820001 11.163 9
47.854 -2.2969999 11.179 9
47.571999 -2.3099999 11.181 10
47.351002 -2.326 11.198 11
47.058998 -2.3380001 11.196 9
46.780998 -2.3510001 11.197 9
46.528 -2.3640001 11.201 9
46.285 -2.3800001 11.208 10
46.067001 -2.395 11.22 9
45.792 -2.4059999 11.217 9
45.556 -2.4200001 11.222 9
45.361 -2.4360001 11.234 8
45.063999 -2.447 11.223 8
44.896 -2.464 11.241 8
44.633999 -2.4760001 11.235 10
44.417999 -2.49 11.239 9
44.172001 -2.5009999 11.233 9
43.941002 -2.5139999 11.232 8
43.702 -2.5250001 11.226 9
43.507999 -2.539 11.231 9
43.311001 -2.5539999 11.234 9
43.069 -2.5650001 11.224 9
42.814999 -2.575 11.211 9
42.618 -2.5880001 11.212 8
42.397999 -2.5999999 11.205 9
42.167 -2.6110001 11.195 7
41.949001 -2.622 11.187 8
41.813999 -2.638 11.2 9
41.580002 -2.6489999 11.186 8
41.396999 -2.6619999 11.184 9
41.150002 -2.6689999 11.164 9
40.966 -2.6830001 11.161 8
40.763 -2.6930001 11.152 9
40.523998 -2.7019999 11.131 8
40.369999 -2.7160001 11.134 10
40.188 -2.7279999 11.127 9
39.956001 -2.7360001 11.105 8
39.775002 -2.747 11.097 8
39.577999 -2.7579999 11.084 8
39.386002 -2.7679999 11.07 8
39.188 -2.776 11.055 10
39.027 -2.7880001 11.049 11
38.865002 -2.8 11.042 10
38.681 -2.8099999 11.028 9
38.408001 -2.826 11.008 11
38.243999 -2.8369999 10.998 11
38.108002 -2.849 10.994 12
37.960999 -2.8610001 10.987 13
37.786999 -2.8699999 10.971 13
37.618999 -2.8789999 10.956 14
37.460999 -2.8889999 10.943 15
37.416 -2.908 10.962 18
37.306999 -2.921 10.962 18
37.199001 -2.9349999 10.962 18
37.095001 -2.947 10.962 18
36.983002 -2.96 10.96 20
36.874001 -2.973 10.957 20
36.507999 -2.9649999 10.877 17
36.230999 -2.9630001 10.823 19
36.181 -2.98 10.836 22
36.175999 -3 10.861 21
36.173 -3.02 10.887 21
36.157001 -3.039 10.909 21
36.160999 -3.0610001 10.936 22
36.136002 -3.079 10.954 19
36.115002 -3.098 10.972 20
35.599998 -3.0739999 10.839 17
34.941002 -3.0369999 10.662 21
34.823002 -3.046 10.648 20
34.799999 -3.0639999 10.663 21
34.812 -3.085 10.688 21
34.803001 -3.1029999 10.706 21
34.797001 -3.122 10.725 21
34.804001 -3.141 10.747 20
34.792999 -3.1589999 10.764 20
34.796001 -3.1789999 10.784 20
34.234001 -3.1459999 10.628 15
33.577999 -3.1040001 10.442 21
33.471001 -3.112 10.426 21
33.443001 -3.128 10.434 26
33.459 -3.1470001 10.455 21
33.449001 -3.165 10.468 25
33.463001 -3.1830001 10.487 20
33.455002 -3.2 10.499 22
33.462002 -3.2190001 10.516 20
33.457001 -3.2360001 10.528 20
33.466999 -3.2539999 10.545 20
33.118999 -3.237 10.448 19
32.527 -3.1960001 10.274 18
32.140999 -3.174 10.163 19
32.083 -3.1849999 10.156 24
32.09 -3.2019999 10.169 26
32.098 -3.2179999 10.182 26
32.087002 -3.234 10.188 25
32.105 -3.2509999 10.203 25
32.098 -3.267 10.209 25
32.109001 -3.2839999 10.221 24
32.109001 -3.299 10.229 23
32.091 -3.313 10.23 22
32.111 -3.3310001 10.244 18
31.895 -3.323 10.182 18
31.302 -3.276 9.9980001 13
30.827999 -3.2409999 9.8520002 21
30.742001 -3.247 9.8299999 20
30.726999 -3.2590001 9.8299999 24
30.724001 -3.2720001 9.8330002 24
30.726 -3.286 9.8369999 24
30.723 -3.3 9.8400002 26
30.747999 -3.3169999 9.8500004 24
30.733 -3.3280001 9.8479996 24
30.736 -3.342 9.8509998 25
30.732 -3.355 9.8509998 25
30.756001 -3.372 9.8599997 23
30.739 -3.3829999 9.8549995 23
30.740999 -3.3959999 9.8559999 22
30.754 -3.4100001 9.8599997 17
30.511999 -3.3959999 9.7819996 16
29.948999 -3.346 9.6000004 14
29.549999 -3.3139999 9.4709997 20
29.41 -3.3099999 9.4239998 21
29.388 -3.319 9.415 23
29.370001 -3.3280001 9.4069996 24
29.386999 -3.342 9.4090004 25
29.363001 -3.3499999 9.3979998 24
29.362 -3.362 9.3940001 23
29.371 -3.3729999 9.3929996 23
29.379 -3.385 9.3900003 24
29.372 -3.395 9.3830004 24
29.379 -3.4070001 9.3800001 23
29.362 -3.4159999 9.368 24
29.367001 -3.427 9.3629999 23
29.393999 -3.4400001 9.3660002 24
29.381001 -3.4489999 9.3540001 23
29.385 -3.4590001 9.3479996 21
29.365 -3.467 9.3339996 21
29.371 -3.4779999 9.3269997 22
29.320999 -3.4809999 9.3030005 19
28.888 -3.4389999 9.1560001 15
28.540001 -3.4059999 9.0369997 14
28.146999 -3.368 8.9029999 18
28.044001 -3.365 8.8599997 19
28.023001 -3.3699999 8.8439999 22
28.004 -3.3759999 8.8269997 23
27.996 -3.3840001 8.8129997 24
28.009001 -3.3940001 8.8059998 24
28.01 -3.402 8.7939997 24
28.007 -3.4089999 8.7810001 24
28.01 -3.4170001 8.7700005 23
28.004 -3.424 8.7539997 24
28.002001 -3.431 8.7410002 24
28.004999 -3.4389999 8.7279997 25
28.009001 -3.4460001 8.7150002 24
28.016001 -3.454 8.7030001 24
28.013 -3.46 8.6870003 25
28.013 -3.467 8.6719999 25
27.993 -3.471 8.6499996 24
28.007999 -3.4790001 8.6389999 24
28 -3.484 8.6199999 24
28.011999 -3.4920001 8.6070004 25
28.002001 -3.4960001 8.5869999 23
28.009001 -3.503 8.5719995 24
28.003 -3.5079999 8.5530005 24
28.004 -3.5139999 8.5349998 24
28.006001 -3.5190001 8.5170002 22
28.014 -3.5250001 8.5010004 22
28.004999 -3.529 8.4790001 23
28.011999 -3.5350001 8.4610004 24
28.003 -3.5380001 8.4390001 23
28.014999 -3.543 8.4219999 24
27.999001 -3.546 8.3970003 22
27.941999 -3.543 8.3579998 21
27.771 -3.5250001 8.2860003 17
27.58 -3.5050001 8.2080002 17
27.409 -3.4860001 8.1359997 14
27.257999 -3.471 8.0690002 14
27.125 -3.457 8.0080004 16
26.959999 -3.438 7.9369998 16
26.827999 -3.424 7.8759999 16
26.74 -3.415 7.8270001 15
26.698 -3.4130001 7.7919998 19
26.671 -3.4119999 7.7610002 19
26.66 -3.4130001 7.7340002 18
26.631001 -3.411 7.7020001 15
26.593 -3.408 7.6669998 13
26.534 -3.402 7.6259999 11
26.504 -3.3989999 7.5929999 10
26.466999 -3.3959999 7.5570002 9
26.465 -3.3970001 7.5310001 9
26.451 -3.3959999 7.5009999 9
26.438 -3.3959999 7.4720001 8
26.433001 -3.3959999 7.4439998 10
26.436001 -3.3970001 7.4180002 11
26.417999 -3.3940001 7.3860002 9
26.41 -3.3940001 7.3569999 8
26.417999 -3.395 7.3330002 9
26.426001 -3.395 7.3070002 10
26.403999 -3.392 7.2719998 9
26.424999 -3.395 7.2509999 10
26.410999 -3.391 7.2179999 9
26.392 -3.3889999 7.1849999 10
26.413 -3.3900001 7.1609998 9
26.421 -3.3900001 7.1339998 8
26.415001 -3.388 7.1030002 10
26.433001 -3.3889999 7.0780001 10
26.450001 -3.3900001 7.052 10
26.452 -3.388 7.0219998 9
26.451 -3.385 6.9899998 10
26.462 -3.3840001 6.9629998 10
26.454 -3.3800001 6.9289999 9
26.502001 -3.3840001 6.9099998 11
26.546 -3.3870001 6.8889999 10
26.636 -3.3959999 6.881 13
26.695 -3.4000001 6.8629999 16
26.808001 -3.411 6.8600001 20
26.926001 -3.4230001 6.855 21
27.045 -3.434 6.8520002 23
27.146999 -3.4430001 6.8439999 29
27.267 -3.454 6.8390002 30
27.4 -3.4660001 6.8369999 26
27.524 -3.4779999 6.8340001 26
27.646999 -3.4890001 6.8280001 26
27.778999 -3.5 6.8249998 25
27.92 -3.5120001 6.822 25
28.034 -3.5209999 6.8130002 24
28.162001 -3.5320001 6.8060002 25
28.316 -3.5450001 6.8049998 27
28.459 -3.5569999 6.8010001 22
28.608999 -3.569 6.7979999 23
28.766001 -3.582 6.7969999 25
28.906 -3.592 6.79 26
29.052999 -3.6040001 6.7839999 23
29.214001 -3.6159999 6.7800002 22
29.361 -3.6270001 6.7729998 25
29.535 -3.6400001 6.7719998 22
29.690001 -3.652 6.7649999 21
29.863001 -3.665 6.7610002 21
30.039 -3.678 6.7579999 21
30.214001 -3.6900001 6.7529998 22
30.391001 -3.7019999 6.7490001 22
30.573 -3.7149999 6.7449999 21
30.754 -3.7279999 6.7379999 19
30.92 -3.7379999 6.7290001 20
31.110001 -3.7509999 6.724 20
31.301001 -3.763 6.7179999 20
31.492001 -3.7750001 6.7129998 21
31.676001 -3.786 6.704 22
31.893 -3.8 6.7020001 22
32.098999 -3.813 6.6960001 22
32.316002 -3.8280001 6.6919999 22
32.527 -3.8399999 6.6869998 23
32.73 -3.8499999 6.677 22
32.939999 -3.8629999 6.6690001 23
33.195 -3.878 6.6680002 24
33.424 -3.892 6.6620002 24
33.630001 -3.902 6.651 24
33.842999 -3.9119999 6.6399999 23
34.082001 -3.925 6.6329999 30
34.202999 -3.924 6.6020002 37
34.264 -3.9159999 6.559 45
34.273998 -3.9000001 6.5050001 50
34.278 -3.885 6.4499998 49
34.271 -3.868 6.3930001 50
34.257999 -3.8499999 6.335 48
34.27 -3.835 6.283 51
34.259998 -3.8169999 6.2249999 50
34.245998 -3.7980001 6.1659999 49
34.255001 -3.7809999 6.1110001 49
34.244999 -3.763 6.052 47
34.240002 -3.744 5.9949999 49
34.238998 -3.7260001 5.9390001 51
34.250999 -3.7090001 5.8839998 49
34.249001 -3.6900001 5.8270001 53
34.248001 -3.671 5.7680001 55
34.233002 -3.6500001 5.7080002 55
34.247002 -3.632 5.652 52
34.226002 -3.6099999 5.592 53
34.240002 -3.592 5.5380001 54
34.227001 -3.5699999 5.4770002 54
34.223999 -3.549 5.4190001 55
34.220001 -3.5280001 5.3600001 56
34.229 -3.5079999 5.303 53
34.212002 -3.4849999 5.2420001 52
34.215 -3.464 5.184 53
34.213001 -3.4419999 5.1240001 53
34.226002 -3.421 5.066 50
34.222 -3.398 5.006 53
34.203999 -3.3740001 4.9439998 53
34.181999 -3.349 4.882 54
34.193001 -3.326 4.8239999 53
34.186001 -3.302 4.7639999 52
34.192001 -3.279 4.704 53
34.181 -3.2539999 4.6440001 53
34.18 -3.23 4.5840001 52
34.174999 -3.2049999 4.5229998 51
34.173 -3.1800001 4.4619999 53
34.174 -3.155 4.402 55
34.168999 -3.1289999 4.3400002 53
34.171001 -3.1040001 4.2820001 56
34.160999 -3.0769999 4.2179999 55
34.153999 -3.05 4.1570001 54
34.141998 -3.023 4.0949998 55
34.153999 -2.9979999 4.0359998 48
34.157001 -2.971 3.9749999 55
34.146 -2.9430001 3.9130001 55
34.138 -2.915 3.8510001 54
34.143002 -2.888 3.7909999 47
34.159 -2.862 3.7309999 43
34.280998 -2.8440001 3.6830001 10
34.546001 -2.8369999 3.6500001 8
34.828999 -2.8310001 3.618 13
35.889999 -2.8870001 3.664 40
35.952 -2.8610001 3.605 56
35.949001 -2.8299999 3.539 53
34.102001 -2.655 3.296 6
34.111 -2.6259999 3.2360001 19
34.088001 -2.5940001 3.1719999 31
34.241001 -2.575 3.125 4
34.476002 -2.562 3.0840001 6
34.529999 -2.5350001 3.027 13
34.772999 -2.5209999 2.9849999 14
35.074001 -2.51 2.948 16
35.407001 -2.5009999 2.9119999 20
35.550999 -2.4779999 2.859 36
35.777 -2.46 2.813 18
36.089001 -2.448 2.7720001 28
36.301998 -2.428 2.724 23
36.665001 -2.4170001 2.6849999 19
36.872002 -2.395 2.6340001 21
37.280998 -2.385 2.596 18
37.551998 -2.3640001 2.546 20
37.792 -2.3429999 2.4960001 20
38.181 -2.329 2.4530001 35
38.412998 -2.303 2.3959999 26
38.685001 -2.2820001 2.345 7
39.584999 -2.2950001 2.3299999 9
39.700001 -2.2609999 2.2650001 13
39.991001 -2.2360001 2.21 19
40.331001 -2.2130001 2.1559999 25
40.681999 -2.188 2.099 24
41.423 -2.1860001 2.0650001 5
41.874001 -2.1659999 2.0139999 6
42.323002 -2.1440001 1.959 7
42.491001 -2.1059999 1.891 6
0 0 0 46
0 0 0 15
42.889 -1.9859999 1.678 120
42.921001 -1.939 1.602 74
42.953999 -1.8940001 1.528 83
42.937 -1.846 1.452 48
42.938 -1.798 1.375 37
42.931999 -1.749 1.299 14
0 0 0 3
0 0 0 0
0 0 0 0
0 0 0 0
0 0 0 0
0 0 0 0
0 0 0 0
0 0 0 38
58.345001 -1.767 0.838 40
58.901001 -1.714 0.74299997 22
58.888 -1.643 0.63999999 29
58.847 -1.571 0.537 27
0 0 0 118
66.212997 -1.607 0.373 150
66.213997 -1.526 0.259 86
66.223 -1.444 0.142 76
66.195999 -1.364 0.030999999 69
66.362 -1.283 -0.086000003 83
66.453003 -1.2029999 -0.199 41
67.042 -1.131 -0.31400001 14
0 0 0 28
71.633003 -1.029 -0.579 106
72.648003 -0.95200002 -0.71100003 37
74.857002 -0.88700002 -0.85900003 11
0 0 0 0
0 0 0 24
116.524 -0.93000001 -1.932 29
116.609 -0.77999997 -2.1300001 23
0 0 0 0
0 0 0 102
51.450001 -0.142 -1.198 151
51.493 -0.075000003 -1.285 10
0 0 0 25
0 0 0 33
0 0 0 0
0 0 0 158
60.237999 0.31099999 -2.0009999 153
60.241001 0.389 -2.0969999 25
0 0 0 0
0 0 0 0
0 0 0 1
0 0 0 0
0 0 0 2
0 0 0 0
0 0 0 1
0 0 0 1
0 0 0 0
0 0 0 3
18.163 0.391 -0.95300001 2
0 0 0 2
15.419 0.37400001 -0.85699999 4
15.362 0.39500001 -0.87800002 4
14.914 0.40400001 -0.875 7
14.551 0.414 -0.87599999 6
13.942 0.41600001 -0.861 4
13.201 0.41299999 -0.83600003 3
12.726 0.41600001 -0.82599998 3
12.362 0.42199999 -0.82099998 3
11.988 0.42699999 -0.81400001 3
11.588 0.42899999 -0.80500001 2
11.189 0.43000001 -0.79400003 2
10.836 0.43200001 -0.78500003 3
10.523 0.435 -0.778 4
10.261 0.43799999 -0.77399999 3
9.9650002 0.44 -0.76599997 3
9.6829996 0.442 -0.759 4
9.4589996 0.44499999 -0.755 4
9.2460003 0.44800001 -0.75199997 3
8.9989996 0.44999999 -0.745 3
8.757 0.44999999 -0.73699999 3
8.5299997 0.45100001 -0.73100001 3
8.3149996 0.45199999 -0.72399998 3
8.1079998 0.45199999 -0.71799999 3
7.9000001 0.45199999 -0.71100003 3
7.73 0.454 -0.70599997 4
7.5640001 0.45500001 -0.70200002 4
7.375 0.45500001 -0.69400001 4
7.1919999 0.454 -0.68699998 3
7.0510001 0.45500001 -0.68300003 4
6.9000001 0.456 -0.67799997 4
6.7740002 0.45699999 -0.67500001 3
6.6550002 0.45899999 -0.67199999 3
6.5289998 0.46000001 -0.66799998 3
6.395 0.46000001 -0.66299999 3
6.2719998 0.46000001 -0.65899998 3
6.1500001 0.46000001 -0.65399998 3
6.0430002 0.461 -0.65100002 3
5.9359999 0.46200001 -0.64700001 4
5.8559999 0.46399999 -0.64600003 3
5.7529998 0.465 -0.64200002 3
5.658 0.46599999 -0.639 3
5.5669999 0.46599999 -0.63599998 3
5.4850001 0.46799999 -0.634 3
5.3909998 0.46799999 -0.62900001 3
5.3140001 0.46900001 -0.62699997 3
5.244 0.47099999 -0.62599999 4
5.1690001 0.47099999 -0.62300003 4
5.1079998 0.47400001 -0.62199998 3
5.0380001 0.47499999 -0.62 5
4.9749999 0.47600001 -0.61799997 3
4.9190001 0.47799999 -0.61699998 3
4.8499999 0.479 -0.61400002 3
4.802 0.48100001 -0.61400002 3
4.7290001 0.48100001 -0.61000001 3
4.6550002 0.47999999 -0.60600001 5
4.6409998 0.48500001 -0.61000001 3
4.6079998 0.48899999 -0.611 3
4.5599999 0.491 -0.61000001 3
4.4980001 0.491 -0.60699999 4
4.448 0.49200001 -0.60500002 2
4.3979998 0.493 -0.60299999 2
4.349 0.49399999 -0.602 2
4.303 0.495 -0.60000002 2
4.2859998 0.49900001 -0.60299999 3
4.1919999 0.49399999 -0.59399998 2
4.1490002 0.49599999 -0.59299999 2
4.1129999 0.49700001 -0.59200001 3
4.0599999 0.49700001 -0.58899999 2
4.0409999 0.50099999 -0.58999997 2
4.0310001 0.505 -0.59299999 2
4.0019999 0.50700003 -0.59299999 3
3.9400001 0.505 -0.588 2
3.9920001 0.51800001 -0.60000002 3
3.888 0.50999999 -0.588 2
3.8269999 0.50800002 -0.583 2
3.836 0.514 -0.588 3
3.806 0.51599997 -0.58700001 2
3.7590001 0.51499999 -0.58399999 2
3.7379999 0.51700002 -0.58399999 2
3.7509999 0.52499998 -0.58999997 2
3.7049999 0.523 -0.58600003 3
3.7249999 0.53200001 -0.59299999 3
3.6259999 0.523 -0.58099997 2
3.5840001 0.52200001 -0.57700002 2
3.5539999 0.52200001 -0.57599998 2
3.5539999 0.528 -0.579 2
3.526 0.528 -0.57700002 2
3.48 0.52700001 -0.57300001 2
3.473 0.52999997 -0.57499999 2
3.4849999 0.537 -0.57999998 2
3.428 0.53299999 -0.574 2
3.464 0.54400003 -0.583 2
3.4619999 0.54799998 -0.58499998 2
3.4089999 0.54400003 -0.579 2
3.339 0.53799999 -0.56999999 2
3.3169999 0.53899997 -0.56900001 2
3.293 0.54000002 -0.56800002 2
3.2839999 0.54299998 -0.56900001 2
3.2650001 0.54400003 -0.56800002 2
3.2449999 0.54500002 -0.56800002 2
3.224 0.546 -0.56599998 2
3.2090001 0.54799998 -0.56599998 2
3.191 0.54900002 -0.56599998 2
3.1700001 0.55000001 -0.56400001 2
3.1530001 0.551 -0.56400001 2
3.1400001 0.55299997 -0.56400001 2
3.128 0.55500001 -0.56400001 2
3.1170001 0.55699998 -0.56400001 2
3.099 0.55800003 -0.56300002 2
3.0840001 0.55900002 -0.56199998 2
3.0699999 0.56099999 -0.56199998 2
3.056 0.56199998 -0.56099999 2
3.0409999 0.56400001 -0.56099999 2
3.0239999 0.56400001 -0.56 2
3.0150001 0.56599998 -0.56 2
3.0050001 0.56800002 -0.56 2
2.994 0.56999999 -0.56 2
2.984 0.57200003 -0.56 2
2.98 0.57499999 -0.56099999 2
2.9549999 0.574 -0.55800003 2
2.948 0.57599998 -0.55900002 2
2.938 0.57800001 -0.55900002 2
2.921 0.57800001 -0.55699998 2
2.9170001 0.58099997 -0.55800003 2
2.9059999 0.58200002 -0.55699998 2
2.8989999 0.58399999 -0.55800003 2
2.8800001 0.58399999 -0.55599999 2
2.878 0.58700001 -0.55699998 2
2.8610001 0.58700001 -0.55500001 2
2.855 0.58899999 -0.55500001 2
2.8399999 0.58999997 -0.55400002 2
2.826 0.58999997 -0.55199999 2
2.823 0.59299999 -0.55299997 2
2.816 0.59399998 -0.55299997 2
2.802 0.59500003 -0.55199999 1
2.8989999 0.61900002 -0.57200003 1
2.8800001 0.61799997 -0.56999999 1
2.8510001 0.61500001 -0.565 1
2.848 0.61699998 -0.56599998 1
2.7780001 0.60500002 -0.55299997 1
2.8829999 0.63099998 -0.57599998 2
2.7509999 0.60500002 -0.55000001 2
2.7490001 0.60799998 -0.551 2
2.7420001 0.60900003 -0.551 2
2.7320001 0.61000001 -0.55000001 2
2.7260001 0.61199999 -0.54900002 2
2.7219999 0.61400002 -0.55000001 2
2.7149999 0.61500001 -0.54900002 2
2.7019999 0.61500001 -0.54699999 2
2.7019999 0.61799997 -0.54799998 2
2.698 0.61900002 -0.54799998 2
2.6960001 0.62199998 -0.54900002 2
2.687 0.62199998 -0.54799998 2
2.687 0.625 -0.54900002 2
2.681 0.62599999 -0.54799998 2
2.675 0.62699997 -0.54799998 2
2.668 0.62800002 -0.54699999 2
2.668 0.63099998 -0.54799998 2
2.664 0.63200003 -0.54799998 2
2.6589999 0.634 -0.54699999 2
2.654 0.63499999 -0.54699999 2
2.654 0.63700002 -0.54699999 2
2.651 0.639 -0.54699999 2
2.6470001 0.63999999 -0.54699999 2
2.6400001 0.64099997 -0.546 2
2.6400001 0.64300001 -0.546 2
2.6359999 0.64499998 -0.546 2
2.6370001 0.648 -0.54699999 2
2.6270001 0.64700001 -0.54500002 2
2.6289999 0.64999998 -0.546 2
2.6229999 0.65100002 -0.54500002 2
2.625 0.653 -0.546 2
2.6199999 0.65399998 -0.54500002 2
2.612 0.65399998 -0.54400003 1
2.619 0.65799999 -0.54500002 1
2.618 0.66000003 -0.54500002 2
2.6140001 0.66100001 -0.54500002 1
2.6110001 0.662 -0.54400003 2
2.6140001 0.66500002 -0.54500002 2
2.618 0.66799998 -0.546 2
2.609 0.667 -0.54400003 2
2.6129999 0.67000002 -0.54500002 2
2.612 0.67199999 -0.54500002 2
2.6110001 0.67400002 -0.54500002 2
2.6110001 0.67500001 -0.54500002 2
2.6110001 0.67699999 -0.54500002 2
2.605 0.67699999 -0.54400003 2
2.605 0.67900002 -0.54400003 2
2.615 0.68300003 -0.546 2
2.615 0.685 -0.546 2
2.6170001 0.68699998 -0.546 2
2.6210001 0.69 -0.54699999 2
2.6240001 0.69199997 -0.54699999 2
2.631 0.69599998 -0.54799998 2
2.635 0.69800001 -0.54900002 3
2.6329999 0.699 -0.54900002 3
2.641 0.70300001 -0.55000001 3
2.6389999 0.704 -0.54900002 3
2.6500001 0.708 -0.551 4
2.645 0.708 -0.55000001 3
2.632 0.70599997 -0.54699999 3
2.642 0.70999998 -0.54799998 3
2.6500001 0.713 -0.55000001 2
2.6440001 0.713 -0.54799998 2
2.638 0.71200001 -0.546 2
2.6370001 0.713 -0.546 2
2.642 0.71600002 -0.546 2
2.6530001 0.72000003 -0.54799998 2
2.6470001 0.72000003 -0.546 2
2.652 0.722 -0.54699999 2
2.6489999 0.722 -0.546 2
2.655 0.72500002 -0.546 2
2.655 0.72600001 -0.546 2
2.6630001 0.72899997 -0.54699999 2
2.6600001 0.72899997 -0.54500002 2
2.668 0.73199999 -0.546 2
2.6700001 0.73299998 -0.546 2
2.678 0.736 -0.54699999 2
2.674 0.736 -0.54500002 2
2.6830001 0.73900002 -0.546 2
2.6889999 0.74199998 -0.54699999 2
2.6960001 0.745 -0.54699999 2
2.6989999 0.74599999 -0.54699999 2
2.7019999 0.74699998 -0.54699999 2
2.701 0.74800003 -0.546 1
2.7119999 0.75199997 -0.54699999 1
2.802 0.77700001 -0.56400001 1
2.777 0.76999998 -0.55800003 1
2.8369999 0.78799999 -0.56900001 1
2.777 0.77100003 -0.55599999 1
2.7909999 0.77600002 -0.55800003 1
2.8310001 0.787 -0.565 1
2.783 0.77399999 -0.55400002 1
2.8110001 0.78299999 -0.55800003 1
2.8570001 0.796 -0.56599998 1
2.869 0.79900002 -0.56699997 1
2.8770001 0.80199999 -0.56800002 1
2.859 0.79699999 -0.56300002 1
2.937 0.81900001 -0.57700002 1
3.0369999 0.847 -0.59500003 2
2.8870001 0.80500001 -0.565 1
2.954 0.824 -0.57599998 2
2.931 0.81699997 -0.56999999 1
2.934 0.81800002 -0.56900001 1
2.9779999 0.82999998 -0.57700002 2
2.9909999 0.83399999 -0.57800001 2
2.9449999 0.82099998 -0.56699997 2
2.9820001 0.83099997 -0.57300001 2
2.875 0.801 -0.551 2
2.891 0.80500001 -0.55199999 2
2.904 0.80900002 -0.55299997 2
2.9170001 0.81199998 -0.55400002 2
2.928 0.81400001 -0.55500001 2
2.938 0.81699997 -0.55500001 2
2.9460001 0.81900001 -0.55500001 2
2.9579999 0.82099998 -0.55500001 2
2.9690001 0.824 -0.55599999 2
2.973 0.824 -0.55500001 2
2.9890001 0.82800001 -0.55599999 2
2.9979999 0.82999998 -0.55599999 2
3.01 0.833 -0.55599999 2
3.0239999 0.83600003 -0.55699998 2
3.0320001 0.838 -0.55699998 2
3.046 0.84100002 -0.55699998 2
3.0510001 0.84100002 -0.55599999 2
3.0610001 0.84299999 -0.55599999 2
3.0829999 0.84799999 -0.55800003 2
3.105 0.85299999 -0.56 2
3.1059999 0.85299999 -0.55800003 2
3.1210001 0.85600001 -0.55900002 2
3.1300001 0.85699999 -0.55900002 2
3.1429999 0.86000001 -0.55900002 2
3.1589999 0.86299998 -0.55900002 2
3.1730001 0.86500001 -0.56 2
3.191 0.86900002 -0.56099999 2
3.194 0.86799997 -0.55900002 2
3.217 0.87300003 -0.56099999 2
3.244 0.87900001 -0.56300002 3
3.256 0.88099998 -0.56300002 3
3.2679999 0.88300002 -0.56300002 2
3.29 0.88700002 -0.56400001 3
3.3010001 0.88800001 -0.56300002 3
3.312 0.88999999 -0.56300002 2
3.3989999 0.91100001 -0.57499999 2
3.3900001 0.90700001 -0.57099998 2
3.457 0.92400002 -0.57999998 2
3.3929999 0.90499997 -0.56699997 2
3.483 0.92699999 -0.579 2
3.4579999 0.91799998 -0.57200003 2
3.4920001 0.92500001 -0.57499999 3
3.562 0.94099998 -0.58399999 3
3.546 0.935 -0.57800001 3
3.516 0.92500001 -0.57099998 2
3.553 0.93199998 -0.574 2
3.5780001 0.93699998 -0.57499999 3
3.628 0.94700003 -0.57999998 2
3.6630001 0.954 -0.583 3
3.6860001 0.95700002 -0.583 2
3.654 0.94700003 -0.57499999 2
3.6830001 0.95099998 -0.57700002 2
3.6989999 0.95300001 -0.57599998 2
3.737 0.95999998 -0.579 2
3.7409999 0.958 -0.57700002 2
3.812 0.97299999 -0.58399999 2
3.8499999 0.98000002 -0.58700001 2
3.8940001 0.98799998 -0.58999997 3
3.862 0.977 -0.58200002 2
3.895 0.98299998 -0.58399999 2
3.9089999 0.98299998 -0.58200002 3
3.9030001 0.97799999 -0.57800001 2
3.924 0.98000002 -0.57800001 2
3.9790001 0.99000001 -0.583 2
4.0209999 0.99800003 -0.58499998 2
4.0419998 0.99900001 -0.58499998 2
4.0469999 0.99699998 -0.58200002 2
4.0879998 1.003 -0.58399999 2
4.1100001 1.005 -0.58399999 1
4.1589999 1.013 -0.58700001 2
4.223 1.025 -0.59200001 2
4.25 1.027 -0.59200001 3
4.3000002 1.035 -0.59500003 2
4.3130002 1.034 -0.59299999 2
4.3590002 1.041 -0.59600002 3
4.3909998 1.044 -0.59600002 3
4.4429998 1.052 -0.59899998 2
4.4840002 1.057 -0.60000002 3
4.5219998 1.062 -0.60100001 3
4.553 1.064 -0.60100001 5
4.585 1.067 -0.60100001 3
4.6139998 1.069 -0.60100001 3
4.6539998 1.073 -0.602 3
4.6999998 1.079 -0.60299999 3
4.7389998 1.0829999 -0.60399997 4
4.7729998 1.085 -0.60399997 3
4.8249998 1.092 -0.60600001 3
4.8779998 1.098 -0.60799998 2
4.927 1.104 -0.60900003 3
4.9850001 1.1109999 -0.61199999 2
5.0219998 1.113 -0.61199999 2
5.0700002 1.118 -0.61299998 2
5.1300001 1.125 -0.61500001 2
5.1820002 1.13 -0.616 4
5.2410002 1.137 -0.61799997 5
5.2870002 1.141 -0.61900002 4
5.3390002 1.145 -0.62 4
5.3990002 1.151 -0.62199998 3
5.4879999 1.164 -0.62699997 3
5.539 1.168 -0.62699997 3
5.6040001 1.174 -0.62900001 3
5.6659999 1.1799999 -0.63099998 3
5.737 1.187 -0.63300002 4
5.7969999 1.192 -0.634 5
5.8559999 1.197 -0.63499999 5
5.9330001 1.205 -0.63800001 5
5.994 1.209 -0.639 4
6.0770001 1.2180001 -0.64200002 4
6.1529999 1.225 -0.64399999 4
6.243 1.234 -0.64700001 5
6.3179998 1.2410001 -0.64899999 4
6.427 1.253 -0.65399998 4
6.5320001 1.265 -0.65799999 5
6.6160002 1.272 -0.66100001 5
6.7080002 1.28 -0.66299999 5
6.796 1.2869999 -0.66500002 6
6.8790002 1.293 -0.667 6
6.9770002 1.302 -0.67000002 6
7.085 1.311 -0.67299998 6
7.21 1.324 -0.67799997 5
7.3049998 1.331 -0.68000001 5
7.4219999 1.341 -0.68400002 6
7.5560002 1.354 -0.69 6
7.6529999 1.36 -0.69099998 5
7.7909999 1.373 -0.69599998 5
7.9299998 1.386 -0.70099998 4
8.0769997 1.399 -0.70599997 5
8.2209997 1.4119999 -0.71100003 5
8.3660002 1.424 -0.71600002 5
8.5279999 1.439 -0.722 6
8.6940002 1.4529999 -0.72799999 8
8.7659998 1.452 -0.72500002 10
8.8970003 1.459 -0.72799999 7
9.0380001 1.4680001 -0.73100001 7
9.191 1.479 -0.73500001 7
9.342 1.488 -0.73799998 5
9.5120001 1.5 -0.74299997 5
9.658 1.508 -0.745 5
9.8079996 1.515 -0.74800003 5
9.9989996 1.528 -0.75300002 4
10.181 1.54 -0.75800002 4
10.354 1.549 -0.76099998 3
10.533 1.558 -0.76499999 4
10.69 1.564 -0.76599997 3
10.901 1.576 -0.77100003 3
11.134 1.591 -0.778 3
11.337 1.602 -0.78200001 3
11.57 1.614 -0.787 3
11.807 1.627 -0.792 3
12.071 1.6440001 -0.79900002 3
12.294 1.653 -0.80299997 3
12.475 1.656 -0.80400002 3
12.708 1.665 -0.80800003 3
12.984 1.678 -0.81400001 3
13.273 1.692 -0.81999999 3
13.605 1.711 -0.829 3
13.912 1.725 -0.83499998 4
14.196 1.735 -0.83999997 4
14.433 1.739 -0.84100002 3
14.874 1.765 -0.85399997 3
15.275 1.786 -0.86400002 2
15.575 1.793 -0.86699998 3
15.884 1.8 -0.87099999 3
16.330999 1.821 -0.88200003 3
16.707001 1.8329999 -0.88800001 2
16.357 1.7640001 -0.85600001 2
0 0 0 2
17.389999 1.811 -0.88 2
17.52 1.793 -0.87199998 1
18.214001 1.83 -0.89200002 1
19.052 1.8789999 -0.917 1
0 0 0 2
20.990999 1.9910001 -0.97600001 1
0 0 0 1
23.771999 2.1670001 -1.068 2
24.691999 2.204 -1.089 1
0 0 0 0
0 0 0 0
0 0 0 0
0 0 0 0
0 0 0 0
0 0 0 0
0 0 0 0
0 0 0 0
0 0 0 0
0 0 0 0
0 0 0 3
38.546001 2.55 -1.345 7
38.442001 2.4679999 -1.313 12
38.365002 2.3870001 -1.2819999 16
38.326 2.309 -1.253 19
38.192001 2.2260001 -1.221 9
38.167 2.1489999 -1.193 5
38.101002 2.0699999 -1.164 6
38.044998 1.9910001 -1.136 6
38.014 1.914 -1.108 6
37.911999 1.832 -1.079 7
37.834999 1.7539999 -1.052 14
37.792 1.676 -1.025 48
37.742001 1.598 -0.99800003 55
37.723999 1.522 -0.972 58
37.707001 1.444 -0.94700003 66
37.688999 1.367 -0.92199999 76
37.692001 1.2920001 -0.898 86
37.720001 1.216 -0.87400001 59
37.772999 1.141 -0.85100001 156
37.834999 1.066 -0.829 66
37.960999 0.99199998 -0.80800003 34
38.064999 0.917 -0.787 150
38.162998 0.84100002 -0.76499999 151
38.264 0.76499999 -0.74400002 151
38.345001 0.68800002 -0.72299999 150
38.516998 0.61199999 -0.70300001 23
38.683998 0.53600001 -0.68400002 10
0 0 0 0
0 0 0 0
0 0 0 0
0 0 0 0
0 0 0 0
0 0 0 0
0 0 0 0
0 0 0 84
133.34599 -0.63300002 -1.6950001 32
0 0 0 0
0 0 0 0
0 0 0 10
71.927002 -0.94400001 -0.76700002 63
69.458 -1.056 -0.70599997 26
0 0 0 0
0 0 0 75
66.204002 -1.423 -0.57800001 79
66.161003 -1.561 -0.54699999 150
66.209999 -1.699 -0.51700002 129
0 0 0 0
0 0 0 108
58.148998 -1.857 -0.377 117
0 0 0 14
44.075001 -1.5930001 -0.248 22
43.960999 -1.681 -0.229 4
43.492001 -1.755 -0.20900001 3
43.521999 -1.848 -0.191 16
43.380001 -1.933 -0.17299999 33
43.306 -2.02 -0.156 6
43.668999 -2.128 -0.141 14
0 0 0 0
0 0 0 34
42.688999 -2.349 -0.090999998 37
42.234001 -2.4130001 -0.075000003 41
42.226002 -2.5020001 -0.059999999 36
42.167 -2.5869999 -0.046 50
41.960999 -2.6630001 -0.032000002 58
41.924999 -2.7490001 -0.017999999 88
39.699001 -2.6860001 -0.0040000002 4
39.745998 -2.773 0.0070000002 4
0 0 0 14
36.98 -2.7349999 0.028999999 7
37.02 -2.816 0.039000001 7
37.914001 -2.9630001 0.050999999 31
37.935001 -3.043 0.061999999 36
37.932999 -3.1229999 0.071999997 33
0 0 0 0
0 0 0 1
0 0 0 0
0 0 0 0
0 0 0 0
0 0 0 0
0 0 0 1
19.424 -1.9220001 0.072999999 2
19.318001 -1.952 0.077 4
19.280001 -1.988 0.081 5
0 0 0 25
0 0 0 25
0 0 0 25
0 0 0 25
0 0 0 25
0 0 0 1
18.697001 -2.198 0.101 1
18.761999 -2.244 0.104 1
18.554001 -2.2579999 0.105 1
18.583 -2.3 0.108 1
18.612 -2.3410001 0.11 1
18.645 -2.3840001 0.113 1
18.707001 -2.4300001 0.115 1
18.653 -2.461 0.117 1
18.597 -2.4920001 0.118 1
18.712999 -2.546 0.121 1
18.67 -2.5780001 0.122 1
18.674999 -2.6159999 0.123 1
18.648001 -2.6489999 0.124 1
18.67 -2.6900001 0.126 1
18.85 -2.7539999 0.12800001 1
18.768999 -2.78 0.12899999 1
18.614 -2.7939999 0.12800001 1
18.870001 -2.8699999 0.131 1
18.833 -2.902 0.131 1
18.662001 -2.914 0.131 1
18.549 -2.9319999 0.13 1
18.580999 -2.9749999 0.131 1
18.521 -3.0020001 0.131 1
18.596001 -3.05 0.131 1
18.632999 -3.0929999 0.131 1
18.704 -3.141 0.131 1
18.625 -3.164 0.13 1
18.693001 -3.2119999 0.13 1
18.834 -3.273 0.131 1
18.954 -3.3299999 0.131 1
19.115999 -3.3959999 0.132 1
19.139 -3.437 0.131 1
19.174999 -3.48 0.13 2
19.014 -3.4879999 0.12800001 1
19.334 -3.5840001 0.12899999 2
19.341999 -3.622 0.127 3
19.402 -3.671 0.126 1
0 0 0 15
34.618999 -6.6810002 0.22 2
0 0 0 0
0 0 0 0
0 0 0 0
0 0 0 6
64.353996 -13.02 0.375 8
0 0 0 17
34.533001 -7.1139998 0.192 14
34.365002 -7.1430001 0.18700001 29
34.291 -7.1900001 0.18099999 47
34.263 -7.2459998 0.177 110
34.271 -7.3099999 0.17200001 83
34.286999 -7.375 0.16599999 86
34.278999 -7.434 0.161 115
34.291 -7.4990001 0.156 119
34.289001 -7.5599999 0.15000001 111
34.299999 -7.6230001 0.14399999 117
0 0 0 16
18.344 -4.1420002 0.07 21
18.296 -4.1630001 0.066 26
18.233999 -4.1810002 0.061999999 29
18.200001 -4.204 0.059 36
18.166 -4.2280002 0.055 38
18.139 -4.2529998 0.050999999 39
18.120001 -4.2800002 0.046999998 40
18.1 -4.3060002 0.043000001 43
18.073999 -4.3299999 0.039000001 32
18.035999 -4.3509998 0.035 45
18.045 -4.3839998 0.029999999 52
18.007999 -4.4050002 0.026000001 48
18.018 -4.4369998 0.022 64
18.014 -4.4660001 0.017999999 42
17.997 -4.4910002 0.013 40
17.995001 -4.52 0.0080000004 40
17.982 -4.546 0.0040000002 55
17.995001 -4.579 0 34
17.983999 -4.605 -0.0040000002 52
17.659 -4.5500002 -0.0089999996 47
0 0 0 14
0 0 0 0
0 0 0 63
16.231001 -4.283 -0.026000001 11
16.156 -4.2880001 -0.030999999 37
16.086 -4.2940001 -0.035999998 63
16.073999 -4.316 -0.039999999 63
15.917 -4.2979999 -0.045000002 61
16.122999 -4.3779998 -0.050000001 63
15.963 -4.3579998 -0.055 62
16.056 -4.4070001 -0.059999999 43
16.003 -4.4159999 -0.064999998 38
16.038 -4.4499998 -0.07 36
16.063999 -4.48 -0.075000003 35
16.093 -4.5110002 -0.079999998 31
16.031 -4.5170002 -0.085000001 25
16.039 -4.5419998 -0.090999998 33
16.002001 -4.5539999 -0.096000001 30
15.971 -4.5679998 -0.101 39
15.91 -4.573 -0.106 23
15.951 -4.6069999 -0.112 26
15.855 -4.6009998 -0.117 20
15.763 -4.5949998 -0.122 36
15.731 -4.6069999 -0.127 42
15.745 -4.6329999 -0.133 30
15.72 -4.6459999 -0.138 31
15.696 -4.6589999 -0.14300001 36
15.705 -4.6820002 -0.149 47
15.721 -4.7069998 -0.155 19
15.741 -4.7340002 -0.161 15
15.732 -4.7509999 -0.167 12
15.731 -4.77 -0.17299999 2
0 0 0 13
34.755001 -10.625 -0.40900001 9
0 0 0 0
0 0 0 0
0 0 0 0
0 0 0 1
13.851 -4.3169999 -0.189 4
13.828 -4.3260002 -0.19400001 7
13.786 -4.3280001 -0.199 9
13.782 -4.342 -0.204 16
13.68 -4.3260002 -0.208 26
13.629 -4.3249998 -0.213 34
13.623 -4.3379998 -0.21799999 39
13.632 -4.355 -0.22400001 46
13.62 -4.3660002 -0.229 46
13.577 -4.3660002 -0.233 46
13.579 -4.381 -0.23899999 46
13.554 -4.3870001 -0.244 46
13.46 -4.3709998 -0.248 45
13.419 -4.3709998 -0.25299999 45
13.414 -4.382 -0.25799999 45
13.422 -4.3979998 -0.264 45
13.386 -4.3990002 -0.26899999 45
13.312 -4.388 -0.273 44
13.222 -4.3699999 -0.27599999 44
13.239 -4.388 -0.28200001 41
13.289 -4.4169998 -0.289 39
13.199 -4.3990002 -0.292 44
13.175 -4.402 -0.29800001 38
13.208 -4.4250002 -0.30399999 40
13.188 -4.4299998 -0.30899999 44
13.113 -4.415 -0.31299999 39
13.099 -4.4219999 -0.31799999 43
13.091 -4.4299998 -0.324 43
13.039 -4.4229999 -0.32800001 40
12.991 -4.4169998 -0.33199999 30
