# .PCD v0.7 - Point Cloud Data file format
VERSION 0.7
FIELDS x y z intensity
SIZE 4 4 4 4
TYPE F F F F
COUNT 1 1 1 1
WIDTH 1784
HEIGHT 1
VIEWPOINT 0 0 0 1 0 0 0
POINTS 1784
DATA ascii
37.073002 -2.675 3.483 43
37.977001 -2.7090001 3.4990001 28
38.370998 -2.7049999 3.4649999 49
38.360001 -2.6719999 3.3940001 48
38.353001 -2.6389999 3.325 49
38.360001 -2.6070001 3.256 46
38.778999 -2.6010001 3.22 31
39.723 -2.6289999 3.2249999 39
39.729 -2.5940001 3.152 25
0 0 0 3
37.365002 -2.3729999 2.8269999 4
37.411999 -2.342 2.763 12
37.730999 -2.3280001 2.7179999 14
37.964001 -2.3069999 2.665 21
38.165001 -2.2839999 2.6099999 18
38.429001 -2.2639999 2.5569999 6
39.299 -2.279 2.5450001 5
39.534 -2.2550001 2.4879999 18
39.539001 -2.2179999 2.415 82
39.676998 -2.187 2.3510001 49
40.176998 -2.1760001 2.3080001 54
40.368 -2.1470001 2.2449999 60
40.922001 -2.1359999 2.201 64
41.110001 -2.1059999 2.1370001 47
41.917 -2.105 2.102 15
42.070999 -2.0699999 2.033 30
42.062 -2.027 1.956 56
42.091999 -1.9859999 1.88 39
42.148998 -1.946 1.807 11
0 0 0 81
46.011002 -2.029 1.8049999 85
46.004002 -1.979 1.72 22
0 0 0 3
42.661999 -1.747 1.442 11
0 0 0 0
0 0 0 0
0 0 0 3
0 0 0 0
0 0 0 0
0 0 0 0
0 0 0 0
0 0 0 0
0 0 0 12
57.876999 -1.7359999 0.91399997 150
58.209 -1.6799999 0.815 6
0 0 0 0
0 0 0 18
58.548 -1.489 0.50599998 36
0 0 0 0
0 0 0 11
65.920998 -1.448 0.22 49
65.946999 -1.3710001 0.103 75
65.927002 -1.294 -0.0099999998 73
66.043999 -1.2180001 -0.127 22
66.208 -1.142 -0.244 29
66.419998 -1.068 -0.35800001 11
0 0 0 13
71.300003 -0.97399998 -0.63599998 118
72.343002 -0.903 -0.76800001 29
72.419998 -0.815 -0.89499998 24
0 0 0 72
0 0 0 0
0 0 0 0
0 0 0 0
0 0 0 26
116.158 -0.44499999 -2.6389999 47
116.183 -0.29699999 -2.842 52
116.075 -0.152 -3.0350001 32
0 0 0 25
0 0 0 25
0 0 0 0
0 0 0 14
60.014999 0.303 -2.076 177
59.987999 0.38 -2.1760001 177
59.937 0.45699999 -2.2739999 154
0 0 0 150
64.706001 0.66299999 -2.671 29
0 0 0 0
0 0 0 0
0 0 0 0
0 0 0 0
0 0 0 1
0 0 0 1
24.462 0.477 -1.291 1
0 0 0 0
0 0 0 0
0 0 0 2
17.83 0.44299999 -1.056 2
0 0 0 2
15.04 0.41499999 -0.93900001 2
15.098 0.43700001 -0.96700001 4
14.702 0.44499999 -0.96499997 5
14.352 0.454 -0.96399999 9
13.697 0.45300001 -0.94199997 3
12.985 0.447 -0.91299999 3
12.576 0.44999999 -0.90399998 3
12.158 0.45199999 -0.89200002 3
11.814 0.45500001 -0.88499999 3
11.468 0.458 -0.87699997 2
11.078 0.458 -0.86400002 2
10.689 0.456 -0.85000002 3
10.403 0.458 -0.84299999 2
10.101 0.45899999 -0.83399999 2
9.8249998 0.461 -0.82599998 3
9.5749998 0.46200001 -0.81900001 4
9.3120003 0.463 -0.81 4
9.0839996 0.46399999 -0.80400002 4
8.9020004 0.46799999 -0.801 3
8.6829996 0.46799999 -0.79400003 3
8.4519997 0.46799999 -0.78600001 3
8.2159996 0.46599999 -0.77499998 3
8.0369997 0.46799999 -0.77100003 3
7.8270001 0.46599999 -0.76099998 3
7.6420002 0.46599999 -0.755 3
7.4840002 0.46700001 -0.74900001 4
7.3299999 0.46799999 -0.74400002 4
7.1620002 0.46799999 -0.73799998 4
7.0089998 0.46700001 -0.73199999 4
6.8499999 0.46700001 -0.72500002 4
6.6989999 0.46599999 -0.71799999 3
6.5560002 0.46599999 -0.71200001 3
6.4679999 0.46799999 -0.71100003 3
6.3429999 0.46900001 -0.70599997 3
6.2249999 0.46900001 -0.70099998 3
6.119 0.46900001 -0.69800001 3
6.0170002 0.47 -0.69400001 3
5.8889999 0.46900001 -0.68699998 2
5.7820001 0.46799999 -0.68199998 2
5.6869998 0.46900001 -0.67799997 2
5.618 0.47099999 -0.67799997 2
5.5279999 0.472 -0.67400002 3
5.4359999 0.472 -0.67000002 3
5.3460002 0.472 -0.66600001 3
5.283 0.47400001 -0.66500002 3
5.1869998 0.47299999 -0.65899998 3
5.1199999 0.47400001 -0.65700001 3
5.0500002 0.47499999 -0.65499997 3
4.974 0.47499999 -0.65100002 3
4.9089999 0.47499999 -0.64899999 4
4.849 0.477 -0.64700001 3
4.803 0.479 -0.64600003 3
4.744 0.47999999 -0.64399999 3
4.6929998 0.48199999 -0.64300001 3
4.631 0.48199999 -0.63999999 3
4.5749998 0.48300001 -0.63800001 3
4.526 0.484 -0.63599998 3
4.48 0.48500001 -0.63499999 3
4.4359999 0.48699999 -0.634 4
4.3720002 0.486 -0.63 3
4.3460002 0.49000001 -0.63099998 3
4.3270001 0.49399999 -0.634 2
4.336 0.50099999 -0.63999999 3
4.2160001 0.493 -0.62699997 2
4.1880002 0.49599999 -0.62699997 2
4.1869998 0.50199997 -0.63200003 2
4.0819998 0.495 -0.62 2
4.0549998 0.49700001 -0.62099999 2
4.0630002 0.50400001 -0.62599999 2
3.9779999 0.49900001 -0.61799997 2
4.0089998 0.509 -0.62699997 2
3.9070001 0.50099999 -0.61500001 2
3.8870001 0.50400001 -0.616 3
3.8239999 0.50199997 -0.61000001 2
3.8110001 0.505 -0.61199999 1
3.812 0.51099998 -0.616 3
3.7590001 0.509 -0.611 3
3.721 0.509 -0.60900003 2
3.7019999 0.51200002 -0.60900003 2
3.6989999 0.51599997 -0.61199999 3
3.631 0.51200002 -0.60500002 1
3.6400001 0.51800001 -0.61000001 1
3.5810001 0.51499999 -0.60299999 2
3.573 0.51899999 -0.60500002 2
3.566 0.523 -0.60799998 2
3.54 0.52399999 -0.60699999 2
3.447 0.51499999 -0.59399998 2
3.431 0.51700002 -0.59399998 2
3.444 0.52399999 -0.60000002 2
3.473 0.53299999 -0.60799998 2
3.4809999 0.53899997 -0.61199999 2
3.428 0.53500003 -0.60600001 2
3.3510001 0.528 -0.59500003 2
3.4030001 0.54100001 -0.60799998 2
3.3900001 0.54299998 -0.60799998 2
3.352 0.54100001 -0.60399997 2
3.425 0.55800003 -0.62 2
3.2709999 0.537 -0.59500003 2
3.3329999 0.55199999 -0.60900003 2
3.2019999 0.53399998 -0.588 2
3.1889999 0.53600001 -0.588 2
3.174 0.53799999 -0.588 2
3.155 0.53899997 -0.58700001 2
3.1400001 0.54000002 -0.58600003 2
3.1240001 0.542 -0.58600003 2
3.1110001 0.54400003 -0.58600003 2
3.0869999 0.54299998 -0.583 2
3.0910001 0.54799998 -0.58600003 1
3.1619999 0.565 -0.602 2
3.197 0.57499999 -0.611 2
3.0309999 0.54900002 -0.58099997 2
3.026 0.55199999 -0.583 2
3.01 0.55299997 -0.58200002 2
2.993 0.55299997 -0.57999998 2
2.9890001 0.55599999 -0.58200002 2
2.9790001 0.55800003 -0.58200002 2
2.9649999 0.55900002 -0.58099997 2
2.9419999 0.55800003 -0.57800001 2
2.938 0.56099999 -0.579 2
2.928 0.56300002 -0.579 2
2.9200001 0.565 -0.579 2
2.904 0.565 -0.57800001 2
2.8940001 0.56699997 -0.57800001 2
2.885 0.56800002 -0.57800001 2
2.8699999 0.56900001 -0.57599998 2
2.869 0.57200003 -0.57800001 2
2.855 0.57300001 -0.57700002 2
2.8429999 0.574 -0.57599998 2
2.8310001 0.574 -0.57499999 2
2.8239999 0.57599998 -0.57499999 2
2.813 0.57700002 -0.574 2
2.8080001 0.579 -0.57499999 2
2.789 0.57800001 -0.57200003 2
2.7920001 0.58200002 -0.574 2
2.779 0.583 -0.57300001 2
2.7739999 0.58499998 -0.57300001 2
2.763 0.58499998 -0.57200003 2
2.756 0.58700001 -0.57200003 2
2.75 0.588 -0.57200003 2
2.7460001 0.59100002 -0.57200003 2
2.7379999 0.59200001 -0.57200003 2
2.734 0.59399998 -0.57200003 2
2.7219999 0.59399998 -0.57099998 2
2.7190001 0.59600002 -0.57099998 2
2.7130001 0.59799999 -0.57099998 2
2.6930001 0.59600002 -0.56800002 2
2.6960001 0.60000002 -0.56900001 2
2.6889999 0.60100001 -0.56900001 2
2.684 0.602 -0.56900001 2
2.677 0.60299999 -0.56800002 2
2.678 0.60600001 -0.56900001 2
2.668 0.60600001 -0.56800002 2
2.664 0.60799998 -0.56800002 2
2.6670001 0.611 -0.56900001 2
2.654 0.611 -0.56699997 2
2.658 0.61400002 -0.56900001 2
2.6559999 0.616 -0.56900001 2
2.6429999 0.616 -0.56699997 2
2.6440001 0.61799997 -0.56800002 2
2.6389999 0.62 -0.56699997 2
2.6289999 0.62 -0.56599998 2
2.6289999 0.62199998 -0.56599998 2
2.6289999 0.62400001 -0.56699997 2
2.628 0.62599999 -0.56699997 2
2.6240001 0.62800002 -0.56699997 2
2.6199999 0.62900001 -0.56599998 2
2.618 0.63 -0.56599998 2
2.6170001 0.63200003 -0.56699997 2
2.6140001 0.634 -0.56599998 2
2.6110001 0.63499999 -0.56599998 2
2.6040001 0.63499999 -0.565 2
2.608 0.639 -0.56599998 2
2.605 0.63999999 -0.56599998 2
2.598 0.63999999 -0.565 2
2.602 0.64300001 -0.56599998 2
2.6010001 0.64499998 -0.56599998 2
2.592 0.64499998 -0.56400001 2
2.5940001 0.64700001 -0.565 2
2.5929999 0.648 -0.56400001 2
2.5899999 0.64999998 -0.56400001 2
2.5880001 0.65100002 -0.56400001 2
2.5869999 0.65200001 -0.56400001 2
2.5910001 0.65499997 -0.565 2
2.5910001 0.65700001 -0.565 2
2.596 0.66000003 -0.56599998 2
2.5880001 0.65899998 -0.56400001 2
2.589 0.66100001 -0.56400001 2
2.586 0.662 -0.56300002 2
2.5899999 0.66500002 -0.56400001 2
2.595 0.667 -0.565 2
2.5899999 0.66799998 -0.56400001 2
2.5969999 0.671 -0.565 2
2.595 0.67199999 -0.565 2
2.599 0.67400002 -0.565 2
2.6010001 0.676 -0.56599998 2
2.5999999 0.67699999 -0.565 2
2.5999999 0.67900002 -0.565 2
2.5999999 0.68000001 -0.565 2
2.6029999 0.68199998 -0.565 2
2.6059999 0.68400002 -0.565 2
2.6099999 0.68699998 -0.56599998 2
2.6040001 0.68599999 -0.56400001 2
2.6140001 0.69 -0.56599998 2
2.6110001 0.69 -0.565 2
2.619 0.69300002 -0.56599998 2
2.6199999 0.69499999 -0.56599998 2
2.6300001 0.699 -0.56699997 2
2.6270001 0.699 -0.56599998 2
2.6329999 0.70200002 -0.56699997 2
2.635 0.70300001 -0.56699997 2
2.6370001 0.704 -0.56599998 2
2.6440001 0.70700002 -0.56699997 2
2.6459999 0.70899999 -0.56699997 2
2.6470001 0.70999998 -0.56699997 2
2.6489999 0.71100003 -0.56599998 2
2.6489999 0.71200001 -0.565 2
2.6630001 0.71700001 -0.56800002 2
2.651 0.71399999 -0.565 2
2.668 0.71899998 -0.56699997 2
2.6700001 0.72100002 -0.56699997 2
2.6700001 0.72100002 -0.56599998 2
2.6800001 0.72500002 -0.56699997 2
2.684 0.72600001 -0.56699997 2
2.694 0.73000002 -0.56800002 2
2.6989999 0.73100001 -0.56800002 2
2.7 0.73199999 -0.56800002 2
2.7049999 0.73400003 -0.56800002 2
2.707 0.73500001 -0.56699997 2
2.7090001 0.736 -0.56599998 2
2.723 0.74000001 -0.56800002 2
2.727 0.741 -0.56800002 2
2.7390001 0.745 -0.56999999 2
2.737 0.745 -0.56800002 2
2.7490001 0.74800003 -0.56900001 2
2.7520001 0.74900001 -0.56900001 2
2.7639999 0.75300002 -0.56999999 2
2.7690001 0.75400001 -0.56999999 2
2.777 0.75700003 -0.56999999 2
2.789 0.75999999 -0.57099998 2
2.796 0.76200002 -0.57099998 2
2.8 0.76300001 -0.57099998 2
2.809 0.76499999 -0.57099998 2
2.819 0.76800001 -0.57200003 2
2.825 0.76999998 -0.57200003 2
2.8410001 0.77399999 -0.574 2
2.842 0.77399999 -0.57200003 2
2.849 0.77600002 -0.57200003 2
2.8570001 0.77700001 -0.57200003 2
2.865 0.77899998 -0.57200003 2
2.8729999 0.78100002 -0.57200003 2
2.8959999 0.787 -0.57499999 2
2.905 0.78899997 -0.57499999 2
2.9089999 0.79000002 -0.574 2
2.915 0.79100001 -0.574 2
2.9230001 0.79299998 -0.574 2
2.9430001 0.79799998 -0.57599998 2
2.947 0.79799998 -0.57499999 2
2.9630001 0.80199999 -0.57599998 2
2.974 0.80400002 -0.57700002 2
2.9909999 0.80800003 -0.57800001 2
2.9960001 0.80900002 -0.57700002 2
3.007 0.81099999 -0.57700002 2
3.0190001 0.81300002 -0.57800001 2
3.0280001 0.815 -0.57700002 2
3.0450001 0.81900001 -0.579 2
3.0580001 0.82099998 -0.579 2
3.0769999 0.82499999 -0.58099997 2
3.085 0.82700002 -0.57999998 2
3.0999999 0.82999998 -0.58099997 2
3.1059999 0.82999998 -0.57999998 2
3.1240001 0.83399999 -0.58099997 2
3.2479999 0.866 -0.602 2
3.184 0.847 -0.58700001 2
3.2260001 0.85699999 -0.59299999 2
3.355 0.88999999 -0.61400002 2
3.277 0.86799997 -0.59799999 2
3.224 0.85299999 -0.58600003 2
3.385 0.89399999 -0.61199999 2
3.3269999 0.87699997 -0.59899998 2
3.3599999 0.884 -0.60299999 2
3.362 0.88300002 -0.60000002 2
3.4000001 0.89099997 -0.60500002 2
3.381 0.884 -0.59899998 2
3.3299999 0.86900002 -0.58700001 1
3.3659999 0.87699997 -0.59100002 2
3.3970001 0.88300002 -0.59299999 1
3.392 0.88 -0.58999997 1
3.4419999 0.89099997 -0.59600002 2
3.4979999 0.903 -0.60299999 2
3.5179999 0.90600002 -0.60299999 2
3.4960001 0.898 -0.597 3
3.4879999 0.89399999 -0.59200001 1
3.5510001 0.90799999 -0.60000002 2
3.5580001 0.90799999 -0.59799999 2
3.5829999 0.912 -0.60000002 2
3.6210001 0.91900003 -0.60299999 2
3.674 0.93000001 -0.60900003 2
3.7980001 0.95899999 -0.62599999 3
3.723 0.93699998 -0.61000001 3
3.7119999 0.93199998 -0.60500002 3
3.733 0.93400002 -0.60600001 3
3.7590001 0.93800002 -0.60699999 3
3.809 0.94700003 -0.611 3
3.8050001 0.94400001 -0.60699999 3
3.8499999 0.95200002 -0.611 2
3.8640001 0.95200002 -0.61000001 3
3.8900001 0.95599997 -0.611 2
3.9189999 0.95999998 -0.61199999 2
3.9159999 0.95499998 -0.60699999 2
3.9879999 0.97000003 -0.61500001 3
4.0450001 0.98000002 -0.62 2
4.0320001 0.97399998 -0.61500001 2
4.0809999 0.98199999 -0.61799997 2
4.1209998 0.98799998 -0.62099999 2
4.0939999 0.97799999 -0.61299998 2
4.1820002 0.995 -0.62199998 2
4.2259998 1.001 -0.62400001 3
4.2540002 1.0039999 -0.625 2
4.302 1.011 -0.62800002 2
4.289 1.0039999 -0.62199998 4
4.335 1.011 -0.62400001 3
4.3639998 1.0140001 -0.62400001 4
4.4109998 1.02 -0.62699997 2
4.4580002 1.026 -0.62900001 2
4.4879999 1.029 -0.62900001 3
4.5370002 1.036 -0.63200003 2
4.5669999 1.038 -0.63200003 4
4.6079998 1.0420001 -0.63300002 2
4.651 1.0470001 -0.634 2
4.6869998 1.05 -0.63499999 4
4.7340002 1.056 -0.63599998 2
4.776 1.0599999 -0.63700002 4
4.8390002 1.069 -0.64099997 2
4.8759999 1.071 -0.64099997 2
4.9330001 1.079 -0.64399999 2
4.9790001 1.0829999 -0.64499998 2
5.0289998 1.0880001 -0.64700001 5
5.086 1.095 -0.64899999 4
5.1420002 1.101 -0.65100002 3
5.1939998 1.1059999 -0.653 3
5.276 1.117 -0.65799999 3
5.3299999 1.122 -0.65899998 4
5.3969998 1.13 -0.662 4
5.4520001 1.135 -0.66299999 4
5.5120001 1.14 -0.66500002 4
5.5770001 1.147 -0.667 4
5.6300001 1.151 -0.66799998 4
5.6830001 1.155 -0.66900003 5
5.7129998 1.154 -0.667 7
5.8249998 1.169 -0.67400002 6
5.914 1.179 -0.67799997 4
5.9970002 1.188 -0.68199998 4
6.0970001 1.2 -0.68699998 4
6.1900001 1.21 -0.69099998 4
6.2849998 1.22 -0.69599998 4
6.3699999 1.229 -0.699 5
6.4499998 1.235 -0.70099998 5
6.5289998 1.2410001 -0.70300001 5
6.6269999 1.251 -0.70700002 5
6.6989999 1.255 -0.708 5
6.829 1.27 -0.71499997 5
6.9239998 1.278 -0.71799999 6
7.0300002 1.288 -0.72100002 6
7.1479998 1.3 -0.727 4
7.257 1.309 -0.73000002 4
7.3660002 1.318 -0.73400003 4
7.4910002 1.33 -0.73900002 5
7.6199999 1.341 -0.74400002 5
7.7680001 1.3559999 -0.75 5
7.9180002 1.3710001 -0.75700003 5
8.1490002 1.399 -0.77100003 9
8.2250004 1.4 -0.76999998 15
8.3030005 1.401 -0.76899999 16
8.4250002 1.408 -0.77200001 14
8.5509996 1.4170001 -0.77499998 11
8.7110004 1.4299999 -0.78100002 7
8.8699999 1.443 -0.78600001 8
9.0319996 1.455 -0.792 6
9.1920004 1.467 -0.79699999 5
9.3559999 1.478 -0.801 5
9.4840002 1.483 -0.80299997 5
9.6540003 1.495 -0.80800003 5
9.8710003 1.513 -0.81599998 3
10.026 1.521 -0.81900001 4
10.197 1.53 -0.82300001 4
10.377 1.541 -0.82800001 3
10.583 1.554 -0.83399999 3
10.805 1.569 -0.84100002 4
11.032 1.584 -0.84799999 3
11.262 1.599 -0.85399997 3
11.502 1.614 -0.861 3
11.741 1.628 -0.86799997 3
11.978 1.641 -0.87400001 3
12.133 1.642 -0.87400001 3
12.402 1.6569999 -0.88099998 3
12.673 1.6720001 -0.889 3
13 1.694 -0.89899999 3
13.337 1.715 -0.91000003 3
13.613 1.728 -0.91600001 3
13.899 1.74 -0.92199999 3
14.21 1.7539999 -0.93000001 3
14.651 1.783 -0.94499999 3
15.041 1.8049999 -0.95599997 3
15.392 1.8200001 -0.96399999 2
15.784 1.839 -0.97399998 3
16.181 1.8559999 -0.98299998 3
16.586 1.874 -0.99299997 3
16.242001 1.806 -0.95700002 2
0 0 0 2
17.365999 1.869 -0.99199998 2
17.607 1.864 -0.99000001 1
18.59 1.9349999 -1.028 1
0 0 0 1
20.777 2.0869999 -1.112 1
21.309999 2.102 -1.122 1
0 0 0 1
24.627001 2.3380001 -1.253 1
0 0 0 25
0 0 0 25
0 0 0 25
0 0 0 25
0 0 0 25
0 0 0 25
0 0 0 25
0 0 0 25
0 0 0 3
0 0 0 0
0 0 0 7
38.360001 2.779 -1.559 13
38.272999 2.7 -1.525 19
38.209999 2.622 -1.4910001 22
38.138 2.5439999 -1.457 31
38.042999 2.464 -1.423 34
37.967999 2.3859999 -1.3890001 39
37.952 2.312 -1.359 6
37.882999 2.234 -1.327 10
37.860001 2.1589999 -1.296 5
37.762001 2.0799999 -1.263 12
37.846001 2.0109999 -1.237 6
37.689999 1.9299999 -1.2029999 5
37.550999 1.849 -1.171 17
37.521999 1.774 -1.141 52
37.486 1.699 -1.113 51
37.466 1.624 -1.084 56
37.428001 1.548 -1.0549999 56
37.409 1.474 -1.028 66
37.423 1.4 -1.001 72
37.450001 1.326 -0.97399998 39
37.518002 1.253 -0.949 24
37.605999 1.181 -0.92400002 45
37.661999 1.107 -0.89899999 20
37.766998 1.033 -0.875 70
37.798 0.95700002 -0.84899998 153
37.896999 0.88499999 -0.82599998 152
37.987999 0.81199998 -0.80299997 150
38.084 0.73699999 -0.77899998 85
38.183998 0.66100001 -0.75599998 23
38.356998 0.58600003 -0.73400003 7
0 0 0 0
0 0 0 60
0 0 0 0
0 0 0 0
0 0 0 64
0 0 0 0
0 0 0 0
0 0 0 81
132.78999 -0.419 -1.7869999 119
133.166 -0.69099998 -1.714 30
0 0 0 0
0 0 0 51
0 0 0 33
71.277 -0.95899999 -0.75099999 118
0 0 0 21
66.061996 -1.161 -0.62300003 100
65.898003 -1.295 -0.58499998 81
65.918999 -1.429 -0.55000001 113
65.890999 -1.5650001 -0.514 123
0 0 0 27
58.062 -1.6210001 -0.39199999 70
57.854 -1.7359999 -0.36000001 123
57.849998 -1.8559999 -0.331 131
57.028 -1.949 -0.29699999 64
56.778999 -2.059 -0.26800001 118
0 0 0 6
0 0 0 14
43.025002 -1.83 -0.141 3
0 0 0 95
46.960999 -2.1919999 -0.11 8
46.243 -2.256 -0.086999997 30
46.053001 -2.3429999 -0.066 56
45.932999 -2.4330001 -0.046 66
45.883999 -2.527 -0.026000001 17
0 0 0 61
42.067001 -2.493 0.011 15
41.872002 -2.5680001 0.028000001 59
41.647999 -2.642 0.045000002 51
41.632 -2.7279999 0.061000001 72
39.403 -2.6619999 0.072999999 16
39.259998 -2.7349999 0.088 49
39.264999 -2.8180001 0.103 36
38.574001 -2.848 0.115 7
37.908001 -2.8770001 0.127 2
37.646999 -2.9360001 0.139 33
37.633999 -3.013 0.152 30
37.651001 -3.092 0.16500001 34
35.785999 -3.016 0.169 8
35.296001 -3.0469999 0.17900001 9
34.806999 -3.079 0.18700001 8
34.396 -3.1129999 0.19599999 6
0 0 0 1
20.836 -1.971 0.131 1
0 0 0 25
0 0 0 25
0 0 0 25
0 0 0 25
0 0 0 1
0 0 0 25
0 0 0 1
0 0 0 25
0 0 0 25
0 0 0 25
0 0 0 25
0 0 0 25
0 0 0 25
0 0 0 0
0 0 0 0
0 0 0 0
0 0 0 0
0 0 0 0
0 0 0 0
0 0 0 0
0 0 0 0
0 0 0 0
0 0 0 1
0 0 0 0
0 0 0 0
0 0 0 0
0 0 0 0
0 0 0 0
0 0 0 0
0 0 0 0
0 0 0 0
0 0 0 0
0 0 0 0
0 0 0 0
0 0 0 0
0 0 0 0
0 0 0 0
0 0 0 0
0 0 0 1
19.219 -3.3710001 0.243 1
19.212 -3.408 0.244 1
0 0 0 8
34.284 -6.2140002 0.43599999 9
34.282001 -6.2789998 0.43700001 9
34.292 -6.3470001 0.43700001 9
34.249001 -6.4060001 0.43599999 29
34.259998 -6.473 0.43599999 19
34.228001 -6.5300002 0.43399999 42
34.208 -6.592 0.43399999 10
0 0 0 0
0 0 0 0
0 0 0 0
0 0 0 0
0 0 0 7
64.039001 -13.058 0.796 10
0 0 0 16
34.251999 -7.1100001 0.421 14
34.066002 -7.1329999 0.41600001 31
34.014 -7.184 0.41299999 53
34.001999 -7.243 0.41 90
33.986 -7.3010001 0.40700001 116
33.987 -7.362 0.403 116
34.006001 -7.4260001 0.40000001 122
34.013 -7.4879999 0.396 119
34.007 -7.5489998 0.39300001 121
34.014 -7.6100001 0.389 127
34.019001 -7.6719999 0.38499999 89
0 0 0 10
18.091 -4.1430001 0.199 18
18.032 -4.1609998 0.19599999 25
17.957001 -4.1750002 0.193 30
17.910999 -4.1950002 0.19 33
17.892 -4.2210002 0.18700001 26
17.864 -4.2459998 0.184 39
17.829 -4.2680001 0.18000001 41
17.809999 -4.2930002 0.177 38
17.792 -4.3189998 0.17399999 45
17.766001 -4.342 0.171 47
17.754999 -4.369 0.167 55
17.732 -4.3930001 0.164 58
17.726 -4.4200001 0.16 58
17.712999 -4.4460001 0.15700001 40
17.705 -4.473 0.153 43
17.691 -4.4980001 0.149 70
17.691 -4.526 0.146 65
17.691 -4.5549998 0.142 39
17.695999 -4.585 0.138 63
17.683001 -4.6090002 0.134 55
17.698999 -4.6420002 0.13 31
17.705999 -4.6700001 0.126 37
17.697001 -4.6960001 0.122 53
17.716999 -4.7280002 0.118 34
17.722 -4.757 0.114 32
17.722 -4.783 0.109 41
17.731001 -4.8130002 0.105 39
17.746 -4.8439999 0.101 27
17.763 -4.875 0.096000001 32
17.76 -4.901 0.090999998 29
17.830999 -4.9460001 0.086999997 20
17.872 -4.9840002 0.082000002 17
17.923 -5.0240002 0.077 15
17.985001 -5.0679998 0.072999999 3
0 0 0 0
0 0 0 3
0 0 0 0
0 0 0 0
0 0 0 0
0 0 0 2
0 0 0 0
0 0 0 2
38.112 -11.214 0.055 3
38.106998 -11.263 0.043000001 5
38.091 -11.308 0.030999999 5
38.091 -11.358 0.018999999 5
38.118 -11.415 0.0060000001 4
38.155998 -11.476 -0.0049999999 5
38.145 -11.521 -0.016000001 4
38.112 -11.56 -0.029999999 4
0 0 0 33
34.474998 -10.543 -0.050000001 47
34.476002 -10.585 -0.061000001 28
0 0 0 2
0 0 0 0
0 0 0 2
29.892 -9.3199997 -0.093999997 1
30.000999 -9.3889999 -0.104 2
0 0 0 0
0 0 0 0
0 0 0 0
0 0 0 0
0 0 0 0
0 0 0 0
0 0 0 10
34.528 -11.112 -0.22 12
34.523998 -11.147 -0.23199999 18
34.445999 -11.158 -0.244 17
34.331001 -11.156 -0.25600001 9
34.257 -11.166 -0.26800001 6
34.181 -11.176 -0.28 11
34.173 -11.207 -0.29300001 27
34.042 -11.197 -0.30500001 43
34.179001 -11.275 -0.31999999 23
33.951 -11.232 -0.33000001 45
0 0 0 1
13.182 -4.3850002 -0.138 1
13.16 -4.3899999 -0.14300001 7
13.126 -4.3899999 -0.148 12
13.154 -4.4120002 -0.153 17
13.16 -4.4250002 -0.15800001 19
13.112 -4.4200001 -0.163 21
13.084 -4.421 -0.167 25
13.055 -4.4229999 -0.17299999 31
12.987 -4.4099998 -0.177 38
12.947 -4.4070001 -0.18099999 42
12.949 -4.4180002 -0.18700001 42
12.952 -4.4289999 -0.192 42
12.908 -4.4229999 -0.19599999 42
12.877 -4.4219999 -0.20100001 47
12.846 -4.421 -0.206 48
12.827 -4.4239998 -0.211 50
12.828 -4.4330001 -0.21600001 47
12.878 -4.46 -0.222 42
12.909 -4.4790001 -0.228 42
12.863 -4.4720001 -0.23199999 42
12.864 -4.4809999 -0.23800001 42
12.899 -4.5009999 -0.244 42
12.905 -4.5110002 -0.249 47
12.864 -4.5040002 -0.25400001 50
12.817 -4.4959998 -0.25799999 49
12.79 -4.494 -0.26300001 48
12.782 -4.4980001 -0.26800001 45
12.775 -4.5019999 -0.273 41
12.761 -4.5040002 -0.27700001 41
12.764 -4.5120001 -0.28299999 41
12.746 -4.5120001 -0.287 46
12.733 -4.513 -0.29300001 47
12.731 -4.5190001 -0.29800001 49
12.725 -4.5229998 -0.303 50
12.726 -4.5289998 -0.308 50
12.721 -4.5320001 -0.31400001 51
12.716 -4.5359998 -0.31900001 49
12.738 -4.5489998 -0.32499999 47
12.743 -4.5560002 -0.33000001 41
12.764 -4.5679998 -0.336 41
12.751 -4.5679998 -0.34099999 41
12.759 -4.5749998 -0.34599999 41
12.766 -4.5819998 -0.352 41
12.766 -4.586 -0.35699999 41
12.744 -4.5819998 -0.36199999 41
12.735 -4.5819998 -0.36700001 41
12.734 -4.585 -0.37200001 41
12.728 -4.586 -0.377 43
12.726 -4.5890002 -0.382 43
12.721 -4.5900002 -0.38699999 46
12.709 -4.5879998 -0.39199999 41
12.711 -4.5910001 -0.39700001 44
12.692 -4.5869999 -0.40200001 41
12.711 -4.5949998 -0.40799999 41
12.695 -4.592 -0.412 37
12.688 -4.5910001 -0.417 37
12.68 -4.5890002 -0.42199999 34
12.658 -4.5830002 -0.42699999 32
12.667 -4.5869999 -0.43200001 30
12.642 -4.579 -0.43599999 41
12.642 -4.5799999 -0.44100001 27
12.631 -4.5770001 -0.44600001 24
12.627 -4.5760002 -0.45100001 41
12.626 -4.5749998 -0.456 41
12.635 -4.579 -0.461 25
12.621 -4.573 -0.46599999 41
12.625 -4.5739999 -0.47099999 25
12.627 -4.5749998 -0.47600001 41
12.617 -4.5700002 -0.48100001 41
12.627 -4.573 -0.486 25
12.618 -4.5689998 -0.49000001 41
12.618 -4.5669999 -0.495 41
12.628 -4.5689998 -0.50099999 25
12.623 -4.566 -0.505 26
12.614 -4.5609999 -0.50999999 41
12.632 -4.5650001 -0.51499999 25
12.616 -4.5570002 -0.51999998 38
12.627 -4.559 -0.52499998 25
12.614 -4.552 -0.52899998 41
12.615 -4.5489998 -0.53399998 41
12.625 -4.5500002 -0.53899997 26
12.621 -4.5450001 -0.54400003 41
12.611 -4.5380001 -0.54799998 40
12.626 -4.54 -0.55299997 24
12.609 -4.5300002 -0.55699998 40
12.616 -4.5289998 -0.56199998 37
12.621 -4.527 -0.56699997 41
12.618 -4.5209999 -0.57200003 25
12.617 -4.5159998 -0.57599998 26
12.617 -4.5120001 -0.58099997 27
12.61 -4.5040002 -0.58499998 25
12.618 -4.5019999 -0.58899999 28
12.612 -4.4949999 -0.59399998 27
12.611 -4.4889998 -0.59799999 25
12.608 -4.4819999 -0.602 24
12.615 -4.4790001 -0.60699999 23
12.617 -4.474 -0.611 24
12.611 -4.4660001 -0.616 38
12.613 -4.46 -0.62 25
12.611 -4.4530001 -0.62400001 23
12.606 -4.4450002 -0.62800002 23
12.608 -4.4390001 -0.63200003 25
12.612 -4.4330001 -0.63700002 24
12.605 -4.4239998 -0.63999999 25
12.603 -4.415 -0.64399999 40
12.614 -4.4120002 -0.64899999 27
12.611 -4.4029999 -0.653 23
12.605 -4.3930001 -0.65700001 40
12.611 -4.3870001 -0.66100001 25
12.614 -4.3800001 -0.66500002 23
12.604 -4.368 -0.66900003 36
12.615 -4.3629999 -0.67299998 17
12.626 -4.3579998 -0.67799997 19
12.659 -4.3600001 -0.68300003 8
12.693 -4.3629999 -0.68900001 8
12.688 -4.3520002 -0.69300002 14
12.73 -4.3569999 -0.69800001 12
12.754 -4.355 -0.70300001 9
12.783 -4.355 -0.708 11
12.808 -4.3530002 -0.713 13
12.835 -4.3520002 -0.71899998 13
12.872 -4.3540001 -0.72399998 12
12.874 -4.3439999 -0.72799999 17
12.892 -4.3390002 -0.73299998 18
12.96 -4.3509998 -0.74000001 13
12.986 -4.348 -0.745 14
13.009 -4.3439999 -0.75 10
13.038 -4.3429999 -0.755 8
13.082 -4.3449998 -0.76099998 9
13.094 -4.3369999 -0.76499999 13
13.128 -4.336 -0.76999998 12
13.184 -4.342 -0.77600002 11
13.185 -4.329 -0.77999997 18
13.231 -4.3319998 -0.78600001 12
13.272 -4.3319998 -0.79100001 14
13.306 -4.3299999 -0.796 14
13.338 -4.3270001 -0.801 9
13.375 -4.3249998 -0.80599999 11
13.419 -4.3249998 -0.81199998 9
13.462 -4.3249998 -0.81699997 9
13.495 -4.322 -0.82200003 11
13.554 -4.3260002 -0.82800001 9
13.575 -4.3179998 -0.83200002 3
0 0 0 1
21.665001 -6.8429999 -1.337 1
21.105 -6.6430001 -1.307 1
21.007 -6.5879998 -1.3049999 1
20.715 -6.4720001 -1.291 1
19.941 -6.2080002 -1.2460001 1
20.518 -6.3629999 -1.286 1
20.472 -6.3239999 -1.2869999 1
20.195 -6.2140002 -1.272 1
19.743 -6.0510001 -1.247 1
0 0 0 0
0 0 0 11
15.27 -4.6240001 -0.972 42
15.26 -4.6020002 -0.97299999 44
15.284 -4.5900002 -0.977 30
15.273 -4.5669999 -0.97799999 24
15.274 -4.5469999 -0.98000002 34
15.274 -4.527 -0.98199999 25
15.269 -4.506 -0.98400003 46
15.268 -4.4850001 -0.98500001 42
15.269 -4.4650002 -0.98699999 39
15.265 -4.4429998 -0.98900002 44
15.251 -4.4180002 -0.99000001 45
15.279 -4.4050002 -0.99299997 25
15.266 -4.381 -0.99299997 25
15.258 -4.3569999 -0.99400002 38
15.27 -4.3390002 -0.99599999 29
15.243 -4.3099999 -0.99599999 49
15.257 -4.2919998 -0.99800003 40
15.257 -4.2709999 -0.99900001 48
15.256 -4.2480001 -1 43
15.257 -4.2259998 -1.001 30
15.335 -4.2259998 -1.007 9
15.391 -4.2179999 -1.012 8
15.469 -4.217 -1.017 9
15.544 -4.2140002 -1.023 10
15.615 -4.211 -1.028 9
15.681 -4.2049999 -1.033 10
15.749 -4.1989999 -1.038 10
15.823 -4.1939998 -1.043 10
15.902 -4.191 -1.048 9
15.96 -4.1820002 -1.053 9
16.041 -4.178 -1.058 9
16.115 -4.1719999 -1.063 9
16.367001 -4.211 -1.079 6
16.465 -4.211 -1.086 20
16.194 -4.1160002 -1.067 18
16.267 -4.1079998 -1.072 16
16.233999 -4.0739999 -1.069 15
16.222 -4.0450001 -1.068 15
16.208 -4.0149999 -1.067 15
16.263 -4.0019999 -1.069 15
16.348 -3.9960001 -1.074 13
16.367001 -3.974 -1.074 12
16.403999 -3.9560001 -1.076 14
16.479 -3.9460001 -1.079 15
16.497 -3.9230001 -1.079 14
16.593 -3.918 -1.084 13
16.569 -3.885 -1.082 12
16.660999 -3.878 -1.086 10
0 0 0 9
17.674999 -4.0539999 -1.148 8
16.789 -3.822 -1.089 6
17.652 -3.9879999 -1.143 4
17.66 -3.9590001 -1.141 3
16.714001 -3.7179999 -1.0779999 2
16.753 -3.697 -1.0779999 2
16.738001 -3.665 -1.075 2
16.886999 -3.6670001 -1.082 2
16.783001 -3.615 -1.073 1
16.941 -3.6199999 -1.08 1
17.011999 -3.6040001 -1.082 1
17.066999 -3.585 -1.082 1
17.173 -3.5769999 -1.086 1
17.452 -3.6040001 -1.101 1
17.603001 -3.6040001 -1.107 2
17.545 -3.5599999 -1.1 2
0 0 0 0
0 0 0 1
0 0 0 5
18.173 -3.5550001 -1.124 5
18.211 -3.5280001 -1.122 5
18.226999 -3.4979999 -1.118 4
18.216999 -3.4619999 -1.113 4
18.236 -3.4319999 -1.11 4
18.330999 -3.4159999 -1.1109999 3
0 0 0 0
0 0 0 0
0 0 0 1
19.466 -3.4820001 -1.159 2
19.621 -3.473 -1.1619999 2
19.997 -3.5009999 -1.179 2
19.934 -3.4519999 -1.169 1
20.097 -3.4430001 -1.1720001 1
0 0 0 0
0 0 0 4
20.907 -3.4619999 -1.2 4
20.912001 -3.424 -1.193 4
20.917999 -3.385 -1.186 4
20.924 -3.346 -1.179 4
21.024 -3.3210001 -1.178 4
21.275 -3.3199999 -1.184 5
0 0 0 2
0 0 0 0
0 0 0 19
25.757999 -3.8180001 -1.3940001 23
25.774 -3.77 -1.385 22
25.849001 -3.7309999 -1.378 20
25.931999 -3.6930001 -1.372 19
26.018999 -3.654 -1.3660001 12
26.236 -3.6329999 -1.3660001 6
0 0 0 1
18.275999 -2.4590001 -0.935 1
18.235001 -2.4170001 -0.92500001 2
17.966999 -2.346 -0.90399998 2
18.01 -2.316 -0.89700001 4
18.139 -2.296 -0.89499998 5
17.969999 -2.2390001 -0.87800002 4
17.927 -2.1989999 -0.86799997 4
17.902 -2.1600001 -0.85799998 3
17.868 -2.1199999 -0.847 5
17.882 -2.086 -0.83899999 4
17.865 -2.049 -0.829 3
17.872999 -2.0150001 -0.81999999 3
17.917999 -1.984 -0.81300002 3
17.952999 -1.952 -0.80500001 2
18.025999 -1.924 -0.79799998 3
18.038 -1.89 -0.78899997 3
18.056999 -1.8559999 -0.77999997 4
18.059 -1.8200001 -0.76999998 3
18.184999 -1.7970001 -0.76499999 4
19.176001 -1.8559999 -0.796 2
19.407 -1.84 -0.79400003 2
19.629 -1.822 -0.792 2
19.924999 -1.811 -0.792 1
20.224001 -1.7970001 -0.792 2
20.591 -1.789 -0.79400003 2
20.875999 -1.772 -0.792 5
21.233999 -1.76 -0.79299998 3
21.43 -1.734 -0.787 3
0 0 0 33
37.608002 -2.892 -1.3329999 20
37.181999 -2.7850001 -1.294 22
0 0 0 150
25.479 -1.806 -0.85299999 157
25.474001 -1.755 -0.83499998 158
25.459 -1.7029999 -0.81800002 150
25.75 -1.671 -0.81 7
26.615999 -1.674 -0.81800002 1
0 0 0 56
0 0 0 9
36.389999 -2.0710001 -1.0420001 23
36.368 -1.997 -1.016 47
37.476002 -1.983 -1.0190001 10
0 0 0 0
0 0 0 6
0 0 0 11
39.339001 -1.767 -0.95300001 9
0 0 0 37
42.480999 -1.74 -0.96499997 37
42.870998 -1.67 -0.94 38
43.286999 -1.602 -0.91600001 39
43.562 -1.526 -0.88800001 28
43.550999 -1.441 -0.85399997 3
43.169998 -1.3430001 -0.81199998 5
43.265999 -1.26 -0.77899998 3
0 0 0 0
0 0 0 139
65.873001 -1.53 -1.025 150
65.890999 -1.401 -0.97000003 79
65.869003 -1.271 -0.91500002 75
66.237999 -1.148 -0.86400002 29
69.088997 -1.062 -0.84299999 34
71.334999 -0.95700002 -0.80900002 97
72.393997 -0.83200002 -0.75999999 28
0 0 0 53
0 0 0 0
0 0 0 26
0 0 0 82
132.791 -0.236 -0.81 76
132.696 0.02 -0.69 68
132.745 0.27599999 -0.57099998 41
0 0 0 0
0 0 0 0
0 0 0 0
0 0 0 0
0 0 0 0
0 0 0 0
0 0 0 0
0 0 0 0
0 0 0 15
87.508003 1.853 0.442 17
87.535004 2.017 0.52499998 16
87.306 2.1760001 0.60799998 11
0 0 0 0
0 0 0 0
0 0 0 0
0 0 0 0
0 0 0 0
0 0 0 45
88.168999 3.3380001 1.222 19
88.295998 3.506 1.313 15
0 0 0 0
0 0 0 12
86.869003 3.927 1.558 25
86.999001 4.0900002 1.649 24
87.860001 4.29 1.756 19
0 0 0 0
0 0 0 37
0 0 0 0
0 0 0 26
91.724998 5.303 2.3139999 20
0 0 0 0
0 0 0 14
88.038002 5.5619998 2.503 17
87.925003 5.71 2.595 31
87.792 5.8540001 2.6849999 25
0 0 0 0
0 0 0 23
87.015999 6.2610002 2.9460001 15
86.792 6.3940001 3.0320001 19
86.580002 6.5250001 3.119 16
0 0 0 0
0 0 0 0
0 0 0 0
0 0 0 0
0 0 0 0
0 0 0 16
89.551003 7.8130002 3.921 15
0 0 0 150
115.966 10.51 5.3410001 150
115.901 10.697 5.4689999 116
115.903 10.883 5.598 86
0 0 0 19
0 0 0 5
44.466999 4.3930001 2.299 14
44.872002 4.5079999 2.372 16
44.855 4.5780001 2.4219999 42
44.290001 4.592 2.4430001 29
44.146999 4.6479998 2.4860001 35
44.152 4.717 2.536 46
44.084999 4.7810001 2.5840001 40
44.173 4.8610001 2.6400001 39
44.105999 4.9229999 2.688 41
44.235001 5.007 2.747 41
44.169998 5.0679998 2.7950001 39
44.055 5.1230001 2.839 41
43.785 5.1589999 2.872 47
43.766998 5.224 2.9219999 38
43.727001 5.2859998 2.971 60
43.566002 5.3330002 3.0109999 44
43.462002 5.3860002 3.0550001 40
43.424 5.4460001 3.1040001 43
43.446999 5.5139999 3.1570001 36
43.541 5.5900002 3.214 32
43.591999 5.6609998 3.27 17
43.638 5.7309999 3.325 5
0 0 0 10
34.175999 4.5879998 2.684 24
33.944 4.6040001 2.7060001 23
33.57 4.6030002 2.717 29
33.456001 4.6350002 2.7460001 50
33.306 4.6609998 2.7739999 48
33.275002 4.704 2.8110001 53
33.292 4.7529998 2.852 52
33.303001 4.8010001 2.8929999 43
33.347 4.8530002 2.9349999 33
33.387001 4.9050002 2.9790001 16
33.435001 4.9580002 3.023 12
0 0 0 0
0 0 0 0
0 0 0 33
44.153999 6.7839999 4.2020001 40
44.056 6.8270001 4.2449999 41
44.105999 6.8930001 4.303 36
44.307999 6.9819999 4.375 42
44.574001 7.0819998 4.4549999 35
42.078999 6.7399998 4.256 10
42.188999 6.8109999 4.3169999 19
42.115002 6.8540001 4.3590002 25
41.902 6.8720002 4.3870001 31
41.888 6.9219999 4.434 31
41.887001 6.973 4.4840002 31
41.824001 7.0139999 4.527 25
41.787998 7.059 4.573 17
41.830002 7.1170001 4.6269999 9
41.937 7.1859999 4.6880002 4
0 0 0 19
46.234001 8.0310001 5.276 27
47.623001 8.3280001 5.4910002 28
47.794998 8.4139996 5.5669999 29
48.049 8.5139999 5.6529999 29
47.945 8.5509996 5.697 38
47.698002 8.5609999 5.724 49
47.547001 8.5869999 5.7610002 37
47.139999 8.566 5.7659998 37
47.169998 8.6230001 5.8239999 39
47.173 8.6750002 5.8800001 33
0 0 0 3
41.841 7.7849998 5.3119998 9
41.783001 7.8179998 5.3520002 13
41.785999 7.8629999 5.4000001 18
41.764999 7.9029999 5.4460001 17
41.789001 7.9499998 5.4970002 14
41.750999 7.9860001 5.54 19
41.740002 8.026 5.586 21
41.744999 8.0690002 5.6329999 23
41.683998 8.1000004 5.6729999 22
41.574001 8.1190004 5.7049999 21
41.502998 8.1459999 5.7420001 13
41.577999 8.1999998 5.7979999 17
41.625999 8.2489996 5.8520002 27
41.976002 8.3579998 5.948 26
41.783001 8.3590002 5.9660001 30
41.563 8.3529997 5.98 31
41.338001 8.3450003 5.994 37
41.245998 8.3640003 6.026 37
41.062 8.3629999 6.0430002 28
0 0 0 0
0 0 0 14
40.292999 8.3109999 6.0619998 23
40.43 8.3739996 6.1269999 27
40.159 8.3509998 6.1279998 20
39.983002 8.3479996 6.1440001 26
39.821999 8.3470001 6.1620002 35
39.785 8.3710003 6.1989999 29
39.821999 8.4110003 6.2470002 29
39.803001 8.4379997 6.2859998 30
39.603001 8.4259996 6.296 34
39.532001 8.441 6.3260002 34
39.604 8.4860001 6.3790002 34
39.793999 8.5559998 6.4489999 35
40.009998 8.632 6.526 30
40.283001 8.7200003 6.612 30
40.304001 8.7530003 6.6560001 25
40.289001 8.7779999 6.6950002 24
40.344002 8.8190002 6.744 30
40.486 8.8769999 6.809 36
40.514 8.9099998 6.8530002 34
40.521999 8.9370003 6.895 36
40.540001 8.9689999 6.9380002 29
40.567001 9 6.9809999 15
40.650002 9.0430002 7.0359998 7
0 0 0 35
45.48 10.173 7.9580002 27
0 0 0 4
40.633999 9.1359997 7.1880002 9
40.558998 9.1420002 7.2129998 13
40.494999 9.1499996 7.2399998 22
40.43 9.1590004 7.2659998 29
40.324001 9.1560001 7.2839999 36
40.271999 9.165 7.3119998 36
40.230999 9.177 7.3400002 36
40.194 9.1890001 7.3699999 36
40.261002 9.224 7.4190001 36
40.358002 9.2650003 7.473 31
40.417999 9.2980003 7.52 31
40.459 9.3260002 7.5630002 31
40.449001 9.342 7.5960002 30
40.48 9.3660002 7.6370001 37
40.463001 9.3800001 7.6680002 37
40.459999 9.3959999 7.7020001 30
40.404999 9.3990002 7.7259998 24
40.386002 9.4110003 7.7550001 18
40.331001 9.4119997 7.7779999 10
40.297001 9.4189997 7.8039999 5
42.613998 9.9759998 8.2880001 33
42.527 9.9709997 8.3059998 33
42.451 9.967 8.3240004 32
42.397999 9.9689999 8.3470001 31
42.324001 9.9650002 8.3649998 32
42.256001 9.9619999 8.3839998 30
42.201 9.9610004 8.4060001 28
42.132 9.9560003 8.4250002 22
42.070999 9.9530001 8.4440002 19
41.924 9.9300003 8.4449997 22
41.786999 9.9069996 8.448 22
41.702999 9.8970003 8.4619999 22
41.577999 9.8769999 8.467 22
41.476002 9.8610001 8.4759998 22
41.308998 9.8310003 8.4700003 22
41.245998 9.823 8.4860001 22
41.088001 9.7930002 8.4820004 22
40.942001 9.7650003 8.4799995 23
40.780998 9.7329998 8.474 26
40.709999 9.7229996 8.4860001 28
40.673 9.7200003 8.5050001 24
40.587002 9.7040005 8.5129995 25
40.52 9.6929998 8.5249996 28
40.438 9.6780005 8.5319996 26
40.359001 9.6619997 8.5410004 25
40.23 9.6350002 8.5380001 26
40.131001 9.6140003 8.5419998 21
39.983002 9.5810003 8.5340004 25
39.893002 9.5609999 8.5380001 27
39.757999 9.5299997 8.533 29
39.709999 9.5190001 8.5450001 30
39.613998 9.4969997 8.5450001 35
39.57 9.4870005 8.5579996 35
39.533001 9.4779997 8.5710001 34
39.505001 9.4709997 8.585 34
39.486 9.4639997 8.6029997 35
39.582001 9.4860001 8.6429996 28
39.683998 9.5080004 8.6859999 26
39.452 9.4499998 8.6549997 19
39.438 9.4440002 8.6709995 15
39.436001 9.441 8.6879997 11
0 0 0 0
0 0 0 22
40.848 9.7670002 9.0539999 26
40.82 9.7550001 9.066 29
40.764999 9.7360001 9.0710001 31
40.681999 9.71 9.0699997 32
40.584999 9.6809998 9.0649996 37
40.522999 9.6590004 9.0670004 37
40.465 9.6370001 9.0699997 37
40.456001 9.6269999 9.0839996 37
40.438999 9.6160002 9.0939999 37
40.479 9.6169996 9.118 37
40.480999 9.6079998 9.1330004 37
40.539001 9.6129999 9.1590004 37
40.540001 9.6029997 9.1719999 37
40.558998 9.5970001 9.1899996 37
40.549999 9.585 9.2010002 37
40.601002 9.585 9.2250004 37
40.604 9.5740004 9.2370005 37
40.602001 9.5620003 9.2469997 30
40.571999 9.5430002 9.2519999 30
40.585999 9.533 9.2659998 29
40.641998 9.533 9.2889996 27
40.666 9.5249996 9.3039999 28
40.665001 9.5100002 9.3129997 29
40.667 9.4960003 9.323 30
40.758999 9.5030003 9.3520002 30
40.411999 9.4069996 9.2799997 21
40.431999 9.3959999 9.2930002 18
40.485001 9.3920002 9.3120003 16
40.486 9.375 9.3199997 16
40.504002 9.3620005 9.3299999 16
40.540001 9.3540001 9.3439999 13
40.448002 9.3149996 9.3290005 14
41.652 9.5740004 9.6110001 27
41.801998 9.5900002 9.6499996 28
41.903 9.5930004 9.6780005 30
41.931 9.5790005 9.6890001 30
41.948002 9.5629997 9.6969995 29
41.953999 9.5430002 9.7010002 27
41.919998 9.5150003 9.6949997 29
41.896 9.4870005 9.6920004 30
41.883999 9.4630003 9.6899996 31
41.839001 9.4309998 9.6820002 32
41.819 9.4029999 9.6780005 31
41.842999 9.3850002 9.684 32
41.884998 9.3710003 9.6940002 31
41.844002 9.3369999 9.684 30
41.818001 9.3079996 9.677 32
41.852001 9.2910004 9.684 32
41.817001 9.2580004 9.6739998 32
41.804001 9.2290001 9.6689997 39
41.793999 9.2010002 9.6639996 38
41.924999 9.2030001 9.691 33
41.972 9.1859999 9.6990004 40
41.919998 9.1490002 9.6820002 40
41.896999 9.1160002 9.6730003 40
41.925999 9.0939999 9.6750002 40
41.932999 9.0670004 9.6709995 40
41.955002 9.0430002 9.6700001 40
41.924 9.0080004 9.6560001 32
41.931999 8.9790001 9.6520004 40
41.944 8.9530001 9.6470003 32
42.004002 8.9359999 9.6529999 32
41.988998 8.9020004 9.6409998 40
41.848 8.8409996 9.6009998 39
41.800999 8.8000002 9.5810003 39
41.915001 8.7919998 9.5979996 40
42.049999 8.79 9.618 32
41.923 8.7309999 9.5790005 16
41.911999 8.6960001 9.566 13
41.800999 8.6400003 9.5299997 14
41.729 8.592 9.5019999 16
41.588001 8.5290003 9.4580002 18
41.573002 8.4919996 9.4420004 23
41.617001 8.4680004 9.4390001 27
41.544998 8.4180002 9.4099998 24
41.585999 8.3920002 9.4049997 27
41.709 8.382 9.4180002 34
41.75 8.3540001 9.4130001 33
41.752998 8.3190002 9.3979998 25
41.783001 8.2889996 9.3900003 29
41.742001 8.2449999 9.3640003 23
41.838001 8.2270002 9.3690004 20
41.918999 8.2060003 9.3699999 21
42.002998 8.184 9.3719997 20
41.952999 8.1370001 9.3409996 19
41.904999 8.0889997 9.3120003 24
41.966 8.0640001 9.3070002 25
42.02 8.0349998 9.2989998 25
42.102001 8.0120001 9.2989998 26
42.055 7.9640002 9.2679996 25
42.066002 7.9260001 9.25 28
42.096001 7.8920002 9.2349997 31
42.115002 7.855 9.217 29
42.118999 7.816 9.1960001 30
42.157001 7.783 9.1820002 26
42.134998 7.7360001 9.1540003 29
42.201 7.7059999 9.1450005 32
42.318001 7.6859999 9.1470003 14
42.466 7.6700001 9.1540003 8
0 0 0 0
0 0 0 0
0 0 0 56
115.671 20.427 24.652 61
115.684 20.309999 24.582001 64
115.694 20.194 24.513 69
115.719 20.077999 24.438999 65
115.683 19.950001 24.358999 71
115.727 19.834999 24.290001 63
115.714 19.711 24.205 52
115.757 19.597 24.136999 46
115.715 19.466999 24.042999 48
115.709 19.341999 23.959 45
115.746 19.223 23.882999 49
115.818 19.108 23.812 54
115.804 18.98 23.723 50
115.829 18.857 23.639999 46
115.834 18.73 23.552999 54
115.824 18.603001 23.459999 63
115.798 18.466999 23.364 50
115.846 18.348 23.281 46
115.835 18.216999 23.184999 55
115.879 18.093 23.099001 53
115.931 17.969999 23.013 48
115.846 17.825001 22.899 48
115.89 17.702999 22.809 51
115.867 17.566999 22.705 49
115.923 17.443001 22.615 55
115.882 17.304001 22.502001 53
115.898 17.171 22.405001 63
116.044 17.062 22.329 24
116.099 16.934999 22.233999 22
116.196 16.813 22.145 23
116.138 16.669001 22.025999 22
116.172 16.537001 21.923 27
116.142 16.396 21.806999 25
0 0 0 0
0 0 0 0
0 0 0 24
116.092 15.844 21.344999 24
116.178 15.717 21.243999 33
116.111 15.569 21.114 31
116.123 15.431 20.997999 43
116.043 15.284 20.864 45
116.041 15.144 20.743 52
116.065 15.007 20.625 69
116.067 14.866 20.503 70
116.083 14.727 20.381001 75
116.059 14.583 20.252001 62
116.069 14.446 20.128 66
116.063 14.303 19.999001 64
116.054 14.16 19.868999 51
116.124 14.027 19.747 47
116.138 13.886 19.622 48
116.245 13.759 19.509001 38
116.35 13.628 19.393 27
116.313 13.48 19.252001 29
116.366 13.342 19.125 31
116.327 13.194 18.979 32
116.352 13.053 18.844999 26
116.283 12.905 18.695999 35
116.421 12.775 18.577999 27
116.414 12.63 18.438999 27
116.404 12.484 18.291 32
116.359 12.334 18.141001 31
116.372 12.191 17.999001 27
116.42 12.051 17.861 27
116.48 11.915 17.724001 32
0 0 0 0
0 0 0 31
116.505 11.485 17.285999 26
116.413 11.33 17.122 27
116.444 11.187 16.975 27
116.313 11.033 16.804001 38
116.32 10.888 16.652 56
116.299 10.74 16.49 57
116.337 10.598 16.34 76
116.29 10.449 16.177 67
116.331 10.307 16.025 78
116.291 10.158 15.86 110
116.306 10.014 15.702 72
116.389 9.8760004 15.553 74
116.488 9.7419996 15.405 60
116.72 9.6149998 15.273 31
0 0 0 0
0 0 0 0
0 0 0 0
0 0 0 23
0 0 0 0
0 0 0 0
0 0 0 0
0 0 0 0
0 0 0 28
0 0 0 0
0 0 0 0
0 0 0 0
0 0 0 27
116.628 7.5929999 12.882 26
116.516 7.4390001 12.691 43
116.465 7.296 12.509 60
116.472 7.1529999 12.331 65
116.439 7.0089998 12.151 74
116.53 6.8709998 11.976 68
116.499 6.7270002 11.791 78
116.506 6.5890002 11.615 80
116.496 6.447 11.43 77
116.545 6.3109999 11.253 89
116.608 6.1700001 11.072 68
116.795 6.0419998 10.905 47
116.968 5.9089999 10.73 35
0 0 0 0
0 0 0 0
0 0 0 0
0 0 0 36
119.183 5.3099999 9.9709997 41
0 0 0 0
0 0 0 0
0 0 0 0
0 0 0 26
119.131 4.6090002 8.9840002 42
119.17 4.473 8.7889996 45
119.218 4.335 8.592 41
119.29 4.2020001 8.401 31
119.299 4.0640001 8.1990004 28
119.33 3.9260001 7.994 29
119.241 3.783 7.7820001 31
119.322 3.648 7.5819998 34
119.362 3.5109999 7.3759999 30
119.317 3.3770001 7.1729999 31
119.372 3.2420001 6.9689999 36
119.358 3.1059999 6.7600002 27
119.252 2.9679999 6.5419998 41
119.188 2.829 6.3270001 56
119.197 2.698 6.1209998 78
119.171 2.5639999 5.9089999 78
119.148 2.431 5.697 63
0 0 0 12
0 0 0 80
119.234 2.0369999 5.0640001 76
119.459 1.913 4.862 80
119.82 1.788 4.6620002 40
0 0 0 0
0 0 0 0
0 0 0 0
0 0 0 0
0 0 0 14
81.795998 0.69400001 2.293 20
81.894997 0.60900003 2.1459999 38
82.232002 0.52600002 2.006 24
84.471001 0.45199999 1.905 19
85.564003 0.36899999 1.772 24
86.033997 0.28200001 1.622 21
83.418999 0.18799999 1.42 17
83.124001 0.102 1.26 36
83.625999 0.017999999 1.112 23
84.264 -0.067000002 0.963 17
0 0 0 25
0 0 0 43
72.697998 -0.273 0.42699999 9
0 0 0 0
0 0 0 0
0 0 0 40
72.198997 -0.55500001 -0.121 75
72.205002 -0.62599999 -0.25999999 78
72.194 -0.69400001 -0.39300001 61
72.249001 -0.76200002 -0.52899998 43
72.355003 -0.83200002 -0.66799998 24
71.411003 -0.89099997 -0.80000001 77
71.274002 -0.954 -0.93099999 86
69.124001 -0.99000001 -1.036 30
69.046997 -1.053 -1.1670001 124
69.009003 -1.115 -1.298 7
65.975998 -1.126 -1.368 9
65.852997 -1.184 -1.492 59
65.875999 -1.244 -1.62 34
65.907997 -1.303 -1.747 18
65.851997 -1.36 -1.873 33
0 0 0 0
0 0 0 36
0 0 0 0
0 0 0 6
0 0 0 19
43.359001 -1.1210001 -1.739 37
43.084 -1.15 -1.812 38
42.98 -1.183 -1.892 31
42.955002 -1.2180001 -1.975 11
0 0 0 2
0 0 0 0
0 0 0 4
0 0 0 0
0 0 0 0
0 0 0 1
0 0 0 1
17.280001 -0.60000002 -1.0650001 2
16.281 -0.57800001 -1.036 2
15.343 -0.55699998 -1.006 2
14.528 -0.53799999 -0.98100001 2
13.86 -0.52399999 -0.963 3
13.179 -0.50800002 -0.94199997 3
12.585 -0.49399999 -0.92400002 3
12.073 -0.48300001 -0.91000003 2
11.6 -0.472 -0.898 2
11.13 -0.461 -0.88300002 2
10.675 -0.44999999 -0.86799997 3
10.251 -0.43900001 -0.85399997 3
9.8970003 -0.43099999 -0.84399998 3
9.5600004 -0.42199999 -0.83399999 4
9.2449999 -0.41499999 -0.82499999 4
8.96 -0.40799999 -0.81699997 3
8.6409998 -0.39899999 -0.80500001 2
8.3319998 -0.38999999 -0.792 4
8.1000004 -0.38499999 -0.78600001 5
7.8559999 -0.37799999 -0.778 4
7.5760002 -0.36899999 -0.76499999 4
7.3260002 -0.36199999 -0.75400001 4
7.1529999 -0.35800001 -0.75 4
6.941 -0.35100001 -0.74199998 4
6.737 -0.345 -0.73299998 3
6.5500002 -0.34 -0.72500002 3
6.3909998 -0.33500001 -0.72000003 3
6.2399998 -0.331 -0.71600002 4
6.0689998 -0.32499999 -0.708 3
5.9299998 -0.32100001 -0.70300001 3
5.7719998 -0.31600001 -0.69599998 3
5.6389999 -0.31200001 -0.69099998 4
5.5089998 -0.308 -0.68599999 4
5.3800001 -0.303 -0.68000001 4
5.2670002 -0.30000001 -0.676 5
5.1420002 -0.29499999 -0.67000002 4
5.0320001 -0.292 -0.66500002 4
4.9590001 -0.28999999 -0.66500002 3
4.8800001 -0.28799999 -0.66399997 5
4.7740002 -0.28400001 -0.65899998 2
4.6859999 -0.28099999 -0.65600002 3
4.612 -0.27900001 -0.65399998 2
4.5149999 -0.27500001 -0.64899999 4
4.4330001 -0.27200001 -0.64600003 3
4.316 -0.26699999 -0.63700002 5
4.2490001 -0.26499999 -0.63499999 8
4.1849999 -0.26300001 -0.634 11
4.1300001 -0.26100001 -0.63300002 12
4.0630002 -0.259 -0.63099998 11
3.9979999 -0.25600001 -0.62900001 11
3.9430001 -0.25400001 -0.62699997 10
3.8840001 -0.252 -0.625 11
3.822 -0.25 -0.62199998 10
3.7720001 -0.248 -0.62199998 10
3.717 -0.24600001 -0.62 10
3.658 -0.243 -0.61699998 9
3.6059999 -0.241 -0.61500001 10
3.5550001 -0.23899999 -0.61199999 10
3.513 -0.23800001 -0.61199999 9
3.4679999 -0.236 -0.61000001 9
3.438 -0.235 -0.611 7
3.3929999 -0.233 -0.61000001 4
3.349 -0.23100001 -0.60799998 3
3.3610001 -0.233 -0.61699998 1
3.3640001 -0.235 -0.62300003 2
3.2639999 -0.229 -0.611 1
3.299 -0.23199999 -0.62300003 1
3.2130001 -0.227 -0.61299998 1
3.1800001 -0.226 -0.61199999 1
3.178 -0.227 -0.61799997 1
3.142 -0.22499999 -0.616 2
3.049 -0.219 -0.60399997 2
3.0420001 -0.219 -0.60799998 2
2.9170001 -0.211 -0.588 2
2.8829999 -0.20999999 -0.58600003 2
2.852 -0.208 -0.58499998 2
2.8299999 -0.207 -0.58600003 2
2.793 -0.205 -0.583 2
2.763 -0.20299999 -0.58099997 2
2.7309999 -0.20200001 -0.57999998 2
2.714 -0.20100001 -0.58099997 2
2.6819999 -0.199 -0.579 2
2.6619999 -0.198 -0.579 2
2.6359999 -0.197 -0.57800001 1
2.6070001 -0.19499999 -0.57599998 1
2.579 -0.19400001 -0.574 1
2.5580001 -0.193 -0.574 1
2.5409999 -0.192 -0.574 1
2.51 -0.19 -0.57200003 1
2.4979999 -0.189 -0.57300001 1
2.4690001 -0.18799999 -0.57099998 1
2.4449999 -0.186 -0.56900001 1
2.4289999 -0.185 -0.56900001 1
2.4100001 -0.184 -0.56900001 1
2.388 -0.183 -0.56800002 1
2.3729999 -0.182 -0.56800002 1
2.3529999 -0.18099999 -0.56699997 1
2.3369999 -0.18000001 -0.56699997 1
2.3150001 -0.178 -0.56599998 1
2.2939999 -0.177 -0.56400001 1
2.2780001 -0.176 -0.56400001 1
2.266 -0.175 -0.565 1
2.2460001 -0.17399999 -0.56300002 1
2.2290001 -0.17299999 -0.56300002 1
2.211 -0.171 -0.56099999 1
2.1960001 -0.17 -0.56099999 1
2.1860001 -0.17 -0.56199998 1
2.1719999 -0.169 -0.56199998 1
2.1589999 -0.168 -0.56199998 1
2.141 -0.167 -0.56 1
2.122 -0.16500001 -0.55800003 1
2.1140001 -0.16500001 -0.56 1
2.096 -0.163 -0.55800003 1
2.082 -0.162 -0.55699998 1
2.0710001 -0.161 -0.55699998 1
2.059 -0.161 -0.55699998 1
2.053 -0.16 -0.55900002 1
2.033 -0.15899999 -0.55599999 1
2.0239999 -0.15800001 -0.55699998 1
2.0090001 -0.15700001 -0.55500001 1
1.993 -0.155 -0.55400002 1
1.987 -0.155 -0.55500001 1
1.974 -0.154 -0.55400002 1
1.964 -0.153 -0.55400002 1
1.9579999 -0.152 -0.55500001 1
1.948 -0.152 -0.55500001 1
1.929 -0.15000001 -0.55199999 1
1.924 -0.149 -0.55299997 1
1.915 -0.149 -0.55299997 1
1.896 -0.147 -0.55000001 1
1.89 -0.146 -0.551 1
1.882 -0.146 -0.551 1
1.868 -0.14399999 -0.54900002 1
1.864 -0.14399999 -0.551 1
1.854 -0.14300001 -0.55000001 1
1.8430001 -0.142 -0.54900002 1
1.837 -0.141 -0.55000001 1
1.822 -0.14 -0.54699999 1
1.822 -0.14 -0.55000001 1
1.808 -0.139 -0.54799998 1
1.803 -0.138 -0.54799998 1
1.7869999 -0.13699999 -0.546 1
1.7819999 -0.13600001 -0.546 1
1.775 -0.13500001 -0.546 1
1.7640001 -0.134 -0.54500002 1
1.757 -0.133 -0.54500002 1
1.753 -0.133 -0.54500002 1
1.749 -0.132 -0.546 1
1.742 -0.131 -0.546 1
1.732 -0.13 -0.54500002 1
1.726 -0.13 -0.54500002 1
1.724 -0.12899999 -0.546 1
1.7079999 -0.12800001 -0.54299998 1
1.71 -0.12800001 -0.54500002 1
1.704 -0.127 -0.54500002 1
1.694 -0.126 -0.54299998 1
1.687 -0.125 -0.54299998 1
1.683 -0.124 -0.54299998 1
1.6799999 -0.124 -0.54400003 1
1.678 -0.123 -0.54500002 1
1.659 -0.122 -0.54100001 1
1.665 -0.122 -0.54400003 1
1.66 -0.121 -0.54400003 1
1.65 -0.12 -0.542 1
1.636 -0.118 -0.53899997 1
1.641 -0.118 -0.542 1
1.632 -0.117 -0.54100001 1
1.628 -0.117 -0.54100001 1
1.626 -0.116 -0.54100001 1
1.615 -0.115 -0.53899997 1
1.6109999 -0.114 -0.53899997 1
1.594 -0.113 -0.53500003 1
1.603 -0.113 -0.53899997 1
1.595 -0.112 -0.53799999 1
1.587 -0.111 -0.53600001 1
1.581 -0.11 -0.53600001 1
1.581 -0.11 -0.537 1
1.577 -0.109 -0.53600001 1
1.5779999 -0.109 -0.53799999 1
1.574 -0.108 -0.53799999 1
1.58 -0.108 -0.54100001 1
1.572 -0.107 -0.53899997 1
1.566 -0.106 -0.53799999 1
1.566 -0.106 -0.53899997 1
1.564 -0.105 -0.53899997 1
1.549 -0.104 -0.53500003 1
1.549 -0.103 -0.53600001 1
1.548 -0.103 -0.537 1
1.5470001 -0.102 -0.53799999 1
1.535 -0.101 -0.53399998 1
1.538 -0.101 -0.53600001 1
1.54 -0.1 -0.53799999 1
1.53 -0.098999999 -0.53500003 1
1.53 -0.098999999 -0.53600001 1
1.53 -0.097999997 -0.537 1
1.534 -0.097999997 -0.53899997 1
