# .PCD v0.7 - Point Cloud Data file format
VERSION 0.7
FIELDS x y z intensity
SIZE 4 4 4 4
TYPE F F F F
COUNT 1 1 1 1
WIDTH 1735
HEIGHT 1
VIEWPOINT 0 0 0 1 0 0 0
POINTS 1735
DATA ascii
1.544 0.149 -0.51499999 1
1.541 0.149 -0.514 1
1.539 0.15000001 -0.514 1
1.541 0.15099999 -0.51499999 1
1.539 0.152 -0.51499999 1
1.536 0.152 -0.51499999 1
1.531 0.152 -0.51300001 1
1.53 0.153 -0.51300001 1
1.533 0.154 -0.51499999 1
1.536 0.155 -0.51599997 1
1.533 0.156 -0.51499999 1
1.5319999 0.156 -0.51499999 1
1.5319999 0.15700001 -0.51599997 1
1.526 0.15700001 -0.514 1
1.524 0.15800001 -0.51300001 1
1.525 0.15800001 -0.514 1
1.524 0.15899999 -0.514 1
1.5190001 0.15899999 -0.51200002 1
1.527 0.161 -0.51499999 1
1.518 0.161 -0.51200002 1
1.5190001 0.161 -0.51300001 1
1.525 0.163 -0.51499999 1
1.529 0.164 -0.51599997 1
1.518 0.163 -0.51200002 1
1.521 0.164 -0.51300001 1
1.524 0.16500001 -0.51499999 1
1.521 0.16599999 -0.514 1
1.525 0.167 -0.51499999 1
1.523 0.167 -0.514 1
1.524 0.168 -0.514 1
1.528 0.169 -0.51499999 1
1.515 0.168 -0.51099998 1
1.522 0.169 -0.51300001 1
1.515 0.169 -0.50999999 1
1.518 0.17 -0.51200002 1
1.521 0.171 -0.51200002 1
1.524 0.17200001 -0.51300001 1
1.535 0.17399999 -0.51700002 1
1.521 0.17299999 -0.51200002 1
1.528 0.17399999 -0.51300001 1
1.528 0.17399999 -0.51300001 1
1.5319999 0.175 -0.514 1
1.521 0.175 -0.50999999 1
1.534 0.177 -0.514 1
1.529 0.177 -0.51200002 1
1.538 0.178 -0.514 1
1.5369999 0.178 -0.514 1
1.538 0.17900001 -0.514 1
1.538 0.17900001 -0.51300001 1
1.541 0.18000001 -0.514 1
1.539 0.18099999 -0.51300001 1
1.5420001 0.18099999 -0.51300001 1
1.5420001 0.182 -0.51200002 1
1.54 0.182 -0.51099998 1
1.548 0.183 -0.51300001 1
1.549 0.184 -0.51300001 1
1.549 0.184 -0.51200002 1
1.55 0.185 -0.51200002 1
1.556 0.186 -0.51300001 1
1.564 0.18700001 -0.51499999 1
1.553 0.186 -0.51099998 1
1.564 0.18799999 -0.514 1
1.563 0.18799999 -0.51200002 1
1.561 0.18799999 -0.51099998 1
1.5779999 0.191 -0.51599997 1
1.5650001 0.189 -0.51099998 1
1.5829999 0.192 -0.51499999 1
1.581 0.192 -0.514 1
1.584 0.192 -0.514 1
1.581 0.192 -0.51200002 1
1.592 0.19400001 -0.51499999 1
1.5930001 0.19400001 -0.514 1
1.59 0.19400001 -0.51200002 1
1.601 0.19599999 -0.514 1
1.591 0.19499999 -0.50999999 1
1.604 0.197 -0.51300001 1
1.612 0.198 -0.514 1
1.6160001 0.199 -0.51499999 1
1.6160001 0.199 -0.514 1
1.615 0.199 -0.51200002 1
1.624 0.2 -0.514 1
1.63 0.20100001 -0.51499999 1
1.633 0.20200001 -0.514 1
1.635 0.20200001 -0.51300001 1
1.652 0.204 -0.51800001 1
1.6440001 0.20299999 -0.514 1
1.652 0.204 -0.51499999 1
1.6670001 0.206 -0.51800001 1
1.67 0.207 -0.51800001 1
1.671 0.207 -0.51700002 1
1.6720001 0.207 -0.51599997 1
1.691 0.20999999 -0.51999998 1
1.689 0.20900001 -0.51800001 1
1.697 0.211 -0.51899999 1
1.704 0.211 -0.51899999 1
1.711 0.212 -0.51999998 1
1.717 0.213 -0.51999998 1
1.724 0.214 -0.51999998 1
1.728 0.214 -0.51999998 1
1.732 0.215 -0.51999998 1
1.739 0.21600001 -0.51999998 1
1.745 0.21600001 -0.51999998 1
1.755 0.21699999 -0.52100003 1
1.763 0.21799999 -0.52200001 1
1.758 0.21799999 -0.51800001 1
1.776 0.22 -0.52200001 1
1.7819999 0.22 -0.52200001 1
1.788 0.221 -0.52200001 1
1.791 0.221 -0.52100003 1
1.8 0.222 -0.52100003 1
1.813 0.22400001 -0.523 1
1.813 0.223 -0.52100003 1
1.822 0.22400001 -0.52200001 1
1.8329999 0.22499999 -0.523 1
1.837 0.226 -0.52200001 1
1.852 0.227 -0.52399999 1
1.859 0.228 -0.52399999 1
1.868 0.229 -0.52399999 1
1.876 0.229 -0.52399999 1
1.883 0.23 -0.52399999 1
1.895 0.23100001 -0.52499998 1
1.895 0.23100001 -0.523 1
1.9 0.23100001 -0.52200001 1
1.921 0.233 -0.52499998 1
1.9299999 0.234 -0.52499998 1
1.942 0.235 -0.52600002 1
1.942 0.234 -0.52399999 1
1.959 0.236 -0.52600002 1
1.967 0.236 -0.52499998 1
1.978 0.237 -0.52600002 1
1.99 0.23800001 -0.52700001 1
1.994 0.23800001 -0.52499998 1
2.013 0.23999999 -0.52700001 1
2.0179999 0.23999999 -0.52600002 1
2.0409999 0.242 -0.52899998 1
2.0550001 0.243 -0.52999997 1
2.0669999 0.244 -0.53100002 1
2.079 0.245 -0.53100002 1
2.092 0.24600001 -0.53100002 1
2.096 0.245 -0.52899998 1
2.1070001 0.24600001 -0.52899998 1
2.1140001 0.24600001 -0.528 1
2.1389999 0.248 -0.53100002 1
2.2019999 0.255 -0.54400003 1
2.2590001 0.26100001 -0.55500001 1
2.181 0.25099999 -0.53299999 1
2.1930001 0.25099999 -0.53200001 1
2.211 0.25299999 -0.53299999 1
2.2309999 0.25400001 -0.53500003 1
2.244 0.255 -0.53500003 1
2.2579999 0.255 -0.53500003 1
2.302 0.259 -0.542 1
2.3099999 0.259 -0.54000002 1
2.398 0.26800001 -0.55699998 1
2.332 0.25999999 -0.53899997 1
2.358 0.26199999 -0.54100001 1
2.3929999 0.264 -0.546 1
2.3940001 0.26300001 -0.542 1
2.434 0.26699999 -0.54799998 1
2.484 0.271 -0.55500001 1
2.4690001 0.26800001 -0.54799998 1
2.4979999 0.27000001 -0.551 1
2.5339999 0.273 -0.55500001 1
2.575 0.27599999 -0.56 1
2.5079999 0.26699999 -0.54100001 1
2.53 0.26800001 -0.542 1
2.55 0.26899999 -0.542 1
2.576 0.27000001 -0.54400003 1
2.599 0.271 -0.54500002 1
2.6170001 0.27200001 -0.54400003 2
2.6489999 0.27399999 -0.54699999 2
2.668 0.27399999 -0.546 1
2.6900001 0.27500001 -0.546 1
2.7130001 0.27599999 -0.54699999 1
2.74 0.27700001 -0.54799998 2
2.7650001 0.278 -0.54799998 2
2.7869999 0.278 -0.54799998 1
2.8210001 0.28 -0.55000001 1
2.845 0.28 -0.55000001 1
2.8770001 0.28200001 -0.55199999 2
2.902 0.28200001 -0.55199999 2
2.977 0.28799999 -0.56099999 2
3.0239999 0.28999999 -0.565 2
3.089 0.294 -0.57200003 1
3.1140001 0.29499999 -0.57099998 1
3.221 0.30199999 -0.58600003 1
3.2 0.29800001 -0.57700002 1
3.197 0.296 -0.57099998 1
3.2449999 0.29800001 -0.574 1
3.2479999 0.296 -0.56900001 1
3.3429999 0.30199999 -0.57999998 1
3.267 0.29300001 -0.56099999 1
3.3659999 0.29899999 -0.57300001 2
3.404 0.30000001 -0.57300001 2
3.4400001 0.301 -0.57300001 2
3.4319999 0.29699999 -0.56599998 2
3.4920001 0.30000001 -0.56999999 2
3.6029999 0.30700001 -0.58200002 3
3.599 0.303 -0.57599998 2
3.592 0.30000001 -0.56800002 2
3.6819999 0.30500001 -0.57599998 2
3.7980001 0.31099999 -0.588 2
3.7820001 0.30700001 -0.579 2
3.8499999 0.30899999 -0.583 2
3.9430001 0.31299999 -0.58999997 2
3.947 0.31 -0.58399999 2
4.0229998 0.31299999 -0.588 2
4.098 0.315 -0.59200001 3
4.1009998 0.31200001 -0.58499998 3
4.1960001 0.315 -0.59100002 2
4.257 0.31600001 -0.59299999 2
4.349 0.31900001 -0.59799999 2
4.368 0.31600001 -0.59299999 2
4.447 0.31799999 -0.59600002 3
4.5120001 0.31900001 -0.59600002 3
4.5809999 0.31900001 -0.59799999 3
4.665 0.32100001 -0.60000002 3
4.744 0.322 -0.602 3
4.8200002 0.322 -0.60399997 3
4.9089999 0.324 -0.60600001 4
5.0240002 0.32600001 -0.611 3
5.1110001 0.32699999 -0.61299998 3
5.2280002 0.329 -0.61799997 4
5.3189998 0.33000001 -0.61900002 3
5.4349999 0.33199999 -0.62300003 3
5.559 0.33399999 -0.62800002 3
5.6680002 0.33500001 -0.63 3
5.8000002 0.336 -0.63499999 3
5.9239998 0.338 -0.63800001 3
6.0780001 0.34 -0.64399999 4
6.2210002 0.34200001 -0.648 5
6.335 0.34099999 -0.648 5
6.4710002 0.34200001 -0.65100002 5
6.6230001 0.34299999 -0.65499997 4
6.789 0.34400001 -0.65899998 4
6.9549999 0.345 -0.66299999 4
7.1259999 0.34599999 -0.667 4
7.3930001 0.35100001 -0.67900002 11
7.5339999 0.34900001 -0.67900002 13
7.6360002 0.345 -0.67500001 14
7.8200002 0.345 -0.67699999 14
8.0970001 0.34799999 -0.68699998 10
8.3900003 0.35100001 -0.69700003 4
8.6549997 0.352 -0.704 6
8.9189997 0.35299999 -0.70999998 5
9.1730003 0.35299999 -0.71399999 5
9.4659996 0.35299999 -0.72000003 4
9.7860003 0.35299999 -0.72799999 5
10.117 0.35299999 -0.73400003 5
10.467 0.35299999 -0.74199998 4
10.916 0.35600001 -0.755 3
11.296 0.35499999 -0.76099998 4
11.782 0.35600001 -0.77399999 3
12.213 0.354 -0.78100002 3
12.754 0.354 -0.79400003 3
13.335 0.354 -0.80699998 3
14.066 0.35600001 -0.82700002 4
14.032 0.338 -0.80000001 4
14.685 0.33500001 -0.81199998 3
0 0 0 2
16.409 0.33399999 -0.85100001 2
0 0 0 8
12.966 0.23100001 -0.62800002 11
12.927 0.214 -0.60399997 11
12.891 0.197 -0.57999998 10
12.821 0.17900001 -0.55500001 13
12.8 0.162 -0.53299999 11
12.738 0.145 -0.509 17
12.695 0.12800001 -0.48500001 13
12.677 0.111 -0.463 17
12.637 0.093999997 -0.44100001 14
12.586 0.077 -0.41800001 14
12.562 0.059999999 -0.396 12
12.522 0.043000001 -0.373 10
12.462 0.026000001 -0.35100001 14
12.415 0.0099999998 -0.329 13
12.395 -0.0060000001 -0.308 26
12.351 -0.023 -0.28600001 13
12.309 -0.039999999 -0.26499999 15
12.291 -0.056000002 -0.244 11
12.249 -0.072999999 -0.223 14
12.322 -0.090000004 -0.205 20
12.335 -0.108 -0.185 33
12.43 -0.126 -0.16599999 46
12.438 -0.14300001 -0.146 51
12.352 -0.15899999 -0.125 50
12.256 -0.175 -0.104 48
12.319 -0.19400001 -0.083999999 44
12.319 -0.211 -0.064999998 48
12.311 -0.228 -0.045000002 40
12.373 -0.24699999 -0.025 40
12.33 -0.264 -0.0060000001 43
12.367 -0.28299999 0.013 43
12.361 -0.301 0.033 41
12.379 -0.31900001 0.052000001 31
12.421 -0.338 0.071999997 10
0 0 0 12
30.863001 -0.93000001 0.27599999 11
30.941 -0.97799999 0.32499999 9
31.016001 -1.026 0.37400001 7
31.214001 -1.0779999 0.42399999 6
31.422001 -1.132 0.47600001 6
31.441 -1.1799999 0.52399999 5
31.531 -1.229 0.57300001 5
31.540001 -1.276 0.62099999 6
31.601 -1.327 0.671 6
31.577999 -1.373 0.71899998 6
31.615999 -1.423 0.76700002 6
31.656 -1.472 0.81599998 6
31.657 -1.52 0.86299998 6
31.693001 -1.569 0.91100001 5
0 0 0 0
0 0 0 0
0 0 0 1
0 0 0 0
0 0 0 3
0 0 0 4
35.999001 -2.1700001 1.405 6
36.061001 -2.2290001 1.46 6
36.088001 -2.2869999 1.513 4
36.137001 -2.346 1.566 4
36.046001 -2.3959999 1.614 2
0 0 0 0
0 0 0 1
0 0 0 0
0 0 0 0
0 0 0 2
28.879999 -2.191 1.536 1
28.809 -2.2309999 1.571 1
28.896 -2.283 1.6160001 1
0 0 0 19
36.370998 -2.9879999 2.132 26
36.404999 -3.0480001 2.1830001 22
0 0 0 9
27.924 -2.4260001 1.748 26
27.858 -2.464 1.781 32
27.802999 -2.503 1.814 37
27.771 -2.5439999 1.848 43
27.726 -2.5840001 1.881 48
27.698999 -2.6259999 1.915 47
27.681 -2.668 1.949 51
27.660999 -2.7090001 1.983 57
27.642 -2.7520001 2.017 60
27.635 -2.7950001 2.05 65
27.631001 -2.8380001 2.0840001 67
27.608999 -2.8800001 2.118 65
27.642 -2.928 2.155 58
27.672001 -2.9749999 2.191 42
27.669001 -3.0190001 2.2249999 49
27.681 -3.0639999 2.2590001 44
27.705 -3.1110001 2.2950001 42
27.743999 -3.1589999 2.3310001 39
27.783001 -3.2079999 2.368 31
27.837999 -3.2590001 2.405 26
27.903999 -3.3110001 2.4430001 19
0 0 0 3
9.9069996 -1.207 0.88999999 15
9.8599997 -1.217 0.89700001 12
9.8059998 -1.226 0.903 12
9.7860003 -1.239 0.91299999 14
9.7440004 -1.249 0.92000002 13
9.7069998 -1.26 0.92799997 22
9.6929998 -1.274 0.93699998 26
9.6809998 -1.288 0.94700003 26
9.6709995 -1.302 0.95599997 28
9.6459999 -1.313 0.96399999 28
9.6370001 -1.327 0.97399998 29
9.6230001 -1.341 0.98199999 32
9.6009998 -1.353 0.99000001 33
9.592 -1.367 1 31
9.5860004 -1.381 1.0089999 33
9.5749998 -1.395 1.018 34
9.5620003 -1.408 1.026 35
9.5430002 -1.42 1.034 35
9.5530005 -1.437 1.045 36
9.5380001 -1.449 1.053 37
9.5450001 -1.466 1.063 39
9.5349998 -1.479 1.071 40
9.5319996 -1.494 1.08 39
9.5190001 -1.506 1.0880001 40
9.5200005 -1.521 1.097 43
9.5050001 -1.534 1.105 42
9.5059996 -1.549 1.114 42
9.4949999 -1.562 1.1210001 46
9.4969997 -1.577 1.13 45
9.4899998 -1.591 1.138 44
9.4860001 -1.604 1.146 43
9.5039997 -1.622 1.1569999 46
9.4870005 -1.6339999 1.164 45
9.4899998 -1.649 1.173 45
9.4919996 -1.664 1.181 45
9.4870005 -1.678 1.189 41
9.4779997 -1.6900001 1.196 40
9.4899998 -1.707 1.205 41
9.4879999 -1.721 1.2130001 39
9.4919996 -1.7359999 1.221 38
9.4860001 -1.75 1.228 34
9.4899998 -1.7640001 1.237 33
9.4980001 -1.78 1.245 34
9.4960003 -1.794 1.253 34
9.4989996 -1.809 1.261 30
9.5190001 -1.827 1.271 31
9.5100002 -1.839 1.277 32
9.5179996 -1.855 1.285 30
9.526 -1.87 1.293 29
9.5270004 -1.8839999 1.301 29
9.5489998 -1.903 1.311 31
9.5480003 -1.9170001 1.317 30
9.5649996 -1.934 1.327 30
9.573 -1.949 1.335 28
9.5740004 -1.9630001 1.342 28
9.5830002 -1.979 1.349 27
9.5970001 -1.9960001 1.358 25
9.6300001 -2.016 1.369 25
9.6300001 -2.03 1.375 22
9.6569996 -2.049 1.386 16
9.6750002 -2.0669999 1.3940001 15
9.7180004 -2.0899999 1.4069999 12
9.743 -2.109 1.4170001 17
9.7910004 -2.1329999 1.4299999 11
9.8509998 -2.1589999 1.444 1
0 0 0 0
0 0 0 0
0 0 0 8
38.939999 -8.75 5.8039999 7
0 0 0 0
0 0 0 0
0 0 0 0
0 0 0 0
0 0 0 0
0 0 0 0
0 0 0 0
0 0 0 0
0 0 0 0
0 0 0 0
0 0 0 0
0 0 0 0
0 0 0 0
0 0 0 0
0 0 0 3
39.548 -9.7089996 6.2119999 3
39.403 -9.7220001 6.2059999 5
39.386002 -9.7650003 6.2199998 7
39.304001 -9.7919998 6.223 9
39.257999 -9.8290005 6.2319999 12
39.230999 -9.8690004 6.243 15
39.172001 -9.901 6.2480001 19
39.130001 -9.9370003 6.256 19
39.057999 -9.9639997 6.2589998 18
38.978001 -9.9890003 6.2600002 19
38.917999 -10.02 6.263 19
38.872002 -10.052 6.2690001 20
38.787998 -10.075 6.2680001 20
38.674 -10.089 6.2620001 19
38.626999 -10.12 6.2680001 19
38.587002 -10.153 6.2729998 19
38.466 -10.164 6.2649999 19
38.438 -10.199 6.2709999 19
38.389 -10.227 6.2729998 19
38.326 -10.252 6.2729998 19
38.262001 -10.276 6.2729998 21
38.206001 -10.3 6.2729998 19
38.181999 -10.334 6.2789998 19
0 0 0 9
20.674 -5.638 3.4089999 16
20.614 -5.6420002 3.4030001 20
20.586 -5.6560001 3.4030001 22
20.542 -5.664 3.4000001 27
20.51 -5.6760001 3.3989999 33
20.483 -5.6890001 3.3970001 34
20.458 -5.7010002 3.3970001 37
20.42 -5.71 3.3940001 39
20.419001 -5.7290001 3.3970001 32
20.393 -5.7410002 3.3959999 41
20.379999 -5.756 3.3970001 47
20.358 -5.7690001 3.395 49
20.334999 -5.7800002 3.3940001 46
20.334999 -5.7989998 3.3959999 50
20.327 -5.8150001 3.3970001 56
20.318001 -5.829 3.398 53
20.294001 -5.8410001 3.395 49
20.295 -5.8579998 3.3970001 51
20.292999 -5.8740001 3.3989999 51
20.285999 -5.8889999 3.398 56
20.266001 -5.8990002 3.3959999 56
20.267 -5.9159999 3.3970001 58
20.250999 -5.928 3.395 56
20.250999 -5.9429998 3.395 56
20.245001 -5.9569998 3.395 56
20.243 -5.9720001 3.395 56
20.259001 -5.9920001 3.398 41
20.232 -5.9990001 3.3929999 55
20.226999 -6.0120001 3.392 57
20.222 -6.0250001 3.3900001 51
20.225 -6.04 3.391 51
20.225 -6.0539999 3.3900001 51
20.226 -6.0679998 3.3889999 52
20.236 -6.085 3.3889999 63
20.225 -6.0949998 3.3859999 52
20.232 -6.1100001 3.3859999 47
20.225 -6.1199999 3.3840001 46
20.221001 -6.132 3.381 46
20.226 -6.145 3.3800001 50
20.231001 -6.1589999 3.3789999 50
20.223 -6.1680002 3.375 47
20.242001 -6.1859999 3.3759999 44
20.243999 -6.198 3.3740001 44
20.239 -6.2069998 3.3699999 43
20.243999 -6.2199998 3.368 43
20.233 -6.2270002 3.3629999 41
20.253 -6.244 3.3629999 41
20.250999 -6.2529998 3.359 41
20.27 -6.2690001 3.359 40
20.247999 -6.2719998 3.3510001 37
20.278999 -6.2909999 3.3529999 37
20.27 -6.2969999 3.3469999 37
20.283001 -6.3099999 3.345 36
20.292 -6.322 3.342 36
20.304001 -6.3340001 3.339 35
20.304001 -6.342 3.335 34
20.316 -6.3530002 3.332 33
20.316999 -6.3610001 3.3280001 33
20.323999 -6.3709998 3.3239999 34
20.327 -6.3790002 3.319 30
20.332001 -6.3870001 3.3139999 29
20.344999 -6.3979998 3.3099999 27
20.348 -6.4050002 3.306 26
20.356001 -6.414 3.3010001 26
20.368999 -6.4229999 3.2969999 26
20.374001 -6.4310002 3.2909999 24
20.385 -6.4390001 3.2869999 23
20.382 -6.4429998 3.28 22
20.388 -6.4499998 3.2739999 22
20.398001 -6.4580002 3.2690001 22
20.406 -6.4650002 3.263 20
20.42 -6.473 3.2579999 21
20.43 -6.48 3.2520001 19
20.424 -6.4819999 3.244 19
20.448 -6.4920001 3.24 19
20.443001 -6.494 3.2320001 17
20.441 -6.4959998 3.223 16
20.459999 -6.5050001 3.2179999 17
20.462999 -6.507 3.21 16
20.466999 -6.5110002 3.2030001 15
20.487 -6.5180001 3.198 14
20.492001 -6.5219998 3.1900001 13
20.49 -6.5219998 3.181 13
20.48 -6.52 3.1700001 12
20.485001 -6.5219998 3.1619999 12
20.481001 -6.5209999 3.1530001 11
20.5 -6.527 3.1459999 11
20.479 -6.52 3.1340001 11
20.483 -6.52 3.125 12
20.474001 -6.5170002 3.1140001 11
20.479 -6.5170002 3.105 12
20.485001 -6.5180001 3.095 13
20.48 -6.5149999 3.0840001 14
20.478001 -6.5120001 3.0739999 14
20.472 -6.5079999 3.063 16
20.445 -6.4970002 3.0480001 16
20.454 -6.4970002 3.039 16
20.451 -6.493 3.0280001 16
20.441 -6.487 3.016 17
20.441 -6.4829998 3.0050001 19
20.42 -6.473 2.9909999 19
20.406 -6.4640002 2.9779999 20
20.405001 -6.46 2.9660001 20
20.393999 -6.4520001 2.9530001 21
20.386 -6.4439998 2.9400001 22
20.371 -6.434 2.927 25
20.382 -6.4330001 2.9170001 26
20.349001 -6.4159999 2.9000001 26
20.360001 -6.414 2.8889999 27
20.351999 -6.4050002 2.8770001 29
20.336 -6.3940001 2.862 28
20.334999 -6.3870001 2.8499999 29
20.33 -6.3790002 2.836 29
20.316 -6.3670001 2.822 28
20.308001 -6.3569999 2.8080001 28
20.302 -6.3470001 2.7950001 29
20.292999 -6.336 2.7809999 30
20.288 -6.3270001 2.767 31
20.278999 -6.3150001 2.7520001 33
20.282 -6.3070002 2.74 33
20.283001 -6.2979999 2.727 28
20.266001 -6.2839999 2.711 35
20.26 -6.2719998 2.697 36
20.247 -6.2589998 2.6819999 39
20.25 -6.2490001 2.6689999 38
20.239 -6.2360001 2.6530001 30
20.224001 -6.2210002 2.638 42
20.221001 -6.2090001 2.6229999 42
20.215 -6.1960001 2.609 40
20.216 -6.1849999 2.595 40
20.222 -6.1750002 2.582 43
20.219 -6.1620002 2.5669999 43
20.212999 -6.1479998 2.552 39
20.207001 -6.1339998 2.536 47
20.197001 -6.118 2.5209999 44
20.209 -6.1090002 2.507 46
20.205999 -6.0949998 2.4920001 50
20.208 -6.0830002 2.4779999 37
20.198 -6.066 2.4619999 50
20.204 -6.0539999 2.448 55
20.211 -6.0409999 2.4330001 55
20.207001 -6.026 2.418 57
20.207001 -6.0110002 2.402 55
20.212 -5.9980001 2.388 62
20.201 -5.9790001 2.3710001 58
20.215 -5.9679999 2.358 59
20.209999 -5.9510002 2.3410001 67
20.211 -5.9349999 2.326 63
20.233 -5.9260001 2.313 45
20.229 -5.908 2.296 42
20.233999 -5.8920002 2.2809999 62
20.237 -5.8759999 2.266 58
20.240999 -5.8600001 2.25 55
20.261999 -5.849 2.237 55
20.249001 -5.8270001 2.22 49
20.278999 -5.8179998 2.207 38
20.264 -5.7950001 2.1889999 48
20.284 -5.783 2.175 49
20.290001 -5.7659998 2.1589999 45
20.306 -5.7509999 2.1440001 46
20.316999 -5.7350001 2.1289999 44
20.325001 -5.7179999 2.1129999 40
20.333 -5.6999998 2.0969999 41
20.351 -5.6859999 2.0829999 40
20.365999 -5.6700001 2.0680001 37
20.414 -5.6630001 2.056 35
20.438999 -5.6490002 2.0420001 34
20.469999 -5.6360002 2.0280001 25
20.499001 -5.6230001 2.0139999 32
20.525999 -5.6090002 1.999 23
20.570999 -5.599 1.987 23
20.621 -5.5910001 1.974 19
20.672001 -5.5819998 1.962 13
20.753 -5.5809999 1.952 1
0 0 0 0
0 0 0 7
45.828999 -12.17 4.1960001 11
46.337002 -12.252 4.2030001 6
0 0 0 0
0 0 0 0
0 0 0 4
34.354 -8.9250002 3.0009999 9
34.275002 -8.8629999 2.964 10
34.202 -8.8030005 2.9289999 10
34.167999 -8.7530003 2.898 9
34.140999 -8.7040005 2.8659999 9
34.122002 -8.6569996 2.835 8
34.092999 -8.6070004 2.8039999 8
34.096001 -8.5649996 2.7750001 10
34.009998 -8.4989996 2.7379999 9
34.048 -8.4650002 2.7119999 9
33.979 -8.4049997 2.678 7
33.948002 -8.3529997 2.6470001 7
33.908001 -8.2989998 2.615 10
33.938999 -8.2609997 2.5869999 11
0 0 0 3
31.216 -7.5149999 2.3269999 3
0 0 0 7
33.726002 -8.0279999 2.457 7
33.742001 -7.9850001 2.4289999 10
33.664001 -7.9200001 2.3940001 8
33.568001 -7.8509998 2.358 7
33.509998 -7.79 2.326 6
33.507999 -7.7420001 2.2969999 6
33.530998 -7.6999998 2.27 8
33.477001 -7.6399999 2.2379999 7
33.408001 -7.5760002 2.2049999 6
33.375 -7.52 2.175 6
33.265999 -7.448 2.1389999 6
33.299 -7.4070001 2.1129999 7
33.307999 -7.3590002 2.085 6
33.202 -7.2849998 2.05 6
33.173 -7.2309999 2.0209999 5
0 0 0 3
9.7609997 -2.0969999 0.57800001 9
9.7040005 -2.0699999 0.56599998 17
9.6689997 -2.0480001 0.55599999 18
9.6370001 -2.026 0.546 22
9.6160002 -2.007 0.537 15
9.5939999 -1.988 0.528 15
9.5799999 -1.97 0.51899999 25
9.5690002 -1.952 0.50999999 25
9.5480003 -1.933 0.50099999 26
9.5439997 -1.9170001 0.493 27
9.5290003 -1.898 0.484 27
9.5240002 -1.882 0.47600001 28
9.5159998 -1.865 0.46799999 29
9.5089998 -1.849 0.46000001 28
9.507 -1.832 0.45199999 29
9.4849997 -1.812 0.44299999 28
9.4919996 -1.798 0.435 30
9.4840002 -1.781 0.42699999 30
9.4779997 -1.763 0.419 32
9.4729996 -1.747 0.412 34
9.4700003 -1.73 0.40400001 33
9.4759998 -1.715 0.39700001 35
9.4659996 -1.697 0.38800001 37
9.4589996 -1.6799999 0.38100001 38
9.4689999 -1.665 0.373 39
9.4689999 -1.649 0.366 41
9.4589996 -1.631 0.35800001 40
9.4680004 -1.6160001 0.35100001 43
9.4759998 -1.601 0.34400001 45
9.4630003 -1.582 0.336 44
9.4639997 -1.566 0.329 47
9.4729996 -1.55 0.322 44
9.4779997 -1.534 0.315 44
9.4840002 -1.518 0.308 43
9.4840002 -1.501 0.301 42
9.4849997 -1.484 0.29300001 42
9.4949999 -1.469 0.28600001 38
9.5050001 -1.4529999 0.28 38
9.5179996 -1.438 0.273 37
9.5229998 -1.421 0.266 35
9.533 -1.405 0.259 34
9.54 -1.3890001 0.252 32
9.5450001 -1.372 0.24600001 32
9.5640001 -1.357 0.23899999 31
9.5799999 -1.341 0.233 32
9.6009998 -1.327 0.226 29
9.6110001 -1.3099999 0.22 30
9.6269999 -1.294 0.213 27
9.6409998 -1.278 0.207 26
9.6709995 -1.2640001 0.20100001 26
9.6850004 -1.247 0.19400001 23
9.7080002 -1.2309999 0.18799999 16
9.7399998 -1.217 0.182 15
9.7690001 -1.202 0.176 22
9.823 -1.1900001 0.17 16
9.908 -1.181 0.16500001 10
0 0 0 33
27.82 -3.21 0.42699999 20
27.742001 -3.148 0.40700001 27
27.687 -3.0880001 0.389 33
27.656 -3.0309999 0.37 37
27.618999 -2.973 0.352 40
27.606001 -2.918 0.33399999 45
27.59 -2.862 0.317 47
27.597 -2.8080001 0.29899999 57
27.573999 -2.753 0.28200001 62
27.601999 -2.7019999 0.266 57
27.611 -2.648 0.249 49
27.636 -2.595 0.23199999 45
27.664 -2.543 0.21600001 43
27.718 -2.493 0.2 40
27.757 -2.4430001 0.184 34
27.827999 -2.3929999 0.168 27
27.929001 -2.346 0.153 17
28.737 -2.3559999 0.141 27
0 0 0 1
6.4369998 -0.50099999 0.024 2
6.4200001 -0.48699999 0.02 3
6.4299998 -0.47499999 0.017000001 2
6.415 -0.461 0.013 2
6.3979998 -0.447 0.0099999998 3
6.4200001 -0.435 0.0060000001 1
6.4640002 -0.42500001 0.003 1
0 0 0 6
28.466 -1.757 -0.013 48
28.452 -1.698 -0.028000001 46
28.422001 -1.637 -0.041999999 48
28.402 -1.5779999 -0.056000002 45
28.375999 -1.5190001 -0.07 40
28.334999 -1.4579999 -0.082999997 50
28.315001 -1.399 -0.097000003 47
28.294001 -1.339 -0.11 41
28.268 -1.279 -0.123 39
28.228001 -1.219 -0.13600001 47
28.212 -1.16 -0.148 42
0 0 0 1
12.381 -0.45699999 -0.075999998 23
12.436 -0.433 -0.082000002 35
12.327 -0.40400001 -0.086000003 34
12.304 -0.377 -0.090999998 33
12.298 -0.352 -0.096000001 42
12.252 -0.32499999 -0.101 43
12.269 -0.29899999 -0.106 42
12.291 -0.27399999 -0.111 42
12.257 -0.248 -0.115 46
12.26 -0.223 -0.12 50
12.287 -0.197 -0.125 43
12.258 -0.171 -0.12899999 42
12.428 -0.148 -0.13500001 44
12.487 -0.122 -0.14 42
12.444 -0.096000001 -0.14399999 44
12.348 -0.068999998 -0.147 34
12.456 -0.044 -0.153 38
12.477 -0.017000001 -0.15700001 40
12.694 0.0080000004 -0.164 36
12.587 0.034000002 -0.16599999 36
12.434 0.059999999 -0.168 42
12.771 0.088 -0.177 37
12.894 0.117 -0.182 37
12.83 0.14300001 -0.185 37
12.906 0.171 -0.19 12
12.936 0.198 -0.193 9
12.984 0.226 -0.198 6
13.034 0.25400001 -0.20200001 1
0 0 0 38
30.15 0.71499997 -0.48199999 31
30.118999 0.77700001 -0.48899999 23
30.122999 0.83999997 -0.49599999 15
30.113001 0.903 -0.50300002 11
30.128 0.96700001 -0.509 6
30.099001 1.029 -0.51499999 3
0 0 0 25
14.721 0.565 -0.25799999 41
14.722 0.59600002 -0.26100001 23
14.728 0.62699997 -0.26300001 25
14.685 0.65600002 -0.26499999 43
14.674 0.68599999 -0.26699999 25
14.688 0.71700001 -0.27000001 25
14.643 0.745 -0.271 37
14.621 0.77399999 -0.273 37
14.63 0.80599999 -0.27599999 34
14.604 0.83399999 -0.27700001 23
14.591 0.86400002 -0.27900001 24
14.574 0.89300001 -0.28 32
14.641 0.92799997 -0.28299999 7
14.738 0.96399999 -0.287 7
14.813 1 -0.28999999 7
14.906 1.0369999 -0.29300001 7
15.009 1.074 -0.296 6
15.069 1.11 -0.29899999 7
15.158 1.148 -0.301 6
15.259 1.186 -0.30500001 7
15.367 1.226 -0.308 6
15.995 1.309 -0.32100001 5
16.926001 1.42 -0.34099999 54
16.919001 1.455 -0.34099999 58
16.924999 1.49 -0.34200001 39
16.92 1.524 -0.34299999 57
16.916 1.558 -0.34299999 54
16.926001 1.592 -0.34299999 53
16.948 1.6289999 -0.34400001 31
16.940001 1.663 -0.34400001 44
16.941999 1.697 -0.34400001 40
16.957001 1.733 -0.34400001 37
16.985001 1.77 -0.34400001 36
17.018 1.808 -0.345 34
17.037001 1.844 -0.345 33
17.065001 1.881 -0.34400001 29
17.129999 1.9220001 -0.345 21
17.202 1.965 -0.34599999 16
17.247999 2.0039999 -0.34599999 1
0 0 0 20
33.254002 3.994 -0.66299999 17
33.068001 4.0370002 -0.65700001 17
33.108002 4.1069999 -0.65499997 16
33.023998 4.1620002 -0.65100002 17
32.683998 4.1830001 -0.64099997 60
0 0 0 15
19.298 2.5450001 -0.375 52
19.281 2.5799999 -0.37200001 62
19.263 2.615 -0.37 40
19.267 2.6530001 -0.36700001 16
0 0 0 1
16.837 2.3829999 -0.317 4
16.796 2.4089999 -0.31400001 7
16.764 2.437 -0.31099999 1
0 0 0 0
0 0 0 0
0 0 0 1
16.455999 2.516 -0.29499999 1
16.416 2.54 -0.29100001 1
16.381001 2.5650001 -0.28799999 1
16.346001 2.5899999 -0.28400001 1
16.32 2.6159999 -0.28099999 1
16.34 2.6500001 -0.278 1
16.266001 2.668 -0.27399999 1
16.278999 2.7 -0.271 1
16.236 2.723 -0.26699999 6
16.226999 2.75 -0.26300001 162
16.256001 2.7850001 -0.25999999 183
16.194 2.8039999 -0.25600001 182
16.198999 2.8340001 -0.252 183
16.212999 2.8659999 -0.248 183
16.181 2.8889999 -0.244 182
16.18 2.918 -0.23999999 182
16.186001 2.948 -0.236 183
16.198 2.9790001 -0.23199999 183
16.17 3.003 -0.228 183
16.155001 3.0280001 -0.223 182
16.129 3.0510001 -0.219 182
16.094999 3.072 -0.214 182
16.104 3.102 -0.20999999 182
16.087 3.1270001 -0.205 182
16.073 3.152 -0.2 182
16.048 3.174 -0.19499999 33
16.131001 3.2179999 -0.191 4
16.069 3.233 -0.186 25
16.09 3.2639999 -0.18099999 11
16.091 3.2920001 -0.176 1
16.011999 3.303 -0.171 1
16.047001 3.336 -0.16599999 2
16.007 3.3540001 -0.16 3
16.01 3.381 -0.155 2
16.066999 3.4189999 -0.15000001 1
15.998 3.4300001 -0.145 1
16.01 3.4590001 -0.139 1
16.034 3.4890001 -0.134 1
16.110001 3.5320001 -0.12899999 1
16.059999 3.546 -0.124 1
16.101 3.5799999 -0.118 1
0 0 0 0
0 0 0 0
0 0 0 0
0 0 0 0
0 0 0 0
0 0 0 1
16.171 3.7690001 -0.078000002 1
16.155001 3.79 -0.071999997 1
16.184999 3.8210001 -0.066 1
16.158001 3.839 -0.059999999 1
0 0 0 0
0 0 0 0
0 0 0 0
0 0 0 0
0 0 0 0
0 0 0 1
16.500999 4.086 -0.015 1
16.909 4.211 -0.0080000004 2
16.902 4.2329998 -0.0020000001 3
16.879999 4.2509999 0.0040000002 2
16.912001 4.2820001 0.011 1
17.056 4.342 0.017999999 1
17.372999 4.4460001 0.026000001 1
17.375 4.4689999 0.033 1
0 0 0 0
0 0 0 0
0 0 0 1
0 0 0 0
0 0 0 0
0 0 0 0
0 0 0 0
0 0 0 0
0 0 0 0
0 0 0 0
0 0 0 0
0 0 0 22
35.174 9.6219997 0.26800001 72
35.146999 9.6569996 0.28299999 76
35.139999 9.6960001 0.29899999 57
35.349998 9.7950001 0.317 4
35.634998 9.9139996 0.336 4
35.962002 10.046 0.35499999 5
36.210999 10.156 0.37400001 5
36.764 10.352 0.396 13
36.756001 10.39 0.41299999 10
36.68 10.407 0.42899999 3
36.901001 10.509 0.449 10
36.749001 10.505 0.465 4
38.890999 11.158 0.50999999 80
38.889999 11.198 0.528 68
38.874001 11.232 0.54500002 81
38.866001 11.269 0.56400001 80
38.883999 11.313 0.58200002 44
39.077 11.407 0.60399997 24
39.139 11.463 0.62300003 21
39.224998 11.526 0.64200002 18
39.105 11.527 0.65899998 8
39.437 11.662 0.68400002 8
39.652 11.762 0.70599997 27
39.653999 11.798 0.72500002 41
39.708 11.85 0.745 10
0 0 0 13
42.812 12.851 0.84500003 26
42.823002 12.891 0.86500001 34
42.84 12.932 0.884 60
42.848 12.97 0.90600002 84
42.867001 13.01 0.926 32
42.888 13.051 0.94700003 67
42.884998 13.084 0.96799999 56
42.926998 13.13 0.99000001 20
42.976002 13.177 1.011 19
43.293999 13.307 1.04 12
43.566002 13.423 1.067 11
43.708 13.498 1.092 5
0 0 0 86
46.369999 14.385 1.2 96
46.352001 14.411 1.222 95
46.348999 14.441 1.245 86
46.341 14.468 1.267 50
46.459999 14.535 1.2920001 16
46.724998 14.647 1.322 11
46.858002 14.717 1.348 13
47.012001 14.794 1.374 16
47.02 14.824 1.397 15
46.952 14.829 1.4170001 22
46.903999 14.839 1.438 33
46.896 14.862 1.46 36
46.889 14.885 1.482 39
46.877998 14.905 1.503 49
46.907001 14.937 1.526 34
46.909 14.961 1.548 15
0 0 0 0
0 0 0 25
0 0 0 0
0 0 0 0
0 0 0 0
0 0 0 0
0 0 0 0
0 0 0 25
0 0 0 0
0 0 0 25
0 0 0 0
0 0 0 25
0 0 0 25
0 0 0 25
0 0 0 25
0 0 0 4
49.585999 16.117001 2.0220001 4
49.463001 16.089001 2.0380001 4
49.546001 16.127001 2.0639999 4
0 0 0 25
0 0 0 25
0 0 0 25
0 0 0 25
0 0 0 25
0 0 0 25
0 0 0 25
0 0 0 25
0 0 0 25
0 0 0 25
0 0 0 25
0 0 0 25
0 0 0 25
0 0 0 25
0 0 0 25
0 0 0 25
0 0 0 25
0 0 0 25
0 0 0 4
48.272999 15.778 2.418 5
47.956001 15.67 2.421 6
47.819 15.62 2.4330001 8
47.601002 15.544 2.4400001 14
47.493999 15.503 2.4530001 22
47.464001 15.487 2.47 27
47.421001 15.466 2.4860001 28
47.382999 15.445 2.503 29
47.321999 15.416 2.5179999 29
47.191002 15.364 2.529 27
47.033001 15.303 2.5380001 29
46.896 15.248 2.5469999 29
46.798 15.205 2.559 36
46.698002 15.16 2.5710001 40
46.668999 15.139 2.586 50
46.609001 15.106 2.5999999 50
46.584999 15.085 2.6140001 44
46.549 15.058 2.628 40
46.535 15.039 2.6440001 36
46.515999 15.017 2.6589999 34
46.509998 14.998 2.675 35
46.514 14.982 2.691 27
46.543999 14.974 2.7090001 16
46.626999 14.983 2.7279999 5
0 0 0 0
0 0 0 0
0 0 0 0
0 0 0 0
0 0 0 0
0 0 0 0
0 0 0 0
0 0 0 0
0 0 0 0
0 0 0 0
0 0 0 0
0 0 0 0
0 0 0 0
0 0 0 0
0 0 0 4
42.700001 13.373 2.7049999 43
42.706001 13.348 2.717 82
42.73 13.328 2.7290001 87
42.734001 13.301 2.74 78
0 0 0 4
39.005001 12.088 2.5209999 11
39.096001 12.089 2.5369999 24
39.050999 12.048 2.543 33
38.993 12.002 2.55 51
38.981998 11.97 2.5580001 41
38.995998 11.945 2.5680001 18
38.965 11.906 2.575 13
38.854 11.842 2.5769999 10
38.426998 11.682 2.556 6
37.844002 11.474 2.5250001 7
37.514 11.344 2.5109999 21
37.306 11.251 2.5050001 26
37.09 11.154 2.4979999 25
36.841 11.048 2.4890001 19
36.556999 10.931 2.4760001 18
36.356998 10.841 2.47 17
36.162998 10.75 2.464 10
35.993 10.667 2.4579999 5
35.794998 10.576 2.45 7
35.602001 10.486 2.4430001 6
35.551998 10.438 2.447 6
35.382999 10.355 2.4389999 6
35.390999 10.324 2.447 6
35.328999 10.271 2.448 7
35.348 10.242 2.454 7
35.206001 10.166 2.4489999 7
35.150002 10.114 2.45 9
35.062 10.053 2.4489999 9
34.943001 9.9840002 2.444 9
34.854 9.9219999 2.4419999 9
34.821999 9.8760004 2.444 9
34.683998 9.7989998 2.438 5
0 0 0 4
31.545 8.8439999 2.224 6
31.534 8.8070002 2.2260001 13
31.527 8.7690001 2.2279999 13
31.549999 8.7399998 2.233 13
31.573 8.71 2.237 13
31.599001 8.6820002 2.2409999 13
31.593 8.6429996 2.243 11
31.615 8.6129999 2.2460001 11
31.629999 8.5799999 2.2490001 12
31.646999 8.5469999 2.2520001 11
31.65 8.5089998 2.253 11
31.667 8.4750004 2.256 12
31.698 8.4449997 2.26 12
31.709 8.408 2.2609999 11
31.735001 8.3760004 2.2639999 11
31.742001 8.3380003 2.2650001 11
31.738001 8.2969999 2.2650001 11
31.778999 8.2670002 2.2679999 12
31.788 8.2279997 2.2690001 5
31.698 8.1630001 2.2620001 17
31.622999 8.1020002 2.256 95
31.648001 8.0670004 2.257 81
31.642 8.0229998 2.257 44
31.584999 7.9660001 2.2520001 16
31.275 7.8470001 2.2290001 20
31.250999 7.7979999 2.2260001 35
31.367001 7.7839999 2.233 60
31.556999 7.789 2.2449999 84
31.749001 7.7919998 2.257 93
31.740999 7.7449999 2.2539999 87
31.780001 7.711 2.2539999 94
31.809 7.6729999 2.2539999 81
31.804001 7.6259999 2.2509999 87
31.826 7.585 2.25 92
31.853001 7.546 2.2490001 85
31.875999 7.5050001 2.247 87
31.881001 7.46 2.244 86
31.898001 7.4159999 2.2409999 91
31.919001 7.375 2.2390001 90
31.937 7.3309999 2.2360001 86
31.947001 7.2849998 2.2320001 88
31.990999 7.2470002 2.2309999 67
32.007 7.2020001 2.2279999 82
32.008999 7.1529999 2.223 84
32.043999 7.112 2.22 89
32.07 7.0679998 2.217 84
32.073002 7.02 2.211 85
32.111 6.9780002 2.2079999 70
32.112 6.928 2.2030001 89
32.403 6.941 2.2160001 16
32.443001 6.8990002 2.2130001 17
32.459999 6.8509998 2.2079999 17
32.48 6.8039999 2.2019999 23
32.506001 6.757 2.1960001 17
0 0 0 15
24.618 5.0370002 1.652 21
24.559 4.9850001 1.642 27
24.516001 4.9369998 1.633 33
24.487 4.8909998 1.626 35
24.466 4.8470001 1.618 40
24.451 4.803 1.6109999 46
24.450001 4.7620001 1.604 49
24.438 4.7199998 1.596 52
24.414 4.6739998 1.5880001 55
24.417999 4.6339998 1.58 60
24.426001 4.5929999 1.574 66
24.438999 4.5549998 1.567 61
24.445 4.5139999 1.5599999 56
24.479 4.4790001 1.554 54
24.502001 4.441 1.5470001 49
24.532 4.4039998 1.541 45
24.556 4.3660002 1.534 44
24.601 4.3319998 1.528 37
24.646999 4.2969999 1.522 31
24.693001 4.2620001 1.516 27
24.778 4.2340002 1.512 20
24.905001 4.2119999 1.511 8
0 0 0 8
33.162998 5.4920001 1.9859999 6
33.181 5.4369998 1.974 4
33.194 5.3800001 1.961 3
33.290001 5.3369999 1.9529999 1
33.188999 5.2610002 1.933 2
33.249001 5.211 1.9220001 8
33.207001 5.1469998 1.906 39
33.208 5.086 1.891 23
0 0 0 0
0 0 0 0
0 0 0 0
0 0 0 6
0 0 0 0
0 0 0 7
63.514 8.9250002 3.4070001 7
0 0 0 8
33.382999 4.5679998 1.757 18
33.200001 4.4829998 1.73 45
33.223 4.4260001 1.715 60
33.223 4.3629999 1.696 102
33.258999 4.3080001 1.681 112
33.262001 4.2480001 1.663 102
33.297001 4.1900001 1.646 111
33.330002 4.132 1.6289999 111
33.347 4.072 1.6109999 105
33.387001 4.0149999 1.594 110
33.398998 3.9549999 1.575 110
33.422001 3.895 1.556 113
0 0 0 8
17.198 1.939 0.77999997 18
17.143 1.901 0.76700002 23
17.086 1.863 0.75400001 26
17.049 1.827 0.741 33
17.038 1.793 0.73000002 35
17.004999 1.757 0.71700001 35
16.982 1.723 0.70499998 36
16.976 1.6900001 0.69400001 45
16.976 1.658 0.68199998 29
16.948 1.623 0.67000002 48
16.947001 1.591 0.65799999 50
16.937 1.557 0.64600003 54
16.948999 1.526 0.63499999 36
16.936001 1.493 0.62199998 59
16.938 1.461 0.61000001 64
16.955999 1.4299999 0.59899998 32
16.955999 1.398 0.58700001 55
16.981001 1.368 0.57499999 49
16.996 1.3380001 0.56300002 39
16.992001 1.3049999 0.55000001 47
17.016001 1.274 0.53799999 43
17.044001 1.244 0.52600002 40
17.066999 1.2130001 0.514 41
17.096001 1.183 0.50199997 35
17.136 1.152 0.48899999 32
17.164 1.122 0.477 27
17.228001 1.0930001 0.46399999 21
17.334 1.067 0.45300001 14
17.503 1.044 0.44400001 1
0 0 0 0
0 0 0 0
0 0 0 4
38.425999 2 0.847 4
38.444 1.926 0.81400001 4
38.533001 1.858 0.78299999 4
38.555 1.785 0.75 4
0 0 0 9
34.778999 1.478 0.616 42
34.763 1.411 0.58499998 19
0 0 0 5
0 0 0 0
0 0 0 2
30.257 0.99599999 0.39899999 1
0 0 0 0
0 0 0 3
35.014999 0.95499998 0.36500001 12
34.91 0.88599998 0.331 9
34.709999 0.815 0.296 3
34.731998 0.75 0.264 26
34.745998 0.685 0.23 26
34.786999 0.62 0.197 20
34.811001 0.55400002 0.163 3
0 0 0 0
0 0 0 5
0 0 0 8
12.784 0.107 0.0089999996 37
12.617 0.082000002 -0.003 50
12.563 0.057999998 -0.016000001 46
12.511 0.034000002 -0.028999999 45
12.531 0.011 -0.041999999 45
12.511 -0.011 -0.054000001 41
12.44 -0.035 -0.067000002 43
12.358 -0.057 -0.079000004 44
12.33 -0.079000004 -0.092 52
12.477 -0.104 -0.106 35
12.42 -0.126 -0.119 44
12.26 -0.147 -0.131 42
12.257 -0.17 -0.14399999 41
12.295 -0.193 -0.15800001 43
12.26 -0.215 -0.171 41
12.28 -0.23800001 -0.185 34
12.243 -0.25999999 -0.198 34
12.265 -0.28299999 -0.212 36
12.202 -0.303 -0.22400001 24
12.211 -0.32600001 -0.23800001 24
12.221 -0.34799999 -0.25099999 21
12.242 -0.37099999 -0.266 20
12.24 -0.39300001 -0.28 24
12.259 -0.41600001 -0.29499999 38
12.264 -0.43900001 -0.30899999 23
12.272 -0.461 -0.32300001 22
12.3 -0.484 -0.338 2
0 0 0 5
0 0 0 41
31.587 -1.413 -0.98000002 38
31.615999 -1.47 -1.018 5
0 0 0 2
35.872002 -1.795 -1.24 2
36.159 -1.873 -1.294 8
36.09 -1.932 -1.334 32
0 0 0 8
6.4239998 -0.366 -0.25299999 42
6.467 -0.38 -0.26199999 155
6.441 -0.389 -0.26899999 155
6.395 -0.398 -0.27500001 155
6.402 -0.40900001 -0.28299999 155
6.3860002 -0.419 -0.28999999 156
6.3940001 -0.43099999 -0.29800001 155
6.3709998 -0.44 -0.30500001 152
6.302 -0.44600001 -0.31 6
6.4390001 -0.46599999 -0.32499999 137
6.4000001 -0.47400001 -0.331 155
6.3990002 -0.48500001 -0.33899999 155
6.4109998 -0.49700001 -0.347 156
6.4039998 -0.50700003 -0.35499999 157
6.4029999 -0.51800001 -0.36300001 157
6.3870001 -0.52700001 -0.37 159
6.4130001 -0.54000002 -0.38 155
6.4050002 -0.55000001 -0.38800001 155
6.3979998 -0.56 -0.396 155
6.3990002 -0.56999999 -0.40400001 155
6.3979998 -0.58099997 -0.412 28
0 0 0 3
12.262 -1.152 -0.82200003 4
0 0 0 2
11.116 -1.081 -0.77399999 2
10.812 -1.069 -0.76700002 2
10.486 -1.053 -0.75800002 3
10.243 -1.045 -0.75400001 3
9.9870005 -1.034 -0.74800003 8
9.8109999 -1.031 -0.74800003 12
9.6409998 -1.029 -0.74699998 14
9.4940004 -1.028 -0.74800003 10
9.276 -1.018 -0.74299997 6
9 -1.002 -0.73299998 4
8.6709995 -0.97899997 -0.71799999 3
8.4569998 -0.96700001 -0.71100003 4
8.2659998 -0.958 -0.70599997 5
8.1169996 -0.95300001 -0.70499998 4
7.9439998 -0.94499999 -0.69999999 5
7.8049998 -0.94 -0.699 4
7.671 -0.935 -0.69700003 5
7.527 -0.92900002 -0.69400001 5
7.3920002 -0.92299998 -0.69099998 4
7.2589998 -0.917 -0.68900001 4
7.1259999 -0.91100001 -0.68599999 4
7.0110002 -0.90600002 -0.68400002 4
6.8850002 -0.89999998 -0.68099999 4
6.7579999 -0.89300001 -0.67799997 4
6.6329999 -0.88599998 -0.67400002 4
6.5380001 -0.88300002 -0.67299998 4
6.4169998 -0.87599999 -0.67000002 3
6.3270001 -0.87199998 -0.66900003 3
6.2049999 -0.86400002 -0.66399997 2
6.0960002 -0.85699999 -0.66100001 2
6.0009999 -0.852 -0.65899998 5
5.9530001 -0.85399997 -0.66100001 4
5.8860002 -0.852 -0.662 5
5.796 -0.847 -0.66000003 6
5.6989999 -0.84100002 -0.65700001 6
5.5869999 -0.83200002 -0.65100002 4
5.5110002 -0.82800001 -0.64999998 4
5.4099998 -0.81999999 -0.64499998 4
5.3119998 -0.81199998 -0.64099997 4
5.2319999 -0.80599999 -0.63800001 6
5.1240001 -0.79699999 -0.63200003 6
5.0580001 -0.79299998 -0.63099998 7
4.9959998 -0.79000002 -0.63 8
4.9310002 -0.78600001 -0.62800002 11
4.8740001 -0.78299999 -0.62800002 11
4.8309999 -0.78200001 -0.62900001 10
4.7849998 -0.77999997 -0.62900001 8
4.73 -0.77700001 -0.62900001 6
4.6490002 -0.76999998 -0.62400001 4
4.5749998 -0.76300001 -0.62099999 3
4.5240002 -0.75999999 -0.62 2
4.4710002 -0.75700003 -0.61799997 2
4.4180002 -0.75300002 -0.61699998 2
4.3600001 -0.74800003 -0.61500001 2
4.276 -0.73900002 -0.60900003 2
4.2319999 -0.736 -0.60799998 2
4.1680002 -0.73000002 -0.60500002 2
4.131 -0.72899997 -0.60500002 2
4.1339998 -0.73400003 -0.611 2
4.0760002 -0.72799999 -0.60799998 2
3.987 -0.71700001 -0.60000002 2
3.9649999 -0.71700001 -0.602 2
3.8959999 -0.70899999 -0.59600002 2
3.8659999 -0.708 -0.597 2
3.8499999 -0.70899999 -0.60000002 2
3.8050001 -0.70499998 -0.59799999 1
3.753 -0.699 -0.59399998 2
3.7449999 -0.70200002 -0.59799999 2
3.7349999 -0.704 -0.602 2
3.638 -0.68900001 -0.59100002 1
3.6140001 -0.68900001 -0.59200001 2
3.6229999 -0.69400001 -0.59799999 3
3.517 -0.67699999 -0.58499998 1
3.527 -0.68300003 -0.59100002 1
3.484 -0.67799997 -0.588 1
3.4159999 -0.66799998 -0.58099997 1
3.3870001 -0.66600001 -0.58099997 1
3.385 -0.66900003 -0.58499998 1
3.348 -0.66399997 -0.583 1
3.3340001 -0.66500002 -0.58499998 1
3.342 -0.67000002 -0.58999997 2
3.339 -0.67199999 -0.59399998 2
3.2650001 -0.66000003 -0.58499998 2
3.243 -0.65899998 -0.58499998 2
3.25 -0.66299999 -0.59100002 2
3.2060001 -0.65700001 -0.58600003 2
3.1489999 -0.648 -0.57999998 2
3.198 -0.66100001 -0.59299999 2
3.089 -0.64099997 -0.57700002 1
3.1129999 -0.64899999 -0.58499998 2
3.0239999 -0.63300002 -0.57200003 2
3 -0.63 -0.57099998 2
2.9860001 -0.63 -0.57200003 2
2.96 -0.62699997 -0.57099998 2
2.948 -0.62699997 -0.57200003 2
2.918 -0.62199998 -0.56999999 2
3.0880001 -0.66100001 -0.60699999 2
2.948 -0.634 -0.583 2
2.901 -0.62599999 -0.57700002 2
2.8570001 -0.61799997 -0.57200003 1
2.8559999 -0.62 -0.57499999 1
2.8410001 -0.61900002 -0.57499999 1
2.76 -0.60299999 -0.56199998 1
2.7579999 -0.60500002 -0.565 1
2.8080001 -0.61799997 -0.579 1
2.7880001 -0.616 -0.57800001 1
2.7550001 -0.61000001 -0.574 1
2.671 -0.59299999 -0.55900002 1
2.658 -0.59200001 -0.56 1
2.652 -0.59200001 -0.56099999 1
2.661 -0.59600002 -0.56599998 1
2.609 -0.58600003 -0.55800003 1
2.579 -0.58099997 -0.55500001 1
2.6259999 -0.59299999 -0.56800002 1
2.625 -0.59500003 -0.56999999 1
2.562 -0.58200002 -0.55900002 1
2.5799999 -0.588 -0.56599998 1
2.5780001 -0.588 -0.56800002 1
2.5599999 -0.58600003 -0.56699997 1
2.5339999 -0.58099997 -0.56400001 1
2.464 -0.56599998 -0.551 1
2.4820001 -0.57200003 -0.55800003 1
2.427 -0.56099999 -0.54799998 1
2.497 -0.57800001 -0.56599998 1
2.4230001 -0.56199998 -0.55199999 1
2.4649999 -0.57300001 -0.56400001 1
2.438 -0.56800002 -0.56 1
2.4070001 -0.56199998 -0.55599999 1
2.4119999 -0.56400001 -0.55900002 1
2.388 -0.56 -0.55599999 1
2.4170001 -0.56800002 -0.565 1
2.4200001 -0.56900001 -0.56800002 1
2.385 -0.56199998 -0.56199998 1
2.3670001 -0.55900002 -0.56 1
2.4519999 -0.57999998 -0.583 1
2.3399999 -0.55400002 -0.55800003 1
2.3310001 -0.55299997 -0.55800003 1
2.332 -0.55400002 -0.56099999 1
2.2709999 -0.54000002 -0.54799998 1
2.263 -0.53899997 -0.54799998 1
2.2579999 -0.53899997 -0.54900002 1
2.2509999 -0.53799999 -0.54900002 1
2.24 -0.53600001 -0.54799998 1
2.223 -0.53200001 -0.546 1
2.22 -0.53200001 -0.54699999 1
2.207 -0.52999997 -0.546 1
2.2019999 -0.52899998 -0.54699999 1
2.188 -0.52600002 -0.54500002 1
2.1849999 -0.52600002 -0.546 1
2.184 -0.52700001 -0.54799998 1
2.175 -0.52499998 -0.54699999 1
2.1700001 -0.52399999 -0.54799998 1
2.158 -0.52200001 -0.546 2
2.1530001 -0.52100003 -0.54699999 1
2.148 -0.51999998 -0.54699999 2
2.141 -0.51899999 -0.54699999 2
2.1370001 -0.51800001 -0.54799998 1
2.1340001 -0.51800001 -0.54799998 1
2.1289999 -0.51700002 -0.54900002 1
2.115 -0.514 -0.54699999 2
2.1070001 -0.51200002 -0.546 2
2.096 -0.50999999 -0.54400003 1
2.0899999 -0.509 -0.54500002 2
2.0869999 -0.50800002 -0.54500002 1
2.0810001 -0.50700003 -0.54500002 1
2.072 -0.505 -0.54400003 1
2.0680001 -0.50400001 -0.54400003 1
2.0639999 -0.50300002 -0.54500002 1
2.059 -0.50199997 -0.54500002 1
2.05 -0.5 -0.54400003 1
2.043 -0.498 -0.54299998 1
2.0480001 -0.49900001 -0.54500002 1
2.04 -0.49700001 -0.54400003 1
2.029 -0.49399999 -0.54299998 1
2.03 -0.495 -0.54400003 1
2.017 -0.491 -0.542 1
2.0150001 -0.491 -0.542 1
2.013 -0.49000001 -0.54299998 1
2.006 -0.48800001 -0.542 1
2.0020001 -0.48699999 -0.542 1
1.99 -0.484 -0.54000002 1
1.9910001 -0.484 -0.54100001 1
1.987 -0.48300001 -0.54100001 1
1.984 -0.48199999 -0.54100001 1
1.979 -0.48100001 -0.54100001 1
1.976 -0.47999999 -0.54100001 1
1.969 -0.47799999 -0.53899997 1
1.967 -0.477 -0.54000002 1
1.955 -0.47400001 -0.537 1
1.949 -0.472 -0.537 1
1.9579999 -0.47400001 -0.54000002 1
1.946 -0.47099999 -0.537 1
1.941 -0.46900001 -0.53600001 1
1.944 -0.46900001 -0.53799999 1
1.938 -0.46700001 -0.537 1
1.9400001 -0.46799999 -0.53799999 1
1.9349999 -0.46599999 -0.537 1
1.929 -0.46399999 -0.537 1
1.932 -0.46399999 -0.53799999 1
1.923 -0.461 -0.53600001 1
1.9220001 -0.461 -0.53600001 1
1.916 -0.45899999 -0.53500003 1
1.92 -0.45899999 -0.537 1
1.916 -0.45699999 -0.53600001 1
1.911 -0.456 -0.53500003 1
1.915 -0.456 -0.537 1
1.909 -0.454 -0.53500003 1
1.908 -0.45300001 -0.53600001 1
1.908 -0.45199999 -0.53600001 1
1.908 -0.45199999 -0.53600001 1
1.905 -0.44999999 -0.53600001 1
1.905 -0.449 -0.53600001 1
1.897 -0.447 -0.53399998 1
1.906 -0.44800001 -0.537 1
1.904 -0.447 -0.537 1
1.904 -0.44600001 -0.537 1
1.901 -0.44499999 -0.53600001 1
1.899 -0.44299999 -0.53600001 1
1.904 -0.44400001 -0.537 1
1.903 -0.44299999 -0.537 1
1.904 -0.442 -0.537 1
1.903 -0.44100001 -0.537 1
1.904 -0.44 -0.537 1
1.895 -0.43700001 -0.53500003 1
1.904 -0.43799999 -0.53799999 1
1.897 -0.435 -0.53500003 1
1.904 -0.43599999 -0.53799999 1
1.905 -0.435 -0.53799999 1
1.905 -0.43399999 -0.53799999 1
1.902 -0.433 -0.537 1
1.903 -0.43200001 -0.537 1
1.904 -0.43099999 -0.537 1
1.903 -0.43000001 -0.537 1
1.9119999 -0.43000001 -0.53899997 1
1.903 -0.42699999 -0.53600001 1
1.904 -0.426 -0.53600001 1
1.9119999 -0.42699999 -0.53799999 1
1.9119999 -0.426 -0.53799999 1
1.91 -0.42399999 -0.537 1
1.909 -0.42300001 -0.53600001 1
1.916 -0.42300001 -0.53799999 1
1.9119999 -0.421 -0.537 1
1.918 -0.421 -0.53799999 1
1.915 -0.419 -0.53600001 1
1.915 -0.41800001 -0.53600001 1
1.916 -0.417 -0.53600001 1
1.9170001 -0.41600001 -0.53600001 1
1.9170001 -0.414 -0.53500003 1
1.926 -0.41499999 -0.537 1
1.929 -0.414 -0.537 1
1.936 -0.414 -0.53899997 1
1.933 -0.412 -0.537 1
1.927 -0.40900001 -0.53500003 1
1.938 -0.41 -0.537 1
1.939 -0.40900001 -0.537 1
1.936 -0.40700001 -0.53500003 1
1.9579999 -0.41 -0.54100001 1
1.95 -0.40700001 -0.53799999 1
1.9529999 -0.40599999 -0.53799999 1
1.956 -0.405 -0.53799999 1
1.954 -0.403 -0.537 1
1.961 -0.403 -0.53799999 1
1.967 -0.403 -0.53799999 1
1.975 -0.403 -0.54000002 1
1.977 -0.40099999 -0.53899997 1
1.9809999 -0.40000001 -0.53899997 1
1.983 -0.39899999 -0.53899997 1
1.988 -0.39899999 -0.53899997 1
1.99 -0.39700001 -0.53899997 1
1.997 -0.39700001 -0.54000002 1
2 -0.396 -0.53899997 1
2.0050001 -0.39500001 -0.53899997 1
2.0079999 -0.39399999 -0.53899997 1
2.0139999 -0.39399999 -0.54000002 1
2.0090001 -0.391 -0.537 1
2.0220001 -0.391 -0.54000002 1
2.02 -0.389 -0.53799999 1
2.029 -0.389 -0.53899997 1
2.0309999 -0.38800001 -0.53799999 1
2.142 -0.40700001 -0.56599998 1
2.0450001 -0.38699999 -0.53899997 1
2.076 -0.391 -0.546 1
2.0639999 -0.38600001 -0.54100001 1
2.171 -0.40400001 -0.56800002 1
2.119 -0.39199999 -0.55299997 1
2.075 -0.382 -0.54000002 1
2.079 -0.38100001 -0.53899997 1
2.086 -0.38100001 -0.54000002 1
2.099 -0.38100001 -0.542 1
2.1129999 -0.38100001 -0.54400003 1
2.1289999 -0.382 -0.546 1
2.135 -0.38100001 -0.546 1
2.1389999 -0.38 -0.54500002 1
2.145 -0.37900001 -0.54500002 1
2.1600001 -0.37900001 -0.54699999 1
2.161 -0.377 -0.54500002 1
2.1659999 -0.37599999 -0.54500002 1
2.1760001 -0.375 -0.546 1
2.1819999 -0.37400001 -0.54500002 1
2.188 -0.373 -0.54500002 1
2.1960001 -0.37200001 -0.54500002 1
2.2049999 -0.37099999 -0.54500002 1
2.22 -0.37200001 -0.54699999 1
2.2320001 -0.37099999 -0.54799998 1
2.2420001 -0.37099999 -0.54799998 1
2.2490001 -0.36899999 -0.54799998 1
2.2590001 -0.36899999 -0.54799998 1
2.27 -0.368 -0.54900002 1
2.279 -0.36700001 -0.54799998 1
2.2920001 -0.36700001 -0.54900002 1
2.3069999 -0.36700001 -0.551 1
2.3180001 -0.366 -0.551 1
2.3280001 -0.36500001 -0.551 1
2.335 -0.36399999 -0.55000001 1
2.3510001 -0.36399999 -0.55199999 1
2.345 -0.36000001 -0.54799998 1
2.375 -0.36199999 -0.55199999 1
2.388 -0.36199999 -0.55299997 1
2.3959999 -0.36000001 -0.55199999 1
2.408 -0.359 -0.55199999 1
2.411 -0.35699999 -0.55000001 1
2.529 -0.37200001 -0.574 1
2.4549999 -0.35800001 -0.55500001 1
2.54 -0.368 -0.57099998 1
2.552 -0.36700001 -0.57099998 1
2.5510001 -0.36399999 -0.56800002 1
2.5109999 -0.35600001 -0.55599999 1
2.5090001 -0.352 -0.55299997 1
2.6210001 -0.36500001 -0.574 1
2.572 -0.35600001 -0.56 1
2.6370001 -0.36199999 -0.57099998 1
2.5669999 -0.34900001 -0.55299997 1
2.631 -0.35499999 -0.56400001 1
2.6819999 -0.359 -0.57099998 1
2.6489999 -0.35100001 -0.56099999 1
2.6559999 -0.34900001 -0.55900002 1
2.6930001 -0.35100001 -0.56400001 1
2.7609999 -0.35699999 -0.574 1
2.7349999 -0.34999999 -0.56599998 1
2.767 -0.35100001 -0.56900001 1
2.75 -0.34599999 -0.56199998 1
2.7780001 -0.347 -0.56400001 2
2.796 -0.34599999 -0.56400001 2
2.8180001 -0.345 -0.56400001 2
2.836 -0.34400001 -0.56400001 2
2.8599999 -0.34400001 -0.565 2
2.8789999 -0.34299999 -0.565 2
2.9030001 -0.34200001 -0.56599998 2
2.9289999 -0.34200001 -0.56599998 2
2.9530001 -0.34200001 -0.56699997 2
2.984 -0.34200001 -0.56900001 2
3.0109999 -0.34099999 -0.56999999 2
3.0280001 -0.34 -0.56900001 2
3.0680001 -0.34099999 -0.57200003 2
3.098 -0.34099999 -0.57300001 2
3.1199999 -0.34 -0.57300001 2
3.145 -0.33899999 -0.57300001 2
3.175 -0.33899999 -0.574 2
3.21 -0.33899999 -0.57499999 2
3.2390001 -0.338 -0.57599998 2
3.3940001 -0.35100001 -0.59899998 2
3.4719999 -0.35499999 -0.60699999 2
3.4679999 -0.34999999 -0.60100001 2
3.4690001 -0.34599999 -0.59600002 2
3.47 -0.34299999 -0.59100002 2
3.4360001 -0.33500001 -0.57999998 2
3.6029999 -0.34799999 -0.60299999 2
3.579 -0.34099999 -0.59299999 2
3.6199999 -0.34099999 -0.59500003 2
3.632 -0.338 -0.59100002 2
3.7449999 -0.345 -0.60399997 3
3.7539999 -0.34099999 -0.59899998 2
3.8380001 -0.345 -0.60600001 2
3.796 -0.33700001 -0.59399998 2
3.796 -0.33199999 -0.588 2
3.8940001 -0.33700001 -0.597 2
3.8989999 -0.333 -0.59100002 2
3.974 -0.33500001 -0.59600002 2
4.0110002 -0.33399999 -0.59500003 2
4.0799999 -0.33500001 -0.59899998 2
4.1869998 -0.33899999 -0.60799998 2
4.3369999 -0.347 -0.62300003 2
4.3390002 -0.34200001 -0.616 2
0 0 0 1
4.4619999 -0.34200001 -0.61799997 1
4.5380001 -0.34299999 -0.62099999 1
4.6240001 -0.34400001 -0.625 1
4.7309999 -0.347 -0.63200003 1
4.7930002 -0.347 -0.63200003 1
4.8429999 -0.345 -0.63 1
4.9650002 -0.34799999 -0.63800001 1
5.0279999 -0.347 -0.63700002 1
5.1149998 -0.34799999 -0.639 1
5.1890001 -0.34799999 -0.639 2
5.2690001 -0.347 -0.63999999 4
5.3629999 -0.34799999 -0.64200002 4
5.4660001 -0.34900001 -0.64499998 5
5.5650001 -0.34900001 -0.64700001 5
5.6739998 -0.34999999 -0.64899999 7
