# .PCD v0.7 - Point Cloud Data file format
VERSION 0.7
FIELDS x y z intensity
SIZE 4 4 4 4
TYPE F F F F
COUNT 1 1 1 1
WIDTH 1879
HEIGHT 1
VIEWPOINT 0 0 0 1 0 0 0
POINTS 1879
DATA ascii
35.897999 -7.3169999 3.0039999 8
35.891998 -7.2649999 2.9660001 15
35.876999 -7.2119999 2.9289999 28
35.861 -7.1570001 2.8900001 41
35.870998 -7.1069999 2.8540001 48
35.848 -7.0510001 2.8150001 48
35.832001 -6.9970002 2.7780001 49
35.82 -6.941 2.74 47
35.798 -6.8839998 2.7019999 50
35.798 -6.8309999 2.665 51
35.792 -6.7779999 2.628 49
35.790001 -6.724 2.592 51
35.783001 -6.6690001 2.5539999 49
35.777 -6.6139998 2.5179999 50
35.764999 -6.5570002 2.48 53
35.771 -6.5019999 2.444 52
35.771999 -6.448 2.408 55
35.763 -6.3899999 2.3699999 54
35.754002 -6.3330002 2.3340001 52
35.754002 -6.277 2.2980001 53
35.762001 -6.2220001 2.2620001 52
35.741001 -6.1630001 2.2249999 50
35.743999 -6.105 2.1889999 54
0 0 0 13
27.77 -4.6539998 1.6440001 22
27.718 -4.5999999 1.613 29
27.67 -4.5469999 1.5829999 34
27.639999 -4.4970002 1.554 37
27.621 -4.4489999 1.525 41
27.603001 -4.401 1.4960001 46
27.59 -4.3530002 1.469 50
27.573 -4.3049998 1.441 48
27.577 -4.2589998 1.414 60
27.558001 -4.21 1.386 70
27.594999 -4.1690001 1.36 63
27.598 -4.1220002 1.3329999 61
27.607 -4.0770001 1.307 50
27.646 -4.0349998 1.2819999 47
27.671 -3.9920001 1.257 42
27.709999 -3.95 1.232 40
27.752001 -3.908 1.207 35
27.804001 -3.8670001 1.182 28
27.886999 -3.8299999 1.159 21
28.02 -3.799 1.138 11
0 0 0 4
35.987999 -4.7529998 1.393 4
35.654999 -4.6469998 1.347 38
35.576 -4.573 1.311 98
35.598 -4.5120001 1.278 94
35.597 -4.4489999 1.245 90
35.585999 -4.3829999 1.211 91
35.585999 -4.3189998 1.179 76
35.577 -4.2540002 1.145 93
35.563999 -4.1890001 1.113 91
35.536999 -4.1209998 1.08 101
35.560001 -4.059 1.048 105
35.542999 -3.9909999 1.015 101
35.541 -3.927 0.98400003 95
35.540001 -3.8599999 0.95099998 93
35.533001 -3.7950001 0.92000002 101
35.522999 -3.7279999 0.88800001 102
35.528999 -3.6619999 0.85699999 88
35.52 -3.596 0.82599998 91
35.507 -3.5280001 0.79500002 98
35.52 -3.464 0.76499999 97
35.491001 -3.3940001 0.73400003 105
35.488998 -3.3280001 0.70300001 101
35.693001 -3.2780001 0.67699999 10
36.168999 -3.2539999 0.65499997 8
36.643002 -3.2279999 0.63300002 7
37.124001 -3.2 0.61000001 8
37.584 -3.168 0.58600003 7
39.396999 -3.2460001 0.583 81
39.396 -3.1700001 0.55000001 90
39.397999 -3.095 0.51800001 86
39.640999 -3.0369999 0.48899999 5
40.310001 -3.0109999 0.465 6
40.969002 -2.98 0.43900001 17
41.166 -2.915 0.40900001 16
43.437 -2.993 0.39700001 99
43.405998 -2.9059999 0.36300001 95
43.402 -2.8210001 0.329 42
44.215 -2.7880001 0.301 16
44.195999 -2.7 0.26699999 38
44.234001 -2.6170001 0.234 49
43.831001 -2.5079999 0.199 4
0 0 0 57
47.797001 -2.5450001 0.145 46
47.861 -2.4549999 0.11 21
48.622002 -2.3959999 0.075999998 20
51.515999 -2.438 0.043000001 88
51.671001 -2.3410001 0.0060000001 132
51.749001 -2.243 -0.029999999 16
0 0 0 11
0 0 0 71
59.131001 -2.2090001 -0.15899999 69
59.612 -2.1070001 -0.20200001 116
59.595001 -1.987 -0.243 112
59.794998 -1.873 -0.285 70
60.145 -1.765 -0.32600001 18
0 0 0 131
67.653 -1.712 -0.45699999 108
67.652 -1.575 -0.50199997 75
67.823997 -1.441 -0.54699999 87
68.245003 -1.3099999 -0.59500003 24
0 0 0 92
74.139999 -1.126 -0.73900002 33
0 0 0 59
134.69099 -1.498 -1.511 44
134.815 -1.225 -1.595 37
134.547 -0.95200002 -1.6720001 112
134.73199 -0.67799997 -1.755 55
0 0 0 0
0 0 0 0
0 0 0 49
0 0 0 0
0 0 0 0
0 0 0 55
0 0 0 0
0 0 0 0
0 0 0 0
0 0 0 0
0 0 0 0
0 0 0 0
0 0 0 0
0 0 0 0
0 0 0 0
0 0 0 26
0 0 0 6
40.471001 1.29 -0.91600001 131
40.348 1.37 -0.93300003 150
40.181 1.447 -0.94800001 151
40.080002 1.525 -0.963 21
39.950001 1.602 -0.97799999 19
39.848999 1.6799999 -0.99299997 19
39.743 1.757 -1.008 26
39.695 1.836 -1.024 66
39.701 1.918 -1.041 74
39.706001 2 -1.057 71
39.712002 2.0799999 -1.073 68
39.734001 2.164 -1.09 64
39.745998 2.2460001 -1.1059999 49
39.792999 2.329 -1.122 25
39.854 2.4130001 -1.1390001 15
40.009998 2.5039999 -1.159 9
40.039001 2.5880001 -1.174 8
40.028999 2.6670001 -1.188 9
40.037998 2.7490001 -1.202 14
40.005001 2.8299999 -1.215 36
40.041 2.914 -1.23 44
40.083 2.9990001 -1.244 47
40.129002 3.0840001 -1.2589999 48
40.174999 3.1689999 -1.273 49
40.213001 3.253 -1.2869999 48
40.258999 3.339 -1.3 49
40.291 3.4219999 -1.313 48
40.330002 3.507 -1.326 45
40.374001 3.5929999 -1.339 48
40.421001 3.678 -1.352 46
40.452999 3.7620001 -1.364 47
40.504002 3.8499999 -1.377 46
40.533001 3.934 -1.388 44
40.584999 4.02 -1.4 45
40.613998 4.105 -1.41 46
40.673 4.1929998 -1.4220001 41
40.702999 4.277 -1.432 41
40.761002 4.3639998 -1.443 43
40.786999 4.448 -1.4529999 38
40.827 4.5320001 -1.4630001 48
41.037998 4.6370001 -1.479 38
41.096001 4.7249999 -1.489 47
41.032001 4.7989998 -1.494 48
0 0 0 69
37.651001 4.552 -1.3839999 83
37.571999 4.6160002 -1.388 4
37.330002 4.658 -1.385 14
37.241001 4.7199998 -1.387 69
37.231998 4.7919998 -1.392 11
37.188999 4.8569999 -1.396 13
37.176998 4.928 -1.401 13
0 0 0 1
0 0 0 15
37.125 5.1360002 -1.413 8
0 0 0 2
32.327999 4.5960002 -1.2359999 5
32.257 4.6469998 -1.237 9
32.417999 4.7329998 -1.2460001 13
32.536999 4.8119998 -1.253 7
32.237999 4.829 -1.244 8
32.222 4.8870001 -1.2460001 34
32.202 4.9450002 -1.248 43
32.202 5.006 -1.25 67
32.349998 5.0890002 -1.257 9
32.199001 5.1259999 -1.253 59
32.186001 5.184 -1.253 67
32.271 5.257 -1.258 21
32.171001 5.3010001 -1.255 8
32.401001 5.3979998 -1.265 4
32.334 5.4460001 -1.262 8
32.279999 5.4959998 -1.261 5
32.299 5.5580001 -1.262 5
32.296001 5.6160002 -1.262 4
32.300999 5.6760001 -1.262 4
32.264999 5.7280002 -1.26 3
32.255001 5.7839999 -1.2589999 3
32.290001 5.848 -1.2589999 4
32.254002 5.8990002 -1.257 3
32.208 5.948 -1.2539999 3
32.228001 6.0089998 -1.253 3
32.249001 6.0689998 -1.253 3
32.240002 6.125 -1.251 3
32.254002 6.184 -1.249 3
32.221001 6.2329998 -1.247 2
32.185001 6.2820001 -1.243 2
32.117001 6.3239999 -1.238 2
32.222 6.4000001 -1.239 2
32.167999 6.4450002 -1.234 2
32.185001 6.5019999 -1.233 2
32.217999 6.5640001 -1.2309999 2
32.127998 6.5999999 -1.224 2
32.124001 6.652 -1.22 2
32.105999 6.7020001 -1.216 2
32.160999 6.7659998 -1.215 2
32.154999 6.8179998 -1.211 3
32.125999 6.8639998 -1.206 2
32.106998 6.9130001 -1.201 2
32.174999 6.98 -1.199 2
32.154999 7.0279999 -1.194 3
0 0 0 0
0 0 0 100
12.85 2.8710001 -0.47099999 114
12.754 2.869 -0.465 150
12.655 2.8670001 -0.46000001 139
12.595 2.8729999 -0.45500001 150
12.542 2.881 -0.45100001 62
12.56 2.904 -0.44999999 6
12.512 2.9119999 -0.44600001 2
12.455 2.918 -0.44100001 2
12.416 2.928 -0.43799999 3
12.366 2.934 -0.43399999 4
12.35 2.9489999 -0.43099999 5
12.313 2.9590001 -0.42699999 5
12.295 2.973 -0.42399999 5
12.259 2.9820001 -0.41999999 5
12.227 2.9920001 -0.41600001 5
12.073 2.973 -0.40799999 5
0 0 0 108
10.614 2.6440001 -0.354 152
10.516 2.635 -0.34799999 152
10.412 2.6229999 -0.34200001 152
10.343 2.6210001 -0.338 152
10.271 2.6170001 -0.333 152
10.271 2.631 -0.33000001 150
10.242 2.6370001 -0.32699999 2
10.186 2.6370001 -0.322 1
10.149 2.641 -0.31799999 1
10.104 2.6429999 -0.31400001 1
10.075 2.6489999 -0.31099999 1
10.039 2.652 -0.30700001 1
10.014 2.6589999 -0.303 1
10.007 2.6700001 -0.301 1
9.9709997 2.6730001 -0.29699999 2
9.9790001 2.688 -0.294 2
9.9460001 2.6919999 -0.28999999 2
9.941 2.7030001 -0.287 2
9.9280005 2.711 -0.28400001 2
9.9069996 2.7179999 -0.28 2
9.8789997 2.7219999 -0.27700001 4
9.8809996 2.7349999 -0.27399999 3
9.8640003 2.7420001 -0.27000001 2
9.8430004 2.7479999 -0.266 2
9.8299999 2.756 -0.26300001 2
9.8199997 2.7639999 -0.25999999 2
9.8129997 2.773 -0.25600001 3
9.7959995 2.78 -0.25299999 3
9.7860003 2.7880001 -0.249 3
9.757 2.7909999 -0.24600001 3
9.7650003 2.8039999 -0.243 3
9.7460003 2.809 -0.23899999 3
9.743 2.8180001 -0.236 4
9.7399998 2.8280001 -0.23199999 4
9.7209997 2.8329999 -0.229 4
9.7139997 2.8410001 -0.22499999 4
9.6949997 2.845 -0.221 5
9.684 2.852 -0.21799999 5
9.7010002 2.8659999 -0.215 6
9.6669998 2.8659999 -0.211 6
9.6619997 2.8740001 -0.207 7
9.6450005 2.878 -0.20299999 9
9.6440001 2.8870001 -0.2 10
9.625 2.8900001 -0.19599999 14
9.6239996 2.8989999 -0.193 11
9.6070004 2.902 -0.189 22
9.6000004 2.9089999 -0.185 16
9.5939999 2.9159999 -0.18099999 27
9.5950003 2.924 -0.178 32
9.6020002 2.9349999 -0.17399999 39
9.585 2.938 -0.17 48
9.5819998 2.9449999 -0.167 59
9.5900002 2.9549999 -0.163 66
9.5799999 2.96 -0.15899999 75
9.5979996 2.973 -0.156 84
9.5810003 2.9749999 -0.152 102
9.592 2.9860001 -0.149 108
9.5839996 2.9909999 -0.145 124
9.5790005 2.9960001 -0.141 127
9.5780001 3.003 -0.13699999 135
9.5819998 3.0109999 -0.134 140
9.5909996 3.0209999 -0.13 140
9.5810003 3.0239999 -0.126 142
9.5860004 3.0320001 -0.123 140
9.5869999 3.039 -0.119 142
9.5749998 3.0409999 -0.115 138
9.5769997 3.0480001 -0.111 146
9.5749998 3.053 -0.107 144
9.5690002 3.0569999 -0.103 138
9.5629997 3.0610001 -0.098999999 132
9.5710001 3.069 -0.096000001 137
9.559 3.0699999 -0.092 138
9.5629997 3.0769999 -0.088 130
9.5670004 3.0829999 -0.083999999 127
9.5550003 3.0840001 -0.079999998 125
9.5710001 3.095 -0.075999998 124
9.5670004 3.098 -0.071999997 123
9.5629997 3.1010001 -0.068999998 120
9.5570002 3.1040001 -0.064999998 114
9.5579996 3.108 -0.061000001 107
9.5480003 3.109 -0.057 105
9.5480003 3.1129999 -0.052999999 104
9.5640001 3.122 -0.048999999 98
9.5500002 3.122 -0.045000002 96
9.54 3.122 -0.041000001 89
9.5459995 3.1270001 -0.037 90
9.5480003 3.131 -0.034000002 86
9.5500002 3.135 -0.029999999 87
9.5450001 3.1370001 -0.026000001 84
9.5469999 3.1400001 -0.022 83
9.5489998 3.1440001 -0.017999999 81
9.5419998 3.1440001 -0.014 82
9.5299997 3.1429999 -0.0099999998 77
9.5459995 3.1500001 -0.0060000001 77
9.5360003 3.1489999 -0.0020000001 76
9.5380001 3.152 0.001 73
9.5310001 3.152 0.0049999999 72
9.5430002 3.1570001 0.0089999996 69
9.5430002 3.1589999 0.013 67
9.5380001 3.1589999 0.017000001 63
9.5380001 3.161 0.021 60
9.5360003 3.161 0.024 56
9.5380001 3.1630001 0.028000001 50
9.5369997 3.164 0.032000002 47
9.5380001 3.165 0.035999998 45
9.5410004 3.1659999 0.039999999 41
9.54 3.1670001 0.044 39
9.5419998 3.168 0.048 36
9.5410004 3.168 0.052000001 34
9.533 3.1659999 0.055 32
9.5340004 3.1659999 0.059 30
9.5469999 3.1700001 0.063000001 29
9.5450001 3.1689999 0.067000002 28
9.5340004 3.165 0.071000002 26
9.5430002 3.168 0.075000003 17
9.5469999 3.168 0.079000004 16
9.5450001 3.1670001 0.082000002 23
9.5530005 3.1689999 0.086000003 14
9.5550003 3.1689999 0.090000004 19
9.5579996 3.168 0.093999997 15
9.5609999 3.168 0.097999997 12
9.5690002 3.1689999 0.102 8
9.5819998 3.1719999 0.106 5
9.5810003 3.1700001 0.109 3
9.5769997 3.1659999 0.113 1
9.599 3.1719999 0.117 1
9.6280003 3.1789999 0.121 1
9.6000004 3.1670001 0.125 1
9.6709995 3.1889999 0.12899999 1
9.6000004 3.1630001 0.132 1
9.6330004 3.171 0.13600001 1
9.6610003 3.177 0.14 1
9.6479998 3.1700001 0.14399999 1
9.6560001 3.1689999 0.148 1
9.6630001 3.168 0.152 4
9.6560001 3.1619999 0.155 12
9.6470003 3.1559999 0.15899999 17
9.6479998 3.1530001 0.162 46
9.6610003 3.1530001 0.16599999 84
9.6619997 3.1489999 0.17 110
9.665 3.1459999 0.17299999 118
9.6809998 3.1470001 0.177 123
9.6899996 3.1459999 0.18099999 135
9.7030001 3.145 0.185 148
9.7019997 3.1400001 0.18799999 150
9.6969995 3.1340001 0.191 150
9.6990004 3.1300001 0.19499999 139
9.6999998 3.125 0.198 131
9.6920004 3.1170001 0.20100001 108
9.6780005 3.1070001 0.205 70
9.677 3.102 0.208 44
9.677 3.096 0.211 28
9.6820002 3.092 0.215 17
9.6999998 3.092 0.219 9
9.7180004 3.0910001 0.222 6
9.7379999 3.0910001 0.226 4
9.7480001 3.0880001 0.23 2
9.7580004 3.085 0.233 2
9.7749996 3.0840001 0.237 1
9.8070002 3.0869999 0.241 1
9.8389997 3.0899999 0.245 1
9.8979998 3.102 0.249 1
9.9460001 3.1099999 0.25400001 1
9.9860001 3.115 0.25799999 1
10.069 3.1329999 0.26300001 1
10.119 3.141 0.26800001 1
0 0 0 0
0 0 0 0
0 0 0 1
10.359 3.1819999 0.287 1
0 0 0 10
48.051998 14.681 1.362 19
48.067001 14.644 1.375 20
48.115002 14.617 1.391 11
48.125999 14.577 1.405 10
48.109001 14.529 1.419 20
48.103001 14.483 1.431 25
48.091999 14.435 1.4450001 16
48.130001 14.4 1.459 14
48.116001 14.351 1.47 14
50.518002 15.019 1.557 14
0 0 0 8
38.584999 11.395 1.211 7
0 0 0 0
0 0 0 0
0 0 0 0
0 0 0 61
36.200001 10.505 1.1799999 95
36.207001 10.468 1.189 83
36.264999 10.446 1.2 15
0 0 0 25
0 0 0 11
38.134998 10.858 1.2869999 53
38.131001 10.814 1.296 59
38.139 10.772 1.304 53
38.173 10.738 1.314 41
0 0 0 0
0 0 0 0
0 0 0 13
53.351002 14.756 1.88 12
53.271999 14.671 1.887 22
53.245998 14.599 1.896 26
53.252998 14.535 1.906 24
53.344002 14.494 1.919 26
53.387001 14.438 1.9299999 26
53.259998 14.336 1.9349999 26
53.507 14.335 1.9529999 25
53.324001 14.218 1.954 19
0 0 0 5
0 0 0 44
42.476002 11.16 1.576 54
0 0 0 22
37.476002 9.7460003 1.401 14
0 0 0 0
0 0 0 22
37.466999 9.5900002 1.416 11
37.554001 9.5600004 1.423 6
37.501999 9.4949999 1.425 40
37.522999 9.4469995 1.4299999 50
37.513 9.3920002 1.434 62
37.532001 9.3430004 1.439 51
37.522999 9.2860003 1.441 57
37.533001 9.2349997 1.4450001 55
37.526001 9.1780005 1.448 50
37.554001 9.1300001 1.452 10
0 0 0 34
46.562 11.184 1.808 14
0 0 0 0
0 0 0 0
0 0 0 0
0 0 0 0
0 0 0 0
0 0 0 17
51.148998 11.744 2.0039999 35
51.188 11.673 2.007 23
0 0 0 11
0 0 0 0
0 0 0 5
0 0 0 16
38.560001 8.4879999 1.513 10
0 0 0 5
50.096001 10.865 1.966 16
0 0 0 3
38.140999 8.1490002 1.495 2
38.199001 8.0979996 1.4960001 9
38.584999 8.1160002 1.51 18
38.671001 8.0699997 1.512 39
38.200001 7.9089999 1.4910001 30
38.035 7.8119998 1.484 31
38.022999 7.7459998 1.4809999 31
37.738998 7.625 1.467 29
37.577 7.5289998 1.4579999 31
37.522999 7.454 1.4529999 34
37.648998 7.414 1.455 40
37.747002 7.3699999 1.455 22
0 0 0 0
0 0 0 17
47.021 8.9350004 1.798 12
0 0 0 0
0 0 0 24
46.491001 8.592 1.762 27
44.676998 8.177 1.688 13
43.931999 7.9619999 1.652 12
43.752998 7.8520002 1.6390001 14
43.682999 7.7610002 1.63 24
43.615002 7.6719999 1.62 27
43.598999 7.5910001 1.613 30
43.687 7.527 1.609 40
43.714001 7.4510002 1.602 40
43.937 7.4089999 1.603 39
43.931 7.3280001 1.594 41
44.221001 7.2969999 1.596 32
44.615002 7.2810001 1.6 30
44.495998 7.1799998 1.587 39
44.405998 7.0830002 1.574 24
44.459999 7.0100002 1.566 12
0 0 0 24
59.694 9.191 2.075 30
59.950001 9.1199999 2.0699999 30
60.069 9.0240002 2.0580001 31
60.153 8.9239998 2.046 32
60.27 8.8280001 2.0339999 32
60.265999 8.7130003 2.017 7
0 0 0 0
0 0 0 13
0 0 0 20
70.856003 9.7080002 2.29 21
71.007004 9.5889997 2.2720001 21
71.519997 9.5220003 2.266 21
0 0 0 0
0 0 0 0
0 0 0 0
0 0 0 17
74.772003 9.2370005 2.244 22
0 0 0 0
0 0 0 0
0 0 0 10
0 0 0 0
0 0 0 0
0 0 0 23
74.166 8.1520004 2.03 27
74.271004 8.0179996 2.003 32
74.449997 7.8909998 1.977 33
74.792 7.7789998 1.954 27
75.152 7.6700001 1.931 33
76.191002 7.6279998 1.926 28
76.132004 7.4720001 1.891 24
0 0 0 0
0 0 0 0
0 0 0 23
0 0 0 0
0 0 0 0
0 0 0 95
0 0 0 0
0 0 0 0
0 0 0 0
0 0 0 0
0 0 0 14
90.836998 6.7529998 1.723 18
90.613998 6.5549998 1.671 15
90.879997 6.3899999 1.625 16
90.373001 6.1739998 1.566 19
90.117996 5.9759998 1.511 18
89.903 5.7810001 1.457 19
89.905998 5.6009998 1.405 15
0 0 0 0
0 0 0 0
0 0 0 0
0 0 0 0
0 0 0 0
0 0 0 14
0 0 0 0
0 0 0 0
0 0 0 0
0 0 0 14
92.806 3.7349999 0.82099998 15
0 0 0 0
0 0 0 0
0 0 0 0
0 0 0 12
89.374001 2.7030001 0.49000001 15
89.316002 2.5190001 0.42699999 17
89.374001 2.3440001 0.36500001 15
89.514 2.168 0.30199999 19
89.434998 1.987 0.23800001 15
0 0 0 0
0 0 0 0
0 0 0 0
0 0 0 0
0 0 0 0
0 0 0 0
0 0 0 0
0 0 0 0
0 0 0 0
0 0 0 39
134.416 0.044 -0.759 51
134.51801 -0.222 -0.86699998 71
134.51801 -0.48800001 -0.97500002 81
134.506 -0.759 -1.086 89
0 0 0 0
0 0 0 0
0 0 0 53
0 0 0 13
73.156998 -1.131 -0.89300001 65
70.888 -1.237 -0.926 29
67.964996 -1.319 -0.94599998 21
67.621002 -1.4450001 -1 69
67.641998 -1.576 -1.058 74
67.603996 -1.7079999 -1.117 124
67.658997 -1.841 -1.177 140
0 0 0 0
0 0 0 70
0 0 0 5
45.173 -1.582 -0.949 12
45.226002 -1.671 -0.991 42
44.73 -1.739 -1.021 33
44.290001 -1.808 -1.052 34
44.108002 -1.885 -1.089 40
0 0 0 21
41.056999 -1.911 -1.09 18
0 0 0 81
31.790001 -1.601 -0.90399998 150
0 0 0 8
39.497002 -2.1389999 -1.199 12
39.631001 -2.22 -1.2410001 12
39.876999 -2.309 -1.288 8
0 0 0 1
28.226 -1.742 -0.96700001 1
27.240999 -1.732 -0.95999998 152
27.176001 -1.778 -0.98500001 169
27.198999 -1.831 -1.013 162
27.223 -1.883 -1.041 163
27.195999 -1.931 -1.067 151
0 0 0 8
39.605 -2.957 -1.635 6
39.292999 -3.007 -1.6619999 59
0 0 0 5
22.653 -1.816 -1.005 4
22.474001 -1.8430001 -1.02 4
22.469 -1.885 -1.044 3
22.490999 -1.926 -1.068 3
22.476999 -1.966 -1.091 3
22.552 -2.013 -1.118 3
0 0 0 1
0 0 0 1
19.893 -1.882 -1.05 3
19.906 -1.919 -1.072 3
19.908001 -1.954 -1.0930001 3
19.91 -1.99 -1.115 3
19.886999 -2.023 -1.136 4
19.643 -2.033 -1.143 4
19.367001 -2.0380001 -1.149 4
0 0 0 3
17.388 -1.89 -1.069 3
17.745001 -1.96 -1.1109999 3
17.295 -1.9400001 -1.102 3
16.704 -1.902 -1.0829999 2
15.952 -1.844 -1.052 4
15.43 -1.8099999 -1.035 2
15.058 -1.7920001 -1.027 2
14.632 -1.766 -1.0140001 3
14.143 -1.7309999 -0.99599999 3
13.749 -1.706 -0.98400003 3
13.376 -1.682 -0.972 3
13.029 -1.66 -0.96200001 3
12.695 -1.6390001 -0.95200002 3
12.391 -1.62 -0.94300002 3
12.062 -1.597 -0.93199998 3
11.784 -1.579 -0.92400002 2
11.496 -1.559 -0.91500002 2
11.19 -1.536 -0.903 2
10.856 -1.508 -0.889 2
10.594 -1.488 -0.88 2
10.366 -1.473 -0.87300003 2
10.107 -1.4529999 -0.86299998 3
9.8690004 -1.434 -0.85399997 3
9.6490002 -1.4170001 -0.84600002 4
9.4700003 -1.406 -0.84200001 3
9.2779999 -1.392 -0.83499998 4
9.0869999 -1.377 -0.829 3
8.8540001 -1.355 -0.81800002 4
8.6689997 -1.341 -0.81099999 3
8.4849997 -1.325 -0.80400002 3
8.3100004 -1.3099999 -0.79699999 4
8.1450005 -1.2970001 -0.79100001 4
7.974 -1.2819999 -0.78399998 5
7.8109999 -1.267 -0.77700001 5
7.6680002 -1.255 -0.77200001 4
7.5320001 -1.244 -0.76700002 5
7.4050002 -1.234 -0.76300001 5
7.29 -1.226 -0.75999999 5
7.1539998 -1.2130001 -0.75400001 4
7.0349998 -1.2029999 -0.75 4
6.9239998 -1.194 -0.74599999 4
6.7930002 -1.181 -0.74000001 4
6.6810002 -1.171 -0.736 4
6.5640001 -1.16 -0.73100001 3
6.4749999 -1.154 -0.72899997 3
6.3769999 -1.145 -0.72500002 4
6.2989998 -1.14 -0.72399998 4
6.1869998 -1.128 -0.71799999 4
6.0739999 -1.1160001 -0.71200001 3
5.9920001 -1.109 -0.70999998 3
5.927 -1.105 -0.70899999 3
5.8429999 -1.097 -0.70599997 3
5.7550001 -1.0880001 -0.70200002 3
5.671 -1.08 -0.699 3
5.579 -1.0700001 -0.69400001 3
5.4980001 -1.061 -0.69 3
5.4200001 -1.053 -0.68699998 3
5.3800001 -1.053 -0.68800002 3
5.2859998 -1.041 -0.68199998 2
5.2140002 -1.033 -0.67900002 4
5.164 -1.03 -0.67900002 2
5.1090002 -1.025 -0.67799997 2
5.0469999 -1.0190001 -0.676 2
4.987 -1.013 -0.67400002 2
4.9299998 -1.008 -0.671 2
4.8720002 -1.002 -0.66900003 2
4.803 -0.99299997 -0.66600001 4
4.7490001 -0.98799998 -0.66299999 3
4.6890001 -0.98100001 -0.66100001 2
4.6300001 -0.97399998 -0.65799999 3
4.5929999 -0.972 -0.65799999 2
4.546 -0.96700001 -0.65600002 3
4.4910002 -0.96100003 -0.65399998 2
4.4400001 -0.95499998 -0.65200001 2
4.3940001 -0.94999999 -0.64999998 2
4.3319998 -0.94099998 -0.64600003 3
4.3070002 -0.94 -0.64700001 2
4.25 -0.93300003 -0.64300001 2
4.1890001 -0.92400002 -0.639 2
4.1700001 -0.92400002 -0.64099997 3
4.105 -0.91399997 -0.63499999 2
4.072 -0.91100001 -0.63499999 2
4.0409999 -0.90799999 -0.63499999 2
4.0139999 -0.90700001 -0.63499999 2
3.951 -0.89600003 -0.63 2
3.925 -0.89399999 -0.63 3
3.8940001 -0.89099997 -0.62900001 2
3.8559999 -0.88700002 -0.62800002 2
3.9070001 -0.90200001 -0.63999999 2
3.8499999 -0.89200002 -0.63499999 2
3.8540001 -0.89700001 -0.63999999 2
3.7539999 -0.87800002 -0.62800002 2
3.737 -0.87699997 -0.62900001 2
3.6949999 -0.87099999 -0.62599999 2
3.704 -0.87599999 -0.63099998 2
3.641 -0.86500001 -0.625 2
3.585 -0.85500002 -0.61900002 2
3.596 -0.861 -0.625 3
3.5610001 -0.85500002 -0.62199998 2
3.5209999 -0.84899998 -0.61900002 2
3.5450001 -0.85699999 -0.62699997 2
3.4979999 -0.84899998 -0.62300003 2
3.457 -0.84200001 -0.61900002 2
3.477 -0.85000002 -0.62599999 3
3.4059999 -0.83499998 -0.61699998 2
3.362 -0.82700002 -0.61299998 2
3.3210001 -0.81999999 -0.60900003 1
3.2880001 -0.81400001 -0.60600001 1
3.3789999 -0.83899999 -0.62599999 2
3.3570001 -0.83600003 -0.62599999 2
3.2709999 -0.81800002 -0.61299998 1
3.2449999 -0.81300002 -0.611 1
3.2260001 -0.81099999 -0.611 1
3.204 -0.80800003 -0.61000001 1
3.1989999 -0.80900002 -0.61199999 1
3.168 -0.80299997 -0.60900003 2
3.1110001 -0.79100001 -0.602 1
3.1199999 -0.79500002 -0.60600001 1
3.109 -0.79400003 -0.60699999 1
3.158 -0.80900002 -0.62 2
3.1029999 -0.79699999 -0.61199999 2
3.0899999 -0.79500002 -0.61299998 2
3.105 -0.801 -0.61799997 2
3.079 -0.796 -0.616 2
2.9990001 -0.77700001 -0.60299999 1
3.053 -0.79299998 -0.61699998 1
2.9849999 -0.77700001 -0.60600001 1
2.9230001 -0.76300001 -0.59600002 1
3.0309999 -0.792 -0.62 2
3.0090001 -0.78799999 -0.61900002 1
2.8970001 -0.76099998 -0.59799999 1
2.908 -0.76499999 -0.60299999 1
2.8929999 -0.76300001 -0.60299999 2
3.039 -0.80199999 -0.63599998 2
0 0 0 2
2.799 -0.74199998 -0.58999997 2
2.7880001 -0.74000001 -0.58999997 2
2.7780001 -0.73900002 -0.59100002 2
2.7709999 -0.73799998 -0.59200001 2
2.7520001 -0.73400003 -0.58999997 2
2.7390001 -0.73199999 -0.58899999 2
2.7249999 -0.72899997 -0.588 2
2.7160001 -0.72799999 -0.58899999 2
2.7049999 -0.72600001 -0.58899999 2
2.6919999 -0.72299999 -0.588 2
2.6730001 -0.71899998 -0.58600003 2
2.6630001 -0.71700001 -0.58600003 2
2.6489999 -0.71499997 -0.58499998 2
2.645 -0.71399999 -0.58600003 2
2.6270001 -0.70999998 -0.58399999 2
2.6159999 -0.708 -0.583 2
2.612 -0.708 -0.58399999 2
2.595 -0.704 -0.583 2
2.5829999 -0.70099998 -0.58200002 2
2.569 -0.69800001 -0.57999998 2
2.5639999 -0.69700003 -0.58099997 2
2.5450001 -0.69300002 -0.579 2
2.5439999 -0.69300002 -0.57999998 2
2.5339999 -0.69099998 -0.579 2
2.5280001 -0.69 -0.57999998 2
2.5209999 -0.68800002 -0.57999998 2
2.507 -0.685 -0.57800001 2
2.5 -0.68300003 -0.57800001 2
2.4890001 -0.68099999 -0.57700002 2
2.4779999 -0.67799997 -0.57700002 2
2.474 -0.67699999 -0.57700002 2
2.4630001 -0.67500001 -0.57599998 2
2.4560001 -0.67299998 -0.57599998 2
2.4489999 -0.671 -0.57599998 3
2.448 -0.671 -0.57700002 3
2.4419999 -0.67000002 -0.57700002 3
2.4349999 -0.66799998 -0.57700002 4
2.434 -0.66799998 -0.57800001 4
2.431 -0.667 -0.57800001 4
2.424 -0.66500002 -0.57800001 4
2.4260001 -0.66600001 -0.57999998 4
2.4130001 -0.662 -0.57800001 5
2.4070001 -0.66000003 -0.57800001 3
2.405 -0.66000003 -0.57800001 3
2.3989999 -0.65799999 -0.57800001 3
2.3940001 -0.65700001 -0.57800001 3
2.3759999 -0.65200001 -0.57499999 2
2.372 -0.64999998 -0.57499999 2
2.3659999 -0.648 -0.57499999 2
2.3540001 -0.64499998 -0.57300001 2
2.3559999 -0.64499998 -0.574 2
2.345 -0.64200002 -0.57300001 2
2.3429999 -0.64099997 -0.57300001 2
2.342 -0.64099997 -0.574 2
2.339 -0.639 -0.574 2
2.335 -0.63800001 -0.574 2
2.326 -0.63499999 -0.57300001 2
2.323 -0.634 -0.57300001 2
2.3239999 -0.634 -0.574 2
2.312 -0.63 -0.57200003 2
2.309 -0.62800002 -0.57200003 2
2.313 -0.62900001 -0.57300001 2
2.302 -0.62599999 -0.57200003 2
2.2969999 -0.62300003 -0.57099998 2
2.2969999 -0.62300003 -0.57200003 2
2.293 -0.62099999 -0.57099998 2
2.2880001 -0.61900002 -0.57099998 2
2.2920001 -0.62 -0.57200003 2
2.2809999 -0.616 -0.56999999 2
2.2850001 -0.616 -0.57200003 2
2.279 -0.61400002 -0.57099998 2
2.2750001 -0.61199999 -0.56999999 2
2.2739999 -0.611 -0.56999999 2
2.27 -0.60900003 -0.56999999 2
2.2650001 -0.60699999 -0.56900001 1
2.273 -0.60799998 -0.57200003 1
2.2509999 -0.602 -0.56699997 1
2.256 -0.602 -0.56800002 1
2.2539999 -0.60000002 -0.56800002 1
2.247 -0.59799999 -0.56699997 1
2.256 -0.59899998 -0.56900001 1
2.247 -0.59600002 -0.56699997 1
2.2490001 -0.59500003 -0.56800002 1
2.2449999 -0.59299999 -0.56699997 1
2.244 -0.59200001 -0.56699997 1
2.25 -0.59200001 -0.56900001 1
2.2390001 -0.588 -0.56599998 1
2.2449999 -0.58899999 -0.56800002 1
2.244 -0.58700001 -0.56800002 1
2.244 -0.58600003 -0.56800002 1
2.244 -0.58499998 -0.56800002 1
2.247 -0.58399999 -0.56800002 1
2.244 -0.58200002 -0.56800002 1
2.247 -0.58200002 -0.56800002 1
2.2449999 -0.57999998 -0.56800002 1
2.25 -0.57999998 -0.56900001 1
2.243 -0.57700002 -0.56699997 1
2.243 -0.57599998 -0.56699997 1
2.2460001 -0.57499999 -0.56800002 1
2.244 -0.57300001 -0.56699997 1
2.2509999 -0.57300001 -0.56900001 1
2.25 -0.57200003 -0.56800002 1
2.2550001 -0.57099998 -0.56900001 1
2.2539999 -0.56999999 -0.56900001 1
2.25 -0.56699997 -0.56800002 1
2.2509999 -0.56599998 -0.56800002 1
2.2539999 -0.565 -0.56800002 1
2.2639999 -0.56599998 -0.56999999 1
2.2620001 -0.56400001 -0.56900001 1
2.2639999 -0.56300002 -0.56900001 1
2.2639999 -0.56099999 -0.56900001 1
2.2720001 -0.56099999 -0.57099998 1
2.2679999 -0.55900002 -0.56900001 2
2.28 -0.56 -0.57200003 1
2.28 -0.55800003 -0.57099998 1
2.2869999 -0.55800003 -0.57200003 1
2.289 -0.55699998 -0.57200003 2
2.293 -0.55599999 -0.57300001 2
2.293 -0.55400002 -0.57200003 2
2.3 -0.55400002 -0.57300001 2
2.2969999 -0.551 -0.57200003 2
2.302 -0.551 -0.57200003 2
2.3080001 -0.55000001 -0.57300001 2
2.309 -0.54799998 -0.57200003 2
2.316 -0.54799998 -0.57300001 2
2.319 -0.54699999 -0.57300001 2
2.319 -0.54500002 -0.57300001 3
2.3269999 -0.54400003 -0.57300001 2
2.3280001 -0.54299998 -0.57300001 3
2.3399999 -0.54299998 -0.57499999 3
2.339 -0.54100001 -0.574 3
2.345 -0.54000002 -0.574 3
2.348 -0.53899997 -0.574 2
2.3499999 -0.537 -0.574 3
2.362 -0.53799999 -0.57499999 2
2.3659999 -0.53600001 -0.57499999 3
2.3770001 -0.53600001 -0.57700002 3
2.3829999 -0.53500003 -0.57700002 4
2.3870001 -0.53399998 -0.57700002 4
2.3859999 -0.53200001 -0.57599998 3
2.388 -0.52999997 -0.57499999 3
2.395 -0.52899998 -0.57499999 2
2.3940001 -0.52600002 -0.574 2
2.4030001 -0.52600002 -0.57499999 2
2.4059999 -0.52399999 -0.574 2
2.4089999 -0.52200001 -0.57300001 2
2.4189999 -0.52200001 -0.574 2
2.4260001 -0.52100003 -0.57499999 2
2.4319999 -0.51999998 -0.574 2
2.4360001 -0.51800001 -0.574 2
2.4530001 -0.51899999 -0.57599998 2
2.46 -0.51800001 -0.57700002 1
2.4690001 -0.51700002 -0.57700002 1
2.4719999 -0.51499999 -0.57599998 1
2.4820001 -0.514 -0.57700002 2
2.4920001 -0.514 -0.57800001 2
2.5009999 -0.51300001 -0.57800001 2
2.5079999 -0.51200002 -0.57800001 2
2.517 -0.51099998 -0.57800001 2
2.5250001 -0.50999999 -0.57800001 2
2.533 -0.50800002 -0.57800001 2
2.5510001 -0.509 -0.57999998 2
2.556 -0.50700003 -0.57999998 2
2.5699999 -0.50700003 -0.58099997 2
2.5810001 -0.50599998 -0.58099997 2
2.5899999 -0.505 -0.58099997 2
2.6029999 -0.505 -0.58200002 2
2.608 -0.50300002 -0.58099997 2
2.6229999 -0.50300002 -0.58200002 2
2.635 -0.50199997 -0.583 2
2.6500001 -0.50099999 -0.58399999 2
2.6600001 -0.5 -0.58399999 2
2.6730001 -0.5 -0.58499998 2
2.684 -0.49900001 -0.58499998 2
2.7019999 -0.49900001 -0.58600003 2
2.7160001 -0.498 -0.58700001 2
2.724 -0.49599999 -0.58600003 2
2.7490001 -0.498 -0.58899999 2
2.766 -0.49700001 -0.58999997 2
2.7869999 -0.498 -0.59200001 2
2.7920001 -0.495 -0.59100002 2
2.802 -0.493 -0.58999997 2
2.825 -0.49399999 -0.59299999 2
2.835 -0.49200001 -0.59200001 2
2.8540001 -0.49200001 -0.59299999 2
2.869 -0.491 -0.59299999 2
2.8789999 -0.48899999 -0.59299999 2
2.902 -0.49000001 -0.59399998 2
2.9230001 -0.49000001 -0.59600002 2
2.9360001 -0.48800001 -0.59600002 2
2.9489999 -0.48699999 -0.59500003 2
2.9660001 -0.486 -0.59600002 2
2.9879999 -0.486 -0.597 2
3.0120001 -0.486 -0.59899998 2
3.033 -0.48500001 -0.59899998 2
3.049 -0.484 -0.59899998 2
3.0680001 -0.48300001 -0.60000002 2
3.0910001 -0.48300001 -0.60100001 2
3.1140001 -0.48300001 -0.602 2
3.135 -0.48199999 -0.60299999 2
3.152 -0.47999999 -0.602 2
3.1719999 -0.479 -0.60299999 2
3.2520001 -0.48699999 -0.61400002 2
3.283 -0.48800001 -0.616 2
3.276 -0.48199999 -0.611 2
3.2839999 -0.479 -0.60900003 2
3.378 -0.48899999 -0.62199998 2
3.358 -0.48100001 -0.61400002 2
3.405 -0.484 -0.61900002 2
3.4760001 -0.48899999 -0.62800002 2
3.421 -0.477 -0.61400002 2
3.425 -0.47299999 -0.61000001 2
3.4660001 -0.47499999 -0.61299998 2
3.516 -0.477 -0.61799997 1
3.5580001 -0.47799999 -0.62099999 2
3.526 -0.46900001 -0.611 1
3.5840001 -0.472 -0.616 1
3.6170001 -0.472 -0.61699998 1
3.681 -0.47499999 -0.62300003 3
3.756 -0.47999999 -0.63099998 3
3.7839999 -0.479 -0.63099998 3
3.8269999 -0.479 -0.63300002 3
3.8340001 -0.47499999 -0.62900001 3
3.829 -0.46900001 -0.62300003 1
3.8789999 -0.47099999 -0.62599999 2
3.9200001 -0.47 -0.62800002 2
3.99 -0.47400001 -0.63300002 3
4.052 -0.47600001 -0.63800001 3
4.0450001 -0.46900001 -0.63099998 2
4.086 -0.46900001 -0.63200003 2
4.1799998 -0.47400001 -0.64099997 3
4.1960001 -0.47099999 -0.63700002 3
4.2210002 -0.46799999 -0.63499999 2
4.2909999 -0.47 -0.63999999 2
4.3769999 -0.47400001 -0.64600003 3
4.4439998 -0.47499999 -0.64999998 3
4.4980001 -0.47499999 -0.65100002 2
4.5580001 -0.47600001 -0.653 2
4.625 -0.477 -0.65600002 2
4.6789999 -0.47600001 -0.65700001 4
4.7639999 -0.479 -0.662 2
4.8280001 -0.479 -0.66399997 2
4.8870001 -0.47799999 -0.66500002 4
4.9640002 -0.479 -0.66799998 3
5.066 -0.48300001 -0.67400002 2
5.1329999 -0.48300001 -0.67500001 3
5.223 -0.484 -0.67900002 2
5.3010001 -0.48500001 -0.68099999 2
5.3959999 -0.48699999 -0.685 2
5.493 -0.48800001 -0.68900001 2
5.5830002 -0.48899999 -0.69199997 2
5.6859999 -0.491 -0.69599998 2
5.7940001 -0.493 -0.69999999 2
5.8940001 -0.49399999 -0.70300001 2
6.0170002 -0.49599999 -0.708 4
6.1469998 -0.49900001 -0.713 3
6.2550001 -0.5 -0.71600002 2
6.3850002 -0.50199997 -0.72100002 2
6.5219998 -0.505 -0.72600001 3
6.677 -0.509 -0.73199999 3
6.822 -0.51099998 -0.73699999 4
6.9650002 -0.51300001 -0.74199998 6
7.1370001 -0.51700002 -0.74800003 7
7.323 -0.52100003 -0.75599998 5
7.4959998 -0.52399999 -0.76200002 5
7.7010002 -0.52899998 -0.76999998 4
7.9190001 -0.53399998 -0.77899998 4
8.1239996 -0.53799999 -0.78500003 4
8.4099998 -0.54699999 -0.79900002 4
8.6929998 -0.55500001 -0.81099999 3
8.941 -0.56 -0.81999999 3
9.2220001 -0.56599998 -0.82999998 4
9.5799999 -0.57599998 -0.84600002 3
9.8970003 -0.583 -0.85699999 3
10.233 -0.59100002 -0.86900002 3
10.591 -0.59899998 -0.88099998 3
10.998 -0.60900003 -0.89600003 2
11.371 -0.616 -0.90700001 3
11.793 -0.625 -0.921 2
12.261 -0.63499999 -0.93599999 3
12.804 -0.648 -0.95499998 3
13.289 -0.65600002 -0.96799999 3
13.835 -0.667 -0.98400003 3
14.531 -0.68400002 -1.008 2
15.204 -0.69800001 -1.028 2
15.961 -0.71399999 -1.051 3
16.823999 -0.73299998 -1.0779999 2
17.77 -0.75400001 -1.107 2
0 0 0 3
19.059 -0.76499999 -1.12 1
0 0 0 5
22.327999 -0.84600002 -1.232 4
0 0 0 0
0 0 0 0
0 0 0 2
0 0 0 0
0 0 0 21
44.705002 -1.393 -1.98 46
44.786999 -1.347 -1.902 47
45.187 -1.309 -1.834 42
45.412998 -1.266 -1.76 15
0 0 0 6
0 0 0 30
0 0 0 7
58.700001 -1.383 -1.841 6
0 0 0 49
67.585999 -1.451 -1.869 37
67.656998 -1.38 -1.743 12
70.804001 -1.372 -1.694 19
70.799004 -1.298 -1.561 140
73.021004 -1.2640001 -1.473 34
73.043999 -1.189 -1.336 120
74.084 -1.13 -1.215 33
74.115997 -1.057 -1.077 34
0 0 0 76
0 0 0 0
0 0 0 44
73.936996 -0.75999999 -0.51599997 85
73.922997 -0.68599999 -0.373 85
73.968002 -0.616 -0.234 57
73.945999 -0.54400003 -0.093000002 19
0 0 0 0
0 0 0 0
0 0 0 14
86.768997 -0.30899999 0.55000001 24
86.177002 -0.227 0.71200001 19
84.817001 -0.14399999 0.86400002 43
84.861 -0.066 1.027 37
85.067001 0.011 1.194 22
87.870003 0.090999998 1.403 18
0 0 0 0
0 0 0 16
84.221001 0.31299999 1.831 30
0 0 0 0
0 0 0 0
0 0 0 12
87.606003 0.62900001 2.579 13
0 0 0 0
0 0 0 0
0 0 0 31
121.309 1.2819999 4.5139999 74
121.056 1.38 4.7410002 118
0 0 0 14
0 0 0 0
0 0 0 13
0 0 0 79
121.002 1.8660001 5.9180002 81
120.945 1.96 6.151 55
120.927 2.056 6.3889999 32
121.184 2.151 6.6360002 36
121.208 2.243 6.8699999 34
121.118 2.3329999 7.1009998 40
121.134 2.424 7.3390002 38
121.158 2.5139999 7.5760002 41
121.179 2.6029999 7.8140001 35
121.24 2.6930001 8.0539999 39
121.098 2.776 8.2779999 42
121.088 2.862 8.5129995 53
121.092 2.947 8.7489996 52
121.131 3.0320001 8.9879999 42
0 0 0 0
0 0 0 0
0 0 0 0
0 0 0 0
0 0 0 33
127.053 3.6900001 10.903 33
121.006 3.592 10.615 54
121.044 3.668 10.85 90
120.993 3.743 11.08 95
120.99 3.8180001 11.311 84
120.989 3.892 11.545 85
120.997 3.9660001 11.776 88
121.025 4.039 12.012 77
121.014 4.1110001 12.244 41
0 0 0 0
0 0 0 27
121.379 4.3330002 12.979 24
0 0 0 32
0 0 0 0
0 0 0 0
0 0 0 0
0 0 0 30
0 0 0 0
0 0 0 0
0 0 0 25
0 0 0 0
0 0 0 0
0 0 0 41
118.554 4.973 15.374 60
118.527 5.0279999 15.594 85
118.536 5.0840001 15.818 71
118.537 5.138 16.040001 67
118.529 5.191 16.261 48
118.622 5.2509999 16.497999 36
118.949 5.3169999 16.766001 33
118.901 5.3639998 16.975 33
118.993 5.421 17.211 41
118.85 5.4640002 17.410999 36
118.822 5.5110002 17.625999 33
118.781 5.5570002 17.839001 30
118.724 5.6009998 18.049 36
118.741 5.6479998 18.266001 31
118.753 5.6939998 18.486 36
118.7 5.7350001 18.694 35
118.748 5.7789998 18.912001 33
118.661 5.8200002 19.115999 38
118.708 5.8629999 19.341999 49
118.667 5.902 19.546 64
118.62 5.9400001 19.752001 68
118.592 5.9770002 19.959999 76
118.664 6.0190001 20.184999 54
118.689 6.0580001 20.400999 44
118.772 6.099 20.627001 34
118.926 6.1420002 20.864 31
118.888 6.178 21.07 27
0 0 0 0
0 0 0 23
118.909 6.2779999 21.702999 28
118.776 6.303 21.882 29
0 0 0 0
0 0 0 0
0 0 0 0
0 0 0 0
0 0 0 27
118.771 6.4749999 23.099001 42
118.688 6.4990001 23.285999 52
118.694 6.5250001 23.488001 64
118.693 6.546 23.684999 63
118.692 6.5710001 23.881001 75
118.713 6.5939999 24.083 66
118.678 6.6139998 24.273001 37
118.624 6.6329999 24.458 25
0 0 0 0
0 0 0 0
0 0 0 0
0 0 0 0
0 0 0 0
0 0 0 0
0 0 0 0
0 0 0 0
0 0 0 0
0 0 0 0
0 0 0 0
0 0 0 27
118.945 6.862 26.993999 30
118.881 6.869 27.163 35
118.836 6.875 27.33 43
118.768 6.8800001 27.496 57
118.815 6.8909998 27.687 52
118.782 6.8969998 27.858 59
118.756 6.9060001 28.031 64
118.793 6.9159999 28.214001 53
118.833 6.9239998 28.399 45
118.883 6.9310002 28.586 34
0 0 0 0
0 0 0 28
118.976 6.9460001 29.122999 26
118.994 6.9489999 29.298 23
0 0 0 0
0 0 0 0
0 0 0 0
0 0 0 0
0 0 0 0
0 0 0 0
0 0 0 0
0 0 0 0
0 0 0 0
0 0 0 0
0 0 0 39
119.09 6.9310002 31.275999 41
118.981 6.9180002 31.403 48
118.948 6.9089999 31.548 57
118.919 6.9000001 31.691999 63
118.938 6.895 31.846001 56
118.92 6.8839998 31.990999 58
118.941 6.8759999 32.145 57
118.973 6.8699999 32.298 53
119.015 6.8610001 32.456001 46
119.007 6.849 32.598 43
119.116 6.8429999 32.771999 35
119.187 6.8340001 32.933998 34
119.181 6.823 33.07 34
119.147 6.8070002 33.200001 33
119.071 6.7870002 33.313999 28
119.173 6.7779999 33.479 33
0 0 0 0
0 0 0 30
119.272 6.737 33.907001 28
119.279 6.7199998 34.041 29
119.324 6.704 34.183998 30
119.328 6.6859999 34.313999 31
119.249 6.6620002 34.417999 25
0 0 0 0
0 0 0 25
119.307 6.6079998 34.808998 25
119.202 6.5809999 34.898998 26
119.193 6.559 35.016998 37
119.14 6.533 35.118999 42
119.118 6.5089998 35.23 50
119.028 6.4809999 35.318001 53
119.093 6.46 35.452 59
119.081 6.4349999 35.560001 65
119.084 6.4099998 35.672001 59
119.088 6.3850002 35.783001 68
119.096 6.362 35.890999 67
119.092 6.3379998 35.993999 59
119.125 6.3099999 36.108002 67
119.133 6.2859998 36.215 65
119.145 6.2579999 36.318001 61
119.132 6.23 36.417 67
119.183 6.2059999 36.528999 83
119.132 6.171 36.610001 81
119.123 6.1399999 36.702999 76
119.122 6.1139998 36.797001 79
119.15 6.0840001 36.898998 77
119.167 6.0539999 36.994999 80
119.151 6.0240002 37.077999 83
119.2 5.9949999 37.181 80
119.191 5.9590001 37.265999 73
119.189 5.9289999 37.348 78
119.154 5.8930001 37.419998 79
119.219 5.8629999 37.521999 82
119.176 5.8260002 37.589001 72
119.194 5.796 37.673 55
119.22 5.7620001 37.757999 55
119.263 5.7280002 37.845001 66
119.359 5.697 37.949001 79
119.368 5.6609998 38.022999 68
119.409 5.6259999 38.106998 70
119.496 5.5960002 38.202 84
119.485 5.5580001 38.264999 82
119.491 5.52 38.333 72
119.522 5.4829998 38.405998 77
119.518 5.4439998 38.466999 87
119.518 5.4050002 38.528 78
119.502 5.3649998 38.581001 73
119.479 5.3270001 38.630001 73
119.45 5.2849998 38.675999 75
119.453 5.2449999 38.730999 81
119.433 5.2030001 38.776001 76
119.381 5.1599998 38.810001 69
119.405 5.1230001 38.866001 75
119.382 5.0799999 38.905998 68
119.382 5.0370002 38.951 75
119.339 4.993 38.980999 71
119.33 4.9499998 39.02 72
119.343 4.9070001 39.063 66
119.345 4.8629999 39.102001 66
119.357 4.8239999 39.143002 62
119.338 4.7789998 39.172001 58
119.363 4.7350001 39.213001 69
119.365 4.6900001 39.245998 59
119.297 4.6430001 39.252998 48
119.343 4.6030002 39.296001 63
119.343 4.5570002 39.323002 65
119.33 4.507 39.344002 56
119.373 4.4619999 39.381001 66
119.361 4.4159999 39.398998 55
119.359 4.3720002 39.417 61
119.37 4.3260002 39.438999 61
119.38 4.2789998 39.459 58
119.364 4.2309999 39.467999 34
0 0 0 0
0 0 0 0
0 0 0 0
0 0 0 0
0 0 0 0
0 0 0 0
0 0 0 0
0 0 0 0
0 0 0 0
0 0 0 0
0 0 0 0
0 0 0 0
0 0 0 0
0 0 0 0
0 0 0 0
0 0 0 0
0 0 0 0
0 0 0 0
0 0 0 0
0 0 0 0
0 0 0 0
0 0 0 0
0 0 0 0
0 0 0 0
0 0 0 0
0 0 0 0
0 0 0 0
0 0 0 0
0 0 0 0
0 0 0 0
0 0 0 0
0 0 0 0
0 0 0 0
0 0 0 0
0 0 0 0
0 0 0 0
0 0 0 0
0 0 0 0
0 0 0 0
0 0 0 0
0 0 0 0
0 0 0 0
0 0 0 0
0 0 0 0
0 0 0 0
0 0 0 0
0 0 0 0
0 0 0 0
0 0 0 0
0 0 0 0
0 0 0 0
0 0 0 0
0 0 0 0
0 0 0 0
0 0 0 0
0 0 0 0
0 0 0 0
0 0 0 0
0 0 0 0
0 0 0 0
0 0 0 0
0 0 0 0
0 0 0 0
0 0 0 30
122.021 0.89300001 37.57 34
122.12 0.83899999 37.501999 48
122.11 0.78799999 37.398998 60
122.14 0.73000002 37.305 71
122.138 0.676 37.201 68
122.144 0.625 37.098999 75
122.131 0.57099998 36.987999 73
122.089 0.51700002 36.867001 77
122.159 0.463 36.780998 79
122.149 0.41299999 36.664001 84
122.156 0.359 36.553001 72
122.147 0.303 36.437 84
122.169 0.25299999 36.328999 81
122.143 0.199 36.202999 72
122.162 0.147 36.09 57
122.167 0.093999997 35.970001 66
122.138 0.044 35.841 66
122.133 -0.0070000002 35.715 60
122.098 -0.059 35.578999 59
122.151 -0.112 35.467999 57
122.184 -0.164 35.348 59
122.188 -0.215 35.219002 57
122.193 -0.26699999 35.089001 44
122.203 -0.315 34.956001 37
122.371 -0.37 34.872002 38
122.369 -0.41800001 34.733002 33
0 0 0 0
0 0 0 27
0 0 0 0
0 0 0 0
0 0 0 0
0 0 0 0
0 0 0 0
0 0 0 0
0 0 0 0
0 0 0 0
0 0 0 0
0 0 0 0
0 0 0 0
0 0 0 0
0 0 0 0
0 0 0 0
0 0 0 36
122.174 -1.278 31.986 42
122.139 -1.324 31.813999 52
122.16 -1.3660001 31.657 59
122.148 -1.411 31.488001 51
122.147 -1.455 31.320999 68
122.085 -1.498 31.136999 60
122.139 -1.543 30.981001 64
122.099 -1.585 30.799999 67
122.135 -1.6289999 30.636999 67
122.167 -1.6720001 30.472 50
122.237 -1.712 30.312 27
0 0 0 0
0 0 0 38
128.114 -1.925 31.216999 78
128.183 -1.965 31.048 95
128.24001 -2.0079999 30.871 112
128.198 -2.049 30.67 88
128.272 -2.092 30.495001 58
128.311 -2.1329999 30.311001 32
0 0 0 0
0 0 0 0
0 0 0 36
134.183 -2.3929999 30.877001 58
134.271 -2.4349999 30.694 42
136.481 -2.5150001 30.985001 61
136.48599 -2.552 30.774 76
136.53799 -2.592 30.569 83
136.55499 -2.631 30.355 72
136.79401 -2.674 30.188999 41
139.549 -2.766 30.570999 31
0 0 0 0
0 0 0 51
142.336 -2.9319999 30.482 57
142.34801 -2.9690001 30.25 44
145.076 -3.063 30.589001 53
145.22301 -3.099 30.381001 65
145.395 -3.138 30.174 44
0 0 0 0
0 0 0 0
0 0 0 0
0 0 0 0
0 0 0 0
0 0 0 56
153.56 -3.5550001 30.044001 78
153.59801 -3.5869999 29.784 81
153.591 -3.618 29.521999 45
0 0 0 0
0 0 0 52
159.315 -3.842 29.784 43
161.867 -3.9330001 29.973 65
161.907 -3.9630001 29.691999 74
161.98 -3.99 29.419001 73
0 0 0 0
0 0 0 0
0 0 0 0
0 0 0 0
0 0 0 0
0 0 0 0
0 0 0 0
0 0 0 0
0 0 0 0
0 0 0 0
0 0 0 0
0 0 0 0
0 0 0 0
0 0 0 0
0 0 0 0
0 0 0 0
0 0 0 0
0 0 0 0
0 0 0 0
0 0 0 0
0 0 0 0
0 0 0 0
0 0 0 0
0 0 0 0
0 0 0 35
118.991 -3.2260001 15.801 55
118.971 -3.227 15.569 55
118.968 -3.2279999 15.335 48
118.977 -3.2290001 15.103 37
118.979 -3.2290001 14.868 30
0 0 0 0
0 0 0 25
119.246 -3.23 14.191 23
0 0 0 0
0 0 0 0
0 0 0 0
0 0 0 25
119.062 -3.201 12.984 25
119.014 -3.1919999 12.74 25
0 0 0 0
0 0 0 0
0 0 0 7
60.958 -1.617 6.033 8
61.005001 -1.612 5.9159999 8
61.111 -1.61 5.8039999 9
61.231998 -1.6059999 5.6890001 8
61.536999 -1.607 5.592 15
61.740002 -1.605 5.4850001 33
61.768002 -1.598 5.3610001 49
61.777 -1.59 5.2360001 53
61.792999 -1.582 5.1100001 63
61.825001 -1.574 4.9860001 62
62 -1.569 4.8730001 58
62.115002 -1.562 4.7550001 47
62.323002 -1.557 4.6440001 44
62.612 -1.553 4.5370002 47
62.851002 -1.548 4.4260001 54
62.981998 -1.54 4.3049998 64
63.067001 -1.53 4.1810002 68
63.082001 -1.517 4.0510001 63
63.071999 -1.505 3.924 59
63.077999 -1.492 3.793 68
63.084 -1.477 3.661 73
63.145 -1.465 3.5350001 82
63.365002 -1.455 3.4159999 60
63.719002 -1.448 3.303 49
64.079002 -1.441 3.1900001 61
64.316002 -1.4299999 3.0680001 82
64.382004 -1.414 2.937 64
64.376999 -1.397 2.803 66
64.413002 -1.38 2.6700001 80
64.578003 -1.365 2.54 66
64.950996 -1.354 2.4189999 51
65.392998 -1.345 2.303 52
65.658997 -1.33 2.174 68
65.695 -1.3099999 2.0380001 36
65.668999 -1.289 1.9 12
0 0 0 0
0 0 0 18
62.691002 -1.169 1.421 41
62.849998 -1.15 1.293 39
63.200001 -1.135 1.168 34
64.584 -1.136 1.059 34
64.960999 -1.119 0.92699999 49
65.153999 -1.098 0.79400003 38
65.288002 -1.076 0.65899998 13
0 0 0 0
0 0 0 0
0 0 0 0
0 0 0 0
0 0 0 25
73.973 -1.041 -0.178 43
73.973 -1.0089999 -0.333 69
73.935997 -0.977 -0.484 80
73.947998 -0.94499999 -0.63800001 53
0 0 0 0
0 0 0 34
0 0 0 0
0 0 0 0
0 0 0 0
0 0 0 0
0 0 0 24
117.962 -1.0700001 -2.9630001 27
0 0 0 25
0 0 0 4
0 0 0 0
0 0 0 0
0 0 0 16
49.742001 -0.29699999 -1.8660001 8
0 0 0 250
52.832001 -0.259 -2.1989999 181
52.808998 -0.23 -2.306 154
52.816002 -0.20100001 -2.4130001 7
0 0 0 0
0 0 0 0
0 0 0 0
0 0 0 0
0 0 0 2
0 0 0 1
18.811001 0.0040000002 -1.126 1
0 0 0 2
0 0 0 2
15.578 0.030999999 -1.026 2
14.743 0.039000001 -1.001 3
14.037 0.046 -0.98100001 3
13.448 0.052000001 -0.96700001 3
12.827 0.057999998 -0.94800001 3
12.123 0.063000001 -0.92000002 2
11.578 0.067000002 -0.90200001 5
11.167 0.071999997 -0.89200002 16
10.882 0.077 -0.89099997 9
10.553 0.082000002 -0.884 11
10.007 0.083999999 -0.85799998 2
9.5220003 0.086999997 -0.83499998 3
9.165 0.090000004 -0.82200003 3
8.7989998 0.092 -0.80699998 4
8.4779997 0.094999999 -0.79400003 3
8.165 0.097000003 -0.77999997 3
7.9070001 0.098999999 -0.77100003 3
7.6069999 0.101 -0.75599998 8
7.4260001 0.104 -0.75300002 6
7.2179999 0.106 -0.74599999 5
6.9679999 0.107 -0.73299998 6
6.796 0.11 -0.72799999 6
6.6220002 0.112 -0.722 5
6.4489999 0.114 -0.71600002 4
6.2859998 0.115 -0.70899999 4
6.1360002 0.117 -0.704 3
6.0029998 0.119 -0.69999999 3
5.849 0.12 -0.69300002 3
5.711 0.122 -0.68800002 3
5.5689998 0.123 -0.68099999 3
5.4660001 0.125 -0.67900002 3
5.3470001 0.126 -0.67400002 2
5.2579999 0.12800001 -0.67199999 3
5.1370001 0.13 -0.66600001 3
5.0320001 0.131 -0.662 3
4.9499998 0.133 -0.66000003 3
4.8319998 0.133 -0.653 3
4.7540002 0.13500001 -0.65200001 3
4.6700001 0.13600001 -0.648 3
4.5710001 0.13699999 -0.64300001 3
4.5019999 0.138 -0.64099997 3
4.4289999 0.14 -0.639 2
4.4229999 0.14300001 -0.64600003 2
4.3010001 0.14300001 -0.63599998 4
4.21 0.14300001 -0.63 2
4.2150002 0.147 -0.63800001 2
4.1290002 0.147 -0.63200003 2
4.04 0.147 -0.62599999 2
3.9949999 0.149 -0.62599999 2
3.934 0.15000001 -0.62300003 2
3.848 0.15000001 -0.616 1
3.835 0.153 -0.62099999 2
3.789 0.154 -0.62 2
3.7839999 0.15700001 -0.625 2
3.7249999 0.15800001 -0.62199998 2
3.6359999 0.15700001 -0.61299998 2
3.671 0.162 -0.62599999 3
3.543 0.16 -0.61000001 2
3.4760001 0.16 -0.60399997 2
3.4389999 0.161 -0.60299999 3
3.3989999 0.162 -0.602 2
3.457 0.168 -0.61799997 2
3.3900001 0.167 -0.611 2
3.2780001 0.16500001 -0.597 1
3.2590001 0.167 -0.59899998 1
3.2679999 0.17 -0.60600001 1
3.2179999 0.17 -0.602 1
3.2479999 0.175 -0.61199999 2
3.109 0.17 -0.59100002 2
3.0869999 0.17200001 -0.59200001 2
3.0539999 0.17200001 -0.58999997 2
3.0209999 0.17299999 -0.58899999 2
3.0769999 0.17900001 -0.60500002 2
2.9560001 0.175 -0.58499998 2
2.9300001 0.176 -0.58399999 2
2.9059999 0.177 -0.58399999 2
2.8759999 0.178 -0.58200002 2
2.855 0.17900001 -0.583 2
2.8280001 0.18000001 -0.58099997 2
2.8099999 0.18099999 -0.58200002 2
2.7750001 0.182 -0.579 2
2.757 0.183 -0.579 2
2.724 0.183 -0.57599998 1
2.701 0.184 -0.57499999 1
2.675 0.185 -0.574 1
2.7019999 0.189 -0.583 1
2.6289999 0.186 -0.57099998 1
2.612 0.18799999 -0.57099998 1
2.595 0.189 -0.57099998 1
2.575 0.19 -0.57099998 1
2.628 0.19599999 -0.58600003 1
2.5450001 0.192 -0.57099998 1
2.516 0.192 -0.56800002 1
2.503 0.19400001 -0.56900001 1
2.49 0.19499999 -0.56900001 1
2.4690001 0.19499999 -0.56800002 1
2.457 0.197 -0.56800002 1
2.4289999 0.197 -0.565 1
2.408 0.197 -0.56300002 1
2.404 0.199 -0.565 1
2.3800001 0.199 -0.56300002 1
2.3659999 0.2 -0.56199998 1
2.3540001 0.20100001 -0.56199998 1
2.3469999 0.20299999 -0.56400001 1
2.322 0.20299999 -0.56099999 1
2.3050001 0.20299999 -0.55900002 1
2.2939999 0.205 -0.56 1
2.28 0.205 -0.55900002 1
2.2709999 0.207 -0.56 1
2.263 0.208 -0.56 1
2.2479999 0.20900001 -0.55900002 1
2.2349999 0.20900001 -0.55900002 1
2.224 0.20999999 -0.55900002 1
2.2130001 0.211 -0.55800003 1
2.194 0.211 -0.55599999 1
2.187 0.213 -0.55699998 1
2.1830001 0.214 -0.55800003 2
2.168 0.215 -0.55699998 2
2.152 0.215 -0.55500001 1
2.148 0.21699999 -0.55599999 1
2.131 0.21699999 -0.55400002 1
2.125 0.21799999 -0.55500001 1
2.112 0.219 -0.55400002 1
2.1040001 0.22 -0.55400002 1
2.098 0.221 -0.55500001 1
2.089 0.222 -0.55400002 1
2.073 0.222 -0.55199999 1
2.069 0.223 -0.55299997 1
2.059 0.22400001 -0.55299997 1
2.0439999 0.22400001 -0.551 1
2.0339999 0.22499999 -0.55000001 1
2.0280001 0.226 -0.55000001 1
2.0239999 0.227 -0.551 1
2.0079999 0.227 -0.54900002 1
2.003 0.228 -0.54900002 1
1.998 0.229 -0.55000001 1
1.989 0.23 -0.54900002 1
1.98 0.23100001 -0.54799998 1
1.97 0.23100001 -0.54699999 1
1.965 0.23199999 -0.54799998 1
1.96 0.233 -0.54799998 1
1.956 0.234 -0.54900002 1
1.946 0.235 -0.54699999 1
1.941 0.236 -0.54699999 1
1.931 0.236 -0.546 1
1.929 0.237 -0.54699999 2
1.921 0.23800001 -0.546 1
1.915 0.23899999 -0.546 1
1.913 0.23999999 -0.54699999 2
1.905 0.241 -0.546 1
1.899 0.241 -0.546 1
1.895 0.242 -0.546 1
1.8789999 0.242 -0.54299998 1
1.8789999 0.243 -0.54400003 1
1.873 0.244 -0.54400003 1
1.872 0.245 -0.54500002 1
1.865 0.24600001 -0.54400003 1
1.865 0.24699999 -0.54500002 1
1.8559999 0.24699999 -0.54299998 1
1.851 0.248 -0.54299998 1
1.85 0.25 -0.54400003 1
1.841 0.25 -0.54299998 1
1.836 0.25 -0.542 1
1.832 0.25099999 -0.542 1
1.831 0.252 -0.54299998 1
1.825 0.25299999 -0.542 1
1.825 0.25400001 -0.54299998 1
1.8200001 0.255 -0.542 1
1.813 0.255 -0.54100001 1
1.8099999 0.25600001 -0.54100001 1
1.8049999 0.25600001 -0.54100001 1
1.803 0.25799999 -0.54100001 1
1.801 0.259 -0.54100001 1
1.796 0.259 -0.54000002 1
1.794 0.25999999 -0.54100001 1
1.788 0.25999999 -0.54000002 1
1.785 0.26100001 -0.54000002 1
1.7869999 0.26300001 -0.54100001 1
1.784 0.26300001 -0.54000002 1
1.78 0.264 -0.54000002 1
1.772 0.264 -0.53799999 1
1.772 0.26499999 -0.53899997 1
1.772 0.266 -0.53899997 1
1.77 0.26699999 -0.53899997 1
1.768 0.26800001 -0.53899997 1
1.766 0.26800001 -0.53899997 1
1.767 0.27000001 -0.54000002 1
1.763 0.27000001 -0.53899997 1
1.7539999 0.27000001 -0.537 1
1.762 0.27200001 -0.54000002 1
1.765 0.27399999 -0.54100001 1
1.765 0.27500001 -0.542 1
1.755 0.27399999 -0.53899997 1
1.752 0.27500001 -0.53799999 1
1.743 0.27399999 -0.53600001 1
1.747 0.27599999 -0.537 1
1.744 0.27599999 -0.537 1
1.747 0.278 -0.53799999 1
1.742 0.278 -0.537 1
1.742 0.27900001 -0.537 1
1.742 0.28 -0.537 1
1.75 0.28200001 -0.54000002 1
1.739 0.28099999 -0.53600001 1
1.74 0.28200001 -0.537 1
1.74 0.28299999 -0.537 1
1.74 0.28400001 -0.537 1
1.74 0.285 -0.537 1
1.7359999 0.285 -0.53600001 1
1.74 0.28600001 -0.537 1
1.737 0.28600001 -0.53600001 1
1.745 0.289 -0.53899997 1
1.744 0.289 -0.53799999 1
1.7460001 0.28999999 -0.53899997 1
1.745 0.29100001 -0.53799999 1
1.743 0.29100001 -0.53799999 1
1.743 0.292 -0.537 1
1.75 0.294 -0.53899997 1
1.74 0.29300001 -0.53600001 1
1.743 0.294 -0.537 1
1.75 0.296 -0.53899997 1
1.744 0.296 -0.537 1
1.744 0.296 -0.53600001 1
1.74 0.296 -0.53500003 1
1.75 0.29899999 -0.53799999 1
1.747 0.29899999 -0.53600001 1
1.75 0.30000001 -0.537 1
1.753 0.301 -0.537 1
1.753 0.301 -0.537 1
1.756 0.30199999 -0.537 1
1.7640001 0.30399999 -0.53899997 1
1.761 0.30399999 -0.53799999 1
1.762 0.30500001 -0.53799999 1
1.765 0.30599999 -0.53799999 1
1.756 0.30500001 -0.53500003 1
1.77 0.308 -0.53799999 1
1.7690001 0.308 -0.53799999 1
1.773 0.30899999 -0.53799999 1
1.77 0.30899999 -0.537 1
1.78 0.31099999 -0.53899997 1
1.772 0.31099999 -0.53600001 1
1.7819999 0.31299999 -0.53799999 1
