# .PCD v0.7 - Point Cloud Data file format
VERSION 0.7
FIELDS x y z intensity
SIZE 4 4 4 4
TYPE F F F F
COUNT 1 1 1 1
WIDTH 1824
HEIGHT 1
VIEWPOINT 0 0 0 1 0 0 0
POINTS 1824
DATA ascii
36.425999 -3.957 4.3720002 62
36.446999 -4.0079999 4.4250002 55
36.469002 -4.059 4.4790001 4
36.700001 -4.1329999 4.5570002 2
36.700001 -4.1820002 4.6069999 3
36.694 -4.2309999 4.6560001 2
0 0 0 0
0 0 0 0
0 0 0 0
0 0 0 0
0 0 0 0
0 0 0 0
0 0 0 0
0 0 0 0
0 0 0 0
0 0 0 0
0 0 0 0
0 0 0 0
0 0 0 3
28.784 -3.8570001 4.1729999 13
28.695 -3.8829999 4.1950002 25
28.641001 -3.915 4.224 31
28.589001 -3.9449999 4.25 34
28.556999 -3.9779999 4.2800002 37
28.533001 -4.0139999 4.3099999 39
28.504999 -4.0469999 4.3400002 42
28.479 -4.0809999 4.369 45
28.462999 -4.1170001 4.4000001 48
28.441999 -4.1500001 4.4289999 49
28.436001 -4.1869998 4.461 53
28.426001 -4.223 4.4910002 55
28.429001 -4.2610002 4.5240002 58
28.424 -4.2979999 4.5549998 54
28.413 -4.3340001 4.585 49
28.43 -4.3730001 4.618 46
28.415001 -4.408 4.6469998 46
28.437 -4.448 4.6810002 41
28.450001 -4.487 4.7140002 43
28.465 -4.527 4.7459998 39
28.500999 -4.5689998 4.7820001 31
28.521 -4.6090002 4.8150001 33
28.546 -4.6500001 4.849 29
28.586 -4.6929998 4.8850002 25
28.664 -4.7420001 4.927 19
28.745001 -4.7919998 4.9699998 7
0 0 0 28
35.612 -6.0279999 6.2280002 27
35.426998 -6.0419998 6.23 27
35.259998 -6.059 6.2350001 27
35.120998 -6.079 6.244 27
34.946999 -6.0929999 6.2470002 26
34.797001 -6.1110001 6.2519999 26
34.674999 -6.1329999 6.2620001 26
34.513 -6.1469998 6.2639999 26
34.377998 -6.1659999 6.2709999 26
34.256001 -6.1859999 6.2789998 25
34.087002 -6.198 6.2789998 25
33.957001 -6.2150002 6.2839999 25
33.826 -6.2319999 6.289 25
33.717999 -6.2540002 6.2979999 25
33.582001 -6.2690001 6.3000002 23
33.451 -6.2859998 6.3039999 24
33.328999 -6.303 6.3080001 24
33.201 -6.3179998 6.3109999 24
33.084 -6.336 6.316 24
32.959 -6.3509998 6.3179998 24
32.828999 -6.3649998 6.3179998 22
32.719002 -6.381 6.322 22
32.606998 -6.3979998 6.3249998 27
32.494999 -6.415 6.329 25
32.381001 -6.4289999 6.3309999 23
32.291 -6.4489999 6.3369999 23
32.176998 -6.4640002 6.3379998 22
32.077 -6.48 6.3410001 24
31.961 -6.494 6.3410001 24
31.886 -6.5149999 6.348 23
31.816999 -6.5370002 6.3559999 25
0 0 0 11
20.697001 -4.2989998 4.1620002 15
20.655001 -4.3130002 4.1669998 22
20.601 -4.3239999 4.1690001 25
20.58 -4.342 4.177 27
20.540001 -4.3559999 4.1820002 30
20.509001 -4.3720002 4.1880002 32
20.493 -4.3909998 4.198 35
20.457001 -4.4039998 4.2020001 38
20.438 -4.4219999 4.21 38
20.417999 -4.4400001 4.2179999 40
20.4 -4.4569998 4.2249999 40
20.396 -4.4780002 4.2360001 44
20.384001 -4.4959998 4.244 33
20.375 -4.5149999 4.2529998 51
20.351 -4.5310001 4.2579999 49
20.343 -4.5489998 4.2670002 49
20.344 -4.5700002 4.277 51
20.339001 -4.5900002 4.2859998 52
20.341999 -4.6110001 4.296 38
20.327999 -4.6269999 4.303 55
20.319 -4.645 4.3099999 56
20.311001 -4.6630001 4.3169999 56
20.315001 -4.684 4.3270001 39
20.319 -4.704 4.3369999 40
20.308001 -4.7210002 4.3429999 50
20.308001 -4.7399998 4.3509998 47
20.294001 -4.756 4.3559999 45
20.305 -4.777 4.3660002 46
20.299999 -4.7950001 4.3720002 42
20.302999 -4.8130002 4.3800001 38
20.306999 -4.8330002 4.388 46
20.313999 -4.8530002 4.3969998 44
20.311001 -4.8699999 4.4029999 44
20.306999 -4.8870001 4.408 43
20.313999 -4.9070001 4.4159999 43
20.332001 -4.928 4.4260001 42
20.337 -4.947 4.4330001 40
20.330999 -4.9619999 4.4369998 39
20.354 -4.9840002 4.448 34
20.375 -5.006 4.4580002 35
20.386 -5.026 4.4650002 35
20.4 -5.046 4.473 32
20.412001 -5.0650001 4.48 31
20.429001 -5.085 4.4879999 30
20.448 -5.1059999 4.4959998 28
20.466999 -5.1259999 4.5040002 23
20.487 -5.1469998 4.5120001 22
20.521 -5.1700001 4.5240002 19
20.552999 -5.1939998 4.5339999 18
20.591999 -5.2189999 4.546 13
20.628 -5.243 4.5560002 3
0 0 0 27
29.021 -7.4169998 6.4180002 25
29.007999 -7.434 6.4180002 26
28.99 -7.4489999 6.4169998 27
28.996 -7.4699998 6.4200001 27
28.983999 -7.487 6.4200001 27
28.965 -7.5 6.4180002 24
28.969 -7.52 6.4200001 27
28.959 -7.5349998 6.4200001 23
28.941999 -7.5489998 6.4169998 26
28.959999 -7.5710001 6.4219999 27
28.934 -7.5819998 6.4169998 28
28.945999 -7.6020002 6.4200001 23
28.933001 -7.6160002 6.4159999 26
28.938999 -7.6339998 6.4169998 23
28.931 -7.6479998 6.415 24
28.945999 -7.6680002 6.4169998 25
28.958 -7.6869998 6.4190001 24
28.951 -7.7010002 6.415 25
28.959 -7.717 6.4159999 24
28.961 -7.7329998 6.4130001 26
28.968 -7.7490001 6.4130001 27
28.983 -7.7680001 6.4130001 24
28.992001 -7.7839999 6.4120002 28
28.993 -7.7969999 6.4089999 28
29.018 -7.8179998 6.4109998 25
29.049 -7.8390002 6.414 25
29.045 -7.8509998 6.4089999 28
29.066999 -7.869 6.4089999 23
29.075001 -7.8829999 6.4060001 23
29.099001 -7.902 6.4050002 27
29.114 -7.9169998 6.4039998 27
29.146999 -7.9380002 6.4050002 26
29.162001 -7.9520001 6.402 26
29.181999 -7.9679999 6.401 24
29.216999 -7.9879999 6.402 27
29.247 -8.0059996 6.402 24
29.264999 -8.0209999 6.3979998 23
29.280001 -8.0349998 6.3940001 27
29.325001 -8.0550003 6.3959999 23
29.337 -8.0679998 6.3909998 24
29.381001 -8.0880003 6.3920002 26
29.396999 -8.1009998 6.3870001 24
29.447001 -8.1219997 6.3889999 22
29.472 -8.1359997 6.3850002 24
29.521999 -8.1569996 6.3860002 21
29.549 -8.1709995 6.3829999 23
29.582001 -8.1870003 6.3790002 22
29.639 -8.2089996 6.381 21
29.681999 -8.2259998 6.3800001 21
29.721001 -8.243 6.3769999 21
29.768999 -8.2609997 6.3769999 22
29.816 -8.2790003 6.3740001 23
29.861 -8.2959995 6.3730001 22
29.914 -8.3149996 6.3720002 22
29.962999 -8.3319998 6.3699999 24
29.982 -8.3400002 6.3610001 24
30.049999 -8.3620005 6.3629999 25
30.09 -8.3769999 6.3569999 27
30.103001 -8.3830004 6.3470001 26
30.141001 -8.3950005 6.3400002 28
30.145 -8.3979998 6.3270001 26
30.167999 -8.4060001 6.3179998 26
30.149 -8.4020004 6.2989998 26
30.163 -8.4060001 6.2870002 27
30.17 -8.408 6.2740002 26
30.167 -8.4069996 6.257 26
30.167999 -8.408 6.2410002 26
30.167999 -8.4069996 6.2259998 25
30.160999 -8.4040003 6.2080002 25
30.157 -8.401 6.1900001 25
30.142 -8.3950005 6.171 25
30.099001 -8.3809996 6.145 25
30.059999 -8.368 6.1199999 23
29.962999 -8.3380003 6.0819998 20
29.885 -8.3140001 6.0489998 20
29.823999 -8.2930002 6.0180001 20
29.784 -8.2779999 5.993 20
29.747999 -8.2629995 5.967 20
29.688 -8.2419996 5.9359999 20
29.669001 -8.2320004 5.9130001 20
29.688 -8.2329998 5.8979998 24
29.719999 -8.2360001 5.8850002 28
29.790001 -8.25 5.8790002 28
29.862 -8.2629995 5.8740001 25
29.923 -8.2729998 5.8649998 25
30.004999 -8.2889996 5.8610001 24
30.103001 -8.309 5.8600001 27
30.193001 -8.3260002 5.8559999 24
30.295 -8.3459997 5.8540001 23
30.372999 -8.3590002 5.848 28
30.476 -8.3780003 5.8449998 26
30.556999 -8.3909998 5.8379998 25
30.656 -8.4090004 5.835 25
30.761999 -8.4280005 5.8330002 24
30.834999 -8.4379997 5.823 26
30.979 -8.4659996 5.8270001 25
31.082001 -8.4829998 5.822 25
31.184 -8.4989996 5.8179998 25
31.278999 -8.5129995 5.8109999 24
31.384001 -8.5290003 5.8060002 23
31.5 -8.5480003 5.802 23
31.608 -8.5640001 5.7969999 25
31.736 -8.585 5.7950001 24
31.846001 -8.6009998 5.789 24
31.965 -8.6190004 5.7839999 22
32.076 -8.6330004 5.7779999 22
32.209 -8.6540003 5.7750001 23
32.324001 -8.6689997 5.7680001 22
32.476002 -8.6929998 5.7690001 24
32.601002 -8.7110004 5.7620001 24
32.742001 -8.7320004 5.7600002 24
32.870998 -8.7480001 5.7540002 24
33.02 -8.7700005 5.7509999 24
33.155998 -8.7880001 5.7459998 25
33.271999 -8.8000002 5.737 25
33.410999 -8.8170004 5.7319999 25
33.547001 -8.8330002 5.7249999 25
33.701 -8.8540001 5.7210002 25
33.835999 -8.868 5.7119999 26
33.995998 -8.8889999 5.7080002 26
34.152 -8.9090004 5.7030001 26
34.297001 -8.9230003 5.6960001 26
34.455002 -8.9420004 5.6900001 26
34.613998 -8.9610004 5.684 27
34.764999 -8.9770002 5.6760001 27
34.960999 -9.0030003 5.6739998 27
35.105999 -9.0159998 5.665 27
35.283001 -9.0360003 5.6599998 27
35.450001 -9.0530005 5.6529999 23
35.667999 -9.0819998 5.6529999 23
35.797001 -9.0880003 5.6389999 28
0 0 0 2
20.559999 -5.1880002 3.198 7
20.497999 -5.1570001 3.168 14
20.489 -5.138 3.1459999 17
20.443001 -5.1100001 3.119 21
20.424 -5.0890002 3.095 25
20.4 -5.066 3.0710001 28
20.393 -5.0469999 3.049 31
20.358999 -5.0219998 3.023 31
20.353001 -5.0029998 3.0020001 32
20.33 -4.9790001 2.9779999 35
20.298 -4.954 2.9530001 38
20.290001 -4.934 2.931 39
20.271 -4.9109998 2.9070001 40
20.275 -4.8940001 2.8859999 42
20.267 -4.8730001 2.8640001 43
20.268 -4.8540001 2.842 43
20.275999 -4.8369999 2.823 45
20.266001 -4.8150001 2.8 46
20.261999 -4.7950001 2.7780001 42
20.257999 -4.7740002 2.756 40
20.240999 -4.7509999 2.7320001 37
20.257 -4.7350001 2.7130001 45
20.243999 -4.711 2.6889999 50
20.253 -4.6929998 2.6689999 55
20.245001 -4.6700001 2.6459999 53
20.25 -4.6500001 2.625 53
20.252001 -4.6300001 2.6029999 55
20.264 -4.6110001 2.582 56
20.267 -4.5900002 2.5610001 56
20.271999 -4.5689998 2.54 53
20.273001 -4.5469999 2.517 51
20.284 -4.527 2.497 51
20.285 -4.5050001 2.474 51
20.289 -4.4840002 2.4519999 46
20.308001 -4.4650002 2.4330001 49
20.316999 -4.4439998 2.411 48
20.319 -4.421 2.3889999 44
20.337 -4.401 2.369 42
20.377001 -4.3860002 2.3510001 31
20.377001 -4.362 2.3280001 42
20.407 -4.3439999 2.3080001 38
20.421 -4.323 2.2869999 37
20.462999 -4.3070002 2.2690001 30
20.49 -4.2870002 2.2490001 29
20.531 -4.2709999 2.23 26
20.580999 -4.2550001 2.2119999 24
20.636999 -4.2410002 2.1949999 19
20.718 -4.2319999 2.1800001 7
0 0 0 0
0 0 0 0
0 0 0 0
0 0 0 0
0 0 0 0
0 0 0 0
0 0 0 0
0 0 0 0
0 0 0 0
0 0 0 0
0 0 0 0
0 0 0 0
0 0 0 0
0 0 0 0
0 0 0 0
0 0 0 0
0 0 0 9
36.564999 -6.5879998 3.1059999 34
36.602001 -6.5419998 3.0669999 9
0 0 0 0
0 0 0 2
36.578999 -6.3800001 2.941 10
36.544998 -6.3200002 2.8970001 18
36.549999 -6.2680001 2.8570001 30
36.537998 -6.2119999 2.8139999 42
36.530998 -6.1560001 2.7720001 47
36.529999 -6.1020002 2.7320001 42
36.5 -6.0419998 2.6889999 48
0 0 0 9
28.5 -4.631 2.036 21
28.459 -4.5809999 2.0009999 28
28.423 -4.5320001 1.966 32
28.382 -4.4809999 1.932 36
28.368999 -4.4359999 1.9 41
28.344999 -4.388 1.8660001 44
28.33 -4.3410001 1.834 41
28.319 -4.2940001 1.801 53
28.315001 -4.25 1.77 58
28.318001 -4.2049999 1.739 61
28.313 -4.1589999 1.707 56
28.325001 -4.1149998 1.677 55
28.348 -4.072 1.647 47
28.379 -4.0310001 1.617 39
28.379999 -3.9849999 1.586 43
28.412001 -3.9430001 1.557 40
28.454 -3.902 1.528 35
28.493999 -3.8610001 1.499 32
28.563 -3.823 1.473 27
28.650999 -3.7869999 1.4450001 18
28.802999 -3.7590001 1.423 4
0 0 0 15
36.494999 -4.6399999 1.724 13
36.344002 -4.559 1.677 82
36.337002 -4.4970002 1.638 79
36.333 -4.434 1.599 80
36.334999 -4.3720002 1.561 84
36.307999 -4.3070002 1.522 86
36.314999 -4.2459998 1.484 90
36.292999 -4.1810002 1.4450001 89
36.292999 -4.1170001 1.4069999 99
36.293999 -4.0549998 1.37 100
36.286999 -3.9909999 1.331 97
36.284 -3.9260001 1.294 99
36.259998 -3.8599999 1.255 87
36.272999 -3.799 1.219 93
36.263 -3.7309999 1.1799999 98
36.261002 -3.6670001 1.143 102
36.261002 -3.602 1.1059999 99
36.255001 -3.536 1.069 94
36.264 -3.4719999 1.033 95
36.25 -3.404 0.99599999 79
36.242001 -3.3369999 0.95899999 98
36.228001 -3.27 0.92199999 98
36.426998 -3.2219999 0.89099997 9
36.912998 -3.198 0.86699998 7
37.395 -3.171 0.84200001 8
37.848999 -3.1400001 0.815 7
38.289001 -3.1059999 0.787 6
40.130001 -3.181 0.78600001 81
40.120998 -3.1059999 0.74699998 82
40.119999 -3.0320001 0.70899999 84
40.332001 -2.9749999 0.67500001 6
40.902 -2.941 0.64499998 6
41.651001 -2.9159999 0.61699998 27
41.744999 -2.8440001 0.579 26
44.18 -2.9289999 0.57300001 93
44.166 -2.845 0.53200001 107
44.151001 -2.76 0.49000001 80
44.806999 -2.7160001 0.456 4
46.691002 -2.743 0.43399999 10
45.036999 -2.5599999 0.377 3
0 0 0 13
48.401001 -2.5669999 0.31900001 36
48.459999 -2.4760001 0.27500001 31
48.591 -2.391 0.233 24
0 0 0 75
52.228001 -2.369 0.15899999 97
52.229 -2.2679999 0.113 43
52.467999 -2.178 0.068999998 42
52.929001 -2.0940001 0.024 7
0 0 0 70
60.108002 -2.1459999 -0.072999999 75
60.34 -2.0369999 -0.124 122
60.320999 -1.918 -0.175 108
60.348 -1.798 -0.226 58
60.569 -1.686 -0.27700001 23
0 0 0 78
68.373001 -1.636 -0.42399999 150
68.385002 -1.502 -0.479 73
68.360001 -1.367 -0.53299999 76
68.582001 -1.2359999 -0.58999997 51
71.500999 -1.147 -0.671 12
73.996002 -1.041 -0.75199997 66
0 0 0 0
0 0 0 49
135.25999 -1.102 -1.686 37
0 0 0 0
0 0 0 0
0 0 0 0
0 0 0 16
94.583 0.16500001 -1.528 16
94.628998 0.352 -1.597 18
94.603996 0.54100001 -1.664 14
94.560997 0.727 -1.73 15
94.507004 0.91600001 -1.795 17
94.599998 1.1059999 -1.863 22
94.561996 1.293 -1.927 41
94.549004 1.48 -1.99 45
94.524002 1.6670001 -2.053 53
94.503998 1.8559999 -2.1159999 79
94.492996 2.043 -2.177 86
94.500999 2.233 -2.24 150
94.500999 2.4230001 -2.3010001 132
94.496002 2.6129999 -2.362 53
0 0 0 16
0 0 0 0
0 0 0 47
91.378998 3.26 -2.5120001 25
94.438004 3.5599999 -2.654 82
94.439003 3.7520001 -2.7119999 139
94.492996 3.9449999 -2.77 38
94.473999 4.132 -2.8239999 43
0 0 0 32
0 0 0 42
94.393997 4.6989999 -2.984 38
0 0 0 5
41.466999 2.2309999 -1.357 8
41.187 2.2980001 -1.37 12
41.027 2.3710001 -1.387 15
40.887001 2.4449999 -1.404 27
40.812 2.5209999 -1.4220001 44
40.789001 2.6010001 -1.442 47
40.757999 2.681 -1.462 49
40.780998 2.763 -1.483 36
40.824001 2.848 -1.505 33
40.801998 2.9289999 -1.524 33
40.881001 3.016 -1.5470001 3
40.772999 3.0899999 -1.562 9
40.794998 3.1730001 -1.582 12
40.847 3.2579999 -1.603 7
40.835999 3.3380001 -1.6210001 8
40.811001 3.418 -1.6390001 7
40.869999 3.503 -1.659 6
0 0 0 0
0 0 0 0
0 0 0 0
0 0 0 0
0 0 0 0
0 0 0 0
0 0 0 0
0 0 0 0
0 0 0 0
0 0 0 0
0 0 0 0
0 0 0 0
0 0 0 2
0 0 0 0
0 0 0 1
30.417999 3.5669999 -1.421 1
0 0 0 0
0 0 0 2
27.698 3.4100001 -1.3200001 2
27.511 3.4400001 -1.319 1
0 0 0 5
0 0 0 0
0 0 0 0
0 0 0 0
0 0 0 0
0 0 0 0
0 0 0 1
0 0 0 0
0 0 0 0
0 0 0 0
0 0 0 0
0 0 0 0
0 0 0 1
21.236 3.22 -1.0930001 1
20.909 3.21 -1.08 1
20.627001 3.2049999 -1.069 2
20.683001 3.253 -1.077 3
20.171 3.21 -1.054 1
20.327 3.2720001 -1.0650001 1
0 0 0 0
0 0 0 2
19.285 3.21 -1.02 3
19.455999 3.2739999 -1.0319999 2
19.663 3.3440001 -1.046 4
19.302999 3.319 -1.029 4
19.122999 3.3210001 -1.022 4
19.101999 3.3529999 -1.024 6
19.059999 3.3789999 -1.024 7
18.797001 3.365 -1.011 6
18.83 3.405 -1.015 4
0 0 0 0
0 0 0 0
0 0 0 5
17.812 3.3469999 -0.96700001 6
17.843 3.3840001 -0.97000003 6
17.697001 3.388 -0.963 2
0 0 0 0
0 0 0 0
0 0 0 0
0 0 0 6
17.357 3.4719999 -0.949 2
17.433001 3.516 -0.954 5
0 0 0 0
0 0 0 0
0 0 0 0
0 0 0 0
0 0 0 0
0 0 0 0
0 0 0 0
0 0 0 2
17.122 3.7079999 -0.93800002 2
17.371 3.7909999 -0.95099998 2
17.343 3.812 -0.949 3
17.566 3.8889999 -0.96100003 3
17.218 3.8399999 -0.94099998 1
17.381001 3.9030001 -0.949 3
17.341999 3.9219999 -0.94599998 2
17.24 3.9260001 -0.94 2
17.267 3.9590001 -0.94099998 2
17.202 3.971 -0.93599999 2
17.165001 3.9890001 -0.93199998 2
0 0 0 1
14.04 3.306 -0.75999999 1
14.203 3.365 -0.76800001 1
14.237 3.395 -0.76899999 1
0 0 0 1
11.14 2.6889999 -0.59899998 1
11.093 2.6949999 -0.59500003 1
11.032 2.6960001 -0.59100002 2
10.94 2.6889999 -0.58499998 1
10.856 2.684 -0.579 1
10.836 2.6949999 -0.57700002 1
10.778 2.6960001 -0.57200003 1
10.741 2.7019999 -0.56900001 2
10.698 2.7060001 -0.565 2
10.68 2.717 -0.56300002 4
10.679 2.7309999 -0.56099999 4
10.645 2.737 -0.55800003 3
10.632 2.7479999 -0.55500001 2
10.615 2.7579999 -0.55299997 2
10.581 2.763 -0.54900002 2
10.576 2.776 -0.54699999 2
10.559 2.7850001 -0.54500002 2
10.55 2.7969999 -0.542 2
10.541 2.8080001 -0.54000002 3
10.522 2.816 -0.537 2
10.509 2.826 -0.53399998 3
10.498 2.8369999 -0.53200001 3
10.476 2.8440001 -0.52899998 3
10.466 2.8540001 -0.52600002 3
10.449 2.862 -0.523 3
10.437 2.872 -0.51999998 3
10.423 2.881 -0.51700002 3
10.42 2.8929999 -0.51499999 3
10.402 2.9000001 -0.51200002 3
10.406 2.9130001 -0.50999999 3
10.392 2.921 -0.50700003 3
10.386 2.931 -0.50400001 3
10.385 2.9430001 -0.50099999 3
10.367 2.95 -0.498 3
10.355 2.9579999 -0.495 4
10.345 2.967 -0.49200001 4
10.351 2.9790001 -0.49000001 5
10.331 2.9849999 -0.486 9
10.293 2.9849999 -0.48199999 18
10.285 2.994 -0.47799999 45
10.301 3.0090001 -0.47600001 138
10.278 3.013 -0.47299999 92
10.262 3.0190001 -0.46900001 26
10.266 3.03 -0.46700001 51
10.265 3.04 -0.463 83
10.272 3.053 -0.461 92
10.268 3.0610001 -0.458 98
10.262 3.069 -0.45500001 106
10.251 3.076 -0.45100001 119
10.254 3.086 -0.44800001 131
10.256 3.096 -0.44499999 141
10.244 3.102 -0.442 144
10.243 3.1110001 -0.43799999 144
10.239 3.119 -0.435 139
10.241 3.128 -0.43200001 139
10.235 3.135 -0.42899999 121
10.237 3.1440001 -0.426 101
10.225 3.1489999 -0.42199999 82
10.217 3.155 -0.419 70
10.214 3.1619999 -0.41499999 66
10.228 3.175 -0.412 66
10.224 3.181 -0.40900001 67
10.211 3.1849999 -0.405 64
10.219 3.1949999 -0.40200001 61
10.266 3.2179999 -0.40099999 41
10.345 3.25 -0.40000001 26
10.512 3.3099999 -0.403 13
10.552 3.3299999 -0.40099999 9
10.502 3.3210001 -0.396 7
10.415 3.3010001 -0.389 5
10.333 3.2809999 -0.382 3
10.291 3.2750001 -0.377 3
10.273 3.276 -0.373 3
10.255 3.276 -0.368 3
10.248 3.28 -0.36500001 3
10.245 3.2850001 -0.361 3
10.241 3.29 -0.35699999 3
10.231 3.2920001 -0.35299999 3
10.243 3.3010001 -0.34999999 3
10.234 3.3039999 -0.34599999 3
10.229 3.3080001 -0.34200001 3
10.214 3.3080001 -0.33700001 3
10.225 3.316 -0.33399999 3
10.23 3.323 -0.33000001 3
10.217 3.3239999 -0.32600001 2
10.225 3.3310001 -0.32300001 3
10.224 3.335 -0.31900001 3
10.209 3.3340001 -0.31400001 2
10.215 3.3399999 -0.31099999 3
10.205 3.3410001 -0.30700001 3
10.219 3.3499999 -0.303 3
10.217 3.3529999 -0.29899999 3
10.225 3.359 -0.29499999 3
10.211 3.358 -0.29100001 3
10.21 3.3610001 -0.287 3
10.222 3.368 -0.28400001 3
10.212 3.3670001 -0.27900001 3
10.218 3.372 -0.27500001 3
10.212 3.3729999 -0.271 3
10.22 3.378 -0.26800001 3
10.223 3.382 -0.264 3
10.227 3.385 -0.25999999 3
10.219 3.385 -0.25600001 3
10.211 3.3840001 -0.25099999 3
10.215 3.3870001 -0.24699999 3
10.21 3.3870001 -0.243 3
10.217 3.391 -0.23899999 3
10.217 3.392 -0.235 3
10.208 3.3900001 -0.23100001 3
10.223 3.3959999 -0.227 3
10.226 3.3989999 -0.223 3
10.227 3.4000001 -0.219 3
10.225 3.4000001 -0.215 3
10.232 3.4030001 -0.20999999 3
10.229 3.402 -0.206 3
10.232 3.4030001 -0.20200001 3
10.23 3.402 -0.198 3
10.236 3.404 -0.19400001 3
10.25 3.4089999 -0.19 3
10.282 3.4189999 -0.186 3
10.329 3.434 -0.183 4
10.386 3.4519999 -0.18000001 5
10.41 3.4590001 -0.177 6
10.444 3.47 -0.17200001 5
10.463 3.4749999 -0.168 9
10.455 3.471 -0.164 10
10.504 3.4860001 -0.161 9
10.518 3.4890001 -0.15700001 9
10.517 3.4860001 -0.153 15
10.539 3.4920001 -0.149 12
10.514 3.4809999 -0.14399999 16
10.471 3.4649999 -0.139 27
10.413 3.4430001 -0.134 27
10.37 3.427 -0.12899999 27
10.335 3.4119999 -0.125 29
10.311 3.402 -0.12 35
10.276 3.3870001 -0.116 44
10.261 3.3789999 -0.111 52
10.238 3.368 -0.107 59
10.203 3.3540001 -0.102 62
10.178 3.342 -0.097999997 67
10.167 3.335 -0.093000002 69
10.183 3.336 -0.090000004 69
10.183 3.332 -0.086000003 69
10.181 3.3280001 -0.082000002 69
10.176 3.322 -0.078000002 67
10.183 3.3199999 -0.072999999 65
10.176 3.313 -0.07 66
10.18 3.309 -0.064999998 63
10.194 3.3099999 -0.061000001 62
10.198 3.306 -0.057 60
10.187 3.2969999 -0.054000001 58
10.195 3.2939999 -0.050000001 57
10.193 3.2880001 -0.045000002 53
10.196 3.2839999 -0.041000001 56
10.196 3.2780001 -0.037 56
10.208 3.276 -0.033 56
10.193 3.2650001 -0.029999999 55
10.209 3.2650001 -0.026000001 57
10.211 3.2590001 -0.022 56
10.215 3.2539999 -0.017999999 56
10.217 3.2479999 -0.014 56
10.218 3.2409999 -0.0099999998 55
10.206 3.2309999 -0.0060000001 50
10.223 3.23 -0.0020000001 49
10.225 3.223 0 51
10.223 3.2149999 0.0040000002 48
10.226 3.2090001 0.0080000004 47
10.233 3.2030001 0.012 46
10.231 3.1949999 0.016000001 44
10.236 3.1889999 0.02 42
10.238 3.1819999 0.024 39
10.243 3.175 0.027000001 39
10.241 3.1659999 0.030999999 36
10.242 3.1589999 0.035 34
10.251 3.1530001 0.037999999 31
10.242 3.141 0.041999999 26
10.248 3.1340001 0.046 24
10.265 3.1300001 0.048999999 11
10.278 3.1259999 0.052999999 5
10.305 3.125 0.057 2
10.325 3.1210001 0.059999999 1
10.337 3.115 0.064000003 2
10.344 3.108 0.068000004 1
10.352 3.1010001 0.071000002 1
10.367 3.095 0.075000003 2
10.416 3.0999999 0.079000004 2
10.446 3.099 0.082000002 1
10.472 3.096 0.086000003 1
10.461 3.082 0.089000002 1
10.451 3.0680001 0.093000002 1
10.434 3.053 0.096000001 3
10.425 3.039 0.098999999 9
10.41 3.0239999 0.102 26
10.43 3.0179999 0.106 33
10.417 3.003 0.109 26
10.432 2.9960001 0.112 26
10.418 2.9809999 0.115 26
10.432 2.973 0.118 10
10.48 2.9749999 0.122 7
10.458 2.957 0.125 15
10.457 2.944 0.12800001 17
10.457 2.9319999 0.131 10
10.535 2.9419999 0.13500001 3
10.537 2.9300001 0.138 2
10.55 2.921 0.141 1
10.58 2.9159999 0.145 1
10.625 2.915 0.148 1
10.684 2.918 0.152 1
10.752 2.924 0.156 1
10.801 2.924 0.15899999 1
10.873 2.9289999 0.163 1
0 0 0 0
0 0 0 1
11.123 2.9530001 0.175 1
0 0 0 13
0 0 0 25
43.098 11.273 0.71200001 56
43.106998 11.217 0.722 52
0 0 0 5
38.023998 9.7910004 0.65399998 20
38.139999 9.7679996 0.66500002 8
37.999001 9.6789999 0.67000002 12
38.033001 9.6350002 0.67900002 18
38.099998 9.5979996 0.68900001 3
0 0 0 16
0 0 0 0
0 0 0 0
0 0 0 4
38.217999 9.3529997 0.72799999 5
38.237 9.3009996 0.73500001 8
38.228001 9.2419996 0.74199998 9
38.224998 9.184 0.74900001 2
0 0 0 15
0 0 0 0
0 0 0 21
70.403999 16.49 1.425 27
0 0 0 0
0 0 0 0
0 0 0 0
0 0 0 45
51.555 11.674 1.08 4
0 0 0 33
67.434998 15.054 1.4299999 22
68.518997 15.186 1.462 35
0 0 0 6
55.452999 12.11 1.196 34
55.442001 12.018 1.201 38
0 0 0 19
0 0 0 21
48.092999 10.188 1.0549999 9
48.203999 10.131 1.061 15
48.257999 10.062 1.066 37
48.276001 9.9849997 1.0700001 61
48.292 9.9060001 1.073 65
48.298 9.8260002 1.076 67
48.292999 9.743 1.0779999 41
0 0 0 0
0 0 0 19
38.313999 7.5310001 0.861 44
38.458 7.4920001 0.866 24
38.419998 7.4190001 0.866 31
38.382999 7.3439999 0.866 31
38.186001 7.2389998 0.86199999 32
38.106998 7.158 0.86000001 39
38.064999 7.0819998 0.85900003 17
38.035 7.0089998 0.85900003 5
0 0 0 13
52.275002 9.4460001 1.179 9
0 0 0 0
0 0 0 27
55.900002 9.7989998 1.257 21
56.027 9.7209997 1.257 23
0 0 0 12
0 0 0 0
0 0 0 24
0 0 0 5
0 0 0 28
0 0 0 27
48.235001 7.7490001 1.061 40
47.233002 7.4990001 1.035 34
47.505001 7.4549999 1.036 35
47.598999 7.3800001 1.034 38
47.652 7.2979999 1.03 28
47.796001 7.2290001 1.028 36
47.964001 7.164 1.026 28
47.881001 7.0609999 1.017 31
47.853001 6.9660001 1.011 35
47.790001 6.8649998 1.003 28
47.803001 6.777 0.99599999 20
47.782001 6.6830001 0.98900002 5
0 0 0 13
0 0 0 16
0 0 0 0
0 0 0 13
72.087997 9.3859997 1.4299999 26
72.098 9.2460003 1.4170001 24
72.530998 9.1619997 1.41 25
72.591003 9.0249996 1.395 37
72.273003 8.8439999 1.374 25
0 0 0 0
0 0 0 0
0 0 0 24
79.704002 9.1280003 1.443 33
79.507004 8.9469995 1.42 39
79.320999 8.7690001 1.397 43
79.253998 8.6059999 1.375 36
78.603996 8.3789997 1.342 25
74.695 7.8130002 1.255 21
74.986 7.6929998 1.239 39
75.252998 7.5679998 1.22 34
75.014 7.3930001 1.194 46
74.757004 7.217 1.168 48
74.739998 7.0650001 1.1440001 47
74.752998 6.9180002 1.1210001 30
0 0 0 0
0 0 0 0
0 0 0 0
0 0 0 0
0 0 0 0
0 0 0 0
0 0 0 0
0 0 0 0
0 0 0 0
0 0 0 0
0 0 0 0
0 0 0 0
0 0 0 0
0 0 0 15
89.376999 5.5640001 0.84200001 19
89.250999 5.3730001 0.80199999 18
89.405998 5.1999998 0.764 18
89.477997 5.02 0.72500002 17
0 0 0 0
0 0 0 0
0 0 0 13
0 0 0 0
0 0 0 18
0 0 0 0
0 0 0 0
0 0 0 19
89.974998 3.3889999 0.33899999 19
90.060997 3.2049999 0.292 24
89.905998 3.017 0.245 22
89.875999 2.8340001 0.198 20
89.986 2.6500001 0.149 22
90.211998 2.477 0.102 15
90.699997 2.306 0.052999999 15
0 0 0 0
0 0 0 0
0 0 0 0
0 0 0 0
0 0 0 0
0 0 0 0
0 0 0 0
0 0 0 0
0 0 0 0
0 0 0 0
0 0 0 0
0 0 0 45
135.283 -0.154 -0.97600001 58
135.215 -0.43000001 -1.063 69
0 0 0 42
74.642998 -0.537 -0.68400002 45
74.663002 -0.68900001 -0.73400003 32
74.628998 -0.838 -0.78299999 21
74.143997 -0.98400003 -0.829 49
0 0 0 0
0 0 0 42
68.334 -1.3200001 -0.90600002 71
68.358002 -1.459 -0.95499998 70
68.329002 -1.594 -1.003 150
68.362 -1.733 -1.053 121
0 0 0 0
0 0 0 102
60.287998 -1.8890001 -1.0599999 111
0 0 0 30
46.140999 -1.632 -0.88099998 50
45.868 -1.712 -0.91000003 43
45.402 -1.788 -0.93599999 35
45.113998 -1.865 -0.96499997 42
45.307999 -1.9630001 -1.0039999 36
44.98 -2.039 -1.0319999 42
44.620998 -2.1110001 -1.059 41
44.576 -2.197 -1.094 32
44.478001 -2.2780001 -1.126 32
44.556 -2.3710001 -1.164 6
0 0 0 5
41.776001 -2.3870001 -1.16 9
41.73 -2.4660001 -1.193 16
0 0 0 0
0 0 0 134
27.919001 -1.813 -0.86799997 81
27.961 -1.8710001 -0.89399999 12
0 0 0 6
40.783001 -2.8870001 -1.373 7
0 0 0 1
23.747999 -1.773 -0.84100002 4
23.372999 -1.788 -0.847 4
22.955999 -1.802 -0.85299999 1
22.584 -1.8150001 -0.85900003 2
22.264999 -1.832 -0.86699998 2
21.976 -1.85 -0.875 2
21.671 -1.8660001 -0.88300002 2
20.596001 -1.812 -0.85799998 4
20.548 -1.847 -0.87400001 4
20.514 -1.882 -0.89099997 4
20.521 -1.921 -0.91100001 3
20.493999 -1.957 -0.92799997 2
20.466 -1.992 -0.94599998 3
20.396 -2.023 -0.96200001 3
20.427999 -2.0639999 -0.98199999 5
20.545 -2.1140001 -1.007 6
20.464001 -2.1429999 -1.023 4
20.443001 -2.1789999 -1.041 1
20.577 -2.2309999 -1.068 1
20.667999 -2.279 -1.0930001 1
0 0 0 1
0 0 0 0
0 0 0 0
0 0 0 1
22.329 -2.664 -1.289 1
21.642 -2.6210001 -1.271 1
21.319 -2.6199999 -1.273 1
0 0 0 1
18.538 -2.3429999 -1.1440001 1
17.882 -2.2920001 -1.1210001 1
18.044001 -2.345 -1.149 2
0 0 0 3
16.143999 -2.154 -1.061 3
16.381001 -2.214 -1.0930001 3
0 0 0 4
15.55 -2.1559999 -1.069 4
15.384 -2.1589999 -1.074 6
15.014 -2.1329999 -1.063 4
14.67 -2.109 -1.054 4
14.285 -2.0780001 -1.041 3
13.902 -2.046 -1.028 3
13.461 -2.003 -1.0089999 3
13.097 -1.971 -0.995 3
12.779 -1.9450001 -0.98500001 2
12.496 -1.9220001 -0.97600001 3
12.219 -1.899 -0.96700001 3
11.906 -1.87 -0.95499998 3
11.555 -1.834 -0.93900001 2
11.274 -1.808 -0.92799997 2
11.045 -1.789 -0.921 2
10.809 -1.768 -0.912 2
10.593 -1.75 -0.90499997 2
10.366 -1.729 -0.89700001 2
10.132 -1.706 -0.88700002 3
9.9309998 -1.688 -0.88 2
9.7080002 -1.665 -0.87099999 3
9.4440002 -1.635 -0.85699999 3
9.184 -1.604 -0.84399998 6
9.0780001 -1.6 -0.84399998 7
8.8719997 -1.577 -0.83399999 4
8.717 -1.563 -0.829 4
8.5469999 -1.546 -0.82200003 3
8.3830004 -1.529 -0.81599998 4
8.2399998 -1.515 -0.81 4
8.0889997 -1.499 -0.80400002 4
7.954 -1.4859999 -0.80000001 4
7.829 -1.474 -0.79500002 4
7.697 -1.461 -0.79000002 3
7.553 -1.4450001 -0.78399998 4
7.4310002 -1.432 -0.77899998 4
7.3060002 -1.418 -0.77399999 3
7.1849999 -1.405 -0.76899999 4
7.0739999 -1.393 -0.76499999 3
6.9720001 -1.383 -0.76099998 4
6.8759999 -1.374 -0.75800002 4
6.7729998 -1.363 -0.75400001 4
6.6669998 -1.351 -0.74900001 4
6.573 -1.341 -0.74599999 4
6.474 -1.329 -0.74199998 4
6.3860002 -1.3200001 -0.73900002 3
6.2909999 -1.309 -0.73500001 3
6.1999998 -1.298 -0.73100001 3
6.112 -1.288 -0.727 3
6.0289998 -1.278 -0.72399998 3
5.9590001 -1.271 -0.722 3
5.8969998 -1.266 -0.72100002 3
5.802 -1.253 -0.71499997 3
5.743 -1.248 -0.71399999 2
5.6570001 -1.2359999 -0.70999998 2
5.586 -1.228 -0.70700002 2
5.513 -1.219 -0.70300001 3
5.4489999 -1.211 -0.70099998 3
5.375 -1.202 -0.69700003 2
5.322 -1.196 -0.69599998 2
5.2709999 -1.191 -0.69499999 3
5.1989999 -1.181 -0.69099998 3
5.1389999 -1.174 -0.68900001 4
5.085 -1.1670001 -0.68699998 3
5.0349998 -1.1619999 -0.685 3
4.9879999 -1.1569999 -0.68400002 3
4.9239998 -1.147 -0.68099999 3
4.8709998 -1.141 -0.67900002 3
4.8249998 -1.135 -0.67699999 3
4.7639999 -1.126 -0.67400002 3
4.7319999 -1.124 -0.67400002 3
4.6659999 -1.113 -0.67000002 5
4.6300001 -1.11 -0.66900003 3
4.6040001 -1.109 -0.671 3
4.5440001 -1.099 -0.66600001 3
4.506 -1.095 -0.66500002 2
4.4439998 -1.084 -0.66100001 2
4.4130001 -1.081 -0.66100001 3
4.3759999 -1.077 -0.66000003 3
4.3379998 -1.072 -0.65799999 3
4.2909999 -1.064 -0.65600002 4
4.2969999 -1.0700001 -0.66100001 4
4.2360001 -1.059 -0.65600002 2
4.2080002 -1.056 -0.65600002 3
4.1700001 -1.051 -0.65399998 3
4.1059999 -1.038 -0.648 2
4.0630002 -1.0319999 -0.64499998 3
4.0419998 -1.03 -0.64600003 2
4.0149999 -1.027 -0.64600003 2
3.938 -1.011 -0.63700002 2
3.9219999 -1.01 -0.639 2
3.9449999 -1.0190001 -0.64600003 2
3.9070001 -1.013 -0.64399999 2
3.848 -1.001 -0.63800001 2
3.9030001 -1.0190001 -0.65100002 3
3.849 -1.008 -0.64600003 3
3.7780001 -0.99199998 -0.63700002 1
3.7639999 -0.99199998 -0.639 3
3.724 -0.98400003 -0.63499999 2
3.6949999 -0.98000002 -0.634 2
3.6570001 -0.972 -0.63099998 2
3.628 -0.96700001 -0.62900001 2
3.655 -0.977 -0.63700002 3
3.625 -0.972 -0.63499999 2
3.579 -0.96200001 -0.63099998 2
3.559 -0.95899999 -0.63 2
3.529 -0.954 -0.62800002 2
3.5179999 -0.95300001 -0.62900001 2
3.506 -0.95200002 -0.63 2
3.4349999 -0.93599999 -0.62099999 2
3.4219999 -0.93400002 -0.62199998 2
3.4059999 -0.93199998 -0.62199998 3
3.3900001 -0.93000001 -0.62199998 3
3.3699999 -0.926 -0.62099999 2
3.3510001 -0.92400002 -0.62099999 2
3.348 -0.92500001 -0.62300003 2
3.3280001 -0.921 -0.62199998 2
3.3410001 -0.92699999 -0.62699997 2
3.3729999 -0.93699998 -0.63599998 2
3.404 -0.94800001 -0.64499998 2
3.277 -0.91399997 -0.62300003 2
3.352 -0.93699998 -0.63999999 2
3.2650001 -0.91500002 -0.62599999 2
3.184 -0.89300001 -0.61299998 2
3.171 -0.89099997 -0.61400002 2
3.148 -0.88599998 -0.61199999 2
3.1400001 -0.88599998 -0.61199999 2
3.118 -0.88099998 -0.611 2
3.108 -0.87900001 -0.611 2
3.079 -0.87300003 -0.60799998 2
3.0610001 -0.86900002 -0.60699999 2
3.0539999 -0.86799997 -0.60799998 2
3.033 -0.86299998 -0.60600001 2
3.02 -0.861 -0.60500002 2
3.0020001 -0.85699999 -0.60399997 2
3.1040001 -0.88700002 -0.62699997 1
3.1159999 -0.89200002 -0.63200003 1
3.0810001 -0.88200003 -0.62699997 2
3.043 -0.87300003 -0.62099999 1
3.046 -0.875 -0.62400001 1
3.046 -0.875 -0.62599999 2
2.9389999 -0.84500003 -0.60600001 1
2.9319999 -0.84500003 -0.60699999 1
2.902 -0.83600003 -0.602 1
2.914 -0.84100002 -0.60699999 1
2.878 -0.83099997 -0.60100001 1
2.852 -0.824 -0.59799999 1
2.891 -0.83600003 -0.60799998 1
2.9200001 -0.84500003 -0.616 2
2.8959999 -0.83899999 -0.61199999 2
2.891 -0.838 -0.61299998 1
2.8699999 -0.83200002 -0.61000001 1
2.888 -0.838 -0.616 1
2.8510001 -0.82800001 -0.61000001 1
2.8110001 -0.81599998 -0.60299999 1
2.9070001 -0.84500003 -0.625 1
2.8050001 -0.815 -0.60500002 1
2.727 -0.79299998 -0.58899999 2
2.7320001 -0.79500002 -0.59200001 2
2.7309999 -0.79400003 -0.59299999 2
2.724 -0.79299998 -0.59299999 2
2.707 -0.78799999 -0.59100002 2
2.7060001 -0.78799999 -0.59200001 2
2.694 -0.78399998 -0.59100002 2
2.6800001 -0.77999997 -0.58899999 2
2.6849999 -0.78200001 -0.59200001 2
2.674 -0.778 -0.59100002 2
2.665 -0.77600002 -0.58999997 2
2.6630001 -0.77499998 -0.59100002 2
2.6470001 -0.76999998 -0.588 2
2.638 -0.76700002 -0.588 2
2.6370001 -0.76700002 -0.588 2
2.6199999 -0.76200002 -0.58600003 2
2.619 -0.76099998 -0.58700001 2
2.612 -0.759 -0.58600003 2
2.6099999 -0.75800002 -0.58700001 2
2.5999999 -0.755 -0.58600003 2
2.598 -0.75400001 -0.58600003 2
2.5910001 -0.75099999 -0.58600003 2
2.5840001 -0.74900001 -0.58499998 2
2.5910001 -0.75099999 -0.588 2
2.572 -0.74400002 -0.58399999 2
2.576 -0.745 -0.58600003 2
2.5680001 -0.74199998 -0.58499998 1
2.5610001 -0.74000001 -0.58399999 2
2.5580001 -0.73799998 -0.58499998 1
2.55 -0.73500001 -0.583 1
2.55 -0.73500001 -0.58399999 1
2.546 -0.73299998 -0.58399999 1
2.5439999 -0.73100001 -0.58399999 1
2.5350001 -0.72799999 -0.583 1
2.5280001 -0.72500002 -0.58200002 1
2.5309999 -0.72500002 -0.583 1
2.52 -0.72100002 -0.58099997 1
2.5220001 -0.72100002 -0.58200002 1
2.517 -0.71899998 -0.58200002 1
2.523 -0.71899998 -0.58399999 1
2.507 -0.71399999 -0.57999998 1
2.51 -0.71399999 -0.58200002 1
2.5079999 -0.71200001 -0.58200002 1
2.5079999 -0.71100003 -0.58200002 1
2.5079999 -0.70999998 -0.583 1
2.5039999 -0.708 -0.58200002 1
2.5009999 -0.70599997 -0.58200002 1
2.5020001 -0.70499998 -0.58200002 1
2.4990001 -0.70300001 -0.58200002 1
2.493 -0.70099998 -0.58099997 1
2.4960001 -0.69999999 -0.58200002 1
2.4920001 -0.69800001 -0.58099997 1
2.4879999 -0.69499999 -0.57999998 1
2.493 -0.69499999 -0.58200002 1
2.4879999 -0.69300002 -0.58099997 1
2.487 -0.69099998 -0.58099997 1
2.4849999 -0.68900001 -0.57999998 1
2.483 -0.68699998 -0.57999998 1
2.4879999 -0.68699998 -0.58099997 1
2.484 -0.68400002 -0.57999998 1
2.4849999 -0.68300003 -0.58099997 1
2.4790001 -0.68000001 -0.579 1
2.4849999 -0.68000001 -0.58099997 1
2.4890001 -0.68000001 -0.58099997 1
2.4879999 -0.67799997 -0.58099997 1
2.4920001 -0.67699999 -0.58200002 1
2.49 -0.67500001 -0.58099997 1
2.4860001 -0.67199999 -0.57999998 1
2.49 -0.67199999 -0.58099997 1
2.4920001 -0.671 -0.58099997 1
2.4920001 -0.66900003 -0.58099997 1
2.4960001 -0.66799998 -0.58200002 1
2.4990001 -0.667 -0.58200002 1
2.497 -0.66500002 -0.58099997 1
2.4990001 -0.66299999 -0.58200002 1
2.4960001 -0.66100001 -0.57999998 1
2.5020001 -0.66000003 -0.58200002 1
2.5050001 -0.65899998 -0.58200002 1
2.5050001 -0.65700001 -0.58099997 1
2.5039999 -0.65499997 -0.58099997 1
2.5150001 -0.65600002 -0.583 1
2.5190001 -0.65499997 -0.583 1
2.523 -0.65399998 -0.58399999 1
2.5190001 -0.65100002 -0.58200002 1
2.523 -0.64899999 -0.58200002 1
2.53 -0.64899999 -0.583 1
2.527 -0.64600003 -0.58200002 1
2.5339999 -0.64600003 -0.583 1
2.5309999 -0.64300001 -0.58200002 1
2.5439999 -0.64399999 -0.58399999 1
2.5450001 -0.64200002 -0.583 1
2.5469999 -0.63999999 -0.583 1
2.5550001 -0.63999999 -0.58399999 1
2.563 -0.639 -0.58499998 2
2.5599999 -0.63599998 -0.58399999 2
2.5650001 -0.63499999 -0.58399999 2
2.5799999 -0.63599998 -0.58600003 2
2.576 -0.63300002 -0.58499998 2
2.582 -0.63200003 -0.58499998 2
2.586 -0.63 -0.58499998 2
2.5899999 -0.62900001 -0.58499998 2
2.5999999 -0.62800002 -0.58600003 2
2.6059999 -0.62699997 -0.58600003 2
2.615 -0.62699997 -0.58700001 2
2.612 -0.62300003 -0.58499998 2
2.625 -0.62400001 -0.58700001 2
2.6300001 -0.62199998 -0.58700001 2
2.645 -0.62300003 -0.58899999 2
2.6370001 -0.61900002 -0.58600003 2
2.6530001 -0.62 -0.588 2
2.6600001 -0.61799997 -0.58899999 2
2.6619999 -0.616 -0.588 2
2.6700001 -0.61500001 -0.588 2
2.671 -0.61199999 -0.58700001 2
2.6889999 -0.61299998 -0.58899999 2
2.6989999 -0.61299998 -0.58999997 2
2.7019999 -0.61000001 -0.58899999 2
2.714 -0.61000001 -0.58999997 2
2.7160001 -0.60799998 -0.58899999 2
2.727 -0.60699999 -0.58999997 2
2.7390001 -0.60699999 -0.59100002 2
2.7360001 -0.60299999 -0.58899999 2
2.7490001 -0.602 -0.58999997 2
2.767 -0.60299999 -0.59200001 1
2.7969999 -0.60600001 -0.597 1
2.8150001 -0.60699999 -0.59899998 1
2.852 -0.61199999 -0.60500002 1
2.875 -0.61299998 -0.60799998 1
2.8629999 -0.60699999 -0.60299999 1
2.8959999 -0.611 -0.60799998 1
2.9679999 -0.62199998 -0.62099999 1
2.937 -0.61199999 -0.61299998 1
2.9070001 -0.602 -0.60399997 1
2.967 -0.611 -0.61500001 2
2.9360001 -0.60100001 -0.60600001 2
2.9660001 -0.60399997 -0.61000001 2
3.0799999 -0.62300003 -0.63099998 2
2.9389999 -0.59100002 -0.60000002 1
2.9530001 -0.58999997 -0.60100001 2
2.961 -0.588 -0.60000002 2
2.983 -0.58899999 -0.602 2
3.0020001 -0.58899999 -0.60399997 2
3.0109999 -0.58700001 -0.60299999 2
3.033 -0.58700001 -0.60500002 2
3.049 -0.58600003 -0.60500002 2
3.062 -0.58499998 -0.60500002 3
3.082 -0.58499998 -0.60699999 3
3.108 -0.58600003 -0.60900003 4
3.1170001 -0.583 -0.60799998 4
3.125 -0.58099997 -0.60699999 3
3.138 -0.579 -0.60699999 3
3.1489999 -0.57700002 -0.60600001 3
3.1570001 -0.574 -0.60500002 3
3.1760001 -0.57300001 -0.60600001 2
3.2690001 -0.58600003 -0.62 2
3.2980001 -0.58700001 -0.62300003 2
3.3329999 -0.58899999 -0.62599999 2
3.408 -0.597 -0.63700002 2
3.359 -0.58399999 -0.625 2
3.391 -0.58499998 -0.62699997 2
3.461 -0.59299999 -0.63700002 2
3.402 -0.57800001 -0.62300003 2
3.4519999 -0.58200002 -0.62800002 2
3.4330001 -0.574 -0.62099999 2
3.447 -0.57200003 -0.62 2
3.471 -0.57099998 -0.62099999 2
3.487 -0.56900001 -0.62 2
3.533 -0.57099998 -0.625 2
3.5610001 -0.57099998 -0.62599999 2
3.585 -0.56999999 -0.62599999 1
3.651 -0.57499999 -0.634 3
3.6719999 -0.574 -0.634 3
3.7309999 -0.57800001 -0.63999999 3
3.7409999 -0.574 -0.63700002 3
3.7179999 -0.565 -0.62900001 3
3.7620001 -0.56699997 -0.63300002 3
3.8069999 -0.56800002 -0.63599998 3
3.813 -0.56400001 -0.63300002 3
3.816 -0.55900002 -0.62900001 3
3.937 -0.57099998 -0.64399999 3
3.9230001 -0.56400001 -0.63700002 3
3.9619999 -0.56400001 -0.639 2
3.973 -0.56 -0.63599998 2
3.997 -0.55800003 -0.63499999 2
4.0370002 -0.55800003 -0.63700002 2
4.1350002 -0.565 -0.64700001 4
4.1550002 -0.56199998 -0.64499998 4
4.1830001 -0.56 -0.64399999 2
4.2350001 -0.56099999 -0.64700001 2
4.256 -0.55800003 -0.64499998 3
4.3249998 -0.56099999 -0.64999998 3
4.382 -0.56199998 -0.653 2
4.4349999 -0.56300002 -0.65499997 2
4.4710002 -0.56099999 -0.65499997 4
4.5349998 -0.56300002 -0.65899998 2
4.5799999 -0.56199998 -0.65899998 2
4.6329999 -0.56199998 -0.66100001 2
4.6859999 -0.56199998 -0.662 2
4.7410002 -0.56199998 -0.66399997 4
4.8169999 -0.56400001 -0.66799998 2
4.8769999 -0.56400001 -0.67000002 2
4.9400001 -0.56400001 -0.67199999 3
5.0139999 -0.56599998 -0.67500001 2
5.0749998 -0.56599998 -0.67699999 3
5.1440001 -0.56599998 -0.67900002 2
5.2189999 -0.56699997 -0.68199998 4
5.3010001 -0.56900001 -0.685 4
5.3889999 -0.57099998 -0.68900001 2
5.4679999 -0.57099998 -0.69199997 3
5.573 -0.574 -0.69700003 2
5.6529999 -0.57499999 -0.699 2
5.743 -0.57599998 -0.70200002 3
5.8369999 -0.57700002 -0.70499998 2
5.9530001 -0.57999998 -0.71100003 2
6.0440001 -0.58099997 -0.713 3
6.1599998 -0.583 -0.71799999 2
6.2789998 -0.58600003 -0.722 3
6.3930001 -0.588 -0.72600001 2
6.5110002 -0.58899999 -0.73000002 3
6.6560001 -0.59299999 -0.736 3
6.7870002 -0.59600002 -0.741 3
6.9510002 -0.60000002 -0.74800003 3
7.1009998 -0.60399997 -0.75400001 3
7.3010001 -0.611 -0.764 4
7.4530001 -0.61299998 -0.76899999 4
7.5900002 -0.61400002 -0.77100003 5
7.7649999 -0.61699998 -0.77700001 5
7.967 -0.62300003 -0.78500003 4
8.1739998 -0.62800002 -0.79299998 5
8.4119997 -0.634 -0.80400002 4
8.691 -0.64399999 -0.81699997 3
8.9379997 -0.64999998 -0.82599998 4
9.2299995 -0.65799999 -0.83899999 4
9.5209999 -0.667 -0.85000002 4
9.7969999 -0.67299998 -0.85900003 2
10.127 -0.68199998 -0.87199998 3
10.544 -0.69499999 -0.89099997 2
10.89 -0.704 -0.903 3
11.286 -0.71399999 -0.91799998 2
11.679 -0.72299999 -0.93099999 2
12.115 -0.73500001 -0.94599998 3
12.585 -0.74599999 -0.96200001 3
13.039 -0.75599998 -0.97600001 3
13.576 -0.76899999 -0.99299997 3
14.154 -0.78299999 -1.012 3
14.721 -0.79500002 -1.029 2
15.533 -0.81900001 -1.0599999 2
16.312 -0.83899999 -1.086 3
16.98 -0.852 -1.103 2
17.85 -0.87199998 -1.13 2
18.856001 -0.89700001 -1.1619999 2
18.837 -0.87199998 -1.1289999 1
0 0 0 5
0 0 0 2
0 0 0 2
0 0 0 0
0 0 0 3
31.700001 -1.227 -1.577 2
0 0 0 16
44.056999 -1.595 -2.04 18
44.118999 -1.543 -1.9680001 53
44.441002 -1.499 -1.905 68
44.522999 -1.447 -1.831 53
44.923 -1.405 -1.7690001 42
45.205002 -1.359 -1.702 56
45.473999 -1.3099999 -1.631 47
45.634998 -1.26 -1.557 26
45.626999 -1.204 -1.476 21
45.627998 -1.151 -1.398 29
45.630001 -1.096 -1.317 28
45.627998 -1.041 -1.2359999 13
0 0 0 52
68.342003 -1.398 -1.607 75
68.311996 -1.318 -1.4859999 55
0 0 0 0
0 0 0 134
0 0 0 0
0 0 0 124
74.713997 -1.007 -0.94999999 26
74.735001 -0.92400002 -0.81900001 35
74.640999 -0.838 -0.68199998 61
74.630997 -0.75400001 -0.546 76
74.643997 -0.67000002 -0.41 85
74.674004 -0.58600003 -0.27200001 49
74.682999 -0.50400001 -0.138 23
0 0 0 15
0 0 0 21
0 0 0 21
87.471001 -0.20900001 0.47600001 21
87.015999 -0.112 0.63800001 24
85.458 -0.017999999 0.78399998 37
85.518997 0.071000002 0.94099998 43
85.774002 0.162 1.102 18
88.504997 0.26100001 1.302 16
0 0 0 0
0 0 0 19
85.481003 0.51899999 1.734 30
84.223 0.597 1.863 21
0 0 0 0
0 0 0 0
0 0 0 0
0 0 0 0
0 0 0 0
0 0 0 0
0 0 0 36
121.94 1.8279999 4.507 90
121.688 1.941 4.723 104
121.633 2.056 4.9499998 93
121.619 2.1719999 5.178 94
121.653 2.2880001 5.4120002 104
121.649 2.401 5.6370001 93
121.678 2.5150001 5.868 80
121.721 2.628 6.099 54
121.859 2.7420001 6.3319998 36
121.835 2.852 6.5609999 34
121.849 2.961 6.7880001 36
121.8 3.0669999 7.013 40
121.845 3.1760001 7.2449999 40
121.762 3.283 7.473 41
121.878 3.3929999 7.71 45
121.831 3.493 7.9310002 28
121.804 3.596 8.1560001 38
121.765 3.6989999 8.3830004 42
121.682 3.7980001 8.6040001 53
121.67 3.8989999 8.8330002 29
0 0 0 0
0 0 0 0
0 0 0 0
0 0 0 0
0 0 0 0
0 0 0 36
121.774 4.592 10.451 25
121.682 4.6830001 10.672 64
121.624 4.7740002 10.893 100
121.628 4.8660002 11.122 98
121.597 4.9569998 11.348 85
121.625 5.046 11.576 82
0 0 0 0
0 0 0 82
119.126 5.1999998 12.003 69
119.097 5.2870002 12.226 46
119.158 5.3740001 12.455 23
0 0 0 0
0 0 0 45
119.525 5.638 13.159 42
119.43 5.7150002 13.371 36
119.436 5.7950001 13.594 35
119.458 5.875 13.815 32
119.346 5.948 14.027 28
119.481 6.0320001 14.264 30
119.45 6.1059999 14.478 35
119.513 6.1849999 14.707 32
119.357 6.2509999 14.908 34
119.208 6.3169999 15.109 55
119.146 6.3889999 15.322 57
119.103 6.4559999 15.533 76
119.152 6.5289998 15.755 76
119.14 6.598 15.971 72
119.138 6.6669998 16.188 54
119.113 6.7340002 16.402 44
119.29 6.8109999 16.643999 29
119.288 6.8769999 16.860001 29
119.293 6.9419999 17.077 24
119.345 7.0100002 17.299999 34
119.277 7.0700002 17.502001 35
119.366 7.1409998 17.732 31
119.403 7.2049999 17.952 32
119.264 7.2540002 18.143 28
119.37 7.3210001 18.368 35
119.304 7.3779998 18.577 34
119.342 7.4369998 18.789 32
119.294 7.4910002 18.993 40
119.215 7.5419998 19.191999 52
119.179 7.5949998 19.396 55
119.186 7.651 19.604 71
119.168 7.7030001 19.809999 63
119.176 7.757 20.02 81
119.232 7.8119998 20.237 51
119.224 7.8629999 20.443001 42
119.319 7.9190001 20.666 30
119.304 7.967 20.870001 22
119.351 8.0200005 21.08 27
119.347 8.0679998 21.281 26
0 0 0 0
0 0 0 0
0 0 0 0
0 0 0 0
0 0 0 0
0 0 0 24
119.407 8.3809996 22.704 30
119.329 8.4160004 22.888 23
119.316 8.4530001 23.079 36
119.256 8.4879999 23.264999 38
119.238 8.5279999 23.459999 57
119.262 8.5629997 23.659 67
119.229 8.5970001 23.848 59
119.221 8.6350002 24.042 63
119.171 8.6660004 24.225 55
119.256 8.7040005 24.43 34
0 0 0 0
0 0 0 0
0 0 0 0
0 0 0 0
0 0 0 0
0 0 0 0
0 0 0 0
0 0 0 0
0 0 0 0
0 0 0 0
0 0 0 0
0 0 0 25
119.739 9.1070004 26.947001 25
119.511 9.1120005 27.076 35
119.324 9.1210003 27.216999 51
119.317 9.1409998 27.393 53
119.311 9.1599998 27.568001 69
119.307 9.1809998 27.74 63
119.295 9.198 27.912001 63
119.281 9.2139997 28.082001 62
119.265 9.2279997 28.247 40
119.306 9.2469997 28.427999 35
119.35 9.2679996 28.606001 31
0 0 0 0
0 0 0 28
119.538 9.3219995 29.153 28
119.584 9.3409996 29.330999 27
0 0 0 0
0 0 0 0
0 0 0 0
0 0 0 0
0 0 0 0
0 0 0 0
0 0 0 0
0 0 0 0
0 0 0 0
0 0 0 0
0 0 0 26
119.458 9.4200001 31.195999 42
119.426 9.4200001 31.339001 50
119.416 9.4230003 31.483 52
119.434 9.4250002 31.636 67
119.415 9.4280005 31.778999 69
119.416 9.427 31.924999 56
119.398 9.4209995 32.063999 58
119.437 9.4219999 32.217999 56
119.439 9.4200001 32.361 46
119.422 9.415 32.497002 33
119.561 9.4219999 32.674 29
119.565 9.4180002 32.813 26
119.591 9.4169998 32.955002 28
119.634 9.415 33.102001 27
119.679 9.4110003 33.249001 26
119.604 9.3979998 33.361 27
119.637 9.3950005 33.5 27
0 0 0 0
0 0 0 0
0 0 0 0
0 0 0 0
0 0 0 0
0 0 0 0
0 0 0 0
0 0 0 0
0 0 0 0
0 0 0 0
0 0 0 0
0 0 0 27
119.784 9.2480001 35.122002 32
119.723 9.2259998 35.216 35
119.659 9.2069998 35.308998 43
119.622 9.1859999 35.405998 50
119.607 9.1660004 35.508999 51
119.524 9.1389999 35.588001 69
119.572 9.1260004 35.707001 57
119.594 9.1040001 35.816002 62
119.567 9.0839996 35.91 57
119.568 9.0620003 36.009998 57
119.632 9.0469999 36.125 60
119.603 9.0220003 36.213001 59
119.547 8.9919996 36.293999 61
119.606 8.9709997 36.403 63
119.598 8.9460001 36.493 70
119.655 8.9239998 36.601002 77
119.588 8.8970003 36.669998 68
119.612 8.8730001 36.764999 75
119.564 8.8409996 36.834 71
119.576 8.8179998 36.923 94
119.63 8.7939997 37.021999 76
119.667 8.7679996 37.115002 79
119.643 8.7329998 37.187 74
119.663 8.7049999 37.271999 84
119.63 8.6750002 37.335999 74
119.634 8.6450005 37.412998 74
119.615 8.6160002 37.48 67
119.684 8.5889997 37.574001 73
119.646 8.5539999 37.632 67
119.615 8.5179996 37.688999 59
119.619 8.4890003 37.757 48
119.61 8.4540005 37.82 48
119.678 8.4239998 37.903999 34
119.728 8.3929996 37.981998 30
119.528 8.3430004 37.978001 25
0 0 0 0
0 0 0 0
0 0 0 0
0 0 0 24
120.032 8.1969995 38.416 34
120.07 8.165 38.477001 30
0 0 0 0
0 0 0 0
0 0 0 25
119.988 8.0010004 38.638 26
119.941 7.9569998 38.665001 27
119.953 7.9169998 38.709999 31
119.859 7.8699999 38.717999 37
119.875 7.8319998 38.759998 43
119.851 7.7880001 38.787998 48
119.844 7.7449999 38.819 44
119.861 7.7059999 38.855999 55
119.886 7.664 38.895 57
119.877 7.619 38.921001 63
119.838 7.572 38.935001 70
119.827 7.527 38.957001 66
119.863 7.4840002 38.993 76
119.882 7.4429998 39.02 72
119.835 7.3940001 39.026001 62
119.852 7.349 39.049999 62
119.879 7.3070002 39.075001 61
119.873 7.2600002 39.089001 69
119.861 7.2119999 39.098 73
119.826 7.165 39.098 64
119.856 7.119 39.118 61
119.818 7.0640001 39.115002 70
119.843 7.02 39.130001 63
119.877 6.973 39.146 72
119.854 6.9219999 39.141998 63
119.874 6.8730001 39.150002 65
119.84 6.8249998 39.139 77
119.895 6.777 39.154999 69
119.913 6.7309999 39.157001 69
119.857 6.6760001 39.133999 67
119.908 6.6269999 39.144001 60
119.856 6.573 39.118999 61
119.926 6.5279999 39.131001 69
119.904 6.474 39.112999 60
119.897 6.421 39.097 66
119.954 6.3709998 39.099998 68
119.918 6.3189998 39.070999 63
119.896 6.2649999 39.044998 67
119.902 6.211 39.027 70
119.964 6.1599998 39.025002 66
120 6.1069999 39.013 64
120.005 6.0560002 38.988998 78
119.99 6.0009999 38.957001 67
120.028 5.9439998 38.942001 61
120.018 5.8909998 38.908001 64
120.015 5.835 38.874001 59
120.044 5.7810001 38.849998 71
120.011 5.723 38.804001 59
120.072 5.6729999 38.785999 69
120.114 5.618 38.759998 89
120.113 5.5609999 38.719002 74
120.162 5.5100002 38.693001 66
120.152 5.4520001 38.645 72
120.186 5.3959999 38.610001 77
120.235 5.3400002 38.577999 72
120.215 5.2849998 38.522999 74
120.232 5.2280002 38.478001 66
120.257 5.1700001 38.432999 80
120.27 5.112 38.382999 73
120.252 5.0560002 38.320999 78
120.28 4.9990001 38.272999 73
120.222 4.9369998 38.195 81
120.271 4.8800001 38.151001 77
120.24 4.8200002 38.078999 72
120.191 4.7620001 37.999001 81
120.124 4.6999998 37.911999 76
120.163 4.6409998 37.856998 76
120.026 4.5760002 37.744999 57
120.017 4.5159998 37.671001 57
119.978 4.4580002 37.584999 55
120.016 4.3990002 37.522999 58
119.993 4.3379998 37.439999 63
120.026 4.2789998 37.373001 32
0 0 0 0
0 0 0 0
0 0 0 0
0 0 0 0
0 0 0 30
122.52 3.997 37.639999 40
122.474 3.934 37.535999 51
122.547 3.8740001 37.466 63
122.581 3.813 37.382 68
122.559 3.75 37.279999 76
122.552 3.691 37.181999 74
122.536 3.6289999 37.077999 78
122.59 3.5680001 36.993999 85
122.557 3.5079999 36.882999 73
122.587 3.4430001 36.786999 76
122.591 3.385 36.685001 72
122.586 3.325 36.574001 72
122.594 3.263 36.467999 70
122.612 3.198 36.362 79
122.611 3.1389999 36.251999 73
122.639 3.0780001 36.146999 63
122.603 3.0150001 36.021 59
122.613 2.9530001 35.908001 60
122.625 2.891 35.792999 57
122.592 2.8280001 35.664001 53
122.616 2.77 35.551998 48
122.616 2.7079999 35.429001 59
122.61 2.6459999 35.303001 56
122.589 2.5840001 35.172001 44
122.625 2.523 35.055 39
122.72 2.467 34.955002 35
122.951 2.4100001 34.889999 27
0 0 0 0
0 0 0 0
0 0 0 0
0 0 0 0
0 0 0 0
0 0 0 0
0 0 0 0
0 0 0 0
0 0 0 0
0 0 0 0
0 0 0 0
0 0 0 0
0 0 0 0
0 0 0 0
0 0 0 0
0 0 0 27
122.849 1.393 32.429001 27
122.843 1.334 32.271999 30
122.583 1.273 32.046001 31
122.559 1.2180001 31.878 46
122.624 1.158 31.737 64
122.64 1.1 31.58 58
122.601 1.046 31.409 62
122.607 0.98900002 31.246 62
122.601 0.93199998 31.079 64
122.628 0.87900001 30.921 70
122.635 0.82200003 30.754 72
122.667 0.76999998 30.594999 59
122.675 0.71399999 30.426001 42
0 0 0 0
0 0 0 0
0 0 0 0
0 0 0 32
128.51601 0.465 30.966 70
128.728 0.40900001 30.83 74
128.733 0.35600001 30.645 71
128.761 0.30000001 30.462 44
0 0 0 0
0 0 0 0
0 0 0 31
134.646 0.088 31.048 55
134.802 0.032000002 30.879 55
0 0 0 0
0 0 0 62
136.993 -0.13600001 30.752001 84
137.015 -0.191 30.542 85
137.067 -0.243 30.341 58
137.121 -0.29499999 30.139 34
0 0 0 0
0 0 0 35
142.80901 -0.47499999 30.704 63
142.85001 -0.52999997 30.481001 66
143.062 -0.58499998 30.292999 44
0 0 0 0
0 0 0 0
0 0 0 0
0 0 0 0
0 0 0 0
0 0 0 44
151.297 -1.002 30.285999 60
151.429 -1.053 30.059 40
153.993 -1.1210001 30.302 60
