# .PCD v0.7 - Point Cloud Data file format
VERSION 0.7
FIELDS x y z intensity
SIZE 4 4 4 4
TYPE F F F F
COUNT 1 1 1 1
WIDTH 1810
HEIGHT 1
VIEWPOINT 0 0 0 1 0 0 0
POINTS 1810
DATA ascii
4.427 1.102 -0.61699998 3
4.4229999 1.107 -0.61799997 3
4.434 1.115 -0.62 3
4.3940001 1.11 -0.61500001 4
4.4050002 1.118 -0.61699998 3
4.4029999 1.123 -0.61799997 3
4.3990002 1.127 -0.61799997 3
4.3860002 1.1289999 -0.61699998 4
4.388 1.1339999 -0.61799997 3
4.3829999 1.138 -0.61699998 3
4.3699999 1.14 -0.616 3
4.3730001 1.145 -0.61699998 3
4.3759999 1.151 -0.61799997 3
4.3730001 1.154 -0.61799997 4
4.3639998 1.1569999 -0.61699998 3
4.3590002 1.16 -0.616 3
4.3400002 1.16 -0.61400002 3
4.3429999 1.165 -0.61500001 3
4.3249998 1.165 -0.61299998 3
4.309 1.165 -0.611 4
4.3150001 1.171 -0.61199999 3
4.302 1.1720001 -0.61000001 4
4.2989998 1.175 -0.61000001 4
4.2919998 1.178 -0.60900003 3
4.2859998 1.1799999 -0.60799998 3
4.2820001 1.183 -0.60799998 4
4.2719998 1.1849999 -0.60600001 3
4.2779999 1.1900001 -0.60699999 3
4.2919998 1.198 -0.60900003 3
4.2870002 1.201 -0.60799998 3
4.2729998 1.201 -0.60600001 3
4.29 1.209 -0.60799998 3
4.289 1.2130001 -0.60799998 3
4.296 1.2180001 -0.60900003 3
4.2940001 1.222 -0.60799998 3
4.2979999 1.227 -0.60900003 3
4.302 1.2309999 -0.60900003 2
4.3099999 1.237 -0.61000001 3
4.3150001 1.242 -0.61000001 3
4.3249998 1.249 -0.611 3
4.3249998 1.252 -0.611 2
4.3189998 1.253 -0.61000001 4
4.329 1.26 -0.611 2
4.3330002 1.2640001 -0.611 2
4.3499999 1.272 -0.61299998 2
4.3330002 1.27 -0.61000001 4
4.3379998 1.275 -0.61000001 4
4.3410001 1.279 -0.61000001 4
4.3540001 1.286 -0.611 4
4.369 1.293 -0.61299998 2
4.3629999 1.294 -0.611 4
4.3730001 1.3 -0.61199999 4
4.3860002 1.307 -0.61299998 2
4.3959999 1.313 -0.61400002 2
4.402 1.317 -0.61400002 2
4.4089999 1.322 -0.61400002 2
4.4070001 1.324 -0.61299998 3
4.415 1.329 -0.61299998 4
4.421 1.3329999 -0.61299998 4
4.428 1.3380001 -0.61299998 4
4.4200001 1.3380001 -0.611 4
4.4499998 1.349 -0.61400002 2
4.4499998 1.352 -0.61299998 2
4.4720001 1.36 -0.61500001 2
4.4679999 1.3609999 -0.61400002 4
4.4780002 1.367 -0.61400002 4
4.4840002 1.37 -0.61299998 4
4.5040002 1.3789999 -0.61500001 4
4.52 1.385 -0.616 2
4.5359998 1.392 -0.61699998 2
4.5469999 1.397 -0.61699998 2
4.5479999 1.4 -0.616 2
4.5539999 1.403 -0.616 4
4.5809999 1.413 -0.61799997 4
4.586 1.416 -0.61699998 3
4.598 1.4220001 -0.61799997 3
4.6170001 1.429 -0.61900002 3
4.619 1.431 -0.61799997 3
4.6490002 1.442 -0.62 2
4.6300001 1.437 -0.616 3
4.6659999 1.45 -0.62 3
4.6789999 1.455 -0.62 3
4.7030001 1.4630001 -0.62099999 2
4.7069998 1.466 -0.62 2
4.717 1.47 -0.62 3
4.7379999 1.477 -0.62099999 3
4.7579999 1.485 -0.62199998 2
4.7719998 1.49 -0.62199998 3
4.776 1.492 -0.62099999 3
4.8099999 1.503 -0.62400001 3
4.822 1.508 -0.62300003 2
4.8309999 1.511 -0.62300003 2
4.8600001 1.521 -0.62400001 3
4.8660002 1.523 -0.62300003 3
4.8790002 1.528 -0.62300003 3
4.9029999 1.535 -0.62400001 3
4.9260001 1.543 -0.625 3
4.9520001 1.552 -0.62599999 3
4.9689999 1.557 -0.62599999 3
5.0009999 1.567 -0.62800002 3
5.007 1.569 -0.62699997 3
5.04 1.579 -0.62900001 2
5.0679998 1.5880001 -0.63 2
5.0910001 1.595 -0.63099998 2
5.1009998 1.598 -0.63 2
5.138 1.609 -0.63200003 3
5.1609998 1.6160001 -0.63200003 3
5.1789999 1.6210001 -0.63200003 3
5.2119999 1.631 -0.634 3
5.2350001 1.637 -0.634 3
5.2550001 1.643 -0.634 3
5.2789998 1.65 -0.634 3
5.3169999 1.66 -0.63700002 3
5.3520002 1.67 -0.63800001 3
5.381 1.679 -0.639 3
5.4060001 1.6849999 -0.639 3
5.4260001 1.6900001 -0.639 3
5.474 1.704 -0.64200002 3
5.4910002 1.7079999 -0.64099997 3
5.5339999 1.72 -0.64300001 2
5.5700002 1.729 -0.64499998 3
5.6100001 1.74 -0.64600003 3
5.6459999 1.75 -0.648 3
5.6799998 1.7589999 -0.64899999 2
5.704 1.7640001 -0.648 2
5.7470002 1.775 -0.64999998 3
5.7719998 1.781 -0.64999998 2
5.8200002 1.794 -0.65200001 3
5.8590002 1.804 -0.653 3
5.901 1.814 -0.65499997 3
5.941 1.824 -0.65600002 3
5.9920001 1.837 -0.65799999 3
6.026 1.845 -0.65899998 3
6.066 1.854 -0.66000003 3
6.1230001 1.869 -0.662 3
6.1490002 1.874 -0.662 3
6.2030001 1.887 -0.66399997 3
6.263 1.902 -0.667 3
6.302 1.911 -0.667 3
6.3540001 1.923 -0.66900003 3
6.4229999 1.941 -0.67299998 3
6.4569998 1.947 -0.67199999 3
6.5110002 1.96 -0.67400002 3
6.5549998 1.969 -0.67500001 3
6.618 1.984 -0.67799997 4
6.6430001 1.988 -0.676 3
6.704 2.0020001 -0.67900002 3
6.7410002 2.0079999 -0.67799997 3
6.8039999 2.023 -0.68000001 3
6.8850002 2.0420001 -0.68400002 4
6.934 2.052 -0.685 3
6.993 2.0650001 -0.68699998 3
7.0900002 2.0880001 -0.69199997 4
7.1399999 2.098 -0.69199997 3
7.2280002 2.119 -0.69599998 4
7.3039999 2.135 -0.699 4
7.375 2.151 -0.70200002 4
7.4679999 2.1719999 -0.70599997 5
7.5229998 2.1819999 -0.70599997 4
7.6139998 2.2030001 -0.70999998 4
7.684 2.217 -0.71200001 5
7.803 2.244 -0.71799999 4
7.8959999 2.2639999 -0.72100002 5
7.9899998 2.2839999 -0.72500002 5
8.0679998 2.3 -0.727 5
8.1730003 2.323 -0.73100001 4
8.257 2.339 -0.73400003 5
8.3559999 2.3599999 -0.73699999 5
8.427 2.372 -0.73799998 4
8.5349998 2.395 -0.74199998 4
8.6280003 2.4119999 -0.74400002 4
8.7290001 2.4330001 -0.74800003 4
8.8000002 2.444 -0.74800003 5
8.9119997 2.4660001 -0.75199997 4
9.0159998 2.4860001 -0.755 4
9.1120005 2.5039999 -0.75700003 4
9.2040005 2.5190001 -0.75800002 5
9.3140001 2.54 -0.76099998 5
9.4329996 2.562 -0.76499999 5
9.5019999 2.5710001 -0.764 7
9.6049995 2.589 -0.76700002 6
9.6660004 2.595 -0.76499999 8
9.7609997 2.6099999 -0.76599997 7
9.8730001 2.6289999 -0.76899999 5
10.006 2.654 -0.77200001 4
10.13 2.675 -0.77499998 4
10.28 2.7030001 -0.77999997 4
10.401 2.723 -0.78299999 2
10.58 2.7579999 -0.78899997 3
10.719 2.7820001 -0.79299998 3
10.868 2.8069999 -0.79699999 3
11.006 2.8299999 -0.80000001 3
11.152 2.8540001 -0.80299997 3
11.319 2.8829999 -0.80800003 2
11.472 2.908 -0.81099999 4
11.645 2.937 -0.81599998 3
11.807 2.9630001 -0.81900001 4
11.995 2.9949999 -0.824 5
12.143 3.017 -0.82700002 5
12.317 3.0450001 -0.83099997 5
12.481 3.069 -0.83399999 6
12.593 3.0799999 -0.833 5
12.755 3.1029999 -0.83600003 3
12.937 3.1300001 -0.83899999 3
13.122 3.1570001 -0.84299999 3
13.308 3.184 -0.84600002 3
13.49 3.21 -0.84899998 4
13.779 3.2590001 -0.85799998 4
14.128 3.322 -0.87099999 4
14.33 3.3499999 -0.87400001 4
14.471 3.362 -0.87400001 4
14.662 3.3859999 -0.87599999 4
14.797 3.3970001 -0.875 4
14.459 3.2980001 -0.84500003 4
14.634 3.3169999 -0.847 4
14.766 3.326 -0.84500003 4
15.085 3.375 -0.85299999 4
15.212 3.381 -0.85100001 4
15.543 3.4319999 -0.86000001 5
15.684 3.4400001 -0.85799998 5
15.785 3.438 -0.85399997 5
0 0 0 0
0 0 0 3
17.285 3.6860001 -0.903 3
17.537001 3.7119999 -0.90499997 1
18.212 3.826 -0.92900002 1
18.32 3.8199999 -0.92299998 3
0 0 0 0
0 0 0 2
21.094 4.2989998 -1.025 2
21.437 4.336 -1.029 2
21.837 4.382 -1.035 2
0 0 0 0
0 0 0 0
0 0 0 1
0 0 0 0
0 0 0 1
0 0 0 2
28.308001 5.355 -1.227 2
0 0 0 0
0 0 0 3
30.972 5.7020001 -1.29 1
30.872 5.631 -1.268 4
31.091999 5.618 -1.26 4
30.775 5.5079999 -1.23 1
30.611 5.4260001 -1.207 4
30.618 5.3730001 -1.189 16
30.59 5.3150001 -1.1720001 77
30.580999 5.2600002 -1.155 34
30.818001 5.2459998 -1.148 10
30.659 5.165 -1.126 19
30.582001 5.098 -1.107 64
30.621 5.0500002 -1.092 28
30.591 4.9899998 -1.075 74
30.613001 4.9380002 -1.0599999 4
30.782 4.9099998 -1.05 6
30.665001 4.836 -1.031 22
30.610001 4.7709999 -1.013 23
30.628 4.7179999 -0.99800003 10
30.716999 4.6739998 -0.986 6
30.778 4.6269999 -0.97299999 34
30.853001 4.5809999 -0.95999998 32
30.896999 4.5300002 -0.94700003 10
30.969 4.4819999 -0.93400002 4
31.02 4.4320002 -0.92199999 1
0 0 0 0
0 0 0 58
31.628 4.3410001 -0.89600003 60
0 0 0 20
35.939999 4.7950001 -0.98500001 14
36.047001 4.7410002 -0.97299999 9
36.162998 4.6869998 -0.95999998 2
0 0 0 68
48.243999 6.0679998 -1.239 39
48.252998 5.9749999 -1.219 39
48.264999 5.8839998 -1.2 37
48.224998 5.7849998 -1.179 61
48.249001 5.6929998 -1.16 53
48.233002 5.5970001 -1.14 131
48.25 5.5040002 -1.1210001 86
0 0 0 2
39.757 4.3779998 -0.89300001 12
39.668999 4.2909999 -0.87599999 14
39.595001 4.204 -0.86000001 16
39.539001 4.119 -0.84399998 18
39.490002 4.0359998 -0.829 24
39.431999 3.951 -0.81400001 23
39.368 3.865 -0.79799998 24
39.292999 3.779 -0.78299999 24
39.244999 3.6949999 -0.76899999 24
39.159 3.609 -0.755 17
39.084 3.5239999 -0.74000001 16
39.013 3.4389999 -0.727 16
38.973999 3.355 -0.71399999 14
38.907001 3.2709999 -0.69999999 13
38.859001 3.188 -0.68800002 14
38.764 3.1010001 -0.67500001 14
38.709 3.017 -0.662 12
38.667999 2.9360001 -0.65100002 11
38.605999 2.8510001 -0.639 10
38.532001 2.766 -0.62699997 10
38.477001 2.684 -0.61699998 10
38.451 2.602 -0.60600001 10
38.412998 2.52 -0.59600002 9
38.313999 2.434 -0.58499998 9
38.294998 2.3529999 -0.57499999 7
38.187 2.266 -0.565 7
38.155998 2.1849999 -0.55500001 5
38.101002 2.1029999 -0.546 4
38.074001 2.0209999 -0.53799999 4
38.035999 1.941 -0.52999997 24
38 1.859 -0.52100003 42
37.953999 1.777 -0.51300001 41
37.908001 1.696 -0.50599998 33
37.875999 1.615 -0.49900001 17
37.842999 1.533 -0.491 11
37.796001 1.451 -0.484 7
37.765999 1.37 -0.47799999 6
37.812 1.293 -0.47299999 4
37.785999 1.212 -0.46700001 5
37.995998 1.1390001 -0.46399999 4
38.152 1.062 -0.461 4
38.388 0.98699999 -0.45899999 3
38.490002 0.90799999 -0.456 4
0 0 0 30
0 0 0 0
0 0 0 0
0 0 0 0
0 0 0 0
0 0 0 44
0 0 0 0
0 0 0 0
0 0 0 29
0 0 0 0
0 0 0 0
0 0 0 104
133.304 -0.56 -1.454 30
0 0 0 0
0 0 0 0
0 0 0 0
0 0 0 105
69.272003 -1.034 -0.75199997 49
66.363998 -1.133 -0.722 36
66.060997 -1.272 -0.71899998 74
66.072998 -1.4119999 -0.72100002 97
66.028 -1.553 -0.72299999 115
66.089996 -1.696 -0.72600001 37
0 0 0 0
0 0 0 101
58.008999 -1.862 -0.64700001 108
0 0 0 33
43.903999 -1.596 -0.495 38
43.847 -1.688 -0.498 14
43.338001 -1.761 -0.49599999 21
43.192001 -1.846 -0.49900001 29
43.136002 -1.936 -0.50199997 39
42.806999 -2.013 -0.50300002 21
43.418999 -2.135 -0.51599997 17
43.035 -2.2079999 -0.51599997 28
42.271999 -2.2590001 -0.51300001 37
41.658001 -2.3139999 -0.51099998 42
41.540001 -2.3959999 -0.51499999 36
41.705002 -2.494 -0.523 34
41.997002 -2.599 -0.53399998 32
0 0 0 20
36.577 -2.4189999 -0.477 60
36.630001 -2.5009999 -0.484 75
36.664001 -2.5810001 -0.491 70
36.865002 -2.6730001 -0.50099999 12
36.966 -2.757 -0.509 11
37.537998 -2.8789999 -0.52499998 21
37.715 -2.9719999 -0.53500003 18
0 0 0 1
0 0 0 0
0 0 0 0
0 0 0 0
0 0 0 3
0 0 0 0
0 0 0 1
19.004 -1.816 -0.30599999 1
18.77 -1.8329999 -0.30700001 1
18.781 -1.873 -0.31200001 3
18.541 -1.887 -0.31400001 1
0 0 0 25
0 0 0 25
0 0 0 25
0 0 0 1
17.907 -2.007 -0.329 1
17.931999 -2.0469999 -0.336 1
17.895 -2.079 -0.34099999 1
0 0 0 25
0 0 0 25
0 0 0 25
0 0 0 0
0 0 0 0
0 0 0 0
0 0 0 0
0 0 0 1
17.641001 -2.3710001 -0.39199999 1
17.667 -2.4100001 -0.39899999 1
17.652 -2.4430001 -0.40599999 1
17.702 -2.4849999 -0.414 1
17.731001 -2.5239999 -0.421 12
17.691999 -2.5539999 -0.428 8
17.666 -2.5840001 -0.43399999 14
17.646 -2.6170001 -0.44100001 161
17.615 -2.6459999 -0.44800001 166
17.607 -2.6800001 -0.45500001 172
17.598 -2.7119999 -0.46200001 172
17.598 -2.747 -0.47 188
17.611 -2.783 -0.47799999 188
17.604 -2.816 -0.486 188
17.610001 -2.8499999 -0.493 188
17.638 -2.8889999 -0.50199997 188
17.613001 -2.918 -0.50999999 188
17.645 -2.957 -0.51899999 188
17.625999 -2.9879999 -0.52700001 188
17.624001 -3.0209999 -0.53500003 188
17.563999 -3.0439999 -0.54100001 60
17.660999 -3.0940001 -0.55299997 1
17.603001 -3.1159999 -0.55900002 1
17.701 -3.1670001 -0.57099998 1
17.635 -3.188 -0.57800001 1
17.695 -3.2320001 -0.58899999 1
17.705999 -3.266 -0.59799999 1
17.663 -3.2909999 -0.60500002 1
17.620001 -3.3150001 -0.61299998 1
17.660999 -3.355 -0.62400001 1
17.777 -3.4089999 -0.63700002 1
17.768 -3.4400001 -0.64600003 1
17.820999 -3.4820001 -0.65700001 1
17.834999 -3.517 -0.667 1
17.905001 -3.563 -0.68000001 1
17.940001 -3.602 -0.69099998 1
0 0 0 33
20.408001 -4.1690001 -0.80800003 35
20.427999 -4.2090001 -0.81999999 47
20.43 -4.2459998 -0.83099997 63
20.443001 -4.2849998 -0.84399998 37
20.443001 -4.3200002 -0.85500002 4
0 0 0 28
34.125 -7.329 -1.466 39
33.778 -7.3119998 -1.471 20
33.577999 -7.3239999 -1.4809999 8
33.841 -7.4390001 -1.513 12
33.903999 -7.5089998 -1.535 13
0 0 0 1
18.257 -4.105 -0.847 16
18.179001 -4.1170001 -0.85500002 20
18.128 -4.1350002 -0.86299998 26
18.070999 -4.1529999 -0.87099999 30
18.037001 -4.1739998 -0.88 29
18.007 -4.1960001 -0.88999999 35
17.987 -4.2210002 -0.89899999 35
17.958 -4.2420001 -0.90899998 27
17.927 -4.2639999 -0.91799998 40
17.929001 -4.2930002 -0.92900002 31
17.893 -4.3119998 -0.93900001 46
17.886999 -4.3390002 -0.949 47
17.864 -4.3610001 -0.95899999 50
17.860001 -4.3870001 -0.97000003 36
17.841 -4.4099998 -0.98000002 51
17.83 -4.434 -0.99000001 57
17.83 -4.461 -1.001 57
17.833 -4.4889998 -1.013 36
17.806 -4.5100002 -1.023 36
0 0 0 5
16.268 -4.1680002 -0.95499998 8
16.202 -4.1750002 -0.96100003 9
16.122999 -4.177 -0.96700001 9
16.033001 -4.177 -0.97100002 10
15.981 -4.1869998 -0.97799999 9
15.904 -4.1890001 -0.98400003 9
15.822 -4.1900001 -0.98900002 11
15.761 -4.1960001 -0.995 10
15.695 -4.1999998 -1.001 9
15.62 -4.2020001 -1.007 8
15.541 -4.2020001 -1.012 9
15.454 -4.1989999 -1.016 10
15.373 -4.198 -1.02 18
15.379 -4.2199998 -1.031 24
15.332 -4.2270002 -1.0369999 22
15.258 -4.2270002 -1.0420001 16
14.407 -4.0100002 -0.99400002 13
14.116 -3.947 -0.98299998 7
13.667 -3.839 -0.95999998 3
14.084 -3.974 -0.99900001 2
13.726 -3.8900001 -0.98299998 2
13.449 -3.829 -0.972 2
13.209 -3.777 -0.96200001 3
12.999 -3.7320001 -0.95599997 3
12.824 -3.697 -0.95099998 3
12.608 -3.6500001 -0.94300002 3
12.437 -3.615 -0.93900001 3
12.29 -3.5869999 -0.935 3
12.12 -3.552 -0.93000001 3
11.981 -3.5250001 -0.92699999 3
11.796 -3.484 -0.921 3
11.617 -3.444 -0.91399997 2
11.421 -3.398 -0.90600002 2
11.291 -3.372 -0.903 2
11.136 -3.3380001 -0.898 2
10.977 -3.302 -0.89200002 2
10.843 -3.2739999 -0.889 2
10.713 -3.2460001 -0.88499999 2
10.554 -3.2090001 -0.87900001 3
10.414 -3.177 -0.87400001 3
10.302 -3.1530001 -0.87099999 3
10.169 -3.122 -0.866 4
10.04 -3.0929999 -0.861 3
9.927 -3.0669999 -0.85799998 3
9.8140001 -3.0420001 -0.85500002 4
9.7139997 -3.02 -0.852 3
9.5939999 -2.9920001 -0.84799999 3
9.4659996 -2.961 -0.84299999 3
9.349 -2.9330001 -0.838 3
9.2410002 -2.9070001 -0.83399999 3
9.1529999 -2.888 -0.83200002 3
9.0200005 -2.8540001 -0.82499999 3
8.9289999 -2.8329999 -0.82300001 3
8.8039999 -2.8010001 -0.81699997 4
8.7320004 -2.7850001 -0.81599998 4
8.6470003 -2.7650001 -0.81300002 4
8.5620003 -2.7449999 -0.81 4
8.46 -2.7190001 -0.80599999 4
8.3929996 -2.704 -0.80500001 4
8.309 -2.6830001 -0.80199999 5
8.2080002 -2.6570001 -0.79699999 4
8.1389999 -2.641 -0.79500002 4
8.0509996 -2.618 -0.79100001 5
7.9520001 -2.5910001 -0.787 9
7.8889999 -2.576 -0.78500003 8
7.8010001 -2.553 -0.78100002 12
7.7519999 -2.5420001 -0.78100002 9
7.677 -2.523 -0.778 13
7.6220002 -2.51 -0.77700001 13
7.5640001 -2.4949999 -0.77499998 14
7.5159998 -2.484 -0.77499998 14
7.4559999 -2.4690001 -0.773 14
7.4180002 -2.46 -0.773 14
7.3740001 -2.45 -0.773 13
7.335 -2.441 -0.773 13
7.2800002 -2.427 -0.77100003 12
7.224 -2.4119999 -0.76999998 11
7.178 -2.401 -0.76899999 9
7.1220002 -2.3859999 -0.76700002 9
7.0570002 -2.3670001 -0.764 7
6.9819999 -2.346 -0.75999999 6
6.921 -2.3280001 -0.75700003 5
6.842 -2.3050001 -0.75199997 4
6.7870002 -2.29 -0.75 4
6.743 -2.277 -0.74800003 4
6.698 -2.2650001 -0.74699998 5
6.6500001 -2.2509999 -0.745 5
6.6139998 -2.2420001 -0.745 5
6.5689998 -2.2290001 -0.74299997 5
6.5110002 -2.2119999 -0.74000001 5
6.4660001 -2.1989999 -0.73799998 5
6.427 -2.188 -0.73699999 5
6.3909998 -2.177 -0.736 6
6.3499999 -2.165 -0.73500001 5
6.3109999 -2.154 -0.73299998 6
6.2519999 -2.135 -0.73000002 5
6.217 -2.125 -0.72899997 4
6.184 -2.115 -0.72799999 6
6.1370001 -2.1010001 -0.72500002 5
6.0949998 -2.0869999 -0.72299999 5
6.0489998 -2.073 -0.72100002 5
6.0229998 -2.0650001 -0.72100002 5
5.9879999 -2.0539999 -0.71899998 5
5.9510002 -2.0420001 -0.71799999 5
5.9250002 -2.0339999 -0.71700001 5
5.8860002 -2.0220001 -0.71499997 5
5.849 -2.0090001 -0.713 4
5.8169999 -1.999 -0.71200001 4
5.8000002 -1.994 -0.713 4
5.756 -1.979 -0.70999998 4
5.7340002 -1.972 -0.70999998 4
5.697 -1.96 -0.70700002 4
5.671 -1.951 -0.70700002 4
5.6490002 -1.943 -0.70599997 4
5.6110001 -1.9299999 -0.704 4
5.5770001 -1.918 -0.70200002 3
5.5710001 -1.916 -0.704 4
5.533 -1.903 -0.70099998 3
5.513 -1.896 -0.70099998 3
5.4720001 -1.881 -0.69800001 3
5.46 -1.877 -0.69800001 3
5.4169998 -1.8609999 -0.69499999 3
5.4109998 -1.859 -0.69599998 3
5.3769999 -1.846 -0.69400001 3
5.3569999 -1.839 -0.69300002 3
5.3439999 -1.8329999 -0.69300002 4
5.3099999 -1.821 -0.69099998 3
5.2839999 -1.811 -0.69 3
5.27 -1.8049999 -0.69 3
5.2639999 -1.802 -0.69099998 3
5.23 -1.789 -0.68800002 4
5.2179999 -1.784 -0.68800002 3
5.204 -1.778 -0.68800002 4
5.1810002 -1.768 -0.68599999 4
5.1599998 -1.76 -0.685 4
5.1500001 -1.755 -0.68599999 4
5.1240001 -1.744 -0.68400002 3
5.112 -1.739 -0.68400002 3
5.0960002 -1.732 -0.68300003 3
5.0780001 -1.724 -0.68199998 3
5.0760002 -1.721 -0.68300003 3
5.0500002 -1.711 -0.68099999 3
5.0489998 -1.7079999 -0.68199998 3
5.0209999 -1.697 -0.68000001 3
5.0159998 -1.693 -0.68099999 3
4.9970002 -1.684 -0.67900002 3
4.9829998 -1.677 -0.67900002 3
4.973 -1.6720001 -0.67900002 3
4.9569998 -1.664 -0.67699999 3
4.9419999 -1.6569999 -0.67699999 3
4.9260001 -1.649 -0.676 3
4.902 -1.638 -0.67299998 3
4.9060001 -1.637 -0.67500001 3
4.8990002 -1.632 -0.67500001 3
4.8870001 -1.625 -0.67500001 3
4.8670001 -1.6160001 -0.67299998 3
4.8699999 -1.614 -0.67400002 3
4.8639998 -1.609 -0.67400002 3
4.848 -1.601 -0.67299998 3
4.8379998 -1.595 -0.67199999 3
4.835 -1.591 -0.67299998 3
4.823 -1.5829999 -0.67199999 3
4.8260002 -1.581 -0.67299998 3
4.8049998 -1.571 -0.67000002 3
4.8049998 -1.568 -0.671 3
4.7989998 -1.563 -0.671 3
4.7880001 -1.5549999 -0.67000002 3
4.777 -1.549 -0.66900003 3
4.7750001 -1.544 -0.67000002 3
4.757 -1.535 -0.66799998 4
4.7620001 -1.533 -0.66900003 3
4.7610002 -1.529 -0.66900003 3
4.7579999 -1.524 -0.66900003 3
4.7490001 -1.518 -0.66799998 3
4.7350001 -1.5089999 -0.667 4
4.7579999 -1.513 -0.67000002 3
4.7379999 -1.502 -0.66799998 2
4.73 -1.4960001 -0.667 3
4.7350001 -1.493 -0.66799998 3
4.7249999 -1.4859999 -0.667 3
4.7259998 -1.482 -0.667 3
4.7210002 -1.476 -0.66600001 3
4.7059999 -1.467 -0.66500002 3
4.7059999 -1.4630001 -0.66500002 5
4.71 -1.46 -0.66500002 3
4.717 -1.4579999 -0.66600001 3
4.7069998 -1.45 -0.66500002 3
4.7020001 -1.444 -0.66399997 3
4.7090001 -1.441 -0.66500002 3
4.7210002 -1.4400001 -0.66600001 3
4.7199998 -1.4349999 -0.66600001 3
4.7199998 -1.4299999 -0.66600001 3
4.7270002 -1.428 -0.667 3
4.7119999 -1.418 -0.66500002 3
4.7080002 -1.4119999 -0.66399997 3
4.7179999 -1.41 -0.66500002 3
4.7160001 -1.405 -0.66399997 3
4.7309999 -1.404 -0.66600001 3
4.7410002 -1.402 -0.667 3
4.724 -1.391 -0.66399997 5
4.73 -1.388 -0.66500002 3
4.7340002 -1.3839999 -0.66500002 3
4.7389998 -1.38 -0.66500002 3
4.7459998 -1.377 -0.66500002 3
4.7389998 -1.369 -0.66399997 3
4.7589998 -1.369 -0.66600001 3
4.757 -1.363 -0.66500002 3
4.7529998 -1.3559999 -0.66399997 5
4.7620001 -1.353 -0.66399997 4
4.776 -1.351 -0.66500002 3
4.7849998 -1.348 -0.66600001 2
4.796 -1.345 -0.66600001 2
4.8130002 -1.344 -0.66799998 2
4.8130002 -1.3380001 -0.667 2
4.8070002 -1.33 -0.66500002 5
4.8309999 -1.331 -0.66799998 3
4.8369999 -1.326 -0.667 3
4.8379998 -1.3200001 -0.667 3
4.855 -1.319 -0.66799998 3
4.8670001 -1.3150001 -0.66799998 3
4.888 -1.3150001 -0.67000002 4
4.9060001 -1.313 -0.671 3
4.895 -1.304 -0.66799998 3
4.9250002 -1.3049999 -0.671 4
4.9180002 -1.2970001 -0.66900003 3
4.9390001 -1.295 -0.671 3
4.9499998 -1.291 -0.671 3
4.967 -1.289 -0.671 3
4.9720001 -1.283 -0.671 3
4.9860001 -1.28 -0.671 2
5.0009999 -1.277 -0.671 3
5.0209999 -1.275 -0.67199999 3
5.0419998 -1.273 -0.67400002 3
5.052 -1.268 -0.67299998 3
5.079 -1.268 -0.67500001 3
5.0949998 -1.265 -0.67500001 3
5.118 -1.263 -0.67699999 3
5.132 -1.2589999 -0.67699999 3
5.152 -1.256 -0.67699999 3
5.1669998 -1.252 -0.67699999 3
5.1810002 -1.248 -0.67699999 3
5.211 -1.247 -0.67900002 3
5.2280002 -1.243 -0.67900002 3
5.2459998 -1.24 -0.67900002 3
5.2719998 -1.238 -0.68000001 4
5.2919998 -1.234 -0.68099999 3
5.322 -1.233 -0.68199998 3
5.3400002 -1.229 -0.68199998 3
5.3649998 -1.227 -0.68300003 3
5.3979998 -1.226 -0.685 4
5.4250002 -1.224 -0.68599999 4
5.4510002 -1.221 -0.68599999 4
5.4899998 -1.221 -0.68900001 4
5.506 -1.216 -0.68800002 4
5.5209999 -1.21 -0.68699998 4
5.5619998 -1.211 -0.68900001 4
5.5949998 -1.209 -0.69099998 3
5.6389999 -1.209 -0.69300002 3
5.6500001 -1.2029999 -0.69099998 3
5.6989999 -1.204 -0.69400001 4
5.7340002 -1.202 -0.69499999 4
5.763 -1.199 -0.69599998 4
5.7969999 -1.197 -0.69700003 4
5.8330002 -1.194 -0.69800001 4
5.8730001 -1.193 -0.699 4
5.9159999 -1.192 -0.70099998 4
5.9400001 -1.187 -0.69999999 6
5.987 -1.187 -0.70200002 4
6.0240002 -1.184 -0.70300001 4
6.073 -1.184 -0.70499998 4
6.119 -1.182 -0.70599997 4
6.165 -1.181 -0.708 5
6.2179999 -1.181 -0.70999998 5
6.2659998 -1.179 -0.71100003 5
6.3330002 -1.181 -0.71499997 4
6.3870001 -1.1799999 -0.71700001 4
6.4520001 -1.181 -0.72000003 4
6.5 -1.179 -0.72100002 4
6.5479999 -1.177 -0.722 4
6.612 -1.177 -0.72399998 3
6.6550002 -1.173 -0.72399998 3
6.7340002 -1.176 -0.72799999 3
6.7909999 -1.174 -0.72899997 4
6.8579998 -1.174 -0.73199999 4
6.9330001 -1.175 -0.73500001 4
6.9980001 -1.174 -0.736 3
7.0650001 -1.173 -0.73799998 3
7.1560001 -1.175 -0.74199998 3
7.2509999 -1.178 -0.74699998 4
7.3670001 -1.184 -0.75300002 5
7.5180001 -1.1950001 -0.76200002 8
7.6139998 -1.197 -0.76599997 12
7.6989999 -1.197 -0.76899999 13
7.803 -1.2 -0.773 14
7.9109998 -1.2029999 -0.77700001 14
7.987 -1.2 -0.778 14
8.0790005 -1.2 -0.77999997 15
8.1750002 -1.199 -0.78299999 15
8.283 -1.201 -0.78600001 16
8.375 -1.199 -0.78799999 16
8.4569998 -1.196 -0.78899997 16
8.5640001 -1.196 -0.79100001 17
8.6780005 -1.197 -0.79400003 17
8.7770004 -1.1950001 -0.796 18
8.9560003 -1.2029999 -0.80400002 17
9.1009998 -1.206 -0.80900002 13
9.1759996 -1.2 -0.80699998 17
9.3459997 -1.206 -0.81400001 11
9.5120001 -1.21 -0.81999999 12
9.6949997 -1.217 -0.82700002 9
9.8190002 -1.215 -0.82800001 10
9.9610004 -1.214 -0.83099997 8
10.13 -1.217 -0.83499998 5
10.293 -1.2180001 -0.83899999 5
10.472 -1.221 -0.84299999 4
10.66 -1.224 -0.84799999 3
10.946 -1.237 -0.86000001 3
11.2 -1.2460001 -0.86900002 3
11.419 -1.25 -0.875 2
11.657 -1.255 -0.88200003 2
11.914 -1.262 -0.889 2
12.193 -1.2690001 -0.898 2
12.471 -1.276 -0.90600002 3
12.734 -1.28 -0.912 3
12.976 -1.2819999 -0.91600001 3
13.295 -1.289 -0.92500001 3
13.631 -1.298 -0.93400002 3
14.061 -1.313 -0.94800001 3
14.486 -1.327 -0.96200001 3
14.88 -1.336 -0.972 3
15.241 -1.342 -0.97899997 2
15.677 -1.352 -0.99000001 3
16.149 -1.365 -1.003 2
16.735001 -1.3839999 -1.02 2
17.370001 -1.406 -1.04 2
17.923 -1.419 -1.053 2
17.952999 -1.3890001 -1.035 2
18.499001 -1.398 -1.045 1
19.445 -1.4349999 -1.077 1
0 0 0 2
21.961 -1.544 -1.1670001 2
22.487 -1.5420001 -1.169 3
0 0 0 5
25.421 -1.653 -1.263 4
25.570999 -1.618 -1.24 2
0 0 0 0
0 0 0 0
0 0 0 6
37.483002 -2.1110001 -1.641 2
37.547001 -2.049 -1.599 4
0 0 0 48
30.200001 -1.543 -1.2130001 154
30.183001 -1.49 -1.175 162
30.223 -1.439 -1.14 170
30.243999 -1.388 -1.103 161
30.292 -1.337 -1.067 6
0 0 0 54
41.792 -1.702 -1.369 59
41.875999 -1.631 -1.318 58
42.018002 -1.564 -1.2690001 41
42.286999 -1.502 -1.223 37
42.599998 -1.441 -1.179 37
42.944 -1.3789999 -1.133 40
43.178001 -1.314 -1.084 43
43.198002 -1.243 -1.03 42
43.219002 -1.168 -0.972 33
43.301998 -1.097 -0.91799998 24
43.326 -1.024 -0.861 8
0 0 0 79
66.041 -1.341 -1.14 80
66.064003 -1.23 -1.053 33
69.269997 -1.176 -1.013 33
69.316002 -1.061 -0.921 26
71.486 -0.977 -0.85500002 106
72.547997 -0.87099999 -0.76999998 43
0 0 0 58
132.961 -1.158 -1.051 50
0 0 0 0
0 0 0 29
0 0 0 83
132.963 -0.289 -0.324 56
0 0 0 0
0 0 0 0
0 0 0 12
0 0 0 0
0 0 0 0
0 0 0 25
0 0 0 25
0 0 0 0
0 0 0 0
0 0 0 0
0 0 0 0
0 0 0 0
0 0 0 0
0 0 0 0
0 0 0 14
89.706001 2.082 1.817 18
90.053001 2.2290001 1.954 20
89.617996 2.355 2.076 18
89.411003 2.484 2.1989999 16
86.741997 2.5420001 2.2609999 17
0 0 0 0
0 0 0 0
0 0 0 20
89.212997 3.1489999 2.848 43
0 0 0 0
0 0 0 0
0 0 0 16
87.822998 3.618 3.323 26
87.484001 3.7279999 3.438 33
87.018997 3.835 3.549 37
86.638 3.9419999 3.6619999 32
0 0 0 0
0 0 0 24
0 0 0 0
0 0 0 18
0 0 0 0
0 0 0 0
0 0 0 56
116.463 6.6170001 6.323 56
0 0 0 0
0 0 0 17
87.835999 5.3520002 5.1669998 17
0 0 0 0
0 0 0 15
88.196999 5.7340002 5.592 15
88.320999 5.8600001 5.7350001 20
89.792 6.0780001 5.9679999 20
89.496002 6.1750002 6.0830002 33
89.114998 6.2670002 6.1939998 39
88.941002 6.3709998 6.3179998 32
88.785004 6.4759998 6.4439998 12
0 0 0 32
116.703 8.8129997 8.8260002 46
116.634 8.9569998 9 48
116.738 9.1140003 9.1879997 44
116.636 9.2530003 9.3570004 64
116.508 9.3889999 9.526 43
116.409 9.5270004 9.6969995 27
0 0 0 0
0 0 0 0
0 0 0 29
126.624 10.985 11.326 41
126.686 11.143 11.524 59
126.654 11.293 11.716 47
126.666 11.445 11.913 36
0 0 0 0
0 0 0 44
116.252 10.915 11.468 83
116.24 11.049 11.646 108
116.198 11.178 11.818 136
116.228 11.314 12 86
116.228 11.447 12.179 79
116.239 11.579 12.359 75
116.189 11.705 12.533 77
116.191 11.834 12.712 78
116.208 11.964 12.889 56
116.186 12.089 13.065 39
116.275 12.225 13.253 23
0 0 0 0
0 0 0 0
0 0 0 0
0 0 0 0
0 0 0 0
0 0 0 21
116.641 13.123 14.532 31
116.599 13.234 14.704 21
0 0 0 0
0 0 0 0
0 0 0 0
0 0 0 0
0 0 0 32
116.351 13.901 15.726 35
116.223 13.993 15.88 52
116.178 14.102 16.052 50
116.131 14.206 16.219999 76
116.091 14.31 16.388 60
116.106 14.419 16.559999 64
116.109 14.526 16.733 64
116.119 14.632 16.903999 69
116.1 14.735 17.073999 49
116.151 14.841 17.249001 42
116.336 14.967 17.448 23
116.236 15.056 17.605 21
116.283 15.163 17.783001 28
116.236 15.259 17.947001 25
116.16 15.348 18.101 24
116.182 15.448 18.278 23
116.156 15.541 18.438999 27
116.263 15.65 18.625 30
116.191 15.735 18.781 33
116.226 15.833 18.955 28
116.213 15.923 19.118999 30
116.285 16.024 19.298 29
116.157 16.097 19.438999 26
116.194 16.191 19.611 25
116.199 16.280001 19.777 28
116.107 16.354 19.924999 31
116.042 16.431 20.077999 46
116.042 16.514999 20.240999 55
116.042 16.603001 20.403999 68
116.034 16.684 20.561001 71
116.026 16.761 20.719999 70
116.01 16.843 20.878 68
116.061 16.93 21.047001 56
116.054 17.004999 21.202 39
116.087 17.087 21.367001 44
115.96 17.145 21.497999 75
115.997 17.226 21.662001 69
115.988 17.302 21.816999 55
115.991 17.375999 21.974001 52
116.032 17.454 22.136999 50
115.99 17.518999 22.283001 51
115.974 17.587 22.43 56
115.965 17.653999 22.584999 53
115.987 17.726 22.738001 50
115.955 17.788 22.884001 50
115.986 17.858999 23.041 55
116.008 17.927999 23.191999 49
116.033 17.996 23.346001 55
115.987 18.051001 23.485001 50
115.998 18.115 23.635 59
116.008 18.177 23.784 54
116.014 18.238001 23.927999 50
115.969 18.290001 24.063999 49
115.923 18.337 24.195999 48
115.954 18.4 24.341999 49
115.937 18.452 24.482 56
115.936 18.507 24.622999 54
115.97 18.566 24.768 53
115.955 18.615999 24.905001 50
115.948 18.666 25.042999 51
115.97 18.719999 25.186001 43
115.98 18.771 25.326 48
115.946 18.813 25.455 42
115.939 18.860001 25.586 54
115.935 18.905001 25.719999 49
115.956 18.954 25.858 49
115.976 19.000999 25.995001 45
115.919 19.038 26.114 44
116.004 19.093 26.264 45
115.978 19.129999 26.388 49
115.957 19.166 26.511999 45
115.958 19.205 26.639999 51
115.988 19.249001 26.771 49
115.959 19.281 26.889999 47
116.001 19.320999 27.021999 47
116.021 19.358999 27.15 46
115.939 19.379999 27.250999 50
116.023 19.427 27.393 54
115.924 19.443001 27.487 48
115.985 19.482 27.624001 54
115.967 19.507999 27.738001 45
115.957 19.538 27.853001 54
115.959 19.566999 27.966999 49
115.997 19.596001 28.091999 48
115.969 19.620001 28.198999 54
115.942 19.638 28.302999 59
115.924 19.662001 28.41 54
115.976 19.693001 28.534 57
115.956 19.709999 28.639 75
115.924 19.723 28.737 71
115.976 19.754 28.857 60
115.952 19.768 28.957001 63
115.975 19.789 29.068001 54
115.956 19.802 29.167 41
115.889 19.805 29.253 32
115.97 19.833 29.375999 25
0 0 0 0
0 0 0 0
0 0 0 0
0 0 0 0
0 0 0 0
0 0 0 0
0 0 0 0
0 0 0 0
0 0 0 0
0 0 0 0
0 0 0 0
0 0 0 0
0 0 0 0
0 0 0 0
0 0 0 0
0 0 0 0
0 0 0 0
0 0 0 0
0 0 0 0
0 0 0 0
0 0 0 0
0 0 0 0
0 0 0 0
0 0 0 0
0 0 0 0
0 0 0 0
0 0 0 0
0 0 0 0
0 0 0 0
0 0 0 27
116.241 19.836 31.962 28
116.116 19.797001 31.989 29
116.107 19.777 32.046001 29
116.066 19.753 32.09 32
116.05 19.73 32.143002 39
116.129 19.722 32.220001 43
116.066 19.688999 32.257 49
116.06 19.667999 32.306 56
116.075 19.646 32.361 67
116.099 19.622999 32.419998 68
116.067 19.594 32.458 62
116.073 19.570999 32.505001 48
116.163 19.558001 32.576 52
116.097 19.518 32.602001 47
116.119 19.492001 32.651001 48
116.13 19.462999 32.695 45
116.135 19.433001 32.737 49
116.073 19.389999 32.757999 53
116.097 19.364 32.799999 48
116.143 19.337999 32.848999 49
116.153 19.304001 32.887001 44
116.152 19.271 32.917999 45
116.214 19.243999 32.966999 44
116.12 19.191 32.971001 53
116.201 19.166 33.021999 48
116.182 19.124001 33.043999 51
116.106 19.070999 33.048 46
116.146 19.039 33.082001 44
116.172 19.002001 33.112999 45
116.174 18.959 33.134998 54
116.181 18.916 33.157001 51
116.183 18.875 33.174 45
116.182 18.827 33.193001 51
116.161 18.780001 33.201 44
116.182 18.739 33.220001 53
116.223 18.698 33.243999 49
116.256 18.655001 33.264999 44
116.213 18.601 33.261002 40
116.213 18.551001 33.27 48
116.21 18.499001 33.276001 49
116.183 18.445999 33.271999 46
116.205 18.396999 33.282001 45
116.215 18.344999 33.287998 58
116.205 18.289 33.285999 63
116.259 18.242001 33.300999 57
116.189 18.177999 33.278 50
116.239 18.129 33.289001 44
116.248 18.073 33.285999 44
116.266 18.018 33.285 45
116.277 17.959999 33.279999 44
116.311 17.905001 33.280998 46
116.252 17.836 33.252998 44
116.274 17.778 33.247002 47
116.282 17.719999 33.235001 51
116.271 17.659 33.215 49
116.288 17.598 33.202999 46
116.336 17.541 33.199001 47
116.314 17.475 33.171001 47
116.334 17.412001 33.154999 44
116.288 17.336 33.122002 51
116.31 17.271999 33.104 55
116.296 17.205 33.071999 47
116.303 17.141001 33.046001 48
116.289 17.066 33.014999 45
116.315 17 32.993 52
116.332 16.934999 32.965 67
116.336 16.865 32.932999 74
116.32 16.792999 32.891998 57
116.368 16.724001 32.872002 54
116.286 16.643 32.811001 59
116.36 16.579 32.792999 64
116.356 16.507 32.75 60
116.42 16.441 32.727001 54
116.418 16.365 32.682999 58
116.389 16.287001 32.629002 64
116.428 16.216 32.592999 61
116.399 16.134001 32.537998 65
116.42 16.058001 32.493999 64
116.406 15.981 32.438999 63
116.398 15.9 32.384998 50
116.424 15.823 32.338001 46
116.458 15.747 32.292999 54
116.41 15.659 32.223 48
116.446 15.585 32.174 41
116.442 15.502 32.112999 38
116.416 15.416 32.044998 39
116.438 15.335 31.989 31
116.561 15.267 31.959 35
116.683 15.198 31.927 29
116.675 15.111 31.858 32
116.75 15.038 31.809 23
116.754 14.952 31.740999 28
0 0 0 0
0 0 0 0
0 0 0 0
0 0 0 0
0 0 0 30
116.901 14.448 31.33 28
116.859 14.352 31.239 27
116.849 14.261 31.155001 27
0 0 0 0
0 0 0 25
116.688 13.97 30.860001 26
0 0 0 0
0 0 0 25
0 0 0 0
0 0 0 0
0 0 0 0
0 0 0 0
0 0 0 23
116.616 13.22 30.106001 24
0 0 0 0
0 0 0 24
116.804 12.958 29.856001 29
116.797 12.861 29.752001 27
116.843 12.769 29.66 29
116.727 12.659 29.525 28
0 0 0 0
0 0 0 0
0 0 0 27
116.691 12.265 29.079 32
116.656 12.163 28.958 37
116.67 12.069 28.849001 51
116.627 11.969 28.724001 60
116.658 11.869 28.615 64
116.676 11.775 28.503 57
116.667 11.674 28.382999 58
116.686 11.576 28.267 61
116.691 11.479 28.148001 52
116.72 11.381 28.032 39
116.732 11.281 27.910999 36
116.834 11.19 27.809999 38
116.943 11.099 27.709 32
117.021 11.005 27.6 28
117.131 10.913 27.496 23
0 0 0 0
0 0 0 0
0 0 0 0
0 0 0 0
0 0 0 0
0 0 0 0
0 0 0 0
0 0 0 35
0 0 0 0
0 0 0 0
0 0 0 0
0 0 0 0
0 0 0 0
0 0 0 0
0 0 0 0
0 0 0 0
0 0 0 29
116.774 9.0360003 24.865 40
116.788 8.9329996 24.715 62
116.833 8.8360004 24.572001 58
116.815 8.7309999 24.413 61
116.834 8.6289997 24.26 63
116.879 8.5319996 24.113001 58
116.87 8.427 23.952 49
116.958 8.3299999 23.809999 41
116.971 8.2270002 23.650999 41
117.176 8.1379995 23.530001 32
117.033 8.0240002 23.337 25
0 0 0 0
0 0 0 0
0 0 0 0
0 0 0 22
117.106 7.5149999 22.517 23
117.223 7.4219999 22.371 27
117.068 7.309 22.169001 28
0 0 0 0
0 0 0 0
0 0 0 0
0 0 0 0
0 0 0 0
0 0 0 39
116.944 6.5910001 20.917999 47
116.91 6.487 20.732 56
116.954 6.3909998 20.561001 75
116.931 6.289 20.374001 65
116.976 6.1919999 20.204 65
116.955 6.0900002 20.016001 58
117.018 5.9920001 19.841999 43
117.023 5.8920002 19.656 39
117.211 5.802 19.497 38
117.304 5.7090001 19.326 37
117.356 5.612 19.143999 22
0 0 0 0
0 0 0 0
0 0 0 0
0 0 0 0
0 0 0 0
0 0 0 26
119.668 5.0190001 18.139999 31
119.661 4.9219999 17.940001 32
119.6 4.8200002 17.728001 29
119.677 4.7249999 17.537001 28
119.694 4.6269999 17.334999 32
119.661 4.527 17.125 37
119.5 4.4239998 16.896 40
119.517 4.329 16.694 55
119.514 4.2329998 16.486 73
119.499 4.1360002 16.275 83
119.478 4.039 16.063 80
119.494 3.944 15.855 69
119.53 3.852 15.651 53
119.599 3.7590001 15.448 37
119.857 3.6730001 15.267 27
0 0 0 0
0 0 0 0
0 0 0 0
0 0 0 0
0 0 0 0
0 0 0 0
0 0 0 0
0 0 0 0
0 0 0 0
0 0 0 0
0 0 0 28
119.536 2.5780001 12.625 58
119.554 2.4920001 12.407 81
119.52 2.404 12.18 80
119.495 2.3180001 11.955 82
119.496 2.23 11.727 87
119.557 2.145 11.507 98
119.529 2.059 11.278 77
119.643 1.978 11.064 48
119.662 1.8940001 10.837 37
119.731 1.812 10.614 32
119.628 1.727 10.376 36
119.69 1.647 10.154 34
119.663 1.5650001 9.9200001 43
119.661 1.483 9.6890001 37
119.611 1.402 9.4490004 39
119.603 1.322 9.2159996 47
119.623 1.244 8.9899998 50
119.712 1.166 8.7629995 37
119.698 1.0880001 8.5270004 32
0 0 0 0
0 0 0 0
0 0 0 38
119.747 0.78500003 7.592 40
119.773 0.70999998 7.3559999 50
119.774 0.63700002 7.1209998 40
119.721 0.56300002 6.8829999 49
119.576 0.491 6.6389999 63
119.548 0.419 6.3979998 70
119.529 0.347 6.1570001 66
0 0 0 0
0 0 0 26
83.067001 0.094999999 3.7750001 29
0 0 0 0
0 0 0 28
0 0 0 0
0 0 0 0
0 0 0 24
82.316002 -0.18099999 2.74 27
82.415001 -0.22499999 2.5769999 34
83.014 -0.271 2.424 27
83.901001 -0.31799999 2.2780001 21
0 0 0 9
71.934998 -0.347 1.66 22
71.272003 -0.38 1.498 47
70.987 -0.414 1.345 56
70.462997 -0.44600001 1.188 60
69.918999 -0.47600001 1.034 36
69.234001 -0.505 0.88099998 28
69.070999 -0.537 0.736 19
0 0 0 9
0 0 0 0
0 0 0 0
0 0 0 47
72.365997 -0.727 0.023 72
72.362 -0.75800002 -0.126 72
72.361 -0.78899997 -0.27700001 49
72.514999 -0.82099998 -0.42699999 44
72.549004 -0.852 -0.579 35
72.514999 -0.88099998 -0.73000002 26
72.224998 -0.90700001 -0.87900001 43
71.575996 -0.92699999 -1.021 106
71.443001 -0.95300001 -1.168 121
71.416 -0.98100001 -1.318 122
71.375999 -1.007 -1.469 49
69.231003 -1.003 -1.5700001 10
69.209 -1.028 -1.715 54
69.211998 -1.052 -1.86 40
69.184998 -1.076 -2.003 10
0 0 0 25
0 0 0 20
56.813999 -0.94099998 -2.003 30
56.848999 -0.95999998 -2.1240001 9
0 0 0 0
0 0 0 0
0 0 0 0
0 0 0 0
0 0 0 0
0 0 0 1
0 0 0 0
0 0 0 0
0 0 0 1
0 0 0 1
0 0 0 2
0 0 0 4
14.501 -0.296 -0.93699998 4
14.026 -0.28999999 -0.935 6
0 0 0 3
12.496 -0.264 -0.88499999 3
11.949 -0.25400001 -0.87199998 2
11.458 -0.24600001 -0.86000001 2
10.937 -0.237 -0.84399998 2
10.486 -0.229 -0.83099997 3
10.094 -0.223 -0.82099998 2
9.7010002 -0.21600001 -0.80900002 3
9.3590002 -0.20900001 -0.80000001 4
9.0299997 -0.204 -0.79000002 3
8.7270002 -0.198 -0.78200001 4
8.3669996 -0.191 -0.76700002 4
8.1090002 -0.186 -0.75999999 3
7.8179998 -0.18099999 -0.74900001 4
7.5250001 -0.175 -0.73699999 4
7.303 -0.171 -0.73000002 4
7.1110001 -0.167 -0.72500002 3
6.8969998 -0.163 -0.71799999 3
6.6890001 -0.15800001 -0.70999998 4
6.4619999 -0.154 -0.699 8
6.3080001 -0.15000001 -0.69599998 8
6.1880002 -0.148 -0.69499999 7
5.9889998 -0.14399999 -0.685 4
5.8280001 -0.14 -0.67900002 3
5.6939998 -0.13699999 -0.67500001 4
5.546 -0.134 -0.66799998 5
5.401 -0.131 -0.662 3
5.27 -0.12800001 -0.65700001 4
5.145 -0.125 -0.65200001 4
5.0570002 -0.123 -0.65100002 4
4.9569998 -0.121 -0.648 3
4.8600001 -0.118 -0.64499998 3
4.75 -0.116 -0.63999999 3
4.645 -0.113 -0.63499999 5
4.5710001 -0.111 -0.634 5
4.5180001 -0.11 -0.63599998 4
4.447 -0.108 -0.634 3
4.329 -0.105 -0.62599999 2
4.23 -0.103 -0.62 2
4.1789999 -0.101 -0.62099999 2
4.1370001 -0.1 -0.62300003 2
4.0430002 -0.097999997 -0.61699998 2
3.961 -0.096000001 -0.61199999 2
3.9990001 -0.096000001 -0.62599999 2
3.9219999 -0.093999997 -0.62199998 2
3.8789999 -0.093000002 -0.62300003 3
3.7460001 -0.089000002 -0.60900003 2
3.697 -0.088 -0.60799998 2
3.608 -0.085000001 -0.60000002 1
3.6670001 -0.086999997 -0.61699998 3
3.5150001 -0.082999997 -0.59799999 2
3.5 -0.082000002 -0.60299999 2
3.4560001 -0.079999998 -0.602 1
3.4319999 -0.079000004 -0.60399997 2
3.415 -0.079000004 -0.60799998 2
3.336 -0.075999998 -0.60000002 1
3.303 -0.075000003 -0.60000002 1
3.2969999 -0.075000003 -0.60500002 2
3.309 -0.074000001 -0.61400002 2
3.131 -0.07 -0.58700001 2
3.2079999 -0.071000002 -0.60699999 2
3.125 -0.068999998 -0.597 2
3.017 -0.066 -0.58200002 2
3.072 -0.067000002 -0.59899998 2
3.013 -0.064999998 -0.59299999 1
2.901 -0.061999999 -0.57599998 2
2.868 -0.061000001 -0.57499999 2
2.8440001 -0.059999999 -0.57499999 2
2.8080001 -0.057999998 -0.57300001 2
2.7820001 -0.057 -0.57200003 2
2.743 -0.056000002 -0.56999999 1
2.7219999 -0.055 -0.56999999 2
2.6889999 -0.054000001 -0.56800002 2
2.6689999 -0.052999999 -0.56800002 1
2.6400001 -0.050999999 -0.56699997 1
2.6170001 -0.050000001 -0.56699997 1
2.595 -0.048999999 -0.56599998 1
2.5699999 -0.048 -0.56599998 1
2.5539999 -0.046999998 -0.56599998 1
2.5220001 -0.046 -0.56400001 1
2.4990001 -0.045000002 -0.56300002 1
2.4820001 -0.044 -0.56300002 1
2.4590001 -0.043000001 -0.56199998 1
2.431 -0.041999999 -0.56 1
2.503 -0.043000001 -0.58099997 1
2.5009999 -0.041999999 -0.58499998 1
2.402 -0.039000001 -0.56599998 1
2.448 -0.039999999 -0.58099997 1
2.411 -0.037999999 -0.57599998 1
2.4200001 -0.037999999 -0.58200002 1
2.4189999 -0.037 -0.58600003 1
2.29 -0.034000002 -0.55800003 1
2.2639999 -0.033 -0.55500001 1
2.3110001 -0.033 -0.57099998 1
2.2260001 -0.030999999 -0.55299997 1
2.204 -0.029999999 -0.551 1
2.1949999 -0.028999999 -0.55299997 1
2.181 -0.028999999 -0.55299997 1
2.1700001 -0.028000001 -0.55299997 1
2.1570001 -0.027000001 -0.55299997 1
2.142 -0.026000001 -0.55299997 1
2.128 -0.025 -0.55199999 1
2.1099999 -0.024 -0.551 1
2.095 -0.023 -0.55000001 1
2.082 -0.022 -0.55000001 1
2.075 -0.022 -0.551 1
2.0569999 -0.021 -0.55000001 1
2.0450001 -0.02 -0.54900002 1
2.0280001 -0.018999999 -0.54799998 1
2.0179999 -0.017999999 -0.54799998 1
2.0039999 -0.017000001 -0.54699999 1
1.997 -0.016000001 -0.54799998 1
1.9809999 -0.016000001 -0.54699999 1
1.975 -0.015 -0.54799998 1
1.956 -0.014 -0.54500002 1
1.9450001 -0.013 -0.54500002 1
1.944 -0.012 -0.54699999 1
1.925 -0.011 -0.54500002 1
1.923 -0.011 -0.54699999 1
1.91 -0.0099999998 -0.546 1
1.896 -0.0089999996 -0.54400003 1
1.888 -0.0080000004 -0.54500002 1
1.875 -0.0080000004 -0.54299998 1
1.875 -0.0070000002 -0.546 1
1.858 -0.0060000001 -0.54299998 1
1.85 -0.0049999999 -0.54299998 1
1.842 -0.0040000002 -0.54299998 1
1.834 -0.0040000002 -0.54299998 1
1.823 -0.003 -0.542 1
1.823 -0.0020000001 -0.54400003 1
1.811 -0.001 -0.54299998 1
1.801 -0.001 -0.542 1
1.796 0 -0.54299998 1
1.786 0 -0.542 1
1.773 0.001 -0.54000002 1
1.767 0.001 -0.54000002 1
1.755 0.0020000001 -0.53899997 1
1.75 0.003 -0.53899997 1
1.744 0.0040000002 -0.53899997 1
1.729 0.0040000002 -0.537 1
1.735 0.0049999999 -0.54100001 1
1.723 0.0060000001 -0.53899997 1
1.715 0.0060000001 -0.53799999 1
1.712 0.0070000002 -0.53899997 1
1.7079999 0.0080000004 -0.54000002 1
1.7 0.0089999996 -0.53899997 1
1.678 0.0089999996 -0.53299999 1
1.673 0.0099999998 -0.53399998 1
1.664 0.011 -0.53299999 1
1.679 0.012 -0.53899997 1
1.656 0.012 -0.53299999 1
1.652 0.013 -0.53399998 1
1.648 0.013 -0.53399998 1
1.645 0.014 -0.53399998 1
1.641 0.015 -0.53500003 1
1.632 0.016000001 -0.53299999 1
1.63 0.016000001 -0.53399998 1
1.627 0.017000001 -0.53500003 1
1.617 0.017999999 -0.53299999 1
1.6109999 0.017999999 -0.53200001 1
1.608 0.018999999 -0.53299999 1
1.602 0.02 -0.53200001 1
1.591 0.02 -0.52999997 1
1.5880001 0.021 -0.52999997 1
1.589 0.022 -0.53100002 1
1.579 0.022 -0.52899998 1
1.579 0.023 -0.53100002 1
1.579 0.024 -0.53200001 1
1.576 0.024 -0.53200001 1
1.571 0.025 -0.53100002 1
1.5650001 0.025 -0.52999997 1
1.567 0.026000001 -0.53200001 1
1.5549999 0.027000001 -0.52899998 1
1.558 0.027000001 -0.53100002 1
1.554 0.028000001 -0.53100002 1
1.5470001 0.028999999 -0.52999997 1
1.541 0.028999999 -0.52899998 1
1.539 0.029999999 -0.52899998 1
1.539 0.030999999 -0.52999997 1
1.5420001 0.030999999 -0.53200001 1
1.535 0.032000002 -0.52999997 1
1.536 0.033 -0.53100002 1
1.534 0.033 -0.53200001 1
1.523 0.034000002 -0.52899998 1
1.523 0.034000002 -0.52899998 1
1.53 0.035 -0.53299999 1
1.521 0.035999998 -0.52999997 1
1.51 0.035999998 -0.52700001 1
1.521 0.037 -0.53200001 1
1.5190001 0.037999999 -0.53200001 1
1.511 0.037999999 -0.52999997 1
1.513 0.039000001 -0.53100002 1
1.51 0.039000001 -0.53100002 1
1.501 0.039999999 -0.528 1
1.5089999 0.041000001 -0.53100002 1
1.501 0.041000001 -0.52899998 1
1.5 0.041999999 -0.52899998 1
1.5 0.043000001 -0.52999997 1
1.495 0.043000001 -0.528 1
1.493 0.044 -0.528 1
1.494 0.044 -0.52899998 1
1.493 0.045000002 -0.52899998 1
1.4859999 0.045000002 -0.52700001 1
1.489 0.046 -0.528 1
1.487 0.046999998 -0.528 1
1.488 0.046999998 -0.52899998 1
1.482 0.048 -0.52700001 1
1.484 0.048 -0.528 1
1.485 0.048999999 -0.52899998 1
1.484 0.050000001 -0.528 1
1.488 0.050000001 -0.52999997 1
1.479 0.050999999 -0.52700001 1
1.482 0.050999999 -0.528 1
1.4809999 0.052000001 -0.528 1
1.4859999 0.052999999 -0.52999997 1
1.4809999 0.052999999 -0.528 1
1.4809999 0.054000001 -0.528 1
1.4809999 0.054000001 -0.528 1
1.485 0.055 -0.52999997 1
1.487 0.056000002 -0.53100002 1
1.479 0.056000002 -0.528 1
1.487 0.057 -0.53100002 1
1.48 0.057 -0.528 1
1.485 0.057999998 -0.52999997 1
1.483 0.059 -0.52899998 1
1.485 0.059 -0.52899998 1
1.483 0.059999999 -0.52899998 1
1.4910001 0.061000001 -0.53200001 1
1.487 0.061000001 -0.52999997 1
1.4910001 0.061999999 -0.53100002 1
1.4859999 0.061999999 -0.52899998 1
1.483 0.063000001 -0.528 1
1.482 0.063000001 -0.52700001 1
1.4809999 0.064000003 -0.52700001 1
1.4859999 0.064999998 -0.528 1
1.485 0.064999998 -0.52700001 1
1.488 0.066 -0.528 1
1.482 0.066 -0.52499998 1
1.4910001 0.067000002 -0.528 1
1.498 0.068000004 -0.52999997 1
1.5 0.068000004 -0.53100002 1
1.493 0.068999998 -0.528 1
1.493 0.068999998 -0.52700001 1
1.501 0.07 -0.52999997 1
1.497 0.07 -0.52700001 1
1.502 0.071000002 -0.52899998 1
1.503 0.071999997 -0.528 1
1.5039999 0.071999997 -0.528 1
1.5140001 0.072999999 -0.53100002 1
1.5089999 0.072999999 -0.52899998 1
1.513 0.074000001 -0.52899998 1
1.522 0.075000003 -0.53200001 1
1.501 0.075000003 -0.52399999 1
1.516 0.075999998 -0.52899998 1
1.515 0.075999998 -0.528 1
1.516 0.077 -0.52700001 1
1.521 0.077 -0.528 1
1.528 0.078000002 -0.52999997 1
1.533 0.079000004 -0.52999997 1
1.536 0.079999998 -0.53100002 1
1.5369999 0.079999998 -0.52999997 1
1.5369999 0.079999998 -0.52899998 1
1.539 0.081 -0.52899998 1
1.5470001 0.082000002 -0.53100002 1
1.545 0.082000002 -0.52899998 1
1.545 0.082999997 -0.528 1
1.546 0.082999997 -0.52700001 1
1.5470001 0.083999999 -0.52700001 1
1.552 0.083999999 -0.52700001 1
1.556 0.085000001 -0.528 1
1.564 0.086000003 -0.52899998 1
1.567 0.086000003 -0.52899998 1
1.574 0.086999997 -0.52999997 1
1.576 0.088 -0.52999997 1
1.586 0.089000002 -0.53200001 1
1.587 0.089000002 -0.53100002 1
1.592 0.090000004 -0.53100002 1
1.5930001 0.090000004 -0.52999997 1
1.598 0.090999998 -0.53100002 1
1.603 0.090999998 -0.53100002 1
1.605 0.092 -0.52999997 1
1.62 0.093000002 -0.53399998 1
1.614 0.093000002 -0.52999997 1
1.625 0.093999997 -0.53200001 1
1.633 0.094999999 -0.53399998 1
1.632 0.094999999 -0.53200001 1
1.641 0.096000001 -0.53299999 1
1.645 0.096000001 -0.53299999 1
1.653 0.097000003 -0.53399998 1
1.655 0.097999997 -0.53299999 1
1.659 0.097999997 -0.53299999 1
1.66 0.097999997 -0.53100002 1
1.6670001 0.098999999 -0.53200001 1
1.673 0.1 -0.53200001 1
1.693 0.101 -0.537 1
1.697 0.102 -0.53600001 1
1.71 0.103 -0.53799999 1
1.7079999 0.103 -0.53600001 1
1.717 0.104 -0.537 1
1.721 0.104 -0.53600001 1
1.729 0.105 -0.537 1
1.739 0.106 -0.53799999 1
1.742 0.106 -0.537 1
1.75 0.107 -0.53799999 1
1.758 0.107 -0.53799999 1
1.7640001 0.108 -0.53799999 1
1.776 0.109 -0.54000002 1
1.784 0.11 -0.54000002 1
1.794 0.11 -0.54100001 1
1.801 0.111 -0.54100001 1
1.812 0.112 -0.542 1
1.8150001 0.112 -0.54000002 1
1.831 0.113 -0.54299998 1
1.84 0.114 -0.54299998 1
1.849 0.114 -0.54299998 1
1.858 0.115 -0.54400003 1
1.867 0.116 -0.54400003 1
1.87 0.116 -0.542 1
1.8839999 0.117 -0.54400003 1
1.898 0.118 -0.546 1
1.899 0.118 -0.54299998 1
1.911 0.119 -0.54400003 1
1.921 0.119 -0.54500002 1
1.931 0.12 -0.54500002 1
1.9400001 0.121 -0.54400003 1
1.9579999 0.122 -0.54699999 1
1.966 0.122 -0.546 1
1.979 0.123 -0.54699999 1
1.985 0.123 -0.546 1
1.997 0.124 -0.54699999 1
2.0090001 0.125 -0.54699999 1
2.0250001 0.126 -0.54799998 1
2.033 0.126 -0.54799998 1
2.0480001 0.127 -0.54900002 1
2.062 0.12800001 -0.54900002 1
2.069 0.12800001 -0.54799998 1
2.0829999 0.12899999 -0.54900002 1
2.1029999 0.13 -0.551 1
2.1170001 0.13 -0.551 1
2.131 0.131 -0.55199999 1
2.1429999 0.132 -0.55199999 1
2.155 0.132 -0.551 1
2.1689999 0.133 -0.55199999 1
2.188 0.134 -0.55299997 1
2.197 0.134 -0.55199999 1
2.21 0.13500001 -0.55199999 1
2.2320001 0.13600001 -0.55400002 1
2.2490001 0.13600001 -0.55400002 1
2.2690001 0.13699999 -0.55599999 1
2.283 0.138 -0.55500001 1
2.303 0.139 -0.55699998 1
2.3150001 0.139 -0.55599999 1
2.3329999 0.14 -0.55599999 1
2.348 0.14 -0.55599999 1
2.375 0.141 -0.55900002 1
2.3970001 0.142 -0.56 1
2.408 0.14300001 -0.55800003 1
2.437 0.14399999 -0.56099999 1
2.4619999 0.145 -0.56300002 1
2.477 0.145 -0.56199998 1
2.497 0.146 -0.56199998 1
2.527 0.147 -0.565 1
2.5450001 0.147 -0.565 1
2.5680001 0.148 -0.565 1
2.5869999 0.149 -0.565 1
2.608 0.149 -0.565 1
2.6359999 0.15000001 -0.56699997 1
2.664 0.15099999 -0.56800002 2
2.684 0.15099999 -0.56800002 1
2.7119999 0.152 -0.56900001 1
2.747 0.153 -0.57099998 2
2.77 0.154 -0.57099998 2
2.802 0.155 -0.57300001 2
2.8380001 0.156 -0.57499999 2
2.8659999 0.15700001 -0.57599998 2
2.8989999 0.15700001 -0.57700002 2
2.9349999 0.15800001 -0.579 2
2.954 0.15800001 -0.57800001 2
2.993 0.16 -0.57999998 2
3.023 0.16 -0.57999998 2
3.0580001 0.161 -0.58099997 2
3.1010001 0.162 -0.58399999 2
3.132 0.162 -0.58399999 2
3.174 0.163 -0.58600003 2
3.326 0.17 -0.60799998 2
3.3169999 0.168 -0.60000002 1
3.4059999 0.171 -0.61000001 2
3.3740001 0.168 -0.59799999 2
3.424 0.17 -0.60100001 2
3.4979999 0.17200001 -0.60699999 2
3.5339999 0.17200001 -0.60699999 2
3.54 0.171 -0.60100001 2
3.589 0.17200001 -0.60299999 3
3.6400001 0.17200001 -0.60500002 3
3.71 0.17399999 -0.60900003 2
3.7309999 0.17299999 -0.60600001 3
3.7980001 0.175 -0.61000001 5
3.826 0.17399999 -0.60699999 5
3.9070001 0.176 -0.61199999 3
3.9630001 0.177 -0.61400002 3
4.0430002 0.178 -0.61799997 2
4.1100001 0.17900001 -0.62099999 2
4.1859999 0.18000001 -0.62400001 2
4.1999998 0.17900001 -0.61900002 2
4.3000002 0.18099999 -0.625 2
4.408 0.183 -0.63200003 3
4.4899998 0.184 -0.63499999 3
4.552 0.184 -0.63499999 3
4.6269999 0.184 -0.63700002 3
4.723 0.185 -0.64099997 3
4.8099999 0.186 -0.64399999 4
4.8930001 0.186 -0.64600003 4
4.9860001 0.18700001 -0.648 4
5.0689998 0.18700001 -0.64899999 3
5.1950002 0.189 -0.65499997 4
5.3200002 0.19 -0.66100001 3
5.4520001 0.191 -0.66600001 3
5.579 0.192 -0.671 4
5.7090001 0.193 -0.676 4
5.849 0.19400001 -0.68099999 3
5.987 0.19499999 -0.68599999 3
6.1469998 0.19599999 -0.69199997 3
6.3270001 0.198 -0.69999999 3
6.5110002 0.199 -0.70700002 3
6.6919999 0.2 -0.71399999 4
6.855 0.2 -0.71799999 3
7.0650001 0.20200001 -0.72600001 4
7.277 0.20299999 -0.73400003 3
7.5100002 0.204 -0.74299997 4
7.776 0.206 -0.75400001 4
8.0419998 0.207 -0.764 4
8.2860003 0.207 -0.77100003 5
8.559 0.208 -0.77999997 4
8.8830004 0.20900001 -0.792 4
9.1689997 0.20900001 -0.80000001 5
9.4799995 0.20900001 -0.80900002 5
9.8299999 0.20900001 -0.81999999 5
10.164 0.20900001 -0.82700002 4
10.532 0.208 -0.83700001 3
11.121 0.211 -0.861 2
