# .PCD v0.7 - Point Cloud Data file format
VERSION 0.7
FIELDS x y z intensity
SIZE 4 4 4 4
TYPE F F F F
COUNT 1 1 1 1
WIDTH 1785
HEIGHT 1
VIEWPOINT 0 0 0 1 0 0 0
POINTS 1785
DATA ascii
3.3729999 0.98100001 -0.602 1
3.3010001 0.96100003 -0.58700001 1
3.2980001 0.96100003 -0.58600003 1
3.4300001 1 -0.60799998 2
3.322 0.96899998 -0.588 1
3.404 0.99299997 -0.60100001 2
3.3399999 0.97500002 -0.588 2
3.4000001 0.99299997 -0.59799999 2
3.369 0.98400003 -0.59100002 2
3.313 0.96799999 -0.57999998 1
3.3410001 0.977 -0.583 1
3.3640001 0.98400003 -0.58600003 2
3.3440001 0.97799999 -0.58099997 2
3.404 0.99599999 -0.58999997 2
3.4100001 0.99800003 -0.58899999 2
3.4189999 1 -0.58899999 2
3.448 1.0089999 -0.59299999 2
3.438 1.006 -0.58999997 2
3.434 1.005 -0.58700001 2
3.48 1.018 -0.59399998 1
3.4460001 1.008 -0.58600003 2
3.4949999 1.022 -0.59299999 3
3.5190001 1.029 -0.59500003 3
3.553 1.039 -0.59899998 3
3.533 1.033 -0.59399998 2
3.5320001 1.0319999 -0.59200001 3
3.609 1.054 -0.60299999 2
3.5450001 1.035 -0.59100002 2
3.602 1.051 -0.59799999 3
3.5680001 1.041 -0.59100002 1
3.638 1.0599999 -0.60000002 3
3.6489999 1.063 -0.60000002 3
3.687 1.073 -0.60399997 3
3.665 1.066 -0.59899998 3
3.701 1.076 -0.60299999 3
3.698 1.074 -0.60000002 1
3.707 1.076 -0.59899998 3
3.8099999 1.105 -0.61400002 3
3.938 1.141 -0.63200003 3
3.8080001 1.102 -0.60900003 3
3.8280001 1.107 -0.61000001 3
3.825 1.105 -0.60699999 2
3.803 1.097 -0.60100001 2
3.8150001 1.099 -0.60100001 2
3.902 1.123 -0.61199999 2
3.934 1.131 -0.61500001 3
3.9030001 1.1210001 -0.60799998 2
3.891 1.115 -0.60299999 2
3.8770001 1.11 -0.59899998 2
3.997 1.143 -0.61400002 2
3.9960001 1.14 -0.61199999 2
4.0089998 1.143 -0.611 2
4.0500002 1.152 -0.61500001 2
4.02 1.142 -0.60799998 4
4.0960002 1.1619999 -0.616 4
4.0999999 1.161 -0.61400002 4
4.105 1.16 -0.61199999 4
4.1399999 1.168 -0.61500001 2
4.1690001 1.174 -0.616 2
4.1680002 1.171 -0.61299998 4
4.2030001 1.179 -0.61500001 2
4.2220001 1.182 -0.61500001 3
4.2540002 1.188 -0.61699998 4
4.2989998 1.198 -0.62 2
4.3169999 1.2 -0.62 2
4.3439999 1.205 -0.62 2
4.3579998 1.206 -0.61900002 4
4.3779998 1.209 -0.61900002 4
4.4159999 1.217 -0.62099999 2
4.4530001 1.224 -0.62300003 4
4.474 1.227 -0.62300003 4
4.5180001 1.2359999 -0.625 2
4.5489998 1.2410001 -0.62599999 2
4.5710001 1.244 -0.62599999 4
4.6220002 1.2539999 -0.63 2
4.6350002 1.2539999 -0.62800002 4
4.6869998 1.265 -0.63099998 2
4.723 1.271 -0.63300002 3
4.7480001 1.274 -0.63200003 4
4.7820001 1.279 -0.63300002 2
4.8210001 1.286 -0.63499999 4
4.8730001 1.295 -0.63800001 4
4.9169998 1.303 -0.63999999 3
4.9590001 1.3099999 -0.64099997 3
4.994 1.3150001 -0.64200002 3
5.0489998 1.325 -0.64499998 3
5.0819998 1.329 -0.64499998 3
5.119 1.335 -0.64600003 4
5.1789999 1.345 -0.64899999 3
5.2210002 1.352 -0.64999998 3
5.2690001 1.359 -0.65200001 3
5.323 1.368 -0.65499997 3
5.368 1.375 -0.65600002 3
5.4130001 1.381 -0.65700001 3
5.4619999 1.388 -0.65899998 3
5.5079999 1.3940001 -0.66000003 3
5.559 1.402 -0.66100001 3
5.6090002 1.409 -0.66299999 2
5.658 1.415 -0.66399997 3
5.7030001 1.42 -0.66399997 2
5.7529998 1.427 -0.66500002 3
5.8309999 1.4400001 -0.67000002 2
5.8779998 1.446 -0.67000002 2
5.9499998 1.457 -0.67299998 3
6.0190001 1.467 -0.676 3
6.0910001 1.478 -0.67900002 3
6.1360002 1.482 -0.67900002 3
6.21 1.493 -0.68199998 3
6.2719998 1.501 -0.68400002 3
6.362 1.515 -0.68800002 3
6.428 1.523 -0.69 4
6.5079999 1.534 -0.69300002 3
6.585 1.545 -0.69599998 4
6.6430001 1.55 -0.69700003 3
6.737 1.564 -0.70099998 4
6.8260002 1.577 -0.704 4
6.9130001 1.5880001 -0.70700002 4
7.0240002 1.605 -0.713 4
7.1170001 1.617 -0.71600002 4
7.2140002 1.63 -0.72000003 5
7.303 1.641 -0.72299999 4
7.3920002 1.652 -0.72500002 4
7.4879999 1.664 -0.72799999 4
7.5780001 1.674 -0.73100001 4
7.6719999 1.684 -0.73299998 4
7.8109999 1.705 -0.74000001 3
7.941 1.722 -0.745 3
8.0710001 1.74 -0.75099999 4
8.1960001 1.755 -0.755 5
8.3170004 1.77 -0.75999999 4
8.4750004 1.7920001 -0.76700002 3
8.6269999 1.812 -0.773 4
8.7819996 1.8329999 -0.77999997 7
8.9320002 1.852 -0.78600001 4
9.0769997 1.869 -0.79100001 4
9.2110004 1.883 -0.79500002 5
9.3610001 1.9 -0.80000001 4
9.507 1.916 -0.80400002 3
9.6520004 1.931 -0.80800003 4
9.8260002 1.952 -0.815 3
10.061 1.984 -0.82499999 3
10.141 1.984 -0.824 3
10.287 1.997 -0.82700002 3
10.464 2.016 -0.833 3
10.637 2.033 -0.83700001 3
10.818 2.052 -0.84299999 3
10.974 2.0639999 -0.84600002 4
11.166 2.0829999 -0.85100001 3
11.379 2.105 -0.85799998 2
11.578 2.1240001 -0.86299998 3
11.78 2.1429999 -0.86900002 2
11.988 2.1619999 -0.87400001 2
12.212 2.1830001 -0.88 3
12.396 2.1960001 -0.884 3
12.625 2.2160001 -0.88999999 3
12.854 2.2360001 -0.89499998 3
13.109 2.2590001 -0.903 3
13.345 2.2780001 -0.90799999 3
13.588 2.2969999 -0.91399997 3
13.866 2.3210001 -0.921 2
14.161 2.3469999 -0.92900002 2
14.443 2.3699999 -0.93599999 2
14.708 2.3889999 -0.94199997 3
15.103 2.428 -0.95499998 2
15.512 2.467 -0.96799999 3
16.113001 2.5350001 -0.99299997 4
16.27 2.5320001 -0.99000001 4
16.533001 2.5439999 -0.99299997 3
16.868 2.5669999 -1 3
16.563999 2.4920001 -0.96899998 5
16.521999 2.457 -0.954 2
17.306999 2.5439999 -0.986 3
17.628 2.5599999 -0.991 2
0 0 0 1
0 0 0 0
0 0 0 1
20.056 2.77 -1.067 1
0 0 0 2
23.263 3.1300001 -1.202 2
0 0 0 0
0 0 0 1
26.226999 3.3870001 -1.298 3
26.448999 3.3670001 -1.289 2
26.562 3.3340001 -1.276 1
0 0 0 2
0 0 0 0
0 0 0 0
0 0 0 1
0 0 0 0
0 0 0 6
0 0 0 0
0 0 0 0
0 0 0 23
40.444 4.3200002 -1.659 57
40.473999 4.2470002 -1.633 27
40.453999 4.1669998 -1.604 20
40.473 4.0910001 -1.5779999 25
40.469002 4.0139999 -1.552 24
40.226002 3.9119999 -1.516 42
40.183998 3.8310001 -1.488 37
40.098 3.7460001 -1.459 39
40.056999 3.6659999 -1.432 39
39.993999 3.5799999 -1.404 41
39.931 3.4960001 -1.376 44
39.868 3.4119999 -1.349 42
39.806999 3.3299999 -1.323 43
39.769001 3.2479999 -1.2970001 43
39.699001 3.164 -1.27 41
39.634998 3.0799999 -1.244 39
39.583 2.9960001 -1.2180001 41
39.550999 2.9159999 -1.194 44
39.469002 2.832 -1.168 44
39.41 2.7490001 -1.1440001 43
39.361 2.6659999 -1.119 41
39.316002 2.5829999 -1.096 41
39.255001 2.5 -1.071 44
39.213001 2.418 -1.048 40
39.16 2.3369999 -1.026 41
39.117001 2.2550001 -1.003 40
39.056999 2.1719999 -0.98000002 37
39.026001 2.0910001 -0.958 40
38.978001 2.0109999 -0.93699998 42
38.931999 1.929 -0.91500002 42
38.893002 1.846 -0.89399999 42
38.862 1.765 -0.87300003 45
38.845001 1.684 -0.85299999 44
38.816002 1.603 -0.833 32
38.839001 1.524 -0.81400001 20
38.816002 1.443 -0.79500002 16
38.771999 1.359 -0.77499998 40
38.805 1.28 -0.75700003 26
38.839001 1.2029999 -0.74000001 25
38.910999 1.124 -0.72299999 23
39.049 1.048 -0.708 23
39.181 0.97000003 -0.69300002 18
39.193001 0.88800001 -0.676 9
39.331001 0.80900002 -0.66100001 5
0 0 0 0
0 0 0 0
0 0 0 0
0 0 0 0
0 0 0 0
0 0 0 0
0 0 0 33
0 0 0 0
0 0 0 0
0 0 0 0
0 0 0 35
133.924 -0.61900002 -1.62 42
133.87 -0.903 -1.572 110
133.991 -1.187 -1.528 52
133.996 -1.472 -1.483 54
0 0 0 0
0 0 0 39
72.399002 -1.2539999 -0.73100001 105
0 0 0 29
67.141998 -1.45 -0.63700002 70
67.009003 -1.5880001 -0.616 76
67.012001 -1.7309999 -0.597 143
66.989998 -1.875 -0.57700002 119
0 0 0 26
58.988998 -1.902 -0.47600001 63
58.964001 -2.027 -0.461 113
58.936001 -2.152 -0.44600001 116
58.258999 -2.2509999 -0.426 58
56.112 -2.286 -0.39700001 18
0 0 0 0
0 0 0 11
0 0 0 92
50.862999 -2.506 -0.315 89
0 0 0 18
47.257999 -2.5280001 -0.27399999 34
47.028 -2.6159999 -0.26300001 60
0 0 0 2
43.463001 -2.602 -0.228 37
42.929001 -2.6619999 -0.21799999 16
43.060001 -2.76 -0.211 21
42.764999 -2.832 -0.20299999 80
42.783001 -2.924 -0.197 87
40.494999 -2.855 -0.18099999 44
42.777 -3.1070001 -0.185 88
0 0 0 9
39.143002 -3.0090001 -0.16 5
38.722 -3.0580001 -0.154 83
38.724998 -3.141 -0.149 88
38.721001 -3.223 -0.145 85
36.933998 -3.152 -0.13500001 4
36.374001 -3.181 -0.13 2
0 0 0 0
0 0 0 1
20.412001 -1.913 -0.068000004 1
20.26 -1.942 -0.067000002 2
20.179001 -1.975 -0.064999998 6
20.125 -2.0109999 -0.064000003 12
20.105 -2.053 -0.063000001 11
0 0 0 25
0 0 0 25
0 0 0 25
0 0 0 25
0 0 0 1
19.534 -2.2379999 -0.059999999 1
19.569 -2.283 -0.059999999 1
19.552 -2.3210001 -0.059999999 1
19.451 -2.349 -0.059999999 1
19.330999 -2.3740001 -0.061000001 1
19.423 -2.4260001 -0.061999999 1
19.368999 -2.4590001 -0.061999999 1
19.384001 -2.5 -0.063000001 1
19.398001 -2.5420001 -0.064000003 1
19.329 -2.573 -0.064999998 1
19.325001 -2.612 -0.066 1
19.415001 -2.6630001 -0.068000004 1
19.368999 -2.697 -0.068999998 1
19.471001 -2.75 -0.071000002 1
19.406 -2.78 -0.072999999 1
19.455 -2.826 -0.075000003 1
19.341999 -2.848 -0.077 1
19.33 -2.885 -0.079000004 1
19.197001 -2.904 -0.079999998 1
19.295 -2.9579999 -0.082999997 1
19.129999 -2.97 -0.085000001 1
19.219999 -3.0220001 -0.088 1
19.291 -3.072 -0.090999998 1
19.278999 -3.1070001 -0.093000002 1
19.162001 -3.1270001 -0.096000001 1
19.165001 -3.165 -0.098999999 1
19.226999 -3.2119999 -0.102 1
19.25 -3.253 -0.106 1
19.302 -3.3 -0.109 1
19.399 -3.3540001 -0.113 1
19.268999 -3.368 -0.116 1
19.299999 -3.411 -0.12 1
19.261 -3.441 -0.123 1
0 0 0 0
0 0 0 0
0 0 0 0
0 0 0 5
0 0 0 1
0 0 0 10
0 0 0 0
0 0 0 0
0 0 0 0
0 0 0 0
0 0 0 0
0 0 0 0
0 0 0 28
35.299 -7.2350001 -0.34299999 16
35.088001 -7.256 -0.35100001 37
35.081001 -7.3189998 -0.36000001 55
35.041 -7.3740001 -0.37 107
35.056 -7.441 -0.38 86
35.048 -7.5009999 -0.38999999 111
35.042 -7.5630002 -0.40099999 107
0 0 0 6
19.183001 -4.2080002 -0.23100001 18
19.094999 -4.223 -0.235 22
19.051001 -4.2470002 -0.241 22
18.979 -4.2639999 -0.24600001 31
18.971001 -4.2950001 -0.252 37
18.931999 -4.3189998 -0.25799999 37
18.905001 -4.3449998 -0.264 39
18.872999 -4.3709998 -0.27000001 42
18.867001 -4.401 -0.27599999 49
18.844999 -4.428 -0.28200001 33
18.823 -4.454 -0.28799999 48
18.822001 -4.4850001 -0.29499999 39
18.806 -4.513 -0.301 36
18.747 -4.5300002 -0.30700001 40
0 0 0 67
17.212 -4.2160001 -0.29499999 27
17.047001 -4.2030001 -0.29800001 6
17.083 -4.2399998 -0.30500001 14
16.944 -4.2329998 -0.30899999 50
16.870001 -4.2420001 -0.31400001 50
16.823999 -4.257 -0.31999999 48
16.77 -4.27 -0.32499999 47
16.759001 -4.2930002 -0.331 59
16.705999 -4.3060002 -0.33700001 56
16.642 -4.316 -0.34200001 49
16.539 -4.3140001 -0.347 53
16.465 -4.3200002 -0.352 55
16.483 -4.3499999 -0.359 57
16.43 -4.3610001 -0.36500001 44
16.452999 -4.3920002 -0.37200001 57
16.455 -4.4180002 -0.37900001 49
16.448 -4.4400001 -0.38600001 51
16.457001 -4.467 -0.39300001 60
16.496 -4.5019999 -0.40099999 66
16.448999 -4.513 -0.40700001 53
16.436001 -4.533 -0.41299999 47
16.537001 -4.5840001 -0.42300001 67
16.625 -4.632 -0.43200001 58
16.541 -4.6329999 -0.43700001 67
16.464001 -4.6339998 -0.44299999 42
16.468 -4.6589999 -0.44999999 44
16.424 -4.6680002 -0.456 36
16.441999 -4.6960001 -0.46399999 34
16.426001 -4.7140002 -0.47099999 31
16.406 -4.73 -0.477 42
16.412001 -4.7540002 -0.48500001 21
16.427 -4.7800002 -0.493 4
0 0 0 4
39.132999 -11.491 -1.212 2
0 0 0 2
0 0 0 0
0 0 0 1
14.667 -4.381 -0.48100001 3
14.61 -4.382 -0.486 6
14.551 -4.3829999 -0.491 9
14.529 -4.3940001 -0.49700001 15
14.449 -4.3870001 -0.50099999 9
14.398 -4.3889999 -0.50599998 12
14.335 -4.3870001 -0.51099998 12
14.299 -4.3930001 -0.51599997 11
14.219 -4.3839998 -0.51999998 10
14.159 -4.382 -0.52499998 10
14.138 -4.3920002 -0.52999997 8
14.096 -4.395 -0.53600001 9
14.058 -4.3979998 -0.54100001 10
14.021 -4.402 -0.54699999 15
13.97 -4.402 -0.551 10
13.932 -4.4050002 -0.55599999 11
13.894 -4.4070001 -0.56199998 11
13.847 -4.4070001 -0.56599998 11
13.815 -4.4109998 -0.57200003 11
13.772 -4.4109998 -0.57700002 9
13.719 -4.408 -0.58099997 29
13.701 -4.4159999 -0.58700001 40
13.696 -4.428 -0.59299999 38
13.708 -4.4450002 -0.60100001 26
13.71 -4.4590001 -0.60699999 26
13.711 -4.4720001 -0.61400002 28
0 0 0 1
8.2989998 -2.7219999 -0.38 7
8.2480001 -2.7130001 -0.382 28
8.2390003 -2.717 -0.38499999 76
8.2440004 -2.7260001 -0.389 150
8.224 -2.727 -0.39199999 159
8.2340002 -2.737 -0.39700001 159
8.243 -2.747 -0.40099999 159
8.2250004 -2.7479999 -0.40400001 159
8.2250004 -2.7539999 -0.40900001 160
8.2340002 -2.7639999 -0.41299999 162
8.2299995 -2.7690001 -0.417 164
8.2250004 -2.7739999 -0.421 166
8.2270002 -2.78 -0.42500001 170
8.2189999 -2.7839999 -0.428 166
8.2119999 -2.7869999 -0.43200001 166
8.2220001 -2.796 -0.43599999 163
8.2440004 -2.8099999 -0.442 161
8.1929998 -2.7980001 -0.44299999 160
8.1920004 -2.803 -0.447 159
8.1990004 -2.8110001 -0.45100001 159
8.1750002 -2.8080001 -0.454 153
8.2259998 -2.8299999 -0.46000001 150
8.2320004 -2.8380001 -0.465 132
8.2620001 -2.8529999 -0.47099999 151
8.2229996 -2.845 -0.472 159
8.2119999 -2.845 -0.47499999 159
8.1759996 -2.8369999 -0.477 159
8.2010002 -2.8499999 -0.48199999 160
8.2010002 -2.855 -0.486 160
8.2080002 -2.8610001 -0.491 162
8.2060003 -2.865 -0.495 164
8.2150002 -2.872 -0.49900001 165
8.2259998 -2.8800001 -0.50400001 167
8.2110004 -2.878 -0.50599998 167
8.2119999 -2.882 -0.50999999 163
8.2060003 -2.8840001 -0.514 161
8.1999998 -2.885 -0.51700002 160
8.1800003 -2.881 -0.51999998 159
8.1999998 -2.891 -0.52399999 159
8.1899996 -2.891 -0.528 159
8.1999998 -2.8970001 -0.53200001 159
8.1960001 -2.8989999 -0.53600001 159
8.177 -2.895 -0.53799999 159
8.2209997 -2.9119999 -0.54500002 156
8.1899996 -2.904 -0.546 154
8.1969995 -2.9089999 -0.55000001 152
8.1960001 -2.911 -0.55400002 150
8.191 -2.911 -0.55699998 116
8.1780005 -2.908 -0.56 50
8.1560001 -2.902 -0.56199998 25
8.1379995 -2.898 -0.56400001 12
8.1540003 -2.905 -0.56900001 9
8.1409998 -2.902 -0.57200003 12
8.1479998 -2.9059999 -0.57599998 8
8.1560001 -2.9100001 -0.57999998 5
8.1599998 -2.9119999 -0.583 5
8.158 -2.9130001 -0.58700001 4
8.1440001 -2.9089999 -0.58899999 3
8.1639996 -2.9159999 -0.59399998 3
8.1549997 -2.914 -0.597 3
8.1590004 -2.9159999 -0.60100001 2
8.1560001 -2.915 -0.60399997 2
8.1590004 -2.9159999 -0.60699999 2
8.1450005 -2.911 -0.61000001 2
8.158 -2.9159999 -0.61400002 2
8.1479998 -2.9119999 -0.616 3
8.1529999 -2.914 -0.62 3
8.1389999 -2.9089999 -0.62199998 4
8.1420002 -2.9089999 -0.62599999 5
8.132 -2.905 -0.62800002 7
8.1269999 -2.9030001 -0.63099998 10
8.132 -2.904 -0.634 9
8.1379995 -2.905 -0.63800001 21
8.1499996 -2.908 -0.64200002 33
8.1619997 -2.911 -0.64600003 49
8.177 -2.915 -0.64999998 71
8.1870003 -2.918 -0.65399998 92
8.2019997 -2.921 -0.65799999 117
8.1929998 -2.9159999 -0.66000003 150
8.1940002 -2.915 -0.66399997 152
8.1490002 -2.8970001 -0.66299999 153
8.1680002 -2.902 -0.667 158
8.1800003 -2.904 -0.671 159
8.1759996 -2.9000001 -0.67400002 159
8.1789999 -2.8989999 -0.67699999 159
8.1800003 -2.8970001 -0.68000001 159
8.165 -2.8889999 -0.68099999 159
8.2030001 -2.9000001 -0.68699998 159
8.1470003 -2.8770001 -0.685 159
8.1700001 -2.882 -0.68900001 159
8.151 -2.8729999 -0.69099998 158
8.1490002 -2.869 -0.69300002 155
8.1630001 -2.8699999 -0.69599998 152
8.1700001 -2.869 -0.69999999 152
8.1639996 -2.8640001 -0.70200002 152
8.1680002 -2.8610001 -0.70499998 152
8.1619997 -2.855 -0.70700002 151
8.1630001 -2.852 -0.70899999 150
8.1730003 -2.8510001 -0.713 103
8.132 -2.8329999 -0.71100003 51
8.1149998 -2.823 -0.71200001 23
8.1230001 -2.8210001 -0.71499997 8
8.125 -2.8169999 -0.71700001 5
8.1359997 -2.8169999 -0.72000003 4
8.1409998 -2.8139999 -0.72299999 4
8.1429996 -2.8099999 -0.72500002 4
8.1409998 -2.8039999 -0.727 4
8.1440001 -2.8 -0.73000002 4
8.1540003 -2.799 -0.73299998 3
8.1490002 -2.7920001 -0.73400003 3
8.1409998 -2.783 -0.736 3
8.1540003 -2.7820001 -0.73900002 4
8.1549997 -2.777 -0.741 3
8.1459999 -2.7679999 -0.74199998 4
8.1540003 -2.7650001 -0.74400002 4
8.1459999 -2.757 -0.74599999 4
8.1409998 -2.7490001 -0.74699998 4
8.1569996 -2.7479999 -0.75 5
8.158 -2.7420001 -0.75199997 4
8.1400003 -2.73 -0.75199997 4
8.1610003 -2.73 -0.755 3
8.1420002 -2.717 -0.755 4
8.1499996 -2.714 -0.75800002 3
8.1470003 -2.7060001 -0.759 4
8.1470003 -2.6989999 -0.75999999 4
8.1490002 -2.6930001 -0.76200002 3
8.1479998 -2.6849999 -0.76300001 2
8.1540003 -2.6800001 -0.76499999 2
8.1610003 -2.675 -0.76700002 1
8.1809998 -2.674 -0.76999998 2
8.1859999 -2.668 -0.77200001 2
8.217 -2.671 -0.77600002 2
8.2189999 -2.6630001 -0.778 2
8.2480001 -2.665 -0.78200001 2
8.3070002 -2.6760001 -0.78799999 1
8.4750004 -2.7219999 -0.80500001 1
8.5790005 -2.747 -0.81599998 1
8.6090002 -2.7479999 -0.81999999 1
8.6309996 -2.7460001 -0.82300001 1
8.6590004 -2.7460001 -0.82700002 1
8.6999998 -2.75 -0.83200002 1
8.7270002 -2.7490001 -0.83499998 2
8.7609997 -2.75 -0.83899999 2
8.7919998 -2.75 -0.84299999 4
8.8409996 -2.756 -0.84899998 3
8.8240004 -2.7409999 -0.847 5
8.8219995 -2.73 -0.84799999 4
8.8059998 -2.7160001 -0.847 5
8.7740002 -2.6949999 -0.84399998 5
8.7679996 -2.684 -0.84399998 6
8.7410002 -2.665 -0.84200001 7
8.717 -2.648 -0.83999997 8
8.7220001 -2.6389999 -0.84100002 6
8.6960001 -2.6210001 -0.83899999 10
8.7060003 -2.6129999 -0.83999997 7
8.6920004 -2.598 -0.83899999 8
8.6940002 -2.5880001 -0.83899999 8
8.6920004 -2.5769999 -0.83899999 9
8.6920004 -2.566 -0.83899999 9
8.6750002 -2.55 -0.838 8
8.6800003 -2.54 -0.838 9
8.6969995 -2.5339999 -0.83999997 12
8.7110004 -2.527 -0.84100002 11
8.7189999 -2.5179999 -0.84100002 12
8.7189999 -2.506 -0.84200001 13
8.7309999 -2.4979999 -0.84200001 11
8.7419996 -2.4890001 -0.84299999 11
8.7580004 -2.4820001 -0.84399998 17
8.7770004 -2.4749999 -0.84600002 17
8.8059998 -2.4719999 -0.84799999 13
8.8140001 -2.4619999 -0.84799999 15
8.823 -2.4519999 -0.84799999 17
8.8570004 -2.4489999 -0.85100001 19
8.8690004 -2.4400001 -0.85100001 14
8.8879995 -2.4330001 -0.852 13
8.8950005 -2.4219999 -0.852 11
8.908 -2.4130001 -0.85299999 11
8.908 -2.4000001 -0.852 12
8.9329996 -2.3940001 -0.85299999 8
8.9569998 -2.3870001 -0.85399997 7
8.9639997 -2.375 -0.85399997 6
8.9890003 -2.369 -0.85500002 5
9.0229998 -2.365 -0.85699999 5
9.0229998 -2.3510001 -0.85600001 6
9.0450001 -2.3429999 -0.85699999 5
9.0439997 -2.329 -0.85500002 5
9.0640001 -2.3199999 -0.85600001 3
9.0719995 -2.3080001 -0.85500002 3
9.0939999 -2.3 -0.85500002 4
9.1009998 -2.2869999 -0.85399997 3
9.0880003 -2.27 -0.85100001 4
9.1169996 -2.263 -0.852 3
9.151 -2.256 -0.85399997 3
9.1759996 -2.2479999 -0.85399997 3
9.2159996 -2.243 -0.85600001 3
9.2469997 -2.2360001 -0.85699999 3
9.2880001 -2.2309999 -0.85799998 3
9.3389997 -2.2279999 -0.861 3
9.3450003 -2.214 -0.85900003 3
9.4069996 -2.2130001 -0.86299998 2
9.4320002 -2.204 -0.86299998 3
9.4750004 -2.1989999 -0.86400002 3
9.5159998 -2.1919999 -0.86500001 3
9.5360003 -2.181 -0.86500001 3
9.5900002 -2.178 -0.86699998 3
9.6149998 -2.168 -0.86699998 3
9.6739998 -2.165 -0.86900002 3
9.7069998 -2.1559999 -0.86900002 3
9.7819996 -2.155 -0.87300003 2
9.8199997 -2.1470001 -0.87300003 2
9.8940001 -2.1470001 -0.87599999 2
9.9549999 -2.1429999 -0.87900001 2
10.017 -2.1389999 -0.88099998 2
10.071 -2.1329999 -0.88200003 4
10.134 -2.1289999 -0.884 3
10.213 -2.128 -0.88800001 4
10.289 -2.1259999 -0.88999999 4
10.33 -2.1159999 -0.88999999 4
10.42 -2.1159999 -0.89399999 3
10.482 -2.1099999 -0.89499998 4
10.536 -2.102 -0.89600003 3
10.629 -2.102 -0.89899999 3
10.731 -2.1029999 -0.90399998 3
10.817 -2.0999999 -0.90700001 3
10.888 -2.095 -0.90799999 3
10.987 -2.0940001 -0.912 2
11.106 -2.0969999 -0.917 3
11.191 -2.0929999 -0.91900003 3
11.322 -2.0969999 -0.92400002 3
11.434 -2.0969999 -0.92799997 2
11.518 -2.092 -0.93000001 3
11.565 -2.079 -0.92900002 3
11.699 -2.082 -0.93400002 3
11.85 -2.0869999 -0.94 2
11.978 -2.0880001 -0.94499999 2
12.111 -2.089 -0.949 3
12.267 -2.0940001 -0.95499998 3
12.4 -2.0929999 -0.95899999 3
12.591 -2.102 -0.96799999 3
12.715 -2.0999999 -0.97000003 3
12.858 -2.0999999 -0.97399998 3
12.994 -2.0969999 -0.97799999 3
13.16 -2.0999999 -0.98299998 3
13.387 -2.1110001 -0.99299997 3
13.626 -2.1229999 -1.003 5
13.718 -2.112 -1.002 7
13.907 -2.115 -1.007 3
14.077 -2.1140001 -1.012 4
14.27 -2.1159999 -1.017 4
14.52 -2.1259999 -1.026 4
14.727 -2.128 -1.0319999 4
14.901 -2.125 -1.035 4
15.082 -2.1229999 -1.038 4
15.374 -2.135 -1.049 5
15.603 -2.1370001 -1.0549999 5
15.81 -2.135 -1.059 5
16.07 -2.1389999 -1.066 5
16.254999 -2.1329999 -1.067 5
16.476999 -2.131 -1.071 5
16.298 -2.0769999 -1.049 5
16.360001 -2.0539999 -1.0420001 4
16.709999 -2.066 -1.052 3
17.000999 -2.0699999 -1.059 2
17.386999 -2.0829999 -1.071 2
17.851 -2.105 -1.087 2
18.624001 -2.161 -1.1210001 2
18.987 -2.1659999 -1.1289999 2
19.525 -2.1900001 -1.147 6
19.368 -2.135 -1.123 6
19.256001 -2.086 -1.102 4
19.252001 -2.0480001 -1.0880001 4
19.239 -2.01 -1.073 4
19.208 -1.97 -1.056 4
19.226 -1.9349999 -1.0420001 4
19.231001 -1.899 -1.028 3
19.159 -1.8559999 -1.0089999 1
0 0 0 3
0 0 0 3
21.864 -1.9910001 -1.1 3
21.862 -1.949 -1.081 3
21.832001 -1.904 -1.062 3
21.868999 -1.865 -1.046 3
22.132 -1.844 -1.04 4
22.403999 -1.824 -1.033 4
0 0 0 42
38.810001 -3.0109999 -1.725 7
0 0 0 2
26.573999 -1.959 -1.135 155
26.586 -1.909 -1.112 164
26.518999 -1.854 -1.086 160
26.569 -1.806 -1.064 154
26.622 -1.7589999 -1.0420001 153
0 0 0 0
0 0 0 0
0 0 0 1
29.073999 -1.7 -1.033 1
0 0 0 0
0 0 0 39
31.157 -1.643 -1.0190001 178
31.183001 -1.585 -0.99000001 175
31.224001 -1.527 -0.96200001 153
0 0 0 33
40.560001 -1.83 -1.171 15
0 0 0 37
43.602001 -1.802 -1.174 39
43.915001 -1.732 -1.1390001 40
44.129002 -1.656 -1.1 40
44.243 -1.579 -1.059 26
44.244999 -1.495 -1.0140001 26
44.352001 -1.4170001 -0.97299999 19
0 0 0 29
66.973 -1.89 -1.3329999 88
66.971001 -1.765 -1.263 90
66.976997 -1.642 -1.1950001 75
66.950996 -1.516 -1.125 56
70.218002 -1.4579999 -1.105 19
70.315002 -1.329 -1.0319999 14
72.691002 -1.242 -0.991 63
75.644997 -1.154 -0.95099998 14
0 0 0 41
134.011 -1.554 -1.399 56
0 0 0 0
0 0 0 90
133.882 -0.81099999 -0.95700002 89
133.886 -0.56699997 -0.81 73
133.841 -0.322 -0.66100001 51
0 0 0 0
0 0 0 0
0 0 0 0
0 0 0 0
0 0 0 0
0 0 0 0
0 0 0 25
0 0 0 0
0 0 0 13
88.494003 1.373 0.565 14
0 0 0 0
0 0 0 0
0 0 0 0
0 0 0 0
0 0 0 0
0 0 0 0
0 0 0 0
0 0 0 18
88.633003 2.766 1.505 26
88.235001 2.904 1.604 26
87.973999 3.049 1.707 29
89.244003 3.2449999 1.839 24
89.488998 3.4070001 1.9529999 19
89.551003 3.5569999 2.062 19
89.661003 3.7149999 2.174 24
0 0 0 0
0 0 0 13
0 0 0 0
0 0 0 0
0 0 0 31
87.855003 4.5250001 2.786 32
87.500999 4.652 2.885 25
87.380997 4.79 2.9909999 22
0 0 0 13
0 0 0 0
0 0 0 20
92.372002 5.6690001 3.631 22
91.990997 5.7919998 3.7320001 26
91.724998 5.9219999 3.8369999 19
89.577003 5.927 3.862 13
89.757004 6.0830002 3.9860001 18
0 0 0 58
117.241 8.3179998 5.5100002 100
117.233 8.5010004 5.6589999 103
117.244 8.6859999 5.8109999 97
117.212 8.8669996 5.9629998 86
117.216 9.0500002 6.1160002 79
117.206 9.2290001 6.2659998 89
117.223 9.4110003 6.4200001 66
117.233 9.5930004 6.5749998 57
117.152 9.7629995 6.7220001 38
0 0 0 0
0 0 0 30
126.159 11.087 7.7379999 30
131.838 11.788 8.2620001 82
131.823 11.984 8.4359999 44
0 0 0 8
63.199001 5.9310002 4.21 17
0 0 0 0
0 0 0 0
0 0 0 0
0 0 0 0
0 0 0 0
0 0 0 0
0 0 0 26
117.4 12.373 9.0740004 37
117.339 12.53 9.2229996 49
117.235 12.683 9.3730001 33
0 0 0 4
0 0 0 0
0 0 0 9
47.676998 5.4200001 4.0669999 11
47.756001 5.494 4.138 18
47.569 5.5370002 4.1859999 17
47.362 5.5760002 4.23 27
47.289001 5.6300001 4.2870002 33
46.84 5.6389999 4.3109999 39
46.755001 5.6900001 4.3649998 44
46.576 5.7309999 4.4120002 46
46.544998 5.7870002 4.4710002 46
46.301998 5.8169999 4.5100002 45
46.323002 5.8769999 4.573 36
46.339001 5.9380002 4.6370001 32
46.346001 5.9980001 4.6999998 22
46.419998 6.0650001 4.7690001 19
0 0 0 0
0 0 0 16
48.32 6.493 5.158 11
49.987999 6.7789998 5.4039998 29
49.825001 6.8169999 5.4520001 30
49.909 6.888 5.5279999 28
49.986 6.9590001 5.6040001 23
49.966 7.0149999 5.6690001 8
0 0 0 17
63.515999 9.0690002 7.3759999 37
63.365002 9.1210003 7.4429998 29
63.250999 9.177 7.5120001 19
0 0 0 0
0 0 0 31
0 0 0 0
0 0 0 0
0 0 0 6
47.092999 7.1479998 5.967 14
46.928001 7.1739998 6.0079999 9
46.879002 7.217 6.0630002 29
46.675999 7.2360001 6.099 44
46.569 7.27 6.1459999 46
46.387001 7.29 6.1810002 45
46.345001 7.3299999 6.2360001 45
46.133999 7.3439999 6.2680001 46
45.688 7.3200002 6.2659998 33
45.243999 7.2940001 6.2639999 36
45.112 7.3179998 6.303 44
45.169998 7.3720002 6.369 35
45.275002 7.434 6.4419999 23
45.403 7.4990001 6.5190001 13
0 0 0 0
0 0 0 15
59.980999 10.079 8.8409996 27
59.82 10.107 8.8940001 39
59.738998 10.149 8.9560003 33
59.765999 10.208 9.0360003 35
59.724998 10.255 9.1049995 39
57.458 9.9180002 8.8319998 10
57.438 9.9650002 8.8990002 7
59.313 10.341 9.2639999 29
59.102001 10.355 9.3030005 22
0 0 0 5
48.276001 8.54 7.7189999 11
48.122002 8.5539999 7.7519999 11
48.105999 8.5909996 7.809 7
0 0 0 39
0 0 0 9
53.179001 9.6260004 8.8249998 8
53.244999 9.6800003 8.901 7
53.228001 9.7180004 8.9619999 7
0 0 0 29
0 0 0 8
44.242001 8.1789999 7.6059999 17
44.248001 8.2130003 7.6599998 17
44.014 8.2019997 7.671 19
43.952999 8.2220001 7.7119999 26
43.887001 8.2399998 7.7509999 20
43.901001 8.2729998 7.8049998 23
43.823002 8.2889996 7.8400002 36
43.756001 8.3059998 7.8790002 40
43.66 8.3170004 7.9120002 40
43.631001 8.3400002 7.9559999 42
43.52 8.3470001 7.9840002 37
43.424999 8.3570004 8.0159998 36
43.332001 8.3660002 8.0459995 40
43.185001 8.3649998 8.0670004 34
43.083 8.3710003 8.0959997 34
43.061001 8.3929996 8.1389999 34
43.000999 8.4069996 8.1739998 37
42.931 8.4169998 8.2080002 33
42.925999 8.441 8.2539997 31
42.915001 8.4630003 8.2969999 29
43.230999 8.5500002 8.4040003 24
43.619999 8.6499996 8.526 23
43.991001 8.7469997 8.6450005 25
44.07 8.7860003 8.7069998 33
44.085999 8.8109999 8.7559996 31
44.042 8.8240004 8.7930002 28
43.972 8.8319998 8.823 26
0 0 0 0
0 0 0 10
42.327999 8.5609999 8.6219997 15
42.263 8.5670004 8.651 24
42.373001 8.6079998 8.7150002 32
42.187 8.5880003 8.7180004 40
42.131001 8.5939999 8.7469997 40
42.132 8.6120005 8.7880001 40
42.159 8.6330004 8.835 40
42.346001 8.6879997 8.9139996 31
42.535 8.743 8.9940004 27
42.564999 8.7650003 9.04 24
42.665001 8.8000002 9.1009998 24
42.816002 8.8470001 9.1709995 21
43.102001 8.9209995 9.2709999 19
43.198002 8.9549999 9.3310003 21
43.338001 8.9969997 9.3999996 22
43.379002 9.0179996 9.4469995 22
43.359001 9.0270004 9.4790001 23
43.34 9.0349998 9.5129995 21
43.272999 9.0340004 9.5340004 21
43.183998 9.026 9.552 23
43.088001 9.0170002 9.5670004 24
43.019001 9.0139999 9.5869999 31
42.933998 9.0050001 9.6040001 32
42.922001 9.0129995 9.6359997 33
42.876999 9.0120001 9.6599998 33
42.886002 9.0220003 9.6960001 32
42.917999 9.0369997 9.7379999 30
43.005001 9.0629997 9.7910004 28
43.136002 9.1000004 9.8540001 24
42.636002 9.0010004 9.7729998 17
42.598 9 9.7950001 13
42.657001 9.0179996 9.8400002 11
43.838001 9.2740002 10.145 18
44.028 9.3190002 10.221 17
44.030998 9.3249998 10.254 11
44.028999 9.3290005 10.284 7
44.056 9.3380003 10.322 4
0 0 0 0
0 0 0 0
0 0 0 0
0 0 0 0
0 0 0 24
116.857 24.813999 27.841 28
116.637 24.768999 27.863001 28
116.624 24.77 27.929001 29
116.73 24.790001 28.028999 30
116.631 24.768 28.075001 37
116.581 24.754999 28.132 36
116.65 24.768 28.214001 41
0 0 0 0
0 0 0 0
0 0 0 6
41.449001 8.7919998 10.116 7
41.466999 8.7919998 10.143 8
41.41 8.7779999 10.15 9
41.346001 8.7600002 10.155 9
41.367001 8.7600002 10.181 9
41.333 8.7480001 10.192 8
41.278999 8.7320004 10.198 9
41.227001 8.7139997 10.205 9
41.202 8.7030001 10.218 11
41.155998 8.6870003 10.224 8
41.140999 8.677 10.238 10
41.125 8.6660004 10.252 8
41.136002 8.6619997 10.271 6
41.105999 8.6470003 10.281 5
41.075001 8.6330004 10.288 3
0 0 0 18
43.673 9.1599998 10.971 19
43.576 9.1300001 10.962 23
43.587002 9.1219997 10.98 25
43.612 9.1169996 11 25
43.566002 9.0950003 11.003 30
43.525002 9.0749998 11.006 32
43.499001 9.0570002 11.013 33
43.497002 9.0450001 11.025 32
43.550999 9.0430002 11.051 33
43.557999 9.0310001 11.064 33
43.597 9.0249996 11.085 33
43.594002 9.0109997 11.095 33
43.613998 9 11.111 33
43.596001 8.9809999 11.116 34
43.626999 8.9720001 11.134 33
43.639999 8.96 11.145 32
43.654999 8.9460001 11.157 32
43.652 8.9289999 11.164 32
43.626999 8.908 11.165 34
43.652 8.8959999 11.178 34
43.657001 8.8789997 11.186 33
43.681 8.8660002 11.197 33
43.662998 8.8439999 11.198 34
43.630001 8.8179998 11.194 34
43.605 8.7950001 11.192 33
43.598999 8.7740002 11.194 32
43.589001 8.7519999 11.195 34
43.544998 8.7220001 11.187 34
43.535999 8.7010002 11.186 35
43.612999 8.6949997 11.208 35
43.655998 8.6820002 11.22 36
43.675999 8.6630001 11.226 35
43.691002 8.6440001 11.231 34
43.715 8.6269999 11.237 34
43.691002 8.599 11.23 34
43.713001 8.5810003 11.234 35
43.735001 8.5620003 11.238 35
43.727001 8.5360003 11.234 36
43.763 8.5179996 11.24 41
43.812 8.5039997 11.249 36
43.834999 8.4829998 11.252 34
43.800999 8.4499998 11.239 36
43.827 8.4309998 11.24 33
43.851002 8.4090004 11.241 33
43.903 8.3920002 11.249 29
43.917999 8.3669996 11.247 29
43.938 8.3439999 11.245 29
43.958 8.3190002 11.243 21
43.915001 8.283 11.224 22
43.875 8.2480001 11.205 24
43.853001 8.2150002 11.191 16
0 0 0 0
0 0 0 25
117.269 21.735001 29.847 28
117.304 21.660999 29.827 27
0 0 0 0
0 0 0 0
0 0 0 0
0 0 0 0
0 0 0 0
0 0 0 0
0 0 0 0
0 0 0 0
0 0 0 0
0 0 0 0
0 0 0 0
0 0 0 25
117.38 20.558001 29.344 25
0 0 0 0
0 0 0 0
0 0 0 0
0 0 0 26
117.012 20.027 28.996 30
117.116 19.952999 28.966 32
117.064 19.844999 28.9 34
117.011 19.740999 28.826 42
117.057 19.65 28.778999 49
117.015 19.545 28.709 60
117.054 19.452 28.657 57
117.07 19.358 28.597 62
117.104 19.261999 28.541 68
117.051 19.152 28.462999 55
117.115 19.059999 28.412001 60
117.146 18.965 28.35 52
117.094 18.853001 28.268 51
117.086 18.747999 28.195 46
117.137 18.655001 28.135 56
117.097 18.542999 28.052 44
117.15 18.445 27.99 52
117.103 18.330999 27.902 49
117.162 18.233999 27.841 44
117.146 18.125 27.756001 51
117.161 18.018999 27.679001 45
117.14 17.906 27.591999 68
117.164 17.802 27.518 54
117.171 17.695999 27.434999 52
117.171 17.584999 27.35 50
117.203 17.479 27.27 56
117.198 17.365999 27.181 48
117.206 17.254 27.093 53
117.218 17.146 27.004999 51
117.179 17.027 26.903999 55
117.207 16.917999 26.813999 53
117.254 16.809 26.733 49
117.207 16.688 26.622999 53
117.206 16.572001 26.525999 68
0 0 0 0
0 0 0 0
0 0 0 0
0 0 0 0
0 0 0 0
0 0 0 25
0 0 0 0
0 0 0 0
0 0 0 0
0 0 0 0
0 0 0 0
0 0 0 0
0 0 0 25
117.456 14.949 25.083 26
117.455 14.826 24.966 35
117.36 14.693 24.825001 43
117.401 14.575 24.714001 55
117.354 14.446 24.584 61
117.36 14.323 24.464001 62
117.397 14.204 24.348 61
117.413 14.082 24.228001 69
117.417 13.958 24.103001 71
117.383 13.83 23.966 64
117.425 13.713 23.851 46
117.404 13.583 23.714001 43
117.441 13.461 23.591 34
117.454 13.337 23.462 34
117.6 13.228 23.358999 26
0 0 0 0
0 0 0 0
0 0 0 0
0 0 0 0
0 0 0 0
0 0 0 26
0 0 0 0
0 0 0 0
0 0 0 0
0 0 0 0
0 0 0 0
0 0 0 0
0 0 0 0
0 0 0 0
0 0 0 0
0 0 0 0
0 0 0 36
117.592 10.942 20.767 46
117.546 10.808 20.604 54
117.528 10.678 20.445 72
117.563 10.552 20.294001 75
117.571 10.424 20.136999 72
117.543 10.293 19.974001 77
117.58 10.168 19.82 70
117.574 10.038 19.657 68
117.632 9.9139996 19.504 66
117.674 9.7919998 19.349001 33
117.701 9.6630001 19.184 32
117.841 9.5450001 19.040001 29
117.732 9.408 18.856001 32
117.731 9.2790003 18.688 30
117.746 9.1540003 18.523001 29
117.78 9.0279999 18.358 33
117.776 8.9020004 18.191 29
117.775 8.7740002 18.014999 28
117.868 8.6520004 17.856001 29
117.83 8.5209999 17.676001 28
117.945 8.401 17.518 28
117.768 8.2639999 17.316999 37
117.802 8.1379995 17.143999 28
117.807 8.0109997 16.966999 24
117.713 7.8769999 16.774 37
117.722 7.7529998 16.597 52
117.715 7.6259999 16.415001 62
117.667 7.4959998 16.226 74
117.68 7.3699999 16.045 76
117.709 7.2449999 15.865 64
117.661 7.1160002 15.673 70
117.704 6.993 15.493 45
117.862 6.8759999 15.327 52
117.939 6.7579999 15.151 27
0 0 0 0
0 0 0 0
0 0 0 0
0 0 0 0
0 0 0 28
118.151 6.0190001 14.024 27
118.08 5.8920002 13.821 30
117.874 5.7579999 13.601 34
117.919 5.6370001 13.41 29
117.975 5.5170002 13.219 34
118.113 5.401 13.033 38
117.969 5.2750001 12.824 39
117.602 5.1370001 12.585 40
117.756 5.0219998 12.401 67
117.766 4.902 12.201 88
0 0 0 0
0 0 0 73
120.257 4.6370001 11.834 86
120.24 4.5149999 11.624 81
120.242 4.3940001 11.415 89
120.254 4.2729998 11.206 97
120.339 4.158 11.005 64
0 0 0 0
0 0 0 33
126.264 3.9860001 10.877 29
0 0 0 0
0 0 0 0
0 0 0 0
0 0 0 0
0 0 0 0
0 0 0 35
120.409 2.9849999 8.8610001 49
120.432 2.869 8.6389999 43
120.526 2.7590001 8.4320002 44
120.551 2.6459999 8.2130003 34
120.512 2.53 7.9840002 36
120.552 2.418 7.7649999 33
120.572 2.306 7.5430002 33
120.577 2.1930001 7.3189998 30
120.45 2.082 7.0929999 37
0 0 0 0
0 0 0 33
120.428 1.753 6.4180002 52
120.331 1.643 6.1859999 67
120.338 1.534 5.9590001 69
0 0 0 0
0 0 0 0
0 0 0 15
0 0 0 75
120.636 1.008 4.8319998 61
121.127 0.90700001 4.619 26
0 0 0 0
0 0 0 0
0 0 0 0
0 0 0 0
0 0 0 22
82.961998 0.198 2.204 40
83.144997 0.13 2.0469999 33
0 0 0 0
0 0 0 17
87.133003 -0.075999998 1.636 20
84.460999 -0.142 1.42 13
84.321999 -0.20900001 1.252 42
84.320999 -0.27500001 1.0880001 34
85.648003 -0.34799999 0.93699998 21
86.351997 -0.41800001 0.77399999 18
86.578003 -0.48699999 0.60399997 16
0 0 0 0
0 0 0 0
0 0 0 15
73.307999 -0.63499999 -0.068000004 50
73.290001 -0.68900001 -0.213 73
73.300003 -0.74299997 -0.359 64
73.292999 -0.79699999 -0.50599998 41
0 0 0 0
0 0 0 33
0 0 0 0
0 0 0 61
0 0 0 12
73.447998 -1.112 -1.391 36
73.417 -1.1619999 -1.536 44
72.463997 -1.196 -1.663 84
72.360001 -1.243 -1.804 139
72.364998 -1.2920001 -1.951 30
70.126999 -1.298 -2.033 26
70.107002 -1.344 -2.174 12
0 0 0 0
0 0 0 6
57.745998 -1.2180001 -2.141 6
0 0 0 0
0 0 0 5
0 0 0 2
0 0 0 0
0 0 0 0
0 0 0 1
0 0 0 1
25.368999 -0.65799999 -1.352 1
0 0 0 1
0 0 0 1
0 0 0 1
0 0 0 1
0 0 0 2
15.036 -0.44 -0.98400003 4
14.641 -0.43599999 -0.98799998 11
13.762 -0.41800001 -0.958 3
13.067 -0.403 -0.935 3
12.453 -0.391 -0.917 3
11.893 -0.37900001 -0.89999998 2
11.383 -0.368 -0.884 2
10.91 -0.35800001 -0.87 2
10.479 -0.34900001 -0.85699999 3
10.092 -0.34099999 -0.84600002 3
9.6859999 -0.33199999 -0.83099997 3
9.3190002 -0.324 -0.81900001 3
8.9849997 -0.317 -0.80800003 3
8.5970001 -0.30700001 -0.79000002 4
8.309 -0.30000001 -0.78100002 5
8.0380001 -0.294 -0.77100003 4
7.7280002 -0.28600001 -0.75700003 3
7.5190001 -0.28099999 -0.75199997 4
7.2740002 -0.27500001 -0.74199998 4
7.046 -0.26899999 -0.73299998 4
6.8540001 -0.26499999 -0.727 4
6.6479998 -0.259 -0.71899998 5
6.4510002 -0.25400001 -0.70999998 6
6.2670002 -0.249 -0.70300001 5
6.1409998 -0.24699999 -0.70099998 4
5.974 -0.242 -0.69400001 3
5.8210001 -0.23800001 -0.68800002 3
5.6659999 -0.234 -0.68099999 5
5.5019999 -0.229 -0.67199999 7
5.3899999 -0.226 -0.67000002 9
5.2919998 -0.22400001 -0.66799998 10
5.1690001 -0.22 -0.66299999 11
5.0560002 -0.21699999 -0.65799999 11
4.9530001 -0.214 -0.65499997 12
4.8520002 -0.211 -0.65100002 12
4.7540002 -0.208 -0.648 13
4.6760001 -0.206 -0.64600003 12
4.5900002 -0.204 -0.64300001 10
4.5409999 -0.20299999 -0.64600003 6
4.461 -0.20100001 -0.64300001 3
4.4050002 -0.199 -0.64399999 2
4.2779999 -0.19499999 -0.634 2
4.1890001 -0.192 -0.62900001 2
4.1560001 -0.191 -0.63200003 2
4.079 -0.189 -0.62800002 2
4.0149999 -0.18700001 -0.62599999 2
3.961 -0.185 -0.625 2
3.8540001 -0.18099999 -0.616 2
3.892 -0.184 -0.63 3
3.7639999 -0.178 -0.616 2
3.7179999 -0.177 -0.616 2
3.6589999 -0.175 -0.61299998 3
3.602 -0.17299999 -0.61000001 2
3.516 -0.169 -0.60299999 1
3.503 -0.169 -0.60699999 2
3.424 -0.16599999 -0.60000002 1
3.5450001 -0.17200001 -0.62800002 2
3.3699999 -0.164 -0.60299999 1
3.3859999 -0.16599999 -0.61199999 1
3.3729999 -0.16599999 -0.616 2
3.2650001 -0.161 -0.60299999 1
3.26 -0.161 -0.60799998 2
3.302 -0.163 -0.62199998 1
3.204 -0.15899999 -0.61000001 1
3.066 -0.152 -0.58899999 1
3.177 -0.15800001 -0.616 2
2.994 -0.149 -0.58600003 2
2.961 -0.148 -0.58499998 2
3.0380001 -0.152 -0.60600001 2
2.9779999 -0.149 -0.59899998 1
2.8529999 -0.14300001 -0.579 1
2.8199999 -0.142 -0.57800001 2
2.8039999 -0.141 -0.57999998 2
2.7809999 -0.14 -0.57999998 2
2.75 -0.139 -0.57800001 2
2.7219999 -0.138 -0.57700002 2
2.691 -0.13600001 -0.57599998 1
2.6670001 -0.13500001 -0.57499999 1
2.6389999 -0.134 -0.574 1
2.6140001 -0.132 -0.57300001 2
2.5940001 -0.131 -0.57300001 2
2.5669999 -0.13 -0.57200003 1
2.549 -0.12899999 -0.57200003 1
2.53 -0.12800001 -0.57200003 1
2.497 -0.127 -0.56900001 1
2.4809999 -0.126 -0.56999999 1
2.4579999 -0.125 -0.56900001 1
2.438 -0.123 -0.56800002 1
2.4219999 -0.123 -0.56800002 1
2.4000001 -0.121 -0.56800002 1
2.3759999 -0.12 -0.56599998 1
2.3570001 -0.119 -0.565 1
2.3380001 -0.118 -0.565 1
2.3210001 -0.117 -0.56400001 1
2.302 -0.116 -0.56300002 1
2.286 -0.115 -0.56300002 1
2.267 -0.114 -0.56199998 1
2.2509999 -0.113 -0.56199998 1
2.2360001 -0.112 -0.56199998 1
2.2249999 -0.111 -0.56300002 1
2.2060001 -0.11 -0.56099999 1
2.1889999 -0.109 -0.56099999 1
2.1700001 -0.108 -0.55900002 1
2.158 -0.107 -0.55900002 1
2.1429999 -0.106 -0.55900002 1
2.135 -0.105 -0.56 1
2.1170001 -0.104 -0.55900002 1
2.0910001 -0.103 -0.55500001 1
2.073 -0.102 -0.55299997 1
2.062 -0.101 -0.55299997 1
2.05 -0.1 -0.55299997 1
2.0380001 -0.098999999 -0.55299997 1
2.027 -0.097999997 -0.55299997 1
2.017 -0.097000003 -0.55299997 1
2.0020001 -0.096000001 -0.55199999 1
1.995 -0.096000001 -0.55299997 1
1.97 -0.093999997 -0.54900002 1
1.961 -0.093000002 -0.54900002 1
1.949 -0.093000002 -0.54900002 1
1.944 -0.092 -0.55000001 1
1.932 -0.090999998 -0.54900002 1
1.92 -0.090000004 -0.54799998 1
1.908 -0.089000002 -0.54799998 1
1.906 -0.089000002 -0.55000001 1
1.89 -0.088 -0.54799998 1
1.875 -0.086999997 -0.546 1
1.867 -0.086000003 -0.546 1
1.857 -0.085000001 -0.546 1
1.848 -0.083999999 -0.54500002 1
1.841 -0.082999997 -0.546 1
1.827 -0.082000002 -0.54400003 1
1.821 -0.082000002 -0.54500002 1
1.814 -0.081 -0.54500002 1
1.793 -0.079999998 -0.54100001 1
1.7869999 -0.079000004 -0.54100001 2
1.78 -0.078000002 -0.54100001 2
1.777 -0.078000002 -0.542 3
1.771 -0.077 -0.54299998 4
1.765 -0.075999998 -0.54299998 4
1.765 -0.075999998 -0.54500002 4
1.758 -0.075000003 -0.54500002 3
1.753 -0.074000001 -0.546 3
1.744 -0.074000001 -0.54500002 2
1.7309999 -0.072999999 -0.54299998 2
1.7309999 -0.071999997 -0.54500002 2
1.715 -0.071000002 -0.542 2
1.712 -0.07 -0.542 2
1.705 -0.07 -0.542 2
1.694 -0.068999998 -0.54000002 1
1.688 -0.068000004 -0.54000002 1
1.6799999 -0.067000002 -0.53899997 1
1.674 -0.067000002 -0.53899997 1
1.67 -0.066 -0.54000002 1
1.6670001 -0.064999998 -0.54000002 1
1.661 -0.064999998 -0.54000002 1
1.655 -0.064000003 -0.54000002 1
1.643 -0.063000001 -0.53799999 1
1.632 -0.061999999 -0.53500003 1
1.627 -0.061000001 -0.53600001 1
1.6210001 -0.061000001 -0.53500003 1
1.622 -0.059999999 -0.537 1
1.619 -0.059 -0.537 1
1.613 -0.059 -0.537 1
1.61 -0.057999998 -0.537 1
1.592 -0.057 -0.53200001 1
1.586 -0.056000002 -0.53200001 1
1.58 -0.055 -0.53100002 1
1.579 -0.055 -0.53200001 1
1.577 -0.054000001 -0.53299999 1
1.576 -0.054000001 -0.53399998 1
1.572 -0.052999999 -0.53399998 1
1.559 -0.052000001 -0.52999997 1
1.568 -0.052000001 -0.53500003 1
1.568 -0.050999999 -0.53600001 1
1.562 -0.050999999 -0.53500003 1
1.556 -0.050000001 -0.53399998 1
1.554 -0.048999999 -0.53500003 1
1.544 -0.048 -0.53200001 1
1.548 -0.048 -0.53500003 1
1.54 -0.046999998 -0.53299999 1
1.536 -0.046999998 -0.53200001 1
1.536 -0.046 -0.53299999 1
1.53 -0.045000002 -0.53200001 1
1.5319999 -0.045000002 -0.53399998 1
1.5319999 -0.044 -0.53500003 1
1.531 -0.044 -0.53500003 1
1.529 -0.043000001 -0.53500003 1
1.516 -0.041999999 -0.53200001 1
1.513 -0.041000001 -0.53200001 1
1.5190001 -0.041000001 -0.53399998 1
1.506 -0.039999999 -0.53100002 1
1.5039999 -0.039000001 -0.53100002 1
1.5039999 -0.039000001 -0.53100002 1
1.503 -0.037999999 -0.53200001 1
1.505 -0.037999999 -0.53299999 1
1.497 -0.037 -0.53100002 1
1.482 -0.035999998 -0.52600002 1
1.503 -0.035999998 -0.53399998 1
1.498 -0.035 -0.53299999 1
1.49 -0.035 -0.53100002 1
1.482 -0.034000002 -0.52899998 1
1.49 -0.033 -0.53200001 1
1.483 -0.033 -0.52999997 1
1.477 -0.032000002 -0.52899998 1
1.489 -0.032000002 -0.53299999 1
1.4809999 -0.030999999 -0.53100002 1
1.4809999 -0.029999999 -0.53100002 1
1.482 -0.029999999 -0.53200001 1
1.478 -0.028999999 -0.53100002 1
1.487 -0.028999999 -0.53399998 1
1.476 -0.028000001 -0.53100002 1
1.478 -0.027000001 -0.53200001 1
1.485 -0.027000001 -0.53500003 1
1.482 -0.026000001 -0.53399998 1
1.474 -0.026000001 -0.53100002 1
1.471 -0.025 -0.52999997 1
1.466 -0.024 -0.52899998 1
1.476 -0.024 -0.53200001 1
1.473 -0.023 -0.53200001 1
1.466 -0.022 -0.52899998 1
1.471 -0.022 -0.53100002 1
1.471 -0.021 -0.53100002 1
1.471 -0.021 -0.53100002 1
1.467 -0.02 -0.52999997 1
1.471 -0.02 -0.53100002 1
1.471 -0.018999999 -0.53100002 1
1.471 -0.018999999 -0.53100002 1
1.475 -0.017999999 -0.53299999 1
1.475 -0.017000001 -0.53299999 1
1.473 -0.017000001 -0.53200001 1
1.478 -0.016000001 -0.53299999 1
1.473 -0.016000001 -0.53200001 1
1.476 -0.015 -0.53200001 1
1.472 -0.014 -0.53100002 1
1.478 -0.014 -0.53299999 1
1.479 -0.013 -0.53299999 1
1.474 -0.013 -0.53100002 1
1.482 -0.012 -0.53399998 1
1.474 -0.012 -0.52999997 1
1.4809999 -0.011 -0.53299999 1
1.483 -0.0099999998 -0.53299999 1
1.4809999 -0.0099999998 -0.53200001 1
1.479 -0.0089999996 -0.53100002 1
1.489 -0.0089999996 -0.53399998 1
1.482 -0.0080000004 -0.53100002 1
1.4809999 -0.0070000002 -0.52999997 1
1.4859999 -0.0070000002 -0.53100002 1
1.488 -0.0060000001 -0.53200001 1
1.489 -0.0060000001 -0.53200001 1
1.49 -0.0049999999 -0.53100002 1
1.489 -0.0049999999 -0.52999997 1
1.498 -0.0040000002 -0.53299999 1
1.497 -0.0040000002 -0.53200001 1
1.503 -0.003 -0.53399998 1
1.4910001 -0.0020000001 -0.52899998 1
1.5 -0.0020000001 -0.53100002 1
1.5140001 -0.001 -0.53600001 1
1.506 -0.001 -0.53200001 1
1.513 0 -0.53399998 1
1.51 0 -0.53200001 1
1.518 0 -0.53399998 1
1.524 0.001 -0.53500003 1
1.522 0.001 -0.53399998 1
1.527 0.0020000001 -0.53399998 1
1.5319999 0.0020000001 -0.53500003 1
1.5319999 0.003 -0.53399998 1
1.5319999 0.0040000002 -0.53399998 1
1.536 0.0040000002 -0.53399998 1
1.536 0.0049999999 -0.53299999 1
1.546 0.0049999999 -0.53600001 1
1.546 0.0060000001 -0.53399998 1
1.55 0.0060000001 -0.53500003 1
1.561 0.0070000002 -0.53799999 1
1.548 0.0080000004 -0.53200001 1
1.558 0.0080000004 -0.53399998 1
1.5599999 0.0089999996 -0.53399998 1
1.5650001 0.0089999996 -0.53399998 1
1.566 0.0099999998 -0.53299999 1
1.566 0.0099999998 -0.53200001 1
1.573 0.011 -0.53399998 1
1.585 0.012 -0.53600001 1
1.574 0.012 -0.53100002 1
1.589 0.013 -0.53500003 1
1.598 0.013 -0.537 1
1.589 0.014 -0.53200001 1
1.608 0.014 -0.537 1
1.595 0.015 -0.53200001 1
1.6109999 0.016000001 -0.53500003 1
1.6210001 0.016000001 -0.537 1
1.62 0.017000001 -0.53500003 1
1.6210001 0.017000001 -0.53399998 1
1.623 0.017999999 -0.53299999 1
1.633 0.017999999 -0.53500003 1
1.652 0.018999999 -0.54000002 1
1.654 0.02 -0.53899997 1
1.6619999 0.02 -0.54000002 1
1.6670001 0.021 -0.54000002 1
1.669 0.021 -0.53899997 1
1.675 0.022 -0.53899997 1
1.682 0.023 -0.53899997 1
1.689 0.023 -0.54000002 1
1.693 0.024 -0.53899997 1
1.7 0.024 -0.53899997 1
1.71 0.025 -0.54100001 1
1.722 0.026000001 -0.54299998 1
1.725 0.026000001 -0.542 1
1.729 0.027000001 -0.54100001 1
1.738 0.027000001 -0.542 1
1.747 0.028000001 -0.54299998 1
1.75 0.028000001 -0.542 1
1.761 0.028999999 -0.54299998 1
1.77 0.029999999 -0.54299998 1
1.775 0.029999999 -0.54299998 1
1.784 0.030999999 -0.54299998 1
1.799 0.032000002 -0.546 1
1.802 0.032000002 -0.54400003 1
1.817 0.033 -0.54699999 1
1.8150001 0.033 -0.54400003 1
1.825 0.034000002 -0.54400003 1
1.836 0.035 -0.54500002 1
1.841 0.035 -0.54400003 1
1.859 0.035999998 -0.54699999 1
1.8660001 0.035999998 -0.54699999 1
1.875 0.037 -0.54699999 1
1.883 0.037 -0.54699999 1
1.887 0.037999999 -0.54500002 1
1.893 0.037999999 -0.54500002 1
1.916 0.039000001 -0.54900002 1
1.9170001 0.039999999 -0.546 1
1.928 0.039999999 -0.54699999 1
1.937 0.041000001 -0.546 1
1.9529999 0.041999999 -0.54799998 1
1.967 0.041999999 -0.54900002 1
1.975 0.043000001 -0.54900002 1
1.979 0.043000001 -0.54699999 1
1.994 0.044 -0.54799998 1
2.0020001 0.044 -0.54699999 1
2.02 0.045000002 -0.54900002 1
2.0350001 0.046 -0.55000001 1
2.05 0.046 -0.551 1
2.0599999 0.046999998 -0.551 1
2.082 0.048 -0.55299997 1
2.0910001 0.048 -0.55299997 1
2.1199999 0.048999999 -0.55699998 1
2.138 0.050000001 -0.55900002 1
2.141 0.050000001 -0.55599999 1
2.161 0.050999999 -0.55800003 1
2.1760001 0.052000001 -0.55800003 1
2.194 0.052000001 -0.55900002 1
2.2060001 0.052999999 -0.55900002 1
2.2160001 0.052999999 -0.55800003 1
2.237 0.054000001 -0.55900002 1
2.2550001 0.055 -0.56 1
2.273 0.055 -0.56099999 1
2.2920001 0.056000002 -0.56199998 1
2.303 0.056000002 -0.56099999 1
2.326 0.057 -0.56300002 1
2.3410001 0.057 -0.56199998 1
2.368 0.057999998 -0.565 1
2.382 0.059 -0.56400001 1
2.4030001 0.059 -0.565 1
2.427 0.059999999 -0.56699997 1
2.45 0.061000001 -0.56800002 1
2.46 0.061000001 -0.56599998 1
2.4949999 0.061999999 -0.56999999 1
2.51 0.061999999 -0.56900001 1
2.529 0.063000001 -0.56900001 1
2.5580001 0.064000003 -0.57099998 1
2.5799999 0.064000003 -0.57099998 1
2.6029999 0.064999998 -0.57099998 1
2.6210001 0.064999998 -0.57099998 1
2.645 0.066 -0.57099998 1
2.6760001 0.066 -0.57300001 1
2.7149999 0.067000002 -0.57700002 2
2.737 0.068000004 -0.57599998 2
2.7650001 0.068000004 -0.57700002 2
2.7950001 0.068999998 -0.579 2
2.832 0.07 -0.58099997 2
2.859 0.07 -0.58099997 2
2.888 0.071000002 -0.58200002 2
2.911 0.071000002 -0.58099997 2
2.951 0.071999997 -0.58399999 2
2.9760001 0.071999997 -0.583 2
3.016 0.072999999 -0.58600003 2
3.052 0.074000001 -0.58700001 2
3.109 0.075000003 -0.59200001 1
3.1719999 0.075999998 -0.59799999 1
3.3139999 0.079000004 -0.61900002 2
3.2839999 0.078000002 -0.60699999 2
3.322 0.078000002 -0.60799998 2
3.3510001 0.079000004 -0.60600001 2
3.3299999 0.078000002 -0.59600002 2
3.4530001 0.079999998 -0.61199999 2
3.47 0.079999998 -0.60799998 2
3.47 0.079000004 -0.60100001 2
3.5139999 0.079999998 -0.602 1
3.5650001 0.079999998 -0.60399997 1
3.6800001 0.082000002 -0.61699998 2
3.727 0.082999997 -0.61699998 2
3.756 0.082999997 -0.61500001 2
3.8369999 0.083999999 -0.62 3
3.8570001 0.082999997 -0.616 2
3.9979999 0.086000003 -0.63099998 2
3.997 0.085000001 -0.62300003 2
4.073 0.085000001 -0.62699997 2
4.1789999 0.086999997 -0.63499999 4
4.1609998 0.085000001 -0.62400001 2
4.2340002 0.086000003 -0.62699997 2
4.3169999 0.086000003 -0.63 2
4.4130001 0.086999997 -0.63599998 2
4.4910002 0.086999997 -0.63800001 2
4.5780001 0.088 -0.64099997 2
4.6729999 0.089000002 -0.64499998 2
4.7719998 0.089000002 -0.64899999 3
4.8559999 0.089000002 -0.65100002 3
4.9530001 0.089000002 -0.65399998 3
5.086 0.090000004 -0.66100001 3
5.1890001 0.090999998 -0.66399997 3
5.3270001 0.090999998 -0.671 3
5.4359999 0.090999998 -0.67400002 4
5.553 0.092 -0.67699999 4
5.6789999 0.092 -0.68099999 4
5.8169999 0.092 -0.68599999 5
5.9569998 0.092 -0.69099998 6
6.0939999 0.092 -0.69400001 5
6.277 0.092 -0.70200002 6
6.4460001 0.092 -0.708 5
6.6690001 0.093000002 -0.71899998 6
6.836 0.093000002 -0.72299999 5
7.0289998 0.092 -0.72899997 6
7.3039999 0.093000002 -0.74199998 4
7.5430002 0.093000002 -0.75099999 4
7.7800002 0.093000002 -0.759 4
8.0629997 0.093000002 -0.76999998 4
8.349 0.092 -0.77999997 5
8.7259998 0.093000002 -0.79799998 4
9.0790005 0.092 -0.81099999 4
9.5369997 0.093000002 -0.83200002 5
9.9589996 0.092 -0.84899998 13
10.247 0.090000004 -0.852 15
10.537 0.088 -0.85500002 13
10.948 0.086000003 -0.866 6
11.451 0.083999999 -0.88200003 3
12.086 0.082999997 -0.90600002 3
12.641 0.079999998 -0.92199999 3
13.225 0.077 -0.93699998 3
13.865 0.074000001 -0.954 4
14.613 0.07 -0.97600001 3
15.426 0.066 -0.99800003 2
0 0 0 2
0 0 0 2
0 0 0 2
0 0 0 0
0 0 0 0
0 0 0 0
0 0 0 0
0 0 0 0
0 0 0 0
0 0 0 0
0 0 0 0
0 0 0 0
0 0 0 0
0 0 0 24
52.241001 -0.23999999 -1.77 43
52.234001 -0.27399999 -1.663 150
52.230999 -0.308 -1.556 152
52.273998 -0.34200001 -1.451 10
0 0 0 58
117.334 -0.926 -2.7809999 58
117.339 -1.0039999 -2.549 28
0 0 0 0
0 0 0 0
0 0 0 0
0 0 0 0
0 0 0 42
0 0 0 0
0 0 0 45
73.294998 -1.044 -0.403 76
73.305 -1.098 -0.255 80
73.365997 -1.154 -0.107 80
73.362 -1.209 0.039000001 47
0 0 0 0
0 0 0 0
0 0 0 0
0 0 0 14
68.455002 -1.392 0.72000003 14
0 0 0 0
0 0 0 0
0 0 0 0
0 0 0 0
0 0 0 6
57.633999 -1.45 1.289 16
57.160999 -1.485 1.391 18
56.507 -1.515 1.487 20
56.18 -1.553 1.587 13
55.576 -1.5829999 1.679 29
55.370998 -1.624 1.781 36
54.901001 -1.6569999 1.8710001 20
54.089001 -1.679 1.949 22
53.792999 -1.717 2.043 7
0 0 0 0
0 0 0 7
55.622002 -1.92 2.4300001 23
55.215 -1.955 2.5190001 31
