# .PCD v0.7 - Point Cloud Data file format
VERSION 0.7
FIELDS x y z intensity
SIZE 4 4 4 4
TYPE F F F F
COUNT 1 1 1 1
WIDTH 1889
HEIGHT 1
VIEWPOINT 0 0 0 1 0 0 0
POINTS 1889
DATA ascii
118.874 18.813 29.468 47
118.743 18.813999 29.555 50
118.814 18.847 29.691999 47
118.92 18.881001 29.836 43
118.866 18.895 29.938999 47
118.764 18.896 30.025 46
118.849 18.93 30.16 45
118.825 18.938999 30.267 51
118.879 18.966999 30.392 47
118.868 18.978001 30.497 46
118.858 18.99 30.604 50
118.871 19.007 30.712 47
118.849 19.011999 30.816 47
118.806 19.018 30.907 48
118.923 19.046 31.042 49
118.925 19.055 31.145 39
118.854 19.051001 31.229 43
118.853 19.059999 31.326 41
118.819 19.062 31.413 45
118.901 19.077999 31.535 51
118.864 19.077999 31.618999 46
118.849 19.077999 31.709999 42
118.905 19.087999 31.819 43
118.864 19.084999 31.898001 57
118.932 19.094999 32.007999 47
118.883 19.084 32.087002 46
118.849 19.076 32.167 51
118.957 19.09 32.283001 47
118.904 19.077999 32.355 47
118.887 19.073 32.433998 46
118.896 19.069 32.519001 50
118.871 19.058001 32.594002 45
118.919 19.059999 32.686001 45
118.918 19.047001 32.765999 47
118.981 19.049999 32.858002 50
118.957 19.035 32.928001 47
118.928 19.018999 32.994999 48
118.93 19.006001 33.069 53
118.949 18.996 33.146999 49
118.929 18.978001 33.212002 48
118.901 18.958 33.273998 44
118.962 18.951 33.359001 53
118.926 18.931999 33.414001 52
118.992 18.924 33.498001 47
118.976 18.902 33.556999 45
118.948 18.878 33.612 47
118.924 18.855 33.662998 47
119.027 18.85 33.751999 46
118.943 18.816 33.784 44
118.984 18.799 33.852001 44
118.99 18.775 33.909 42
118.985 18.749001 33.960999 42
118.949 18.716999 34.002998 45
118.992 18.695999 34.066002 46
118.999 18.667999 34.117001 45
118.953 18.635 34.150002 45
118.968 18.607 34.200001 47
118.937 18.572001 34.236 51
118.999 18.549 34.297001 41
118.984 18.517 34.333 46
118.996 18.485001 34.376999 45
118.975 18.448 34.41 45
119.019 18.422001 34.458 42
119.026 18.386999 34.495998 47
119.028 18.351 34.532001 46
119.001 18.309 34.556999 44
119.014 18.271999 34.591999 39
119.078 18.243 34.640999 45
118.966 18.188 34.634998 44
119.055 18.160999 34.688 44
119.029 18.115 34.706001 43
119.09 18.080999 34.747002 44
119.042 18.031 34.756001 41
119.016 17.985001 34.768002 48
119.048 17.945 34.796001 68
119.041 17.898001 34.812 60
119.041 17.854 34.827 49
119.086 17.813 34.855 45
119.101 17.767 34.873001 39
119.111 17.719 34.887001 41
119.058 17.660999 34.882 45
119.116 17.618999 34.908001 45
119.065 17.563 34.898998 43
119.073 17.511999 34.907001 38
119.099 17.462999 34.917999 43
119.113 17.410999 34.924999 39
119.105 17.351999 34.924999 44
119.136 17.304001 34.931999 44
119.12 17.249001 34.924 48
119.144 17.195999 34.928001 41
119.164 17.141001 34.928001 44
119.124 17.077 34.91 43
119.093 17.013 34.891998 45
119.193 16.966999 34.911999 51
119.151 16.903999 34.887001 47
119.108 16.837 34.861 46
119.08 16.768 34.84 47
119.109 16.709 34.832001 48
119.109 16.646 34.814999 44
119.144 16.586 34.806 64
119.159 16.527 34.786999 66
119.225 16.469999 34.784 32
0 0 0 0
0 0 0 0
0 0 0 0
0 0 0 0
0 0 0 0
0 0 0 0
0 0 0 0
0 0 0 0
0 0 0 0
0 0 0 0
0 0 0 0
0 0 0 0
0 0 0 0
0 0 0 0
0 0 0 0
0 0 0 0
0 0 0 0
0 0 0 0
0 0 0 0
0 0 0 27
119.396 14.982 34.007 25
0 0 0 0
0 0 0 25
119.331 14.735 33.814999 26
119.401 14.665 33.771 26
0 0 0 0
0 0 0 26
0 0 0 0
0 0 0 0
0 0 0 25
119.402 14.174 33.376999 25
119.476 14.099 33.326 34
119.552 14.023 33.273998 38
119.446 13.925 33.169998 48
119.324 13.827 33.057999 48
119.318 13.74 32.978001 44
119.308 13.653 32.896999 51
119.357 13.571 32.830002 65
119.421 13.494 32.764999 57
119.418 13.404 32.683998 59
119.407 13.318 32.596001 52
119.401 13.228 32.507999 56
119.416 13.14 32.424 55
119.405 13.05 32.332001 52
119.449 12.968 32.252998 46
119.445 12.878 32.162998 42
119.569 12.801 32.102001 37
119.502 12.702 31.989 35
119.547 12.619 31.905001 31
119.671 12.54 31.84 29
0 0 0 0
0 0 0 0
0 0 0 0
0 0 0 0
0 0 0 0
0 0 0 0
0 0 0 0
0 0 0 0
0 0 0 0
0 0 0 0
0 0 0 0
0 0 0 0
0 0 0 0
0 0 0 0
0 0 0 26
0 0 0 0
0 0 0 26
0 0 0 0
0 0 0 0
0 0 0 0
0 0 0 0
0 0 0 0
0 0 0 24
119.523 10.245 29.016001 29
119.554 10.149 28.889999 38
119.52 10.048 28.747 53
119.569 9.9530001 28.622999 53
119.584 9.8570004 28.493999 59
119.511 9.7530003 28.337999 67
119.537 9.6590004 28.205 79
119.604 9.566 28.079 60
119.55 9.4619999 27.924 52
119.656 9.3719997 27.805 48
119.871 9.2919998 27.711 33
0 0 0 0
0 0 0 0
0 0 0 0
0 0 0 0
0 0 0 0
0 0 0 0
0 0 0 0
0 0 0 0
0 0 0 0
0 0 0 0
0 0 0 0
0 0 0 0
0 0 0 0
0 0 0 0
0 0 0 0
0 0 0 0
0 0 0 28
119.702 7.5019999 24.851 50
119.691 7.3990002 24.677999 66
119.687 7.3010001 24.504 61
119.726 7.204 24.341 69
119.715 7.105 24.166 61
119.719 7.006 23.993 57
119.807 6.9120002 23.836 46
119.888 6.8179998 23.676001 36
120.016 6.7280002 23.52 29
0 0 0 0
0 0 0 0
0 0 0 0
0 0 0 0
0 0 0 25
119.966 6.1389999 22.427 27
120.092 6.0489998 22.264999 26
119.949 5.9450002 22.049 25
119.924 5.8460002 21.860001 27
119.955 5.7540002 21.68 29
0 0 0 0
0 0 0 32
119.974 5.4660001 21.111 40
119.81 5.3629999 20.889999 51
119.772 5.2690001 20.691999 67
119.765 5.1739998 20.496 69
119.78 5.0780001 20.298 69
119.734 4.9819999 20.093 72
119.779 4.8899999 19.903 49
122.222 4.8940001 20.107 53
122.263 4.803 19.912001 65
122.317 4.71 19.716 44
122.41 4.619 19.525 30
122.446 4.526 19.323999 29
122.477 4.4330001 19.121 29
122.457 4.3390002 18.909 31
122.416 4.2459998 18.695 36
122.559 4.158 18.506001 30
122.473 4.066 18.284 32
122.423 3.9719999 18.063999 34
122.537 3.8840001 17.867001 34
122.442 3.7909999 17.645 32
122.541 3.7030001 17.443001 31
122.504 3.612 17.222 31
122.381 3.5179999 16.987 39
122.365 3.428 16.767 50
122.373 3.342 16.552 56
122.328 3.2520001 16.326 73
122.339 3.164 16.107 78
122.391 3.0780001 15.892 65
122.432 2.994 15.678 54
122.569 2.9100001 15.472 35
122.571 2.826 15.254 28
0 0 0 0
0 0 0 23
0 0 0 0
0 0 0 0
0 0 0 0
0 0 0 0
0 0 0 0
0 0 0 0
0 0 0 32
122.41 1.992 12.95 42
122.372 1.911 12.713 61
122.349 1.831 12.478 73
122.322 1.751 12.241 83
122.326 1.673 12.007 76
122.324 1.595 11.772 88
122.322 1.52 11.539 83
122.36 1.444 11.306 71
122.431 1.369 11.075 48
122.444 1.295 10.841 37
122.469 1.221 10.604 35
122.497 1.147 10.367 39
122.449 1.073 10.123 39
122.444 1 9.882 38
122.397 0.92699999 9.6370001 43
122.36 0.85600001 9.3929996 51
122.331 0.78600001 9.151 37
122.472 0.71700001 8.9189997 32
122.554 0.648 8.6809998 42
122.558 0.58099997 8.4440002 43
122.629 0.51300001 8.1999998 41
122.634 0.44499999 7.9549999 42
122.596 0.37799999 7.7059999 35
122.585 0.31400001 7.4660001 38
122.609 0.24699999 7.2140002 42
122.502 0.183 6.9629998 39
122.389 0.119 6.7090001 50
122.347 0.056000002 6.4619999 71
122.329 -0.0040000002 6.2160001 69
0 0 0 0
0 0 0 0
0 0 0 29
86.411003 -0.17399999 3.6860001 18
87.207001 -0.21699999 3.5409999 22
87.623001 -0.25999999 3.378 14
88.128998 -0.30199999 3.2190001 20
88.196999 -0.34299999 3.0369999 25
85.024002 -0.37 2.75 21
85.244003 -0.40799999 2.586 30
85.692001 -0.44800001 2.4200001 27
86.628998 -0.49000001 2.2720001 14
0 0 0 13
74.186996 -0.48199999 1.64 31
73.932999 -0.51099998 1.4809999 48
73.593002 -0.53899997 1.325 54
73.181999 -0.565 1.165 59
72.600998 -0.58999997 1.005 29
72.032997 -0.61299998 0.84899998 26
0 0 0 25
0 0 0 0
0 0 0 0
0 0 0 27
75.167 -0.778 0.105 55
75.163002 -0.80400002 -0.052000001 73
75.153 -0.82999998 -0.212 58
75.148003 -0.85500002 -0.368 29
0 0 0 0
0 0 0 15
75.301003 -0.93000001 -0.84200001 35
75.296997 -0.95300001 -0.99800003 41
75.289001 -0.97600001 -1.1569999 43
75.078003 -0.99599999 -1.312 49
74.450996 -1.0089999 -1.4579999 67
74.227997 -1.028 -1.6109999 99
74.205002 -1.048 -1.767 87
74.202003 -1.068 -1.921 35
0 0 0 4
48.116001 -0.71700001 -1.446 7
0 0 0 0
0 0 0 7
0 0 0 0
0 0 0 0
0 0 0 0
0 0 0 0
0 0 0 1
0 0 0 1
23.406 -0.396 -1.147 4
0 0 0 0
0 0 0 1
0 0 0 2
17.226 -0.303 -0.99000001 2
16.254 -0.289 -0.96799999 3
15.337 -0.27500001 -0.94599998 2
14.503 -0.26199999 -0.92500001 2
13.707 -0.25 -0.903 3
13.001 -0.23899999 -0.884 3
12.375 -0.229 -0.86699998 3
11.823 -0.22 -0.85299999 2
11.25 -0.211 -0.83499998 2
10.664 -0.20100001 -0.81400001 2
10.154 -0.192 -0.79699999 2
9.6890001 -0.184 -0.77999997 3
9.2939997 -0.178 -0.76800001 5
9.0050001 -0.17299999 -0.76300001 11
8.6129999 -0.16599999 -0.74800003 4
8.2189999 -0.15899999 -0.73100001 4
7.9450002 -0.154 -0.72299999 5
7.6739998 -0.149 -0.71399999 6
7.4349999 -0.145 -0.70700002 6
7.2280002 -0.141 -0.70300001 6
6.9840002 -0.13699999 -0.69300002 4
6.7490001 -0.132 -0.68400002 3
6.5599999 -0.12899999 -0.67799997 3
6.3870001 -0.125 -0.67400002 3
6.2199998 -0.122 -0.66900003 3
6.0640001 -0.119 -0.66399997 3
5.9180002 -0.116 -0.66000003 3
5.7600002 -0.113 -0.65499997 3
5.612 -0.11 -0.64899999 3
5.474 -0.107 -0.64499998 3
5.3499999 -0.105 -0.64099997 3
5.2379999 -0.102 -0.63800001 3
5.1279998 -0.1 -0.63499999 4
5.0219998 -0.097000003 -0.63200003 3
4.901 -0.094999999 -0.62699997 3
4.8080001 -0.093000002 -0.625 3
4.7150002 -0.090999998 -0.62199998 3
4.6389999 -0.089000002 -0.62199998 2
4.5599999 -0.086999997 -0.62 2
4.4660001 -0.085000001 -0.616 2
4.3860002 -0.082999997 -0.61400002 3
4.3169999 -0.081 -0.61299998 3
4.217 -0.079000004 -0.60699999 2
4.1929998 -0.078000002 -0.61199999 2
4.0780001 -0.075000003 -0.60299999 2
4.0219998 -0.074000001 -0.60299999 2
3.9560001 -0.071999997 -0.60100001 2
3.914 -0.071000002 -0.602 2
3.878 -0.07 -0.60399997 2
3.7709999 -0.067000002 -0.59500003 2
3.6619999 -0.064999998 -0.58499998 3
3.642 -0.064000003 -0.58899999 4
3.599 -0.061999999 -0.58899999 4
3.549 -0.061000001 -0.588 3
3.543 -0.059999999 -0.59299999 2
3.5039999 -0.059 -0.59399998 2
3.391 -0.056000002 -0.58099997 2
3.339 -0.055 -0.57800001 2
3.299 -0.054000001 -0.57800001 2
3.2609999 -0.052000001 -0.57700002 2
3.2149999 -0.050999999 -0.57499999 2
3.175 -0.050000001 -0.574 2
3.1359999 -0.048 -0.57300001 2
3.0899999 -0.046999998 -0.56999999 2
3.0550001 -0.046 -0.56999999 2
3.0179999 -0.044 -0.56900001 2
2.9849999 -0.043000001 -0.56800002 2
2.948 -0.041999999 -0.56599998 2
2.905 -0.041000001 -0.56300002 2
2.8759999 -0.039000001 -0.56300002 2
2.8410001 -0.037999999 -0.56099999 1
2.8010001 -0.037 -0.55900002 1
2.911 -0.037999999 -0.58600003 1
2.8039999 -0.035999998 -0.56999999 1
2.8180001 -0.035 -0.57700002 1
2.7349999 -0.033 -0.565 1
2.823 -0.033 -0.588 1
0 0 0 1
2.6289999 -0.029999999 -0.55699998 1
2.6099999 -0.028999999 -0.55800003 2
2.5810001 -0.027000001 -0.55599999 2
2.562 -0.027000001 -0.55699998 2
2.5409999 -0.026000001 -0.55699998 1
2.503 -0.024 -0.55299997 1
2.477 -0.023 -0.551 1
2.4560001 -0.022 -0.551 1
2.4330001 -0.021 -0.55000001 1
2.4130001 -0.02 -0.54900002 1
2.3959999 -0.018999999 -0.55000001 1
2.3770001 -0.017999999 -0.54900002 1
2.358 -0.017000001 -0.54900002 1
2.345 -0.016000001 -0.55000001 1
2.3080001 -0.015 -0.54500002 1
2.3 -0.015 -0.54699999 1
2.2820001 -0.014 -0.546 1
2.2639999 -0.013 -0.546 1
2.2409999 -0.012 -0.54400003 1
2.2360001 -0.011 -0.546 1
2.2119999 -0.0099999998 -0.54400003 1
2.1889999 -0.0089999996 -0.542 1
2.174 -0.0080000004 -0.54100001 1
2.168 -0.0070000002 -0.54299998 1
2.148 -0.0060000001 -0.542 1
2.1259999 -0.0049999999 -0.53899997 1
2.1110001 -0.0049999999 -0.53899997 1
2.105 -0.0040000002 -0.54100001 1
2.098 -0.003 -0.542 1
2.079 -0.0020000001 -0.54000002 1
2.0569999 -0.001 -0.53799999 1
2.0450001 0 -0.53799999 1
2.0339999 0 -0.53799999 1
2.023 0 -0.53799999 1
2.003 0.001 -0.53600001 1
1.997 0.0020000001 -0.537 1
1.985 0.003 -0.537 1
1.971 0.0040000002 -0.53600001 1
1.961 0.0040000002 -0.53600001 1
1.9529999 0.0049999999 -0.53600001 1
1.941 0.0060000001 -0.53600001 1
1.934 0.0070000002 -0.537 1
1.926 0.0080000004 -0.537 1
1.909 0.0089999996 -0.53500003 1
1.902 0.0089999996 -0.53600001 1
1.887 0.0099999998 -0.53399998 1
1.883 0.011 -0.53500003 1
1.87 0.012 -0.53399998 1
1.863 0.012 -0.53500003 1
1.8559999 0.013 -0.53500003 1
1.846 0.014 -0.53399998 1
1.835 0.015 -0.53399998 1
1.816 0.015 -0.53100002 1
1.813 0.016000001 -0.53200001 1
1.807 0.017000001 -0.53200001 1
1.8 0.017999999 -0.53299999 1
1.788 0.017999999 -0.53100002 1
1.7819999 0.018999999 -0.53100002 1
1.77 0.02 -0.52999997 1
1.7640001 0.021 -0.52999997 1
1.7589999 0.021 -0.53100002 1
1.752 0.022 -0.53100002 1
1.743 0.023 -0.52999997 1
1.742 0.024 -0.53200001 1
1.7180001 0.024 -0.52700001 1
1.705 0.025 -0.52499998 1
1.701 0.026000001 -0.52499998 1
1.699 0.026000001 -0.52600002 1
1.688 0.027000001 -0.52499998 1
1.683 0.028000001 -0.52499998 1
1.671 0.028000001 -0.523 1
1.683 0.028999999 -0.52899998 1
1.676 0.029999999 -0.528 1
1.654 0.029999999 -0.523 1
1.651 0.030999999 -0.52399999 1
1.649 0.032000002 -0.52499998 1
1.641 0.033 -0.52399999 1
1.626 0.033 -0.51999998 1
1.6210001 0.034000002 -0.52100003 1
1.618 0.034000002 -0.52100003 1
1.619 0.035 -0.523 1
1.617 0.035999998 -0.52399999 1
1.603 0.035999998 -0.52100003 1
1.599 0.037 -0.52100003 1
1.592 0.037999999 -0.51999998 1
1.585 0.037999999 -0.51899999 1
1.586 0.039000001 -0.52100003 1
1.58 0.039999999 -0.51999998 1
1.575 0.039999999 -0.51999998 1
1.562 0.041000001 -0.51700002 1
1.568 0.041999999 -0.51999998 1
1.563 0.041999999 -0.51899999 1
1.5599999 0.043000001 -0.51999998 1
1.557 0.044 -0.51999998 1
1.557 0.044 -0.52100003 1
1.556 0.045000002 -0.52200001 1
1.546 0.046 -0.51999998 1
1.545 0.046 -0.52100003 1
1.534 0.046999998 -0.51800001 1
1.536 0.048 -0.51999998 1
1.536 0.048 -0.51999998 1
1.5319999 0.048999999 -0.51999998 1
1.528 0.050000001 -0.51999998 1
1.527 0.050000001 -0.52100003 1
1.5190001 0.050999999 -0.51899999 1
1.524 0.052000001 -0.52100003 1
1.516 0.052000001 -0.51899999 1
1.507 0.052000001 -0.51700002 1
1.5089999 0.052999999 -0.51899999 1
1.5089999 0.054000001 -0.51899999 1
1.501 0.054000001 -0.51700002 1
1.5 0.055 -0.51800001 1
1.506 0.056000002 -0.52100003 1
1.4910001 0.056000002 -0.51599997 1
1.495 0.057 -0.51800001 1
1.4910001 0.057999998 -0.51800001 1
1.499 0.059 -0.52100003 1
1.485 0.059 -0.51700002 1
1.489 0.059999999 -0.51899999 1
1.49 0.059999999 -0.51999998 1
1.476 0.059999999 -0.51499999 1
1.477 0.061000001 -0.51599997 1
1.476 0.061999999 -0.51700002 1
1.47 0.061999999 -0.51499999 1
1.47 0.063000001 -0.51599997 1
1.4809999 0.064000003 -0.51999998 1
1.477 0.064000003 -0.51899999 1
1.4630001 0.064999998 -0.514 1
1.469 0.064999998 -0.51700002 1
1.462 0.066 -0.51499999 1
1.475 0.067000002 -0.51999998 1
1.462 0.067000002 -0.51499999 1
1.465 0.068000004 -0.51700002 1
1.461 0.068000004 -0.51599997 1
1.465 0.068999998 -0.51700002 1
1.4630001 0.07 -0.51700002 1
1.46 0.07 -0.51599997 1
1.462 0.071000002 -0.51700002 1
1.459 0.071000002 -0.51599997 1
1.4630001 0.071999997 -0.51800001 1
1.459 0.072999999 -0.51599997 1
1.457 0.072999999 -0.51599997 1
1.457 0.074000001 -0.51599997 1
1.45 0.074000001 -0.514 1
1.462 0.075000003 -0.51800001 1
1.451 0.075000003 -0.514 1
1.457 0.075999998 -0.51599997 1
1.461 0.077 -0.51800001 1
1.46 0.077 -0.51700002 1
1.46 0.078000002 -0.51700002 1
1.4579999 0.078000002 -0.51599997 1
1.46 0.079000004 -0.51700002 1
1.451 0.079000004 -0.514 1
1.461 0.079999998 -0.51700002 1
1.4630001 0.081 -0.51800001 1
1.457 0.081 -0.51499999 1
1.465 0.082000002 -0.51800001 1
1.472 0.082999997 -0.51999998 1
1.461 0.082999997 -0.51599997 1
1.459 0.083999999 -0.51499999 1
1.466 0.085000001 -0.51700002 1
1.466 0.085000001 -0.51700002 1
1.467 0.086000003 -0.51700002 1
1.46 0.086000003 -0.514 1
1.465 0.086999997 -0.51499999 1
1.466 0.086999997 -0.51499999 1
1.466 0.088 -0.51499999 1
1.4680001 0.088 -0.51499999 1
1.465 0.089000002 -0.514 1
1.475 0.090000004 -0.51700002 1
1.475 0.090000004 -0.51599997 1
1.487 0.092 -0.51999998 1
1.4809999 0.092 -0.51700002 1
1.4809999 0.092 -0.51700002 1
1.4859999 0.093000002 -0.51800001 1
1.485 0.093000002 -0.51700002 1
1.4910001 0.093999997 -0.51800001 1
1.488 0.093999997 -0.51700002 1
1.493 0.094999999 -0.51800001 1
1.495 0.096000001 -0.51800001 1
1.494 0.096000001 -0.51700002 1
1.497 0.097000003 -0.51700002 1
1.503 0.097999997 -0.51800001 1
1.498 0.097999997 -0.51599997 1
1.515 0.098999999 -0.52100003 1
1.505 0.098999999 -0.51700002 1
1.512 0.1 -0.51800001 1
1.506 0.1 -0.51499999 1
1.517 0.101 -0.51800001 1
1.525 0.102 -0.51999998 1
1.524 0.102 -0.51899999 1
1.523 0.103 -0.51700002 1
1.53 0.103 -0.51800001 1
1.526 0.104 -0.51599997 1
1.533 0.104 -0.51800001 1
1.539 0.105 -0.51899999 1
1.539 0.106 -0.51800001 1
1.543 0.106 -0.51800001 1
1.545 0.107 -0.51700002 1
1.553 0.108 -0.51899999 1
1.549 0.108 -0.51599997 1
1.554 0.108 -0.51700002 1
1.5650001 0.109 -0.51899999 1
1.569 0.11 -0.51899999 1
1.564 0.11 -0.51599997 1
1.5779999 0.111 -0.51999998 1
1.572 0.111 -0.51599997 1
1.579 0.112 -0.51700002 1
1.59 0.113 -0.51999998 1
1.582 0.113 -0.51499999 1
1.592 0.114 -0.51700002 1
1.59 0.114 -0.51499999 1
1.608 0.115 -0.51999998 1
1.609 0.116 -0.51899999 1
1.602 0.115 -0.51499999 1
1.62 0.117 -0.51899999 1
1.626 0.118 -0.51999998 1
1.632 0.118 -0.51999998 1
1.627 0.118 -0.51700002 1
1.642 0.12 -0.51999998 1
1.654 0.121 -0.52200001 1
1.6569999 0.121 -0.52100003 1
1.665 0.122 -0.52200001 1
1.669 0.122 -0.52100003 1
1.6799999 0.123 -0.523 1
1.6849999 0.124 -0.523 1
1.686 0.124 -0.52100003 1
1.693 0.125 -0.52200001 1
1.707 0.126 -0.52399999 1
1.72 0.127 -0.52600002 1
1.726 0.127 -0.52600002 1
1.732 0.12800001 -0.52600002 1
1.737 0.12800001 -0.52499998 1
1.7410001 0.12899999 -0.52399999 1
1.751 0.13 -0.52499998 1
1.757 0.13 -0.52499998 1
1.765 0.131 -0.52499998 1
1.778 0.132 -0.52700001 1
1.789 0.133 -0.528 1
1.801 0.134 -0.52999997 1
1.807 0.134 -0.52899998 1
1.8200001 0.13500001 -0.52999997 1
1.834 0.13600001 -0.53200001 1
1.834 0.13600001 -0.52999997 1
1.845 0.13699999 -0.53100002 1
1.855 0.138 -0.53100002 1
1.864 0.138 -0.53100002 1
1.869 0.139 -0.52999997 1
1.885 0.14 -0.53200001 1
1.895 0.14 -0.53299999 1
1.898 0.141 -0.53100002 1
1.913 0.142 -0.53200001 1
1.925 0.142 -0.53299999 1
1.933 0.14300001 -0.53299999 1
1.946 0.14399999 -0.53399998 1
1.9529999 0.14399999 -0.53299999 1
1.96 0.14399999 -0.53200001 1
1.969 0.145 -0.53200001 1
1.9960001 0.147 -0.53600001 1
2.0039999 0.147 -0.53500003 1
2.0139999 0.148 -0.53500003 1
2.026 0.148 -0.53500003 1
2.0350001 0.149 -0.53500003 1
2.0480001 0.149 -0.53500003 1
2.062 0.15000001 -0.53600001 1
2.0739999 0.15099999 -0.53600001 1
2.0940001 0.152 -0.53799999 1
2.1070001 0.153 -0.53799999 1
2.1229999 0.153 -0.53899997 1
2.138 0.154 -0.53899997 1
2.1489999 0.155 -0.53899997 1
2.168 0.156 -0.54000002 1
2.181 0.156 -0.54000002 1
2.1989999 0.15700001 -0.54100001 1
2.2149999 0.15800001 -0.54100001 1
2.2260001 0.15800001 -0.54100001 1
2.244 0.15899999 -0.542 1
2.2609999 0.15899999 -0.542 1
2.277 0.16 -0.542 1
2.296 0.161 -0.54299998 1
2.316 0.162 -0.54400003 1
2.335 0.163 -0.54500002 1
2.3570001 0.164 -0.546 1
2.3770001 0.164 -0.54699999 1
2.3929999 0.16500001 -0.546 1
2.418 0.16599999 -0.54799998 1
2.4419999 0.167 -0.55000001 1
2.46 0.167 -0.55000001 1
2.48 0.168 -0.55000001 1
2.5139999 0.17 -0.55299997 2
2.53 0.17 -0.55199999 2
2.5439999 0.17 -0.551 2
2.5650001 0.171 -0.551 2
2.5940001 0.17200001 -0.55299997 2
2.6140001 0.17200001 -0.55299997 2
2.641 0.17299999 -0.55400002 2
2.6659999 0.17399999 -0.55500001 2
2.6860001 0.17399999 -0.55400002 2
2.71 0.175 -0.55400002 2
2.743 0.176 -0.55599999 2
2.776 0.177 -0.55800003 2
2.802 0.177 -0.55800003 2
2.8299999 0.178 -0.55900002 2
2.859 0.17900001 -0.56 2
2.885 0.17900001 -0.56 2
2.9219999 0.18000001 -0.56199998 2
2.9579999 0.18099999 -0.56300002 2
2.9960001 0.182 -0.565 2
3.0339999 0.183 -0.56699997 3
3.0639999 0.184 -0.56699997 3
3.1010001 0.185 -0.56800002 3
3.1300001 0.185 -0.56800002 3
3.168 0.186 -0.56900001 3
3.217 0.18700001 -0.57200003 3
3.2520001 0.18799999 -0.57300001 3
3.2969999 0.189 -0.57499999 3
3.336 0.189 -0.57499999 3
3.3729999 0.19 -0.57499999 3
3.415 0.19 -0.57599998 3
3.4579999 0.191 -0.57700002 3
3.5250001 0.193 -0.58200002 2
3.517 0.191 -0.574 2
3.628 0.19499999 -0.58600003 2
3.6400001 0.193 -0.58099997 1
3.7780001 0.199 -0.59600002 2
3.766 0.19599999 -0.58700001 2
3.8050001 0.19599999 -0.58600003 2
3.993 0.20299999 -0.60699999 3
3.9820001 0.2 -0.59799999 3
4.0440001 0.20100001 -0.60000002 3
4.1209998 0.20200001 -0.60399997 3
4.1560001 0.20200001 -0.60100001 3
4.2220001 0.20200001 -0.60299999 3
4.296 0.20299999 -0.60500002 2
4.4349999 0.207 -0.616 3
4.4390001 0.204 -0.60900003 3
4.526 0.205 -0.61199999 3
4.612 0.206 -0.61500001 3
4.6929998 0.207 -0.61699998 3
4.7740002 0.207 -0.61799997 3
4.8670001 0.208 -0.62099999 3
4.9660001 0.20900001 -0.62400001 3
5.0650001 0.20999999 -0.62699997 5
5.177 0.211 -0.63099998 3
5.2740002 0.211 -0.63300002 3
5.3959999 0.212 -0.63700002 3
5.5279999 0.213 -0.64200002 4
5.638 0.214 -0.64399999 4
5.7649999 0.214 -0.648 4
5.9099998 0.215 -0.653 4
6.0760002 0.21699999 -0.65899998 4
6.2309999 0.21799999 -0.66500002 4
6.3670001 0.21799999 -0.667 4
6.533 0.21799999 -0.67199999 4
6.7340002 0.22 -0.68000001 4
6.941 0.221 -0.68699998 5
7.1589999 0.222 -0.69499999 5
7.3590002 0.223 -0.70099998 5
7.5710001 0.223 -0.70700002 8
7.7750001 0.223 -0.71100003 6
8.0240002 0.22400001 -0.71799999 4
8.3240004 0.22499999 -0.72899997 5
8.6199999 0.226 -0.73799998 3
8.9709997 0.228 -0.75099999 3
9.3640003 0.23 -0.76599997 3
9.7589998 0.23100001 -0.77999997 2
10.189 0.23199999 -0.79500002 3
10.654 0.234 -0.81 2
11.145 0.235 -0.82599998 2
11.703 0.236 -0.84600002 2
12.171 0.235 -0.85600001 2
12.739 0.234 -0.87199998 3
13.477 0.236 -0.89600003 3
0 0 0 6
14.882 0.233 -0.93300003 7
15.272 0.22499999 -0.92799997 4
15.262 0.211 -0.898 3
0 0 0 2
18.332001 0.21799999 -1.008 2
18.648001 0.204 -0.99000001 1
0 0 0 1
0 0 0 0
0 0 0 0
0 0 0 0
0 0 0 0
0 0 0 0
0 0 0 2
0 0 0 17
0 0 0 0
0 0 0 29
111.38 0.0020000001 -3.602 38
0 0 0 9
54.077 -0.109 -1.548 23
54.083 -0.16500001 -1.448 153
54.077999 -0.222 -1.347 150
0 0 0 45
119.071 -0.74299997 -2.5220001 34
119.229 -0.87099999 -2.3069999 38
0 0 0 0
0 0 0 0
0 0 0 0
0 0 0 0
0 0 0 44
74.652 -1.034 -0.62 48
74.241997 -1.112 -0.47799999 119
72.112999 -1.161 -0.33199999 12
69.262001 -1.194 -0.192 19
69.134003 -1.268 -0.068999998 34
68.872002 -1.342 0.056000002 46
68.889 -1.4220001 0.183 85
68.876999 -1.501 0.30700001 74
68.875999 -1.581 0.43200001 24
0 0 0 0
0 0 0 19
61.481998 -1.625 0.71399999 27
0 0 0 0
0 0 0 0
0 0 0 150
60.776001 -1.8940001 1.138 20
0 0 0 5
0 0 0 0
0 0 0 0
0 0 0 0
0 0 0 0
0 0 0 0
0 0 0 18
45.566002 -1.864 1.494 100
0 0 0 17
48.923 -2.122 1.771 91
48.938999 -2.184 1.8559999 88
0 0 0 18
44.987999 -2.1210001 1.86 52
44.953999 -2.175 1.934 20
44.790001 -2.223 2.0020001 12
43.912998 -2.2360001 2.0380001 14
43.41 -2.266 2.0880001 13
42.536999 -2.2739999 2.1170001 31
42.443001 -2.3239999 2.1830001 28
42.077999 -2.358 2.234 7
41.051998 -2.352 2.2460001 27
40.742001 -2.3859999 2.296 30
40.210999 -2.4070001 2.332 20
39.821999 -2.4360001 2.375 18
39.393002 -2.461 2.414 24
38.886002 -2.4790001 2.4449999 31
38.487999 -2.5039999 2.4820001 18
38.166 -2.5339999 2.5239999 44
37.703999 -2.553 2.5539999 33
37.241001 -2.5710001 2.582 18
36.936001 -2.599 2.6199999 27
36.766998 -2.6359999 2.6659999 33
36.723 -2.681 2.721 50
36.737 -2.7309999 2.78 47
36.724998 -2.78 2.836 46
36.735001 -2.8299999 2.895 46
36.755001 -2.8800001 2.9519999 44
36.75 -2.9289999 3.0090001 54
36.776001 -2.98 3.0680001 56
36.773998 -3.03 3.1240001 58
36.784 -3.079 3.1800001 60
36.791 -3.1300001 3.2360001 60
36.799 -3.1800001 3.293 50
36.798 -3.23 3.348 61
36.784 -3.279 3.401 57
36.797001 -3.3310001 3.457 54
36.803001 -3.382 3.513 56
36.821999 -3.4319999 3.5680001 56
36.816002 -3.483 3.622 55
36.823002 -3.5339999 3.6760001 57
36.830002 -3.585 3.7290001 58
36.834999 -3.6359999 3.783 61
36.84 -3.687 3.836 58
36.825001 -3.7360001 3.8870001 57
36.853001 -3.79 3.9430001 56
36.844002 -3.839 3.993 55
36.861 -3.892 4.0479999 59
36.860001 -3.9430001 4.099 56
36.872002 -3.9949999 4.151 47
36.912998 -4.0510001 4.2069998 11
37.061001 -4.118 4.2740002 3
37.075001 -4.171 4.3260002 2
37.167 -4.2319999 4.3870001 3
0 0 0 0
0 0 0 0
0 0 0 0
0 0 0 0
0 0 0 0
0 0 0 0
0 0 0 0
0 0 0 0
0 0 0 0
0 0 0 0
0 0 0 0
0 0 0 0
0 0 0 13
29.153999 -3.882 3.9660001 21
29.089001 -3.9130001 3.993 28
29.045 -3.947 4.0219998 34
28.997 -3.9809999 4.0500002 37
28.973 -4.0170002 4.0809999 41
28.938 -4.052 4.1110001 42
28.919001 -4.0890002 4.1420002 44
28.902 -4.1259999 4.1729999 48
28.884001 -4.164 4.2049999 50
28.881001 -4.2030001 4.237 52
28.860001 -4.2389998 4.2680001 54
28.857 -4.277 4.2989998 54
28.851999 -4.316 4.3309999 53
28.865 -4.3569999 4.3649998 45
28.865 -4.3959999 4.3969998 49
28.861 -4.434 4.428 47
28.878 -4.4759998 4.4619999 44
28.908001 -4.5190001 4.4970002 40
28.912001 -4.559 4.5289998 38
28.936001 -4.6020002 4.5630002 33
28.978001 -4.6469998 4.5999999 31
29.02 -4.6919999 4.6370001 25
29.099001 -4.744 4.6799998 18
29.183001 -4.7969999 4.723 7
0 0 0 23
37.132999 -6.2010002 6.0840001 22
37.127998 -6.2490001 6.119 23
37.136002 -6.2989998 6.1570001 22
37.130001 -6.3460002 6.1919999 23
37.132999 -6.3959999 6.2280002 23
37.152 -6.448 6.2670002 22
37.119999 -6.4899998 6.296 23
37.087002 -6.5320001 6.3260002 24
37.028 -6.5700002 6.3499999 28
36.893002 -6.5939999 6.3600001 29
36.727001 -6.612 6.3649998 29
36.608002 -6.638 6.3769999 28
36.459999 -6.658 6.3839998 28
36.318001 -6.678 6.3909998 29
36.194 -6.7010002 6.4000001 29
36.049 -6.7199998 6.4060001 28
35.891998 -6.7360001 6.408 28
35.747002 -6.7529998 6.4120002 28
35.589001 -6.7690001 6.4130001 28
35.455002 -6.7870002 6.4180002 27
35.326 -6.8060002 6.4219999 27
35.186001 -6.822 6.4250002 27
35.071999 -6.8429999 6.4320002 27
34.924999 -6.8579998 6.4320002 27
34.799999 -6.8759999 6.4359999 27
34.68 -6.895 6.4400001 26
34.556 -6.9120002 6.4429998 26
34.446999 -6.9310002 6.448 26
0 0 0 12
21.131001 -4.302 3.9860001 18
21.077999 -4.3169999 3.9909999 23
21.045 -4.335 3.9990001 26
20.999001 -4.3509998 4.0050001 30
20.964001 -4.368 4.013 32
20.945999 -4.3889999 4.0229998 34
20.922001 -4.408 4.0320001 35
20.893999 -4.4260001 4.04 36
20.849001 -4.441 4.0450001 39
20.843 -4.4629998 4.0570002 38
20.827 -4.4829998 4.0669999 42
20.815001 -4.5040002 4.0770001 46
20.808001 -4.526 4.0879998 47
20.794001 -4.546 4.098 50
20.798 -4.5700002 4.1110001 37
20.781 -4.5890002 4.119 52
20.787001 -4.6139998 4.132 55
20.771 -4.6329999 4.1399999 54
20.759001 -4.6529999 4.1490002 59
20.75 -4.6729999 4.158 55
20.761 -4.697 4.171 56
20.759001 -4.7189999 4.1810002 56
20.738001 -4.7360001 4.1869998 51
20.745001 -4.7600002 4.198 51
20.749001 -4.7820001 4.2090001 50
20.759001 -4.8039999 4.2210002 45
20.75 -4.8239999 4.2290001 41
20.747999 -4.8439999 4.237 47
20.757999 -4.8670001 4.2480001 45
20.754999 -4.8870001 4.256 45
20.77 -4.9120002 4.2680001 44
20.754999 -4.9289999 4.2729998 43
20.778999 -4.954 4.2859998 43
20.799 -4.9790001 4.2989998 39
20.805 -5 4.3070002 37
20.825001 -5.0250001 4.3189998 37
20.829 -5.046 4.3270001 37
20.851999 -5.0710001 4.3390002 34
20.874001 -5.0949998 4.3509998 32
20.893999 -5.119 4.362 28
20.910999 -5.1420002 4.3720002 23
20.943001 -5.1690001 4.3850002 20
20.983999 -5.198 4.4000001 17
21.031 -5.2280002 4.415 12
21.094999 -5.2620001 4.434 2
0 0 0 22
30.988001 -7.783 6.5300002 24
30.948 -7.7989998 6.5289998 22
30.917999 -7.8169999 6.5300002 23
30.908001 -7.8400002 6.5349998 23
30.854 -7.8509998 6.5300002 25
30.829 -7.869 6.5300002 22
30.802 -7.8870001 6.5300002 22
30.780001 -7.9050002 6.5320001 21
30.754999 -7.9229999 6.5320001 21
30.732 -7.941 6.5310001 23
30.723 -7.9619999 6.5339999 24
30.693001 -7.9770002 6.5320001 24
30.683001 -7.9970002 6.5339999 23
30.650999 -8.0120001 6.5310001 21
30.650999 -8.0340004 6.5339999 22
30.648001 -8.0539999 6.5370002 22
30.629999 -8.0710001 6.5349998 23
30.6 -8.0839996 6.5310001 23
30.594999 -8.1040001 6.5320001 23
30.601 -8.1260004 6.5349998 22
30.58 -8.1400003 6.5320001 22
30.573 -8.1590004 6.5320001 21
30.573 -8.1780005 6.533 24
30.57 -8.1960001 6.533 21
30.57 -8.2150002 6.533 23
30.559999 -8.2309999 6.5310001 21
30.58 -8.2539997 6.5349998 20
30.570999 -8.2709999 6.5320001 22
30.561001 -8.2849998 6.5289998 21
30.575001 -8.3059998 6.5310001 22
30.577 -8.3240004 6.5300002 22
30.570999 -8.3389997 6.527 24
30.582001 -8.3579998 6.527 24
30.591 -8.3760004 6.527 25
30.582001 -8.3900003 6.5219998 28
30.559 -8.3979998 6.5139999 26
30.541 -8.408 6.507 27
30.518999 -8.4169998 6.4990001 27
30.493 -8.4239998 6.4889998 29
30.461 -8.4289999 6.4780002 28
30.427999 -8.434 6.4660001 28
30.388 -8.4350004 6.4530001 28
30.353001 -8.4390001 6.441 27
30.320999 -8.4429998 6.428 27
30.274 -8.4420004 6.4130001 27
30.231001 -8.4420004 6.3969998 26
30.202999 -8.4460001 6.3850002 26
30.156 -8.4429998 6.369 24
30.099001 -8.4379997 6.3499999 26
30.040001 -8.4320002 6.3299999 26
29.940001 -8.4139996 6.302 22
29.816999 -8.3889999 6.2680001 21
29.73 -8.3739996 6.2420001 20
29.620001 -8.3520002 6.211 20
29.549 -8.3400002 6.1880002 20
29.48 -8.3290005 6.165 20
29.382 -8.309 6.1360002 19
29.330999 -8.302 6.1160002 19
29.295 -8.2989998 6.099 19
29.261999 -8.2969999 6.0819998 22
29.268 -8.3050003 6.073 23
29.282 -8.3149996 6.0669999 24
29.337 -8.3360004 6.0679998 24
29.396 -8.3579998 6.0700002 25
29.434999 -8.3739996 6.066 24
29.464001 -8.3879995 6.0599999 27
29.516001 -8.4069996 6.0599999 26
29.554001 -8.4219999 6.0560002 28
29.625 -8.4460001 6.0580001 26
29.659 -8.4589996 6.053 26
29.715 -8.4779997 6.052 26
29.764 -8.4949999 6.0489998 25
29.829 -8.5159998 6.0479999 25
29.886 -8.5340004 6.046 25
29.947001 -8.5530005 6.0450001 26
29.993999 -8.5679998 6.04 27
30.059999 -8.5869999 6.039 27
30.128 -8.6079998 6.0380001 26
30.181999 -8.6230001 6.0339999 26
30.235001 -8.6389999 6.0279999 27
30.304001 -8.658 6.027 26
30.367001 -8.6750002 6.0240002 32
30.424 -8.691 6.0190001 29
30.514 -8.7150002 6.02 24
30.580999 -8.7320004 6.0170002 28
30.643 -8.7469997 6.0120001 22
30.721001 -8.7670002 6.0100002 24
30.795 -8.7849998 6.0079999 24
30.867001 -8.8030005 6.0029998 24
30.966 -8.8269997 6.0040002 23
31.030001 -8.8409996 5.9980001 22
31.108 -8.8590002 5.994 23
31.193001 -8.8780003 5.9920001 22
31.287001 -8.8999996 5.9899998 22
31.372 -8.9180002 5.987 23
31.488001 -8.9449997 5.9889998 21
31.558001 -8.9589996 5.9819999 22
31.645 -8.9770002 5.9780002 22
31.756001 -9.0010004 5.9790001 22
31.846001 -9.0190001 5.974 22
31.927 -9.0340004 5.9679999 23
32.025002 -9.0530005 5.9640002 22
32.132999 -9.0740004 5.9629998 22
32.236 -9.0939999 5.9590001 22
32.339001 -9.1129999 5.9549999 24
32.449001 -9.1339998 5.9520001 24
32.528 -9.1459999 5.9439998 24
32.674 -9.1759996 5.947 24
32.763 -9.1890001 5.9380002 24
32.894001 -9.2139997 5.9390001 24
33 -9.2329998 5.9320002 25
33.125999 -9.2550001 5.9310002 25
33.221001 -9.2679996 5.9229999 25
33.374001 -9.2969999 5.9250002 25
33.501999 -9.3190002 5.9219999 25
33.612999 -9.335 5.915 26
33.743 -9.3570004 5.9109998 26
33.856998 -9.3730001 5.9039998 26
33.977001 -9.3900003 5.8979998 26
34.099998 -9.408 5.8920002 26
34.261002 -9.4359999 5.8930001 26
34.424999 -9.4639997 5.8920002 27
34.526001 -9.474 5.881 27
34.674999 -9.4960003 5.8779998 27
34.799999 -9.5120001 5.8699999 27
34.967999 -9.5389996 5.869 27
35.105999 -9.5570002 5.862 23
35.257999 -9.5790005 5.8559999 28
35.424999 -9.6029997 5.8540001 28
35.588001 -9.6260004 5.8509998 28
35.754002 -9.6490002 5.8470001 24
35.894001 -9.665 5.8379998 23
36.071999 -9.6899996 5.835 24
36.228001 -9.7089996 5.8280001 24
36.395 -9.7299995 5.822 25
36.555 -9.7489996 5.8150001 25
36.675999 -9.7559996 5.8010001 25
36.803001 -9.7650003 5.7870002 23
36.939999 -9.776 5.7750001 20
37.057999 -9.7799997 5.7589998 17
37.199001 -9.79 5.7480001 12
37.338001 -9.7989998 5.7340002 8
37.525002 -9.8219995 5.7270002 4
37.796001 -9.8629999 5.7329998 3
38.047001 -9.8999996 5.7360001 2
0 0 0 0
0 0 0 0
0 0 0 0
0 0 0 0
0 0 0 0
0 0 0 0
0 0 0 0
0 0 0 2
37.289001 -9.427 5.296 7
37.243 -9.3830004 5.2540002 15
37.234001 -9.3479996 5.2160001 16
37.273998 -9.3240004 5.184 7
0 0 0 0
0 0 0 0
0 0 0 6
20.968 -5.1669998 2.832 15
20.905001 -5.132 2.802 19
20.879999 -5.1059999 2.777 22
20.85 -5.0780001 2.7520001 25
20.822001 -5.0510001 2.727 28
20.796 -5.0240002 2.7019999 32
20.778 -4.9990001 2.678 33
20.77 -4.9759998 2.6559999 34
20.754999 -4.9510002 2.6329999 37
20.735001 -4.9250002 2.609 39
20.729 -4.902 2.5869999 42
20.718 -4.8769999 2.5639999 44
20.715 -4.8540001 2.5409999 47
20.711 -4.8309999 2.5190001 50
20.708 -4.8080001 2.4979999 46
20.708 -4.7849998 2.4749999 48
20.684999 -4.756 2.45 43
20.684 -4.7329998 2.428 49
20.681999 -4.7090001 2.4059999 53
20.701 -4.6900001 2.3870001 56
20.686001 -4.6630001 2.3629999 61
20.687 -4.6389999 2.3410001 57
20.714001 -4.6209998 2.322 44
20.702999 -4.5949998 2.299 60
20.718 -4.573 2.279 41
20.731001 -4.5510001 2.2579999 42
20.726 -4.5250001 2.2349999 54
20.733 -4.5009999 2.2130001 55
20.742001 -4.4770002 2.1919999 49
20.756001 -4.454 2.171 44
20.778 -4.4330001 2.1500001 46
20.789 -4.4089999 2.1289999 44
20.812 -4.3870001 2.109 29
20.841 -4.3670001 2.089 37
20.857 -4.3429999 2.0680001 32
20.900999 -4.3249998 2.05 31
20.933001 -4.3039999 2.03 28
20.975 -4.2849998 2.0120001 28
21.018999 -4.2670002 1.993 24
21.059999 -4.2470002 1.974 17
21.129999 -4.2329998 1.9579999 9
0 0 0 0
0 0 0 0
0 0 0 0
0 0 0 0
0 0 0 0
0 0 0 0
0 0 0 4
37.073002 -7.0159998 3.1129999 12
37.054001 -6.9590001 3.0699999 20
37.056 -6.9060001 3.029 33
37.029999 -6.8470001 2.987 45
37.021999 -6.7909999 2.9460001 52
36.998001 -6.7319999 2.904 51
37.012001 -6.6810002 2.865 43
36.972 -6.618 2.8210001 48
36.952 -6.5599999 2.7809999 53
36.950001 -6.5050001 2.74 54
36.956001 -6.4489999 2.7 55
36.956001 -6.3930001 2.6600001 45
36.949001 -6.335 2.619 56
36.952 -6.2789998 2.579 57
36.931 -6.2179999 2.5380001 56
36.938 -6.1620002 2.5 53
36.922001 -6.1020002 2.4579999 54
36.914001 -6.0430002 2.418 56
0 0 0 7
28.969 -4.651 1.836 19
28.903 -4.5949998 1.801 29
28.853001 -4.54 1.767 31
28.841 -4.4920001 1.735 38
28.816 -4.4419999 1.7029999 39
28.785999 -4.3909998 1.671 42
28.778999 -4.3429999 1.64 46
28.763 -4.2930002 1.609 43
28.759001 -4.2449999 1.5779999 57
28.76 -4.1989999 1.549 58
28.775999 -4.1529999 1.5190001 60
28.788 -4.1069999 1.49 55
28.802 -4.0609999 1.46 47
28.837 -4.0170002 1.432 45
28.851 -3.971 1.403 39
28.898001 -3.9289999 1.376 38
28.948 -3.8859999 1.348 34
28.996 -3.8429999 1.321 30
29.104 -3.8080001 1.296 20
29.23 -3.7739999 1.272 7
0 0 0 7
37.030998 -4.6529999 1.536 12
36.792 -4.559 1.489 104
36.792 -4.4949999 1.452 91
36.777 -4.4289999 1.414 90
36.77 -4.3639998 1.378 97
36.77 -4.2989998 1.341 91
36.768002 -4.2329998 1.3049999 100
36.759998 -4.1669998 1.268 99
36.750999 -4.0999999 1.2309999 82
36.752998 -4.0349998 1.1950001 79
36.751999 -3.967 1.159 84
36.737999 -3.902 1.124 94
36.730999 -3.8340001 1.0880001 83
36.73 -3.7679999 1.052 84
36.712002 -3.6989999 1.017 96
36.701 -3.631 0.98100001 95
36.716 -3.5650001 0.94700003 96
36.700001 -3.497 0.912 103
36.712002 -3.428 0.87699997 107
36.703999 -3.362 0.84299999 111
36.703999 -3.293 0.80900002 107
36.861 -3.2379999 0.778 10
37.366001 -3.2130001 0.75400001 8
37.842999 -3.1849999 0.72899997 7
38.327 -3.154 0.70300001 8
38.764 -3.1170001 0.676 5
40.571999 -3.187 0.67199999 89
40.571999 -3.109 0.634 87
40.575001 -3.033 0.59899998 88
40.949001 -2.984 0.56800002 5
41.688 -2.9579999 0.54100001 6
42.099998 -2.9070001 0.509 45
42.331001 -2.842 0.47499999 11
44.557999 -2.9059999 0.461 80
44.464001 -2.816 0.42199999 71
44.877998 -2.7550001 0.38800001 24
45.185001 -2.687 0.352 46
45.330002 -2.608 0.315 40
45.442001 -2.526 0.27700001 43
0 0 0 32
48.904999 -2.529 0.21699999 97
48.976002 -2.4360001 0.176 66
49.348 -2.3599999 0.138 21
0 0 0 87
52.696999 -2.3139999 0.061999999 84
0 0 0 3
46.014999 -1.841 -0.017999999 12
0 0 0 18
60.077 -2.1670001 -0.118 57
60.769001 -2.072 -0.167 103
60.782001 -1.952 -0.214 118
60.792999 -1.832 -0.26100001 81
61.153999 -1.723 -0.308 26
61.842999 -1.618 -0.359 7
0 0 0 150
68.853996 -1.529 -0.50099999 75
68.817001 -1.39 -0.55199999 71
69.206001 -1.262 -0.60500002 27
72.098 -1.17 -0.68199998 16
74.595001 -1.063 -0.75800002 51
77.476997 -0.95099998 -0.84200001 11
0 0 0 0
0 0 0 0
0 0 0 0
0 0 0 114
0 0 0 0
0 0 0 0
0 0 0 0
0 0 0 0
0 0 0 0
0 0 0 0
0 0 0 0
0 0 0 0
0 0 0 0
0 0 0 0
0 0 0 23
0 0 0 0
0 0 0 44
0 0 0 0
0 0 0 23
0 0 0 0
0 0 0 34
0 0 0 0
0 0 0 29
0 0 0 0
0 0 0 31
94.959 3.819 -2.5599999 150
95.061996 4.0159998 -2.6129999 110
0 0 0 62
0 0 0 0
0 0 0 0
0 0 0 78
87.679001 4.5929999 -2.6329999 100
87.694 4.7709999 -2.6760001 48
87.674004 4.948 -2.717 45
87.662003 5.1279998 -2.7590001 53
91.487999 5.5370002 -2.9219999 40
91.516998 5.724 -2.9649999 34
91.603996 5.9099998 -3.0079999 29
91.670998 6.1030002 -3.052 18
91.791 6.2940001 -3.095 17
0 0 0 0
0 0 0 17
94.832001 7.0799999 -3.319 15
0 0 0 0
0 0 0 3
42.931 3.461 -1.554 4
42.945999 3.549 -1.571 4
0 0 0 0
0 0 0 0
0 0 0 3
41.341999 3.747 -1.574 7
41.307999 3.826 -1.587 3
0 0 0 0
0 0 0 0
0 0 0 0
0 0 0 0
0 0 0 0
0 0 0 0
0 0 0 0
0 0 0 0
0 0 0 1
0 0 0 0
0 0 0 0
0 0 0 1
28.202999 3.335 -1.1950001 3
28.105 3.378 -1.198 2
28.007999 3.421 -1.201 2
0 0 0 4
0 0 0 1
0 0 0 0
0 0 0 1
23.245001 3.0639999 -1.024 1
23.530001 3.1470001 -1.041 1
0 0 0 0
0 0 0 0
0 0 0 0
0 0 0 1
24.011 3.441 -1.086 1
0 0 0 0
0 0 0 2
21.702999 3.2320001 -0.99199998 1
21.007 3.168 -0.963 2
0 0 0 0
0 0 0 0
0 0 0 2
0 0 0 0
0 0 0 3
20.409 3.3069999 -0.95099998 2
20.083 3.2909999 -0.93800002 2
20.289 3.3610001 -0.94999999 4
19.844 3.3239999 -0.93099999 4
19.639 3.326 -0.92299998 4
19.798 3.388 -0.93300003 6
19.725 3.4119999 -0.93099999 8
19.440001 3.3970001 -0.91799998 4
19.448 3.4330001 -0.92000002 2
19.27 3.437 -0.91299999 2
0 0 0 0
0 0 0 4
18.593 3.4159999 -0.884 5
0 0 0 0
0 0 0 0
0 0 0 0
0 0 0 0
0 0 0 6
0 0 0 0
0 0 0 0
0 0 0 0
0 0 0 0
0 0 0 3
0 0 0 0
0 0 0 0
0 0 0 0
0 0 0 0
0 0 0 0
0 0 0 0
0 0 0 0
0 0 0 0
0 0 0 0
0 0 0 4
19.681999 4.3169999 -0.92699999 3
0 0 0 0
0 0 0 4
0 0 0 1
14.35 3.2379999 -0.67000002 1
0 0 0 0
0 0 0 1
11.571 2.665 -0.537 1
11.505 2.668 -0.53200001 1
11.45 2.6730001 -0.52899998 1
11.404 2.6800001 -0.52499998 2
11.35 2.684 -0.52100003 1
11.349 2.701 -0.51999998 2
11.247 2.694 -0.51300001 2
11.174 2.6930001 -0.50800002 3
11.145 2.7019999 -0.505 13
11.139 2.717 -0.50300002 9
11.129 2.7309999 -0.50099999 3
11.104 2.7409999 -0.498 2
11.091 2.753 -0.49599999 2
11.074 2.7650001 -0.493 2
11.059 2.777 -0.49000001 1
11.045 2.789 -0.48800001 2
11.011 2.796 -0.484 2
11.028 2.8150001 -0.48300001 2
10.974 2.8169999 -0.47799999 2
10.958 2.8280001 -0.47600001 2
10.941 2.8380001 -0.47299999 2
10.941 2.8529999 -0.47099999 2
10.939 2.8670001 -0.46799999 2
10.915 2.875 -0.465 2
10.904 2.8870001 -0.46200001 3
10.907 2.902 -0.46000001 3
10.881 2.9089999 -0.456 3
10.871 2.9200001 -0.45300001 3
10.87 2.934 -0.45100001 3
10.846 2.941 -0.447 3
10.845 2.954 -0.44400001 4
10.812 2.9590001 -0.44 5
10.801 2.9690001 -0.43799999 8
10.776 2.9749999 -0.43399999 17
10.766 2.9849999 -0.43099999 32
10.761 2.997 -0.428 46
10.757 3.0079999 -0.42500001 29
10.736 3.0150001 -0.421 48
10.738 3.0280001 -0.41800001 83
10.74 3.0409999 -0.41499999 91
10.744 3.0539999 -0.41299999 102
10.735 3.0639999 -0.40900001 108
10.738 3.0769999 -0.40599999 128
10.741 3.089 -0.403 136
10.73 3.098 -0.40000001 144
10.733 3.1099999 -0.39700001 136
10.716 3.1170001 -0.39300001 133
10.722 3.1300001 -0.38999999 108
10.701 3.135 -0.38600001 88
10.704 3.1459999 -0.38299999 74
10.706 3.158 -0.38 68
10.694 3.165 -0.37599999 66
10.691 3.175 -0.373 62
10.738 3.1989999 -0.37099999 46
10.85 3.243 -0.37200001 29
11.041 3.3099999 -0.375 8
11.013 3.312 -0.37 8
10.861 3.277 -0.361 4
10.756 3.2550001 -0.35499999 3
10.736 3.2579999 -0.34999999 3
10.73 3.266 -0.347 3
10.722 3.273 -0.34299999 3
10.715 3.28 -0.33899999 4
10.705 3.286 -0.33500001 3
10.691 3.2909999 -0.331 3
10.696 3.3010001 -0.32699999 3
10.692 3.3080001 -0.324 3
10.683 3.3139999 -0.31999999 3
10.698 3.3269999 -0.31600001 3
10.703 3.3369999 -0.31299999 3
10.69 3.3410001 -0.308 2
10.687 3.348 -0.30500001 2
10.694 3.358 -0.301 2
10.689 3.3640001 -0.29699999 2
10.701 3.375 -0.29300001 3
10.703 3.3829999 -0.289 5
10.695 3.388 -0.285 7
10.694 3.395 -0.28200001 8
10.68 3.3970001 -0.27700001 10
10.684 3.405 -0.273 11
10.685 3.4119999 -0.26899999 12
10.678 3.4159999 -0.26499999 15
10.673 3.421 -0.26100001 18
10.659 3.4230001 -0.257 25
10.657 3.428 -0.25299999 28
10.665 3.4360001 -0.249 34
10.654 3.4389999 -0.245 34
10.67 3.4489999 -0.241 24
10.666 3.4530001 -0.237 26
10.671 3.46 -0.233 17
10.682 3.4690001 -0.229 12
10.674 3.471 -0.22400001 11
10.677 3.477 -0.22 10
10.683 3.484 -0.21600001 10
10.669 3.484 -0.212 10
10.677 3.4909999 -0.208 10
10.67 3.493 -0.20299999 11
10.677 3.4990001 -0.199 11
10.677 3.503 -0.19499999 11
10.668 3.5039999 -0.191 11
10.675 3.51 -0.186 9
10.686 3.517 -0.183 9
10.684 3.52 -0.178 7
10.698 3.527 -0.17399999 6
10.682 3.5250001 -0.17 5
10.681 3.5280001 -0.16599999 4
10.666 3.5250001 -0.161 3
10.671 3.529 -0.15700001 3
10.675 3.533 -0.152 3
10.663 3.5309999 -0.148 3
10.676 3.5380001 -0.14399999 2
10.668 3.5369999 -0.14 2
10.668 3.539 -0.13500001 2
10.671 3.5420001 -0.131 2
10.663 3.54 -0.126 2
10.676 3.546 -0.123 3
10.682 3.549 -0.118 3
10.67 3.546 -0.114 3
10.674 3.5480001 -0.109 3
10.679 3.5510001 -0.105 3
10.69 3.5550001 -0.101 3
10.685 3.5539999 -0.097000003 3
10.704 3.5599999 -0.092 3
10.707 3.5610001 -0.088 3
10.71 3.562 -0.082999997 3
10.736 3.5710001 -0.079000004 3
10.748 3.5739999 -0.075000003 3
10.746 3.573 -0.071000002 3
10.767 3.579 -0.066 3
10.794 3.5869999 -0.061999999 3
10.816 3.5940001 -0.057999998 4
10.83 3.5969999 -0.054000001 4
10.846 3.6010001 -0.048999999 5
10.848 3.5999999 -0.045000002 5
10.862 3.6029999 -0.041000001 6
10.842 3.595 -0.035999998 8
10.789 3.575 -0.032000002 8
10.78 3.5699999 -0.027000001 12
10.755 3.559 -0.023 18
10.743 3.553 -0.018999999 25
10.721 3.543 -0.015 29
10.704 3.5350001 -0.0099999998 28
10.685 3.526 -0.0060000001 34
10.677 3.52 -0.0020000001 37
10.663 3.5120001 0.0020000001 42
10.649 3.5039999 0.0060000001 47
10.646 3.5 0.0099999998 52
10.639 3.494 0.014 58
10.644 3.4920001 0.017999999 58
10.628 3.483 0.022 56
10.626 3.4779999 0.027000001 55
10.632 3.4760001 0.030999999 51
10.645 3.4760001 0.035 45
10.635 3.4679999 0.039000001 41
10.635 3.4630001 0.043000001 38
10.643 3.461 0.046999998 35
10.636 3.454 0.050999999 28
10.642 3.45 0.056000002 28
10.641 3.4449999 0.059 25
10.647 3.441 0.063000001 25
10.642 3.434 0.068000004 25
10.657 3.4330001 0.071999997 26
10.661 3.4289999 0.075999998 25
10.655 3.421 0.079999998 24
10.651 3.4130001 0.083999999 23
10.668 3.4119999 0.088 27
10.662 3.404 0.092 24
10.665 3.398 0.094999999 26
10.67 3.3929999 0.098999999 26
10.665 3.3840001 0.103 28
10.673 3.3800001 0.107 26
10.689 3.378 0.111 15
10.687 3.3699999 0.115 27
10.683 3.3610001 0.119 28
10.686 3.3540001 0.122 26
10.69 3.348 0.126 27
10.686 3.339 0.13 26
10.696 3.3340001 0.134 23
10.705 3.3280001 0.13699999 24
10.7 3.3180001 0.141 22
10.719 3.316 0.145 19
10.704 3.302 0.148 17
10.712 3.296 0.152 16
10.73 3.2920001 0.156 13
10.728 3.283 0.15899999 11
10.74 3.277 0.163 8
10.746 3.2690001 0.167 7
10.758 3.263 0.17 7
10.767 3.257 0.17399999 6
10.769 3.247 0.177 6
10.783 3.2409999 0.18099999 5
10.774 3.2290001 0.184 3
10.799 3.2260001 0.18799999 3
10.818 3.221 0.191 2
10.82 3.211 0.19499999 11
10.832 3.204 0.198 34
10.814 3.188 0.20100001 53
10.821 3.1789999 0.204 59
10.822 3.168 0.208 64
10.839 3.1619999 0.211 86
10.848 3.1530001 0.214 101
10.857 3.1440001 0.21799999 150
10.866 3.135 0.221 150
10.86 3.1210001 0.22400001 150
10.857 3.109 0.226 96
10.854 3.096 0.229 38
10.852 3.0829999 0.23199999 13
10.899 3.0840001 0.236 7
10.916 3.076 0.23899999 5
10.923 3.0650001 0.242 3
10.963 3.0639999 0.24600001 1
10.969 3.052 0.249 1
11.023 3.0550001 0.252 1
11.073 3.0550001 0.25600001 1
11.124 3.0550001 0.25999999 1
11.155 3.05 0.264 1
0 0 0 0
0 0 0 0
0 0 0 1
0 0 0 17
56.713001 15.15 1.404 28
56.786999 15.095 1.418 36
57.110001 15.106 1.438 37
57.186001 15.052 1.451 41
57.116001 14.957 1.46 40
57.076 14.87 1.471 31
0 0 0 32
43.597 11.24 1.1390001 58
43.612 11.184 1.147 48
0 0 0 10
38.528999 9.7740002 1.026 19
38.612999 9.7410002 1.035 7
38.484001 9.6529999 1.038 17
38.563 9.618 1.0470001 16
38.695 9.5959997 1.056 6
38.661999 9.533 1.061 47
38.667999 9.4779997 1.067 52
38.667999 9.4219999 1.072 54
38.694 9.3710003 1.0779999 58
38.668999 9.3070002 1.082 67
38.679001 9.2519999 1.0880001 66
38.686001 9.1960001 1.092 64
0 0 0 28
0 0 0 0
0 0 0 0
0 0 0 0
0 0 0 13
72.873001 16.649 2.1040001 9
0 0 0 7
0 0 0 49
0 0 0 0
0 0 0 0
0 0 0 23
68.879997 15.08 2.017 28
0 0 0 26
55.942001 12.065 1.6440001 37
55.938 11.975 1.647 26
0 0 0 17
0 0 0 18
48.630001 10.168 1.437 11
0 0 0 5
40.146999 8.2609997 1.187 9
0 0 0 57
48.757 9.868 1.442 61
48.766998 9.7869997 1.442 70
48.768002 9.7040005 1.442 52
0 0 0 9
38.891998 7.6040001 1.149 8
38.683998 7.4959998 1.142 43
38.807999 7.4530001 1.1440001 32
38.853001 7.3940001 1.1440001 30
38.653 7.289 1.136 33
38.563999 7.2049999 1.132 40
38.577 7.1389999 1.13 42
38.540001 7.0640001 1.127 20
0 0 0 0
0 0 0 23
53.305 9.4849997 1.5470001 6
53.383999 9.401 1.544 11
56.460999 9.842 1.6289999 22
56.473999 9.743 1.623 13
0 0 0 0
0 0 0 0
0 0 0 0
0 0 0 10
0 0 0 22
0 0 0 11
48.436001 7.73 1.349 29
47.848 7.5469999 1.326 35
47.641998 7.4250002 1.313 39
47.999001 7.3920002 1.3150001 37
48.027 7.3070002 1.308 38
48.237999 7.25 1.3049999 29
48.290001 7.1659999 1.298 33
48.402 7.0910001 1.2920001 32
48.283001 6.9829998 1.279 29
48.284 6.8909998 1.2690001 36
48.199001 6.7859998 1.257 21
48.279999 6.7069998 1.248 15
0 0 0 0
0 0 0 13
87.594002 11.662 2.2049999 13
0 0 0 10
72.490997 9.3699999 1.789 24
72.554001 9.2390003 1.771 21
72.958 9.1490002 1.762 21
73.085999 9.0220003 1.745 31
72.790001 8.8430004 1.7180001 31
0 0 0 0
0 0 0 25
80.730003 9.3319998 1.835 29
80.356003 9.1330004 1.802 32
80.069 8.9420004 1.77 41
79.902 8.7679996 1.742 44
79.807999 8.6020002 1.714 45
79.200996 8.3789997 1.674 30
0 0 0 0
0 0 0 24
75.75 7.5640001 1.522 32
75.632004 7.401 1.492 39
75.502998 7.2379999 1.462 40
75.365997 7.0760002 1.431 47
75.359001 6.9250002 1.402 48
75.698997 6.802 1.3789999 21
0 0 0 0
0 0 0 0
0 0 0 0
0 0 0 0
0 0 0 0
0 0 0 0
0 0 0 0
0 0 0 0
0 0 0 0
0 0 0 0
0 0 0 12
90.192001 5.928 1.169 20
89.879997 5.7249999 1.1210001 18
0 0 0 0
0 0 0 14
0 0 0 0
0 0 0 0
0 0 0 13
89.091003 4.5949998 0.83899999 16
0 0 0 0
0 0 0 0
0 0 0 0
0 0 0 0
0 0 0 0
0 0 0 13
90.039001 3.3659999 0.49900001 15
0 0 0 0
0 0 0 16
0 0 0 0
0 0 0 19
0 0 0 0
0 0 0 0
0 0 0 0
0 0 0 0
0 0 0 0
0 0 0 28
135.408 2.046 -0.171 42
135.49699 1.773 -0.26100001 64
135.541 1.498 -0.352 71
135.515 1.227 -0.44299999 81
135.582 0.95300001 -0.53600001 87
135.591 0.67900002 -0.62900001 88
135.578 0.412 -0.72100002 72
135.603 0.139 -0.81699997 70
135.67999 -0.134 -0.91399997 59
135.78 -0.40799999 -1.012 101
135.78101 -0.67799997 -1.109 80
0 0 0 0
0 0 0 0
0 0 0 52
0 0 0 30
74.197998 -1.114 -0.88099998 45
71.984001 -1.224 -0.91000003 46
68.827003 -1.308 -0.92299998 50
68.823997 -1.446 -0.97600001 74
68.816002 -1.585 -1.031 77
68.836998 -1.721 -1.085 109
0 0 0 0
0 0 0 10
46.116001 -1.429 -0.838 14
46.105999 -1.52 -0.87599999 21
46.203999 -1.613 -0.91500002 36
45.687 -1.6849999 -0.94199997 35
45.359001 -1.7640001 -0.97399998 42
0 0 0 9
42.282001 -1.809 -0.97899997 27
0 0 0 42
33 -1.541 -0.81999999 153
33.021999 -1.6059999 -0.84899998 11
0 0 0 10
40.778 -2.142 -1.12 14
41.167999 -2.243 -1.1670001 15
42.181999 -2.3800001 -1.233 9
0 0 0 1
28.427 -1.7130001 -0.88200003 152
28.377001 -1.765 -0.90600002 180
28.410999 -1.822 -0.93300003 161
28.464001 -1.8789999 -0.95999998 163
28.421 -1.9299999 -0.98500001 4
0 0 0 8
40.641998 -2.9170001 -1.484 12
0 0 0 5
23.907 -1.806 -0.91799998 4
23.667999 -1.8329999 -0.93099999 3
23.648001 -1.876 -0.95300001 4
23.566 -1.913 -0.97100002 3
23.638 -1.9630001 -0.99699998 3
23.785 -2.0190001 -1.026 4
0 0 0 2
21.065001 -1.8660001 -0.94999999 3
21.063999 -1.905 -0.97000003 4
21.052 -1.943 -0.991 4
21.042 -1.9809999 -1.011 3
21.087999 -2.0239999 -1.034 3
21.124001 -2.066 -1.057 5
21.281 -2.1199999 -1.086 6
21.511 -2.1819999 -1.119 4
20.98 -2.1659999 -1.113 1
20.601 -2.165 -1.114 1
0 0 0 2
18.464001 -2.006 -1.036 3
17.870001 -1.973 -1.021 3
18.194 -2.0409999 -1.058 4
17.889999 -2.039 -1.059 5
0 0 0 0
0 0 0 3
15.417 -1.8380001 -0.95999998 2
15.762 -1.9069999 -0.99800003 3
15.284 -1.875 -0.98400003 2
14.862 -1.849 -0.972 2
14.419 -1.819 -0.958 2
14.045 -1.796 -0.949 2
