# .PCD v0.7 - Point Cloud Data file format
VERSION 0.7
FIELDS x y z intensity
SIZE 4 4 4 4
TYPE F F F F
COUNT 1 1 1 1
WIDTH 1758
HEIGHT 1
VIEWPOINT 0 0 0 1 0 0 0
POINTS 1758
DATA ascii
0 0 0 0
0 0 0 10
49.294998 4.1079998 7.5760002 41
48.915001 4.0209999 7.4489999 41
48.334999 3.918 7.2940001 49
48.280998 3.859 7.217 49
47.009998 3.704 6.96 41
46.778 3.6329999 6.8579998 22
45.549 3.4849999 6.6100001 10
45.198002 3.4070001 6.493 13
45.205002 3.3559999 6.428 32
45.264 3.309 6.369 44
45.304001 3.26 6.3080001 53
45.299999 3.21 6.2420001 54
45.314999 3.1600001 6.1739998 57
0 0 0 3
41.800999 2.8199999 5.5689998 9
41.32 2.7420001 5.4439998 21
41.271999 2.6919999 5.3730001 53
41.258999 2.645 5.3070002 56
40.328999 2.54 5.125 42
40.292 2.493 5.0580001 51
40.298 2.448 4.9949999 53
39.393002 2.349 4.8210001 32
38.985001 2.2809999 4.7090001 53
38.976002 2.237 4.6459999 53
38.976002 2.1949999 4.585 52
37.691002 2.0799999 4.3730001 28
37.618 2.0350001 4.3039999 49
37.625 1.995 4.244 50
37.625 1.9529999 4.1830001 50
36.362999 1.848 3.983 34
36.289001 1.804 3.915 61
36.290001 1.765 3.8559999 49
36.293999 1.726 3.7969999 59
35.542999 1.651 3.6589999 25
0 0 0 1
33.165001 1.47 3.3039999 10
33.066002 1.4299999 3.2390001 29
33.099998 1.395 3.1849999 42
33.097 1.36 3.1289999 47
33.087002 1.324 3.0710001 47
33.111 1.291 3.0179999 50
33.094002 1.255 2.96 88
33.087002 1.22 2.9030001 84
33.085999 1.1849999 2.845 90
33.111 1.152 2.79 91
33.116001 1.117 2.733 88
33.105 1.082 2.674 94
33.117001 1.049 2.618 103
33.132999 1.015 2.5599999 86
33.125999 0.98100001 2.5009999 75
33.116001 0.94599998 2.441 91
33.148998 0.91299999 2.385 59
33.129002 0.87900001 2.3239999 91
33.157001 0.847 2.267 73
33.139999 0.81300002 2.2060001 32
33.029999 0.77700001 2.1389999 9
32.469002 0.73199999 2.0450001 30
32.426998 0.69800001 1.983 69
32.426998 0.66600001 1.924 80
32.826 0.64200002 1.888 67
33.145 0.61500001 1.845 95
33.192001 0.58399999 1.7869999 114
33.189999 0.55199999 1.726 114
33.189999 0.51999998 1.666 117
33.188999 0.48699999 1.603 119
33.191002 0.456 1.541 102
33.208 0.42500001 1.4809999 104
33.203999 0.39300001 1.419 108
33.207001 0.36199999 1.3559999 110
33.214001 0.33000001 1.294 98
33.216999 0.29899999 1.2309999 104
33.203999 0.26800001 1.168 96
33.252998 0.23800001 1.107 63
33.268002 0.207 1.043 18
0 0 0 0
0 0 0 0
0 0 0 0
0 0 0 0
0 0 0 0
0 0 0 0
0 0 0 0
0 0 0 0
0 0 0 0
0 0 0 25
0 0 0 1
17.745001 -0.075999998 0.148 1
17.556999 -0.090000004 0.112 1
17.285999 -0.103 0.075999998 1
0 0 0 0
0 0 0 1
17.099001 -0.145 -0.025 2
17.094 -0.15899999 -0.059 3
17.061001 -0.17200001 -0.092 1
16.941 -0.184 -0.124 1
16.936001 -0.197 -0.15700001 1
16.896999 -0.20999999 -0.19 1
16.912001 -0.22400001 -0.22400001 1
16.886 -0.237 -0.257 1
16.813 -0.248 -0.289 1
16.888 -0.26199999 -0.324 1
16.834 -0.27399999 -0.35499999 12
16.82 -0.287 -0.389 13
16.809999 -0.29899999 -0.42199999 9
16.851 -0.31200001 -0.45699999 2
16.882 -0.32499999 -0.491 2
16.854 -0.33700001 -0.52399999 3
16.844 -0.34900001 -0.55699998 3
16.962 -0.36300001 -0.59600002 5
17.009001 -0.37599999 -0.63099998 7
17.007 -0.38800001 -0.66500002 4
17.056 -0.40099999 -0.70099998 3
17.306999 -0.419 -0.74699998 3
17.59 -0.43799999 -0.79400003 1
0 0 0 24
0 0 0 0
0 0 0 1
0 0 0 1
0 0 0 2
17.356001 -0.5 -0.99299997 2
0 0 0 2
15.187 -0.45699999 -0.93099999 2
0 0 0 4
13.595 -0.426 -0.88800001 3
13.108 -0.41800001 -0.88300002 4
12.52 -0.40700001 -0.86799997 3
11.893 -0.39399999 -0.84899998 3
11.365 -0.38299999 -0.83399999 3
10.895 -0.373 -0.82099998 2
10.484 -0.36500001 -0.81199998 4
10.105 -0.35800001 -0.80299997 3
9.71 -0.34900001 -0.79100001 3
9.3850002 -0.34200001 -0.78299999 3
9.0600004 -0.33500001 -0.77499998 4
8.7250004 -0.32800001 -0.764 3
8.4040003 -0.31999999 -0.75199997 4
8.1210003 -0.31400001 -0.74299997 5
7.8509998 -0.30700001 -0.73400003 11
7.6139998 -0.30199999 -0.727 13
7.4429998 -0.29899999 -0.72600001 13
7.2610002 -0.29499999 -0.72299999 14
7.1149998 -0.292 -0.72299999 11
6.941 -0.289 -0.71899998 8
6.6680002 -0.28 -0.704 4
6.4590001 -0.27500001 -0.69499999 3
6.2930002 -0.27000001 -0.69 3
6.1329999 -0.266 -0.685 3
5.9910002 -0.26300001 -0.68099999 3
5.855 -0.259 -0.67699999 3
5.698 -0.255 -0.67000002 3
5.566 -0.25099999 -0.66600001 4
5.4419999 -0.248 -0.662 3
5.302 -0.244 -0.65499997 3
5.1890001 -0.241 -0.65200001 3
5.0819998 -0.23800001 -0.648 3
4.9860001 -0.235 -0.64600003 3
4.8610001 -0.23100001 -0.639 3
4.77 -0.229 -0.63700002 4
4.6059999 -0.222 -0.62400001 6
4.5500002 -0.221 -0.625 8
4.5110002 -0.221 -0.62900001 6
4.4380002 -0.219 -0.62699997 3
4.355 -0.21600001 -0.62400001 2
4.3109999 -0.21600001 -0.62699997 3
4.1849999 -0.211 -0.616 2
4.118 -0.20900001 -0.61500001 2
4.0669999 -0.207 -0.61500001 2
4.0349998 -0.207 -0.61799997 2
3.974 -0.205 -0.616 2
3.9070001 -0.20299999 -0.61400002 3
3.931 -0.205 -0.625 3
3.803 -0.2 -0.61199999 3
3.747 -0.198 -0.61000001 3
3.6889999 -0.19599999 -0.60799998 3
3.595 -0.191 -0.59899998 1
3.5840001 -0.192 -0.60399997 2
3.477 -0.18700001 -0.59299999 2
3.4449999 -0.186 -0.59399998 2
3.4489999 -0.18700001 -0.60100001 2
3.408 -0.186 -0.60000002 2
3.365 -0.184 -0.59899998 2
3.349 -0.184 -0.60299999 1
3.2379999 -0.178 -0.58899999 1
3.3050001 -0.183 -0.60699999 2
3.227 -0.17900001 -0.59899998 1
3.151 -0.175 -0.58999997 1
3.1059999 -0.17299999 -0.588 1
3.0940001 -0.17299999 -0.59100002 1
3.089 -0.17399999 -0.59600002 1
3.171 -0.17900001 -0.61799997 2
3.029 -0.171 -0.59600002 1
2.987 -0.169 -0.59299999 1
2.902 -0.16500001 -0.58099997 1
2.9260001 -0.167 -0.59100002 1
2.806 -0.16 -0.57200003 1
2.7950001 -0.16 -0.57499999 1
2.73 -0.156 -0.56699997 1
2.8080001 -0.161 -0.588 1
2.76 -0.15899999 -0.583 1
2.747 -0.15800001 -0.58499998 1
2.6989999 -0.156 -0.579 1
2.6700001 -0.154 -0.57800001 1
2.6789999 -0.155 -0.58499998 1
2.658 -0.154 -0.58499998 1
2.5550001 -0.148 -0.56699997 1
2.602 -0.15099999 -0.58099997 1
2.6459999 -0.154 -0.59600002 1
2.54 -0.148 -0.57599998 1
2.454 -0.14300001 -0.56099999 1
2.4389999 -0.142 -0.56199998 1
2.415 -0.141 -0.56 1
2.391 -0.14 -0.55900002 1
2.3759999 -0.139 -0.55900002 1
2.3529999 -0.13699999 -0.55800003 1
2.3340001 -0.13600001 -0.55699998 1
2.3180001 -0.13500001 -0.55699998 1
2.3050001 -0.13500001 -0.55800003 1
2.283 -0.133 -0.55599999 1
2.2639999 -0.132 -0.55500001 1
2.247 -0.131 -0.55500001 1
2.2249999 -0.13 -0.55299997 1
2.2149999 -0.12899999 -0.55400002 1
2.198 -0.12800001 -0.55299997 1
2.1800001 -0.127 -0.55199999 1
2.1659999 -0.126 -0.55199999 1
2.1530001 -0.125 -0.55199999 1
2.1370001 -0.124 -0.55199999 1
2.112 -0.123 -0.54799998 1
2.105 -0.122 -0.55000001 1
2.0899999 -0.121 -0.54900002 1
2.0780001 -0.12 -0.54900002 1
2.062 -0.119 -0.54799998 1
2.0420001 -0.118 -0.546 1
2.0339999 -0.117 -0.54699999 1
2.023 -0.117 -0.54699999 1
2.0090001 -0.116 -0.546 1
2.0020001 -0.115 -0.54699999 1
1.9859999 -0.114 -0.546 1
1.9680001 -0.113 -0.54299998 1
1.957 -0.112 -0.54299998 1
1.95 -0.111 -0.54400003 1
1.939 -0.11 -0.54400003 1
1.932 -0.11 -0.54500002 1
1.924 -0.109 -0.54500002 1
1.91 -0.108 -0.54400003 1
1.898 -0.107 -0.54299998 1
1.877 -0.105 -0.54000002 1
1.863 -0.104 -0.53799999 1
1.86 -0.104 -0.54000002 1
1.849 -0.103 -0.53899997 1
1.837 -0.102 -0.53799999 1
1.836 -0.102 -0.54000002 1
1.822 -0.101 -0.53799999 1
1.814 -0.1 -0.53799999 1
1.806 -0.098999999 -0.53799999 1
1.793 -0.097999997 -0.537 1
1.786 -0.097000003 -0.537 1
1.783 -0.097000003 -0.53799999 1
1.772 -0.096000001 -0.537 1
1.763 -0.094999999 -0.537 1
1.755 -0.093999997 -0.53600001 1
1.749 -0.093999997 -0.537 1
1.7410001 -0.093000002 -0.53600001 1
1.738 -0.092 -0.537 1
1.733 -0.092 -0.53799999 1
1.716 -0.090000004 -0.53399998 1
1.7180001 -0.090000004 -0.537 1
1.7130001 -0.089000002 -0.537 1
1.707 -0.089000002 -0.537 1
1.688 -0.086999997 -0.53299999 1
1.683 -0.086999997 -0.53399998 1
1.679 -0.086000003 -0.53399998 1
1.666 -0.085000001 -0.53200001 1
1.665 -0.083999999 -0.53299999 1
1.6569999 -0.083999999 -0.53200001 1
1.655 -0.082999997 -0.53299999 1
1.647 -0.082000002 -0.53299999 1
1.635 -0.081 -0.52999997 1
1.633 -0.081 -0.53100002 1
1.6210001 -0.079999998 -0.52899998 1
1.623 -0.079000004 -0.53100002 1
1.615 -0.078000002 -0.52999997 1
1.61 -0.078000002 -0.52999997 1
1.6059999 -0.077 -0.52999997 1
1.594 -0.075999998 -0.528 1
1.589 -0.075000003 -0.528 1
1.589 -0.075000003 -0.52899998 1
1.589 -0.074000001 -0.52999997 1
1.579 -0.074000001 -0.528 1
1.568 -0.072999999 -0.52600002 1
1.5700001 -0.071999997 -0.528 1
1.559 -0.071000002 -0.52600002 1
1.567 -0.071000002 -0.52999997 1
1.557 -0.07 -0.528 1
1.5470001 -0.068999998 -0.52499998 1
1.546 -0.068999998 -0.52600002 1
1.5420001 -0.068000004 -0.52600002 1
1.545 -0.068000004 -0.528 1
1.5369999 -0.067000002 -0.52700001 1
1.529 -0.066 -0.52499998 1
1.538 -0.066 -0.52899998 1
1.528 -0.064999998 -0.52700001 1
1.528 -0.064000003 -0.528 1
1.507 -0.063000001 -0.52200001 1
1.515 -0.063000001 -0.52499998 1
1.517 -0.061999999 -0.52700001 1
1.516 -0.061999999 -0.528 1
1.5039999 -0.061000001 -0.52399999 1
1.512 -0.061000001 -0.528 1
1.503 -0.059999999 -0.52600002 1
1.497 -0.059 -0.52399999 1
1.497 -0.057999998 -0.52499998 1
1.503 -0.057999998 -0.528 1
1.497 -0.057 -0.52700001 1
1.489 -0.057 -0.52499998 1
1.4910001 -0.056000002 -0.52600002 1
1.488 -0.055 -0.52600002 1
1.488 -0.055 -0.52700001 1
1.4809999 -0.054000001 -0.52499998 1
1.482 -0.054000001 -0.52600002 1
1.483 -0.052999999 -0.52700001 1
1.482 -0.052000001 -0.52700001 1
1.483 -0.052000001 -0.528 1
1.474 -0.050999999 -0.52499998 1
1.474 -0.050999999 -0.52600002 1
1.465 -0.050000001 -0.523 1
1.465 -0.048999999 -0.52399999 1
1.467 -0.048999999 -0.52499998 1
1.465 -0.048 -0.52399999 1
1.461 -0.046999998 -0.523 1
1.464 -0.046999998 -0.52499998 1
1.457 -0.046 -0.523 1
1.461 -0.046 -0.52499998 1
1.46 -0.045000002 -0.52499998 1
1.454 -0.044 -0.523 1
1.457 -0.044 -0.52399999 1
1.461 -0.043000001 -0.52600002 1
1.457 -0.043000001 -0.52499998 1
1.451 -0.041999999 -0.523 1
1.4579999 -0.041999999 -0.52499998 1
1.457 -0.041000001 -0.52499998 1
1.449 -0.039999999 -0.523 1
1.4529999 -0.039999999 -0.52399999 1
1.451 -0.039000001 -0.52399999 1
1.4529999 -0.039000001 -0.52399999 1
1.448 -0.037999999 -0.523 1
1.443 -0.037 -0.52100003 1
1.45 -0.037 -0.52399999 1
1.4529999 -0.035999998 -0.52499998 1
1.45 -0.035999998 -0.52399999 1
1.451 -0.035 -0.52399999 1
1.4529999 -0.035 -0.52399999 1
1.4529999 -0.034000002 -0.52399999 1
1.4529999 -0.033 -0.52399999 1
1.4529999 -0.033 -0.52399999 1
1.4529999 -0.032000002 -0.52399999 1
1.4529999 -0.032000002 -0.52399999 1
1.454 -0.030999999 -0.52399999 1
1.455 -0.030999999 -0.52399999 1
1.461 -0.029999999 -0.52600002 1
1.454 -0.028999999 -0.523 1
1.452 -0.028999999 -0.52200001 1
1.454 -0.028000001 -0.523 1
1.454 -0.028000001 -0.52200001 1
1.461 -0.027000001 -0.52499998 1
1.465 -0.027000001 -0.52600002 1
1.454 -0.026000001 -0.52200001 1
1.456 -0.025 -0.52200001 1
1.461 -0.025 -0.523 1
1.461 -0.024 -0.52200001 1
1.456 -0.024 -0.51999998 1
1.467 -0.023 -0.52399999 1
1.4680001 -0.023 -0.523 1
1.4630001 -0.022 -0.52100003 1
1.466 -0.021 -0.52200001 1
1.477 -0.021 -0.52499998 1
1.475 -0.02 -0.52399999 1
1.4859999 -0.02 -0.52700001 1
1.487 -0.018999999 -0.52700001 1
1.485 -0.018999999 -0.52499998 1
1.4910001 -0.017999999 -0.52700001 1
1.49 -0.017999999 -0.52600002 1
1.4910001 -0.017000001 -0.52600002 1
1.4960001 -0.016000001 -0.52700001 1
1.5 -0.016000001 -0.52700001 1
1.5039999 -0.015 -0.528 1
1.505 -0.015 -0.52700001 1
1.503 -0.014 -0.52600002 1
1.508 -0.014 -0.52600002 1
1.507 -0.013 -0.52499998 1
1.512 -0.012 -0.52600002 1
1.522 -0.012 -0.52899998 1
1.522 -0.011 -0.528 1
1.523 -0.011 -0.52700001 1
1.526 -0.0099999998 -0.52700001 1
1.531 -0.0099999998 -0.528 1
1.529 -0.0089999996 -0.52600002 1
1.539 -0.0080000004 -0.528 1
1.541 -0.0080000004 -0.528 1
1.5420001 -0.0070000002 -0.52700001 1
1.544 -0.0070000002 -0.52700001 1
1.544 -0.0060000001 -0.52600002 1
1.5549999 -0.0060000001 -0.528 1
1.558 -0.0049999999 -0.528 1
1.5650001 -0.0049999999 -0.52899998 1
1.569 -0.0040000002 -0.52899998 1
1.572 -0.003 -0.52899998 1
1.572 -0.003 -0.52700001 1
1.579 -0.0020000001 -0.528 1
1.586 -0.0020000001 -0.52899998 1
1.589 -0.001 -0.52899998 1
1.597 -0.001 -0.52999997 1
1.596 0 -0.528 1
1.602 0 -0.52899998 1
1.608 0 -0.52899998 1
1.62 0.001 -0.53200001 1
1.625 0.001 -0.53200001 1
1.6210001 0.0020000001 -0.52899998 1
1.635 0.0020000001 -0.53200001 1
1.6390001 0.003 -0.53200001 1
1.647 0.003 -0.53200001 1
1.645 0.0040000002 -0.52999997 1
1.658 0.0049999999 -0.53200001 1
1.663 0.0049999999 -0.53200001 1
1.661 0.0060000001 -0.52999997 1
1.669 0.0060000001 -0.53100002 1
1.689 0.0070000002 -0.53500003 1
1.679 0.0070000002 -0.52999997 1
1.702 0.0080000004 -0.53500003 1
1.71 0.0089999996 -0.53600001 1
1.716 0.0089999996 -0.53600001 1
1.719 0.0099999998 -0.53500003 1
1.729 0.0099999998 -0.53600001 1
1.735 0.011 -0.53600001 1
1.744 0.012 -0.53600001 1
1.748 0.012 -0.53600001 1
1.755 0.013 -0.53600001 1
1.7690001 0.013 -0.53799999 1
1.772 0.014 -0.53600001 1
1.78 0.014 -0.537 1
1.791 0.015 -0.53799999 1
1.801 0.016000001 -0.53799999 1
1.812 0.016000001 -0.53899997 1
1.816 0.017000001 -0.53799999 1
1.826 0.017000001 -0.53899997 1
1.835 0.017999999 -0.53899997 1
1.848 0.018999999 -0.54000002 1
1.852 0.018999999 -0.53899997 1
1.8609999 0.02 -0.53899997 1
1.8839999 0.02 -0.54299998 1
1.895 0.021 -0.54400003 1
1.899 0.021 -0.542 1
1.91 0.022 -0.54299998 1
1.9220001 0.023 -0.54299998 1
1.936 0.023 -0.54500002 1
1.944 0.024 -0.54400003 1
1.954 0.024 -0.54400003 1
1.969 0.025 -0.54500002 1
1.972 0.025 -0.54299998 1
1.995 0.026000001 -0.54699999 1
2.0050001 0.027000001 -0.546 1
2.016 0.027000001 -0.54699999 1
2.023 0.028000001 -0.54500002 1
2.039 0.028999999 -0.54699999 1
2.053 0.028999999 -0.54699999 1
2.0680001 0.029999999 -0.54799998 1
2.082 0.029999999 -0.54799998 1
2.095 0.030999999 -0.54799998 1
2.115 0.030999999 -0.551 1
2.1240001 0.032000002 -0.55000001 1
2.1459999 0.033 -0.55199999 1
2.155 0.033 -0.551 1
2.168 0.034000002 -0.551 1
2.1789999 0.034000002 -0.55000001 1
2.2049999 0.035 -0.55299997 1
2.223 0.035999998 -0.55400002 1
2.2409999 0.035999998 -0.55500001 1
2.2539999 0.037 -0.55400002 1
2.2720001 0.037 -0.55500001 1
2.289 0.037999999 -0.55500001 1
2.3080001 0.037999999 -0.55599999 1
2.326 0.039000001 -0.55599999 1
2.3469999 0.039999999 -0.55699998 1
2.358 0.039999999 -0.55599999 1
2.382 0.041000001 -0.55699998 1
2.4070001 0.041000001 -0.55900002 1
2.421 0.041999999 -0.55800003 1
2.438 0.041999999 -0.55800003 1
2.4619999 0.043000001 -0.55900002 1
2.4990001 0.044 -0.56300002 1
2.5109999 0.044 -0.56199998 1
2.5350001 0.045000002 -0.56300002 1
2.5680001 0.045000002 -0.565 1
2.592 0.046 -0.56599998 2
2.6289999 0.046999998 -0.56900001 4
2.6470001 0.046999998 -0.56800002 5
2.665 0.048 -0.56800002 8
2.6860001 0.048 -0.56699997 7
2.7130001 0.048999999 -0.56800002 6
2.743 0.048999999 -0.56900001 4
2.767 0.050000001 -0.56900001 3
2.789 0.050000001 -0.56800002 2
2.852 0.050999999 -0.57599998 1
2.9059999 0.052000001 -0.58200002 1
2.9719999 0.052999999 -0.58899999 1
3.013 0.054000001 -0.59200001 2
3.072 0.055 -0.59799999 2
3.128 0.056000002 -0.60299999 2
3.1819999 0.057 -0.60699999 2
3.1170001 0.055 -0.58899999 1
3.2509999 0.057999998 -0.60799998 1
3.3010001 0.057999998 -0.611 2
3.323 0.059 -0.60900003 2
3.2950001 0.057999998 -0.59799999 2
3.3900001 0.059 -0.60799998 2
3.3659999 0.059 -0.59799999 2
3.4200001 0.059 -0.60100001 2
3.454 0.059999999 -0.60000002 2
3.4400001 0.059 -0.59100002 2
3.51 0.059999999 -0.59600002 2
3.54 0.059999999 -0.59500003 1
3.5969999 0.059999999 -0.597 1
3.694 0.061999999 -0.60600001 1
3.767 0.061999999 -0.611 3
3.802 0.061999999 -0.60900003 3
3.858 0.063000001 -0.61000001 3
3.944 0.064000003 -0.616 2
3.9389999 0.063000001 -0.60799998 1
4.0100002 0.063000001 -0.611 2
4.0580001 0.063000001 -0.61000001 2
4.1589999 0.064000003 -0.61699998 2
4.204 0.064000003 -0.61500001 2
4.3140001 0.064999998 -0.62300003 3
4.3829999 0.064999998 -0.62400001 3
4.454 0.064999998 -0.625 3
4.533 0.066 -0.62699997 3
4.6290002 0.066 -0.63099998 4
4.7189999 0.066 -0.634 3
4.829 0.067000002 -0.639 4
4.9359999 0.067000002 -0.64300001 4
5.0320001 0.067000002 -0.64499998 3
5.1409998 0.067000002 -0.64899999 3
5.2649999 0.067000002 -0.65399998 4
5.3990002 0.068000004 -0.66000003 3
5.5289998 0.068000004 -0.66399997 4
5.6719999 0.068000004 -0.67000002 4
5.8179998 0.068000004 -0.67500001 4
5.96 0.068000004 -0.68000001 4
6.105 0.068000004 -0.68400002 3
6.2820001 0.068000004 -0.69099998 4
6.4549999 0.068000004 -0.69700003 4
6.6170001 0.067000002 -0.70099998 4
6.8330002 0.067000002 -0.70999998 4
7.0510001 0.067000002 -0.71799999 4
7.243 0.066 -0.72299999 5
7.4619999 0.066 -0.72899997 4
7.6820002 0.064999998 -0.73500001 5
7.9130001 0.064000003 -0.741 4
8.2849998 0.064000003 -0.75800002 7
8.5710001 0.063000001 -0.76700002 14
8.7700005 0.061000001 -0.76599997 14
9.0629997 0.059999999 -0.77399999 13
9.3690004 0.057999998 -0.77999997 7
9.7220001 0.056000002 -0.79000002 5
10.146 0.054000001 -0.80299997 4
10.559 0.052000001 -0.81400001 3
11.055 0.050000001 -0.829 3
11.532 0.046999998 -0.84100002 3
12.079 0.044 -0.85600001 3
12.627 0.039999999 -0.86900002 3
13.267 0.035999998 -0.88499999 3
14.037 0.032000002 -0.90700001 3
0 0 0 3
15.707 0.02 -0.94999999 5
15.653 0.013 -0.91399997 2
0 0 0 2
0 0 0 1
0 0 0 1
0 0 0 1
0 0 0 1
17.437 -0.037999999 -0.80199999 3
17.353001 -0.046999998 -0.76200002 4
17.233 -0.056000002 -0.72100002 4
17.056999 -0.064999998 -0.67900002 3
16.940001 -0.074000001 -0.639 2
16.912001 -0.082999997 -0.60299999 2
16.888 -0.093000002 -0.56699997 2
16.877001 -0.103 -0.53200001 1
16.9 -0.113 -0.498 1
16.917999 -0.123 -0.46399999 1
16.884001 -0.133 -0.428 3
16.879999 -0.14300001 -0.39300001 7
16.877001 -0.153 -0.35800001 5
16.934999 -0.164 -0.32499999 1
16.968 -0.175 -0.29100001 1
16.892 -0.185 -0.255 1
16.886999 -0.19599999 -0.22 1
16.926001 -0.207 -0.186 1
16.933001 -0.21799999 -0.152 1
16.993999 -0.23 -0.117 1
17.003 -0.242 -0.082999997 2
17.007999 -0.25299999 -0.048 2
17 -0.264 -0.014 1
0 0 0 0
0 0 0 0
0 0 0 1
17.712 -0.32499999 0.12899999 1
17.888 -0.34099999 0.16599999 1
0 0 0 0
0 0 0 0
0 0 0 0
0 0 0 0
0 0 0 0
0 0 0 0
0 0 0 0
0 0 0 0
0 0 0 0
0 0 0 4
25.416 -0.69300002 0.79400003 23
25.403 -0.713 0.84399998 48
25.370001 -0.73199999 0.89300001 58
25.372 -0.75199997 0.94300002 58
25.354 -0.77100003 0.99199998 58
25.351999 -0.792 1.0420001 55
25.337999 -0.81199998 1.09 59
25.343 -0.833 1.14 61
25.339001 -0.85299999 1.188 55
25.327999 -0.87400001 1.237 63
25.339001 -0.89499998 1.2869999 67
25.334999 -0.917 1.336 70
25.343 -0.93800002 1.385 68
25.334 -0.95899999 1.433 67
25.35 -0.98199999 1.483 69
25.337 -1.003 1.531 67
25.363001 -1.026 1.581 51
25.353001 -1.048 1.628 55
25.357 -1.0700001 1.677 54
25.351999 -1.092 1.725 56
25.354 -1.115 1.772 56
25.361 -1.138 1.821 53
25.393 -1.1619999 1.8710001 49
25.407 -1.1849999 1.919 43
25.434999 -1.21 1.97 46
25.445 -1.234 2.0179999 43
25.455 -1.258 2.066 41
25.485001 -1.283 2.1159999 42
25.504999 -1.308 2.165 39
25.535999 -1.3329999 2.214 35
25.566999 -1.358 2.263 32
25.604 -1.3839999 2.313 27
25.645 -1.411 2.3640001 21
25.705999 -1.438 2.415 16
25.792 -1.467 2.47 3
0 0 0 8
0 0 0 0
0 0 0 0
0 0 0 0
0 0 0 0
0 0 0 0
0 0 0 0
0 0 0 0
0 0 0 0
0 0 0 0
0 0 0 4
33.855 -2.3210001 3.9560001 24
33.855 -2.355 4.0139999 31
33.861 -2.388 4.072 16
33.919998 -2.4260001 4.1370001 2
0 0 0 0
0 0 0 0
0 0 0 0
0 0 0 0
0 0 0 1
0 0 0 0
0 0 0 0
0 0 0 0
0 0 0 0
0 0 0 0
0 0 0 2
0 0 0 0
0 0 0 0
0 0 0 1
34.158001 -2.9660001 5.0050001 1
34.181999 -3.0039999 5.0609999 1
0 0 0 0
0 0 0 1
0 0 0 0
0 0 0 2
37.870998 -3.526 5.901 2
0 0 0 0
0 0 0 0
0 0 0 0
0 0 0 1
0 0 0 0
0 0 0 2
0 0 0 0
0 0 0 2
34.931999 -3.5829999 5.9099998 3
34.632 -3.5880001 5.9089999 4
34.618999 -3.6240001 5.9569998 4
34.332001 -3.6300001 5.9559999 6
34.147999 -3.6470001 5.973 14
33.990002 -3.6670001 5.993 20
33.834 -3.6849999 6.013 23
33.587002 -3.694 6.0149999 24
0 0 0 1
17.857 -2.0009999 3.247 13
17.813 -2.0150001 3.263 19
17.750999 -2.027 3.276 21
17.719999 -2.0420001 3.2939999 24
17.67 -2.0550001 3.3080001 27
17.650999 -2.072 3.3280001 31
17.625999 -2.0880001 3.3469999 30
17.615 -2.105 3.368 33
17.6 -2.122 3.3870001 36
17.584999 -2.138 3.4070001 39
17.568001 -2.155 3.4260001 41
17.537001 -2.1700001 3.4419999 38
17.532 -2.187 3.4630001 43
17.521 -2.2049999 3.483 48
17.518999 -2.2219999 3.5039999 50
17.507999 -2.2390001 3.523 45
17.493999 -2.256 3.5409999 43
17.478001 -2.2720001 3.559 46
17.479 -2.2909999 3.5799999 57
17.476 -2.309 3.5999999 57
17.481001 -2.3280001 3.622 35
17.458 -2.342 3.6370001 50
17.461 -2.3610001 3.658 32
17.461 -2.3789999 3.677 37
17.466 -2.398 3.698 37
17.445999 -2.4130001 3.7130001 59
17.458 -2.4330001 3.7349999 35
17.457001 -2.451 3.7539999 37
17.447001 -2.467 3.7709999 47
17.438999 -2.483 3.7880001 54
17.440001 -2.5009999 3.8069999 53
17.454 -2.5209999 3.829 35
17.455999 -2.539 3.8469999 55
17.459999 -2.5569999 3.865 53
17.457001 -2.575 3.8829999 46
17.474001 -2.595 3.905 42
17.455999 -2.6099999 3.918 46
17.479 -2.631 3.9400001 46
17.472 -2.6470001 3.9560001 42
17.496 -2.6689999 3.9779999 31
17.486 -2.684 3.993 44
17.5 -2.704 4.013 41
17.503 -2.7219999 4.0300002 39
17.52 -2.7409999 4.0500002 29
17.527 -2.76 4.0679998 38
17.545 -2.779 4.0879998 38
17.558001 -2.799 4.1059999 37
17.558001 -2.816 4.1220002 32
17.586 -2.8369999 4.1440001 22
17.604 -2.8570001 4.1630001 27
17.646 -2.8800001 4.1880002 24
17.672001 -2.902 4.2090001 21
17.716 -2.925 4.2340002 17
17.754999 -2.9489999 4.257 14
17.792 -2.9719999 4.2800002 7
17.792 -2.9879999 4.2940001 1
0 0 0 25
27.521 -4.6729999 6.684 29
27.445999 -4.6859999 6.6869998 25
27.371 -4.698 6.6890001 25
27.285 -4.7080002 6.6869998 27
27.216 -4.7199998 6.6900001 27
27.141001 -4.7309999 6.691 23
27.073 -4.744 6.6929998 24
26.997999 -4.7540002 6.6929998 27
26.936001 -4.7670002 6.6960001 28
26.879 -4.7810001 6.6989999 28
26.813 -4.7919998 6.6989999 25
26.761 -4.8060002 6.7030001 29
26.707001 -4.8200002 6.7069998 24
26.639999 -4.8309999 6.7059999 26
26.583 -4.8429999 6.7080002 29
26.516001 -4.8530002 6.7069998 28
26.459 -4.8649998 6.7080002 25
26.410999 -4.8779998 6.71 25
26.357 -4.8899999 6.711 28
26.306 -4.902 6.7119999 29
26.27 -4.9169998 6.717 27
26.221001 -4.9289999 6.7179999 24
26.167999 -4.9400001 6.717 29
26.124001 -4.9530001 6.7189999 29
26.087 -4.9660001 6.7220001 29
26.044001 -4.9780002 6.723 28
25.987 -4.9879999 6.7199998 29
25.962 -5.0029998 6.7249999 26
25.917 -5.013 6.7249999 31
25.885 -5.027 6.7270002 29
25.858 -5.0419998 6.7309999 27
25.796 -5.0489998 6.7249999 26
25.757 -5.0599999 6.7249999 31
25.742001 -5.0760002 6.73 30
25.702 -5.0869999 6.7290001 30
25.684 -5.1009998 6.7329998 26
25.639999 -5.1110001 6.73 26
25.618999 -5.125 6.7329998 26
25.579 -5.1339998 6.73 30
25.561001 -5.1479998 6.7329998 29
25.537001 -5.1609998 6.7340002 25
25.502001 -5.1719999 6.7319999 30
25.485001 -5.1849999 6.7350001 29
25.476 -5.1999998 6.7379999 25
25.438999 -5.2090001 6.7350001 30
25.421 -5.2220001 6.7360001 29
25.395 -5.2329998 6.7340002 29
25.386999 -5.2470002 6.737 24
25.368999 -5.2589998 6.737 30
25.344999 -5.27 6.7360001 24
25.332001 -5.283 6.7360001 29
25.329 -5.2979999 6.7389998 28
25.306999 -5.3080001 6.737 25
25.298 -5.3210001 6.7379999 29
25.278999 -5.3309999 6.7360001 29
25.268999 -5.3439999 6.7360001 30
25.254999 -5.355 6.7350001 30
25.243 -5.3670001 6.7329998 30
25.209 -5.3730001 6.7259998 30
25.214001 -5.3870001 6.7290001 31
25.191 -5.395 6.724 28
25.164 -5.4029999 6.7179999 29
25.145 -5.4120002 6.7129998 30
25.132 -5.4219999 6.71 29
25.094999 -5.427 6.6999998 31
25.069 -5.4330001 6.6929998 30
25.052 -5.4419999 6.6880002 30
25.006001 -5.4439998 6.6739998 29
24.987 -5.4510002 6.6680002 29
24.951 -5.4549999 6.6570001 29
24.924999 -5.461 6.6479998 28
24.900999 -5.4660001 6.6399999 29
24.864 -5.4679999 6.6269999 27
24.834 -5.4720001 6.6160002 28
24.802999 -5.4759998 6.605 29
24.788 -5.4829998 6.598 29
24.754999 -5.4850001 6.586 29
24.722 -5.487 6.573 27
24.688999 -5.4889998 6.5599999 28
24.657 -5.4910002 6.5469999 28
24.613001 -5.4910002 6.5310001 29
24.551001 -5.4860001 6.5089998 32
24.461 -5.473 6.48 33
24.385 -5.4650002 6.4549999 34
24.285 -5.4499998 6.4219999 32
24.240999 -5.447 6.4050002 30
24.194 -5.4439998 6.3860002 30
24.121 -5.4349999 6.3600001 18
24.059 -5.428 6.3369999 21
24.013 -5.4250002 6.3169999 22
23.958 -5.4180002 6.296 26
23.954 -5.4239998 6.2870002 25
23.937 -5.4260001 6.2750001 25
23.976999 -5.441 6.277 25
23.995001 -5.4510002 6.2729998 30
24.02 -5.461 6.2709999 30
24.048 -5.473 6.27 25
24.08 -5.4850001 6.2690001 30
24.118 -5.4990001 6.2690001 27
24.150999 -5.5110002 6.2670002 28
24.179001 -5.5219998 6.2639999 31
24.223 -5.5349998 6.2649999 30
24.256001 -5.5469999 6.263 27
24.287001 -5.5570002 6.2600002 32
24.341999 -5.573 6.263 26
24.372999 -5.5840001 6.2589998 30
24.434 -5.6009998 6.263 25
24.462 -5.6100001 6.2579999 29
24.51 -5.6230001 6.257 28
24.555 -5.6360002 6.256 29
24.59 -5.6459999 6.2519999 30
24.634001 -5.6570001 6.25 28
24.667 -5.6669998 6.244 30
24.728001 -5.6820002 6.2459998 29
24.761 -5.691 6.2399998 29
24.827999 -5.7069998 6.2420001 26
24.858 -5.7140002 6.2350001 30
24.907 -5.7259998 6.2319999 29
24.959 -5.7379999 6.23 31
25.011 -5.75 6.2270002 24
25.07 -5.763 6.2259998 30
25.124001 -5.7750001 6.223 28
25.197001 -5.7909999 6.224 24
25.268999 -5.8060002 6.2249999 23
25.316999 -5.816 6.2199998 29
25.386 -5.8299999 6.2189999 24
25.448999 -5.8429999 6.217 29
25.504 -5.8530002 6.2119999 29
25.583 -5.868 6.2129998 29
25.629999 -5.8759999 6.2059999 29
25.714001 -5.8940001 6.2069998 29
25.792 -5.908 6.2059999 25
25.858999 -5.9200001 6.2030001 28
25.947001 -5.9359999 6.204 24
26.011 -5.947 6.1989999 28
26.089001 -5.96 6.197 25
26.181999 -5.9759998 6.198 26
26.247999 -5.987 6.1929998 29
26.337 -6.0019999 6.1919999 28
26.392 -6.0089998 6.1830001 29
26.478001 -6.0240002 6.1810002 23
26.575001 -6.039 6.1820002 25
26.663 -6.053 6.1789999 24
26.747 -6.066 6.1760001 25
26.833 -6.0780001 6.1719999 24
26.924 -6.092 6.1690001 24
27.003 -6.1020002 6.164 26
27.103001 -6.1170001 6.1620002 25
27.177 -6.1259999 6.1539998 24
27.27 -6.1389999 6.1500001 27
27.372 -6.1529999 6.1469998 27
27.489 -6.171 6.1479998 25
27.594 -6.184 6.1459999 24
27.687 -6.1960001 6.1399999 25
27.785 -6.2080002 6.1350002 28
27.879 -6.2189999 6.1290002 26
27.983 -6.2319999 6.1240001 28
28.106001 -6.2480001 6.1230001 25
28.223 -6.263 6.1199999 28
28.341999 -6.2779999 6.118 23
28.452 -6.2909999 6.1129999 26
28.563 -6.303 6.1079998 24
28.693001 -6.3189998 6.1059999 24
28.813 -6.3330002 6.1020002 24
28.952999 -6.3509998 6.1009998 24
29.055 -6.3600001 6.0929999 27
29.173 -6.3720002 6.086 26
29.309999 -6.388 6.0830002 24
29.447001 -6.4029999 6.0809999 24
29.582001 -6.4169998 6.0770001 24
29.712999 -6.4299998 6.0710001 24
29.853001 -6.4450002 6.0669999 23
29.986 -6.4580002 6.0609999 24
30.134001 -6.473 6.0570002 25
30.27 -6.4860001 6.052 22
30.424 -6.5019999 6.0479999 23
30.591 -6.52 6.0469999 24
30.737 -6.533 6.0409999 23
30.917 -6.553 6.0409999 26
31.049999 -6.5630002 6.0320001 23
31.193001 -6.5739999 6.0240002 21
31.349001 -6.5879998 6.0180001 21
31.525 -6.605 6.0149999 22
31.693001 -6.619 6.0089998 22
31.872999 -6.6360002 6.006 22
32.063999 -6.6550002 6.0040002 23
32.220001 -6.665 5.9949999 23
32.401001 -6.6810002 5.9899998 23
32.564999 -6.6919999 5.9809999 23
32.766998 -6.711 5.9780002 23
32.948002 -6.7249999 5.9710002 24
33.115002 -6.7350001 5.961 24
33.311001 -6.7509999 5.9549999 24
33.502998 -6.7649999 5.948 25
33.689999 -6.777 5.9400001 25
33.861 -6.7859998 5.928 24
34.053001 -6.7989998 5.9200001 23
34.212002 -6.8039999 5.9039998 23
34.377998 -6.8099999 5.8889999 21
34.514999 -6.8099999 5.8699999 17
34.645 -6.8070002 5.848 10
34.823002 -6.8140001 5.8340001 7
35.048 -6.829 5.8270001 3
35.125 -6.8140001 5.7940001 2
35.055 -6.7709999 5.7379999 2
35.014999 -6.7329998 5.6859999 2
34.807999 -6.664 5.6069999 2
34.757 -6.6240001 5.553 2
34.798 -6.6009998 5.5139999 2
34.702999 -6.552 5.4549999 3
34.752998 -6.5300002 5.4169998 3
34.727001 -6.494 5.3670001 5
34.716999 -6.46 5.3189998 2
34.685001 -6.4219999 5.27 6
34.620998 -6.3790002 5.2140002 13
34.639 -6.349 5.1700001 14
34.652 -6.3179998 5.1259999 4
34.679001 -6.289 5.0830002 2
0 0 0 0
0 0 0 0
0 0 0 0
0 0 0 0
0 0 0 0
0 0 0 0
0 0 0 0
0 0 0 0
0 0 0 0
0 0 0 0
0 0 0 0
0 0 0 2
38.452999 -6.46 4.9590001 2
0 0 0 0
0 0 0 1
0 0 0 6
17.691999 -2.8940001 2.184 15
17.646999 -2.8670001 2.154 18
17.591999 -2.8380001 2.1229999 21
17.538 -2.809 2.092 26
17.516001 -2.786 2.066 26
17.503 -2.763 2.039 31
17.475 -2.7379999 2.0109999 30
17.48 -2.7179999 1.988 34
17.451 -2.6930001 1.96 35
17.434 -2.6700001 1.934 37
17.433001 -2.6489999 1.91 40
17.427 -2.6270001 1.885 45
17.433001 -2.6059999 1.8609999 32
17.405001 -2.5810001 1.834 47
17.406 -2.559 1.8099999 34
17.403999 -2.5369999 1.785 30
17.386999 -2.513 1.7589999 52
17.381001 -2.49 1.734 58
17.378 -2.467 1.709 57
17.377001 -2.4449999 1.6849999 37
17.391001 -2.424 1.661 40
17.378 -2.4000001 1.636 39
17.375999 -2.3770001 1.6109999 38
17.375 -2.3540001 1.587 39
17.379 -2.332 1.563 68
17.375 -2.309 1.539 61
17.382 -2.286 1.515 58
17.407 -2.266 1.492 39
17.416 -2.244 1.469 32
17.423 -2.221 1.4450001 32
17.423 -2.197 1.421 42
17.438999 -2.175 1.397 45
17.459 -2.1530001 1.375 39
17.476999 -2.132 1.352 46
17.483999 -2.108 1.3279999 40
17.530001 -2.089 1.308 27
17.537001 -2.0650001 1.284 35
17.569 -2.0439999 1.262 24
17.575001 -2.02 1.238 28
17.614 -1.999 1.216 25
17.679001 -1.9809999 1.196 21
17.743999 -1.9630001 1.176 19
17.834999 -1.947 1.158 4
0 0 0 44
33.998001 -3.612 2.1140001 50
33.974998 -3.559 2.066 51
33.952999 -3.507 2.0179999 52
33.969002 -3.457 1.972 53
33.944 -3.404 1.924 64
33.921001 -3.3510001 1.876 86
33.903 -3.2980001 1.829 102
33.881001 -3.244 1.7819999 110
33.875999 -3.1919999 1.7359999 104
33.862 -3.1389999 1.689 122
33.855 -3.0869999 1.643 114
33.876999 -3.036 1.599 48
33.875 -2.984 1.553 42
34.073002 -2.948 1.517 18
34.178001 -2.904 1.475 7
34.213001 -2.8529999 1.431 2
0 0 0 8
0 0 0 25
0 0 0 0
0 0 0 0
0 0 0 0
0 0 0 0
0 0 0 0
0 0 0 9
34.009998 -2.3469999 1.018 44
33.997002 -2.29 0.97299999 16
34.005001 -2.2349999 0.92900002 17
33.966 -2.177 0.884 27
33.966999 -2.1210001 0.84100002 36
33.966999 -2.0650001 0.79699999 35
33.960999 -2.0079999 0.75300002 24
0 0 0 1
18.775 -1.0470001 0.368 1
0 0 0 0
0 0 0 0
0 0 0 0
0 0 0 0
0 0 0 0
0 0 0 0
0 0 0 0
0 0 0 0
0 0 0 1
17.683001 -0.68699998 0.126 1
17.562 -0.65200001 0.103 1
0 0 0 0
0 0 0 0
0 0 0 0
0 0 0 0
0 0 0 1
16.922001 -0.45100001 -0.023 7
16.926001 -0.42199999 -0.043000001 4
16.962 -0.39300001 -0.063000001 3
16.961 -0.36300001 -0.082999997 3
16.961 -0.333 -0.102 2
16.886999 -0.30199999 -0.122 1
16.905001 -0.27200001 -0.142 1
16.98 -0.243 -0.162 1
16.896 -0.212 -0.18000001 1
0 0 0 0
0 0 0 0
0 0 0 0
0 0 0 0
0 0 0 0
0 0 0 1
0 0 0 0
0 0 0 1
17.136999 0.061000001 -0.35499999 1
17.160999 0.092 -0.375 45
17.135 0.123 -0.39300001 77
17.146 0.154 -0.412 2
0 0 0 0
0 0 0 0
0 0 0 1
17.406 0.285 -0.49200001 3
17.405001 0.31600001 -0.50999999 3
17.403999 0.34799999 -0.528 4
17.408001 0.37900001 -0.546 3
17.868999 0.42300001 -0.579 2
18.489 0.47099999 -0.61799997 2
18.707001 0.51099998 -0.64499998 2
19.003 0.55500001 -0.67400002 2
19.489 0.60399997 -0.71100003 2
19.907 0.65399998 -0.74599999 3
20.011999 0.69499999 -0.76899999 4
20.027 0.73199999 -0.79000002 3
20.177999 0.77399999 -0.815 4
20.444 0.82200003 -0.84500003 4
20.575001 0.866 -0.87099999 1
0 0 0 1
0 0 0 0
0 0 0 1
24.622 1.22 -1.136 4
24.43 1.255 -1.149 4
24.046 1.28 -1.153 3
0 0 0 3
0 0 0 2
0 0 0 0
0 0 0 1
18.542 1.159 -0.972 2
18.572001 1.196 -0.99000001 1
18.153 1.2029999 -0.98400003 2
17.548 1.1950001 -0.96600002 2
16.983 1.188 -0.949 2
16.448999 1.181 -0.93400002 2
16.084 1.1849999 -0.926 2
15.624 1.1799999 -0.91299999 3
15.276 1.182 -0.90499997 2
14.957 1.186 -0.89899999 2
14.589 1.184 -0.889 2
14.003 1.1619999 -0.86400002 3
13.964 1.1849999 -0.87300003 2
13.667 1.1849999 -0.86500001 3
13.397 1.187 -0.85900003 3
13.168 1.192 -0.85399997 3
12.908 1.192 -0.84799999 3
12.62 1.188 -0.838 3
12.639 1.214 -0.84899998 9
12.18 1.193 -0.82700002 2
11.963 1.194 -0.82099998 2
11.775 1.196 -0.81699997 3
11.618 1.202 -0.815 3
11.46 1.207 -0.81199998 3
11.298 1.211 -0.80800003 3
11.108 1.211 -0.80299997 3
10.94 1.2130001 -0.79799998 2
10.779 1.215 -0.79400003 3
10.62 1.216 -0.78899997 3
10.499 1.222 -0.78799999 2
10.364 1.225 -0.78399998 3
10.248 1.23 -0.78200001 3
10.121 1.233 -0.77899998 3
9.9799995 1.234 -0.77499998 3
9.8439999 1.2359999 -0.77100003 3
9.7209997 1.238 -0.76700002 4
9.6040001 1.24 -0.764 3
9.4980001 1.244 -0.76099998 3
9.3950005 1.247 -0.759 3
9.2600002 1.2460001 -0.75300002 5
9.1450005 1.247 -0.75 6
9.0500002 1.25 -0.74699998 8
8.9429998 1.252 -0.74299997 11
8.8579998 1.256 -0.741 16
8.7869997 1.261 -0.74000001 18
8.6999998 1.2640001 -0.73799998 15
8.6610003 1.274 -0.73900002 17
8.6549997 1.288 -0.74299997 10
8.5299997 1.285 -0.73699999 4
8.4300003 1.284 -0.73299998 4
8.3640003 1.289 -0.73199999 4
8.3000002 1.294 -0.73000002 4
8.2250004 1.2970001 -0.72799999 4
8.1719999 1.303 -0.727 4
8.0939999 1.3049999 -0.72399998 4
8.026 1.308 -0.722 4
8.0010004 1.317 -0.72399998 3
7.9390001 1.321 -0.722 4
7.8790002 1.325 -0.72000003 3
7.8309999 1.33 -0.71899998 3
7.7870002 1.336 -0.71799999 3
7.724 1.3380001 -0.71600002 3
7.6789999 1.3430001 -0.71499997 3
7.6090002 1.344 -0.71200001 3
7.5630002 1.349 -0.71100003 2
7.5050001 1.351 -0.708 2
7.4619999 1.3559999 -0.70700002 2
7.4039998 1.358 -0.70499998 2
7.3639998 1.363 -0.704 2
7.3299999 1.369 -0.70300001 2
7.2950001 1.375 -0.70300001 3
7.237 1.376 -0.69999999 3
7.191 1.3789999 -0.69800001 2
7.1630001 1.385 -0.69800001 3
7.125 1.3890001 -0.69700003 3
7.0539999 1.387 -0.69199997 3
7.0500002 1.398 -0.69400001 3
6.9959998 1.398 -0.69099998 3
6.9450002 1.399 -0.68800002 3
6.9380002 1.409 -0.69 3
6.881 1.408 -0.68599999 3
6.8740001 1.418 -0.68699998 3
6.8309999 1.419 -0.685 3
6.816 1.427 -0.685 3
6.7880001 1.432 -0.685 4
6.7820001 1.441 -0.68599999 3
6.7459998 1.444 -0.68400002 4
6.7259998 1.45 -0.68400002 4
6.7069998 1.456 -0.68300003 4
6.6799998 1.461 -0.68199998 4
6.6700001 1.469 -0.68300003 4
6.631 1.47 -0.68000001 5
6.6240001 1.479 -0.68099999 4
6.605 1.484 -0.68000001 4
6.5780001 1.488 -0.67900002 4
6.5710001 1.4960001 -0.68000001 5
6.553 1.501 -0.67900002 5
6.5320001 1.506 -0.67799997 7
6.533 1.516 -0.67900002 8
6.4819999 1.513 -0.67500001 5
6.4439998 1.5140001 -0.67199999 4
6.4089999 1.515 -0.67000002 3
6.402 1.522 -0.67000002 3
6.3870001 1.528 -0.66900003 3
6.3730001 1.533 -0.66900003 3
6.375 1.543 -0.67000002 4
6.3309999 1.54 -0.66600001 3
6.3390002 1.551 -0.66799998 4
6.3210001 1.5549999 -0.667 5
6.3260002 1.5650001 -0.66799998 4
6.2969999 1.567 -0.66500002 3
6.2839999 1.572 -0.66500002 4
6.2969999 1.584 -0.667 4
6.2859998 1.589 -0.66600001 3
6.2589998 1.59 -0.66399997 4
6.2729998 1.602 -0.66500002 3
6.256 1.605 -0.66399997 4
6.2579999 1.614 -0.66500002 4
6.243 1.618 -0.66299999 4
6.244 1.626 -0.66399997 4
6.2280002 1.63 -0.662 4
6.2280002 1.637 -0.66299999 4
6.2509999 1.651 -0.66500002 4
6.2309999 1.653 -0.66299999 4
6.2210002 1.658 -0.662 4
6.224 1.6670001 -0.66299999 4
6.2259998 1.675 -0.66299999 4
6.2129998 1.678 -0.662 4
6.2199998 1.687 -0.662 4
6.211 1.692 -0.66100001 4
6.2189999 1.701 -0.662 4
6.2199998 1.709 -0.662 4
6.197 1.709 -0.65899998 4
6.2199998 1.723 -0.66100001 4
6.2210002 1.73 -0.66100001 4
6.2249999 1.737 -0.66100001 5
6.217 1.742 -0.66000003 4
6.2290001 1.752 -0.66100001 4
6.23 1.7589999 -0.66100001 4
6.2379999 1.767 -0.66100001 4
6.2309999 1.772 -0.66000003 4
6.2449999 1.7819999 -0.66100001 4
6.2459998 1.788 -0.66100001 4
6.2690001 1.801 -0.66299999 4
6.2820001 1.811 -0.66299999 4
6.2729998 1.8150001 -0.662 4
6.283 1.824 -0.662 4
6.2950001 1.8329999 -0.66299999 4
6.302 1.841 -0.66299999 4
6.3140001 1.85 -0.66299999 5
6.323 1.858 -0.66299999 5
6.3280001 1.8660001 -0.66299999 5
6.323 1.87 -0.66100001 5
6.3610001 1.887 -0.66399997 5
6.348 1.888 -0.662 4
6.349 1.8940001 -0.66100001 4
6.3870001 1.91 -0.66399997 5
6.402 1.92 -0.66500002 5
6.4130001 1.929 -0.66500002 5
6.427 1.938 -0.66500002 5
6.4590001 1.9529999 -0.667 6
6.4860001 1.966 -0.66900003 7
6.5 1.975 -0.66900003 7
6.5209999 1.9859999 -0.67000002 8
6.5289998 1.993 -0.67000002 10
6.5450001 2.003 -0.67000002 10
6.5640001 2.013 -0.67000002 10
6.5869999 2.0250001 -0.671 10
6.6020002 2.0339999 -0.671 10
6.6170001 2.043 -0.671 11
6.6220002 2.049 -0.67000002 11
6.6490002 2.0610001 -0.67199999 11
6.6659999 2.0710001 -0.67199999 11
6.6830001 2.0799999 -0.67199999 11
6.691 2.0869999 -0.671 11
6.724 2.1010001 -0.67199999 11
6.7519999 2.1140001 -0.67400002 11
6.7709999 2.1240001 -0.67400002 11
6.8039999 2.1370001 -0.67500001 11
6.8200002 2.1459999 -0.67500001 11
6.8449998 2.158 -0.67500001 11
6.8670001 2.168 -0.676 11
6.915 2.187 -0.67900002 12
6.9289999 2.194 -0.67799997 12
6.9569998 2.207 -0.67900002 12
6.9959998 2.2219999 -0.68000001 12
7.026 2.2349999 -0.68099999 12
7.0430002 2.243 -0.68099999 12
7.0999999 2.2639999 -0.68400002 12
7.1110001 2.27 -0.68300003 12
7.151 2.286 -0.68400002 12
7.1820002 2.299 -0.685 13
7.197 2.306 -0.68400002 13
7.243 2.323 -0.68599999 13
7.2659998 2.3329999 -0.68599999 13
7.2919998 2.3440001 -0.68599999 13
7.329 2.358 -0.68699998 13
7.349 2.3659999 -0.68599999 13
7.3829999 2.3789999 -0.68699998 13
7.4089999 2.3889999 -0.68699998 13
7.4530001 2.405 -0.68800002 14
7.4899998 2.4189999 -0.68900001 14
7.5339999 2.4349999 -0.69 12
7.5819998 2.4519999 -0.69199997 10
7.6220002 2.4660001 -0.69300002 8
7.6700001 2.483 -0.69400001 8
7.697 2.493 -0.69300002 6
7.7470002 2.51 -0.69499999 6
7.7820001 2.523 -0.69499999 6
7.8299999 2.539 -0.69599998 5
7.8909998 2.5599999 -0.699 5
7.9239998 2.5710001 -0.69800001 5
7.9679999 2.586 -0.699 5
8.0120001 2.6010001 -0.69999999 5
8.0629997 2.618 -0.70099998 5
8.1140003 2.6340001 -0.70200002 5
8.1610003 2.6500001 -0.70300001 4
8.2379999 2.675 -0.70599997 5
8.2639999 2.6830001 -0.70499998 5
8.3269997 2.7030001 -0.70700002 5
8.3710003 2.717 -0.70700002 5
8.4180002 2.7320001 -0.708 4
8.4770002 2.7509999 -0.70899999 5
8.5240002 2.7650001 -0.70899999 4
8.5939999 2.7869999 -0.71100003 5
8.6499996 2.8050001 -0.71200001 5
8.7150002 2.825 -0.71399999 5
8.7819996 2.845 -0.71499997 5
8.8310003 2.8599999 -0.71499997 5
8.8990002 2.8800001 -0.71700001 5
8.9569998 2.8970001 -0.71700001 5
9.0019999 2.9100001 -0.71700001 5
9.0810003 2.934 -0.71899998 5
9.1829996 2.964 -0.72299999 4
9.2449999 2.9820001 -0.72299999 4
9.2950001 2.9960001 -0.72299999 4
9.3879995 3.023 -0.72600001 4
9.4729996 3.0480001 -0.72799999 4
9.5670004 3.075 -0.73100001 4
9.6619997 3.1029999 -0.73299998 3
9.7480001 3.128 -0.73500001 3
9.8129997 3.145 -0.736 4
9.8970003 3.1689999 -0.73699999 3
9.9720001 3.1889999 -0.73799998 4
10.056 3.2119999 -0.73900002 4
10.132 3.2320001 -0.74000001 4
10.233 3.26 -0.74299997 4
10.314 3.2820001 -0.74299997 3
10.407 3.3069999 -0.745 3
10.498 3.3310001 -0.74599999 3
10.611 3.362 -0.74900001 4
10.726 3.3929999 -0.75199997 3
10.862 3.431 -0.75599998 5
10.956 3.4549999 -0.75700003 7
11.013 3.467 -0.75599998 12
11.1 3.4890001 -0.75599998 12
11.157 3.5009999 -0.75400001 8
11.251 3.5239999 -0.755 5
11.393 3.562 -0.759 3
11.596 3.618 -0.76599997 3
11.749 3.6589999 -0.76999998 4
11.829 3.677 -0.76999998 4
11.941 3.704 -0.77100003 3
12.024 3.7219999 -0.76999998 3
12.158 3.7550001 -0.773 3
12.309 3.7939999 -0.77600002 3
12.46 3.832 -0.77899998 3
12.657 3.8829999 -0.78500003 3
12.834 3.9289999 -0.78899997 3
12.957 3.957 -0.79000002 3
13.118 3.9960001 -0.79299998 3
13.358 4.0599999 -0.801 3
13.533 4.1020002 -0.80400002 3
13.671 4.1339998 -0.80500001 3
13.867 4.1820002 -0.81 3
14.051 4.2259998 -0.81300002 3
14.268 4.2800002 -0.81800002 3
14.374 4.2989998 -0.81599998 4
14.532 4.3340001 -0.81800002 4
14.638 4.3530002 -0.81599998 3
14.805 4.3899999 -0.81800002 3
15.102 4.4650002 -0.82700002 3
15.306 4.5110002 -0.82999998 2
15.642 4.5970001 -0.83999997 3
15.935 4.6680002 -0.847 2
15.343 4.48 -0.80800003 2
15.603 4.5409999 -0.81300002 2
16.006001 4.6430001 -0.82599998 1
16.238001 4.6950002 -0.82999998 1
16.318001 4.7020001 -0.82499999 2
16.704 4.796 -0.83600003 1
17.295 4.948 -0.85600001 2
17.441999 4.973 -0.85399997 2
17.926001 5.0910001 -0.86900002 2
18.421 5.2129998 -0.88300002 1
0 0 0 2
0 0 0 0
0 0 0 0
0 0 0 0
0 0 0 1
22.945999 6.3429999 -1.029 1
22.875999 6.2969999 -1.0140001 1
23.715 6.5009999 -1.039 2
23.843 6.5089998 -1.033 3
24.087999 6.5479999 -1.031 2
24.070999 6.5149999 -1.018 2
0 0 0 0
0 0 0 0
0 0 0 3
0 0 0 0
0 0 0 0
0 0 0 0
0 0 0 0
0 0 0 2
0 0 0 0
0 0 0 0
0 0 0 0
0 0 0 0
0 0 0 0
0 0 0 2
39.306999 9.8879995 -1.369 3
39.349998 9.8450003 -1.352 4
39.32 9.783 -1.332 4
39.411999 9.7510004 -1.316 4
39.144001 9.6289997 -1.289 10
39.084 9.5609999 -1.268 11
39.008999 9.4870005 -1.247 14
38.931 9.4119997 -1.226 15
38.827999 9.3310003 -1.204 15
38.757 9.257 -1.1849999 19
38.664001 9.1800003 -1.164 17
38.571999 9.1009998 -1.143 16
38.493999 9.026 -1.123 18
38.395 8.9449997 -1.103 17
38.317001 8.8699999 -1.084 20
38.236 8.7939997 -1.064 19
38.147999 8.7150002 -1.045 19
38.064999 8.6389999 -1.026 19
37.985001 8.5620003 -1.007 19
37.894001 8.4829998 -0.98900002 18
37.801998 8.4049997 -0.96899998 18
37.779999 8.3409996 -0.95300001 12
37.738998 8.2720003 -0.93599999 4
37.605 8.1829996 -0.91600001 4
37.521999 8.1049995 -0.898 10
37.429001 8.0240002 -0.88099998 5
37.320999 7.9400001 -0.86299998 14
37.248001 7.8639998 -0.84600002 28
37.203999 7.7940001 -0.82999998 33
37.168999 7.7249999 -0.81400001 33
37.132 7.6560001 -0.79799998 35
37.095001 7.5869999 -0.78299999 39
37.084 7.5219998 -0.76800001 60
37.083 7.46 -0.75400001 65
37.087002 7.3990002 -0.74000001 100
37.080002 7.3340001 -0.72500002 122
37.145 7.2839999 -0.71200001 67
37.203999 7.2309999 -0.69999999 52
37.259998 7.1789999 -0.68800002 46
37.318001 7.125 -0.67500001 45
37.341999 7.0650001 -0.662 153
37.395 7.0089998 -0.64999998 156
37.476002 6.9590001 -0.63800001 157
37.521 6.902 -0.62599999 156
37.562 6.8429999 -0.61400002 154
37.612 6.7849998 -0.602 156
37.637001 6.7220001 -0.58999997 150
37.758999 6.677 -0.57999998 26
37.824001 6.6199999 -0.56900001 17
37.898998 6.5650001 -0.55699998 12
38.042 6.52 -0.54799998 7
0 0 0 0
0 0 0 0
0 0 0 0
0 0 0 33
0 0 0 31
0 0 0 28
83.461998 13.231 -1.0319999 24
0 0 0 0
0 0 0 0
0 0 0 0
0 0 0 0
0 0 0 0
0 0 0 35
0 0 0 0
0 0 0 0
0 0 0 0
0 0 0 0
0 0 0 0
0 0 0 30
0 0 0 0
0 0 0 0
0 0 0 31
0 0 0 0
0 0 0 0
0 0 0 86
131.03999 15.978 -1.063 106
0 0 0 0
0 0 0 0
0 0 0 0
0 0 0 32
70.085999 7.8439999 -0.51499999 91
0 0 0 31
36.396 3.928 -0.25799999 79
36.428001 3.858 -0.25299999 77
36.469002 3.7880001 -0.249 45
36.698002 3.737 -0.24699999 21
0 0 0 106
0 0 0 0
0 0 0 66
56.821999 5.3270001 -0.36000001 108
0 0 0 8
42.806999 3.836 -0.26499999 32
42.818001 3.75 -0.26300001 25
42.752998 3.6559999 -0.25999999 4
42.455002 3.543 -0.25600001 16
42.27 3.4400001 -0.25299999 21
42.161999 3.3440001 -0.25 37
41.881001 3.2349999 -0.24699999 10
42.062 3.1619999 -0.24699999 15
42.353001 3.095 -0.248 21
41.542 2.95 -0.243 37
41.09 2.8329999 -0.23999999 40
40.924 2.734 -0.23899999 41
40.928001 2.6500001 -0.23999999 33
41.095001 2.5739999 -0.241 47
40.903 2.477 -0.241 64
40.881001 2.3889999 -0.242 99
0 0 0 9
35.617001 1.933 -0.214 40
35.634998 1.859 -0.215 56
35.688 1.7869999 -0.21699999 38
37.115002 1.779 -0.229 5
36.896 1.693 -0.23 70
36.901001 1.615 -0.233 88
36.925999 1.5369999 -0.236 11
0 0 0 0
0 0 0 0
0 0 0 0
0 0 0 0
0 0 0 1
0 0 0 0
0 0 0 0
0 0 0 0
0 0 0 1
17.643999 0.361 -0.134 1
0 0 0 0
0 0 0 0
0 0 0 0
0 0 0 0
0 0 0 0
0 0 0 1
17.120001 0.094999999 -0.152 1
17.058001 0.059 -0.155 1
0 0 0 0
0 0 0 0
0 0 0 0
0 0 0 0
0 0 0 0
0 0 0 1
16.875 -0.193 -0.18099999 1
16.941 -0.23 -0.186 1
16.843 -0.26499999 -0.19 1
16.871 -0.301 -0.19499999 1
16.954 -0.33899999 -0.20100001 4
16.961 -0.375 -0.206 8
16.959999 -0.41100001 -0.211 11
16.974001 -0.447 -0.21600001 9
16.952 -0.48199999 -0.221 7
16.966 -0.51800001 -0.227 8
16.976999 -0.55500001 -0.23199999 8
16.990999 -0.59100002 -0.23800001 7
16.965 -0.62599999 -0.244 6
16.898001 -0.65799999 -0.248 13
16.916 -0.69499999 -0.255 3
16.983999 -0.73400003 -0.26199999 4
17.017 -0.76999998 -0.26899999 7
17.004999 -0.80500001 -0.27500001 8
17.028999 -0.84200001 -0.28200001 8
17.044001 -0.87800002 -0.28799999 10
17.065001 -0.91500002 -0.29499999 14
17.113001 -0.954 -0.303 15
17.062 -0.98699999 -0.30899999 9
17.059 -1.022 -0.31600001 5
16.941 -1.05 -0.32100001 1
17.025 -1.091 -0.33000001 1
17.018999 -1.127 -0.33700001 1
0 0 0 0
0 0 0 0
0 0 0 1
17.209999 -1.2819999 -0.37200001 1
17.216999 -1.318 -0.38 1
17.384001 -1.367 -0.39199999 1
17.436001 -1.4069999 -0.40099999 12
17.422001 -1.442 -0.40900001 4
17.389 -1.475 -0.417 1
0 0 0 40
19.872 -1.766 -0.49700001 31
19.891001 -1.809 -0.50700003 21
19.893999 -1.849 -0.51700002 2
0 0 0 18
33.777 -3.277 -0.91399997 15
33.689999 -3.3369999 -0.92900002 15
33.805 -3.4159999 -0.95099998 17
33.835999 -3.4879999 -0.97000003 10
33.915001 -3.5639999 -0.99000001 42
0 0 0 10
17.639 -1.924 -0.53500003 20
17.549999 -1.949 -0.542 25
17.487 -1.977 -0.55000001 35
17.466999 -2.0090001 -0.55900002 38
17.427999 -2.04 -0.56800002 38
17.393999 -2.0699999 -0.57700002 40
17.389 -2.1040001 -0.58700001 30
17.361 -2.135 -0.597 48
17.344 -2.1659999 -0.60600001 48
17.341999 -2.2 -0.61699998 36
17.32 -2.2309999 -0.62699997 51
17.320999 -2.2650001 -0.63700002 37
17.309999 -2.2969999 -0.648 37
17.305 -2.3299999 -0.65799999 60
17.301001 -2.3629999 -0.66900003 61
0 0 0 0
0 0 0 14
15.668 -2.23 -0.63599998 10
15.576 -2.2460001 -0.64200002 7
15.472 -2.2609999 -0.648 11
15.384 -2.277 -0.65499997 9
15.3 -2.293 -0.66100001 10
15.217 -2.3099999 -0.66799998 10
15.125 -2.3239999 -0.67400002 7
15.061 -2.342 -0.68099999 9
14.982 -2.358 -0.68800002 10
14.895 -2.372 -0.69400001 30
14.896 -2.4000001 -0.70499998 40
14.89 -2.427 -0.71499997 36
14.913 -2.4579999 -0.72600001 21
14.906 -2.484 -0.736 37
14.906 -2.5109999 -0.74699998 35
14.923 -2.5409999 -0.75800002 34
14.921 -2.5680001 -0.76899999 42
14.92 -2.5940001 -0.77899998 37
14.932 -2.6229999 -0.79100001 40
14.934 -2.6500001 -0.80199999 35
14.935 -2.677 -0.81300002 39
14.94 -2.7049999 -0.824 42
14.942 -2.7309999 -0.83499998 43
14.957 -2.76 -0.847 49
0 0 0 1
0 0 0 0
0 0 0 1
17.58 -3.365 -1.0470001 1
17.094 -3.302 -1.031 1
16.641001 -3.2420001 -1.016 1
16.149 -3.174 -0.99900001 2
15.557 -3.0840001 -0.97399998 2
15.465 -3.092 -0.98000002 2
0 0 0 3
13.151 -2.6730001 -0.85299999 10
13.103 -2.6849999 -0.86000001 9
13.04 -2.6930001 -0.866 10
12.993 -2.7049999 -0.87300003 9
12.892 -2.704 -0.87599999 14
12.852 -2.717 -0.884 12
12.816 -2.73 -0.89099997 13
12.748 -2.7360001 -0.89600003 10
12.66 -2.7379999 -0.89999998 9
12.555 -2.7349999 -0.903 11
12.448 -2.7309999 -0.90499997 9
12.394 -2.7390001 -0.91100001 11
12.228 -2.721 -0.90799999 6
12.085 -2.7079999 -0.90700001 6
11.887 -2.6819999 -0.90200001 4
11.66 -2.648 -0.89399999 2
11.423 -2.612 -0.88499999 2
11.213 -2.5810001 -0.87699997 2
10.969 -2.5409999 -0.86699998 2
10.786 -2.5150001 -0.861 2
10.602 -2.4879999 -0.85500002 2
10.417 -2.46 -0.84899998 2
10.269 -2.4400001 -0.84500003 3
10.112 -2.4170001 -0.83999997 3
9.9820004 -2.4000001 -0.83700001 3
9.8260002 -2.3770001 -0.83200002 3
9.6590004 -2.3499999 -0.82599998 3
9.5349998 -2.3340001 -0.82300001 3
9.3959999 -2.313 -0.81900001 3
9.2919998 -2.3 -0.81699997 3
9.132 -2.273 -0.81 4
9.0299997 -2.26 -0.80800003 4
8.8859997 -2.2360001 -0.80299997 4
8.757 -2.2160001 -0.79799998 3
8.6239996 -2.194 -0.79299998 3
8.507 -2.175 -0.78899997 3
8.3789997 -2.1530001 -0.78399998 3
8.2639999 -2.135 -0.77999997 4
8.1569996 -2.118 -0.77600002 4
8.059 -2.102 -0.77399999 5
7.973 -2.0899999 -0.77200001 5
7.8629999 -2.0710001 -0.76800001 4
7.7670002 -2.056 -0.764 5
7.5799999 -2.016 -0.75199997 4
7.3390002 -1.961 -0.73400003 4
6.9990001 -1.878 -0.70599997 1
6.7059999 -1.808 -0.68199998 2
6.6529999 -1.802 -0.68199998 2
6.6199999 -1.8 -0.68400002 3
6.5669999 -1.794 -0.68300003 3
6.539 -1.794 -0.68599999 3
6.5190001 -1.796 -0.68900001 3
6.4809999 -1.7920001 -0.69 3
6.474 -1.798 -0.69400001 4
6.4629998 -1.802 -0.69800001 5
6.4520001 -1.806 -0.70200002 5
6.4530001 -1.814 -0.708 4
6.4369998 -1.816 -0.71100003 5
6.4109998 -1.816 -0.713 8
6.3920002 -1.817 -0.71600002 7
