# .PCD v0.7 - Point Cloud Data file format
VERSION 0.7
FIELDS x y z intensity
SIZE 4 4 4 4
TYPE F F F F
COUNT 1 1 1 1
WIDTH 1729
HEIGHT 1
VIEWPOINT 0 0 0 1 0 0 0
POINTS 1729
DATA ascii
21.747999 -2.2939999 6.8829999 27
21.773001 -2.303 6.8800001 27
21.811001 -2.313 6.881 28
21.844999 -2.323 6.8800001 31
21.860001 -2.3299999 6.8730001 31
21.896999 -2.339 6.8730001 29
21.934 -2.348 6.8720002 29
21.971001 -2.358 6.8709998 28
21.997 -2.3659999 6.8660002 28
22.054001 -2.378 6.8699999 24
22.077999 -2.385 6.8639998 28
22.117001 -2.395 6.862 28
22.136 -2.402 6.8530002 29
22.212 -2.414 6.8629999 25
22.256001 -2.4230001 6.8610001 29
22.298 -2.4330001 6.8590002 31
22.354 -2.4430001 6.8610001 25
22.413 -2.454 6.8629999 23
22.459 -2.4630001 6.8610001 24
22.509001 -2.473 6.8600001 29
22.556999 -2.4820001 6.8579998 28
22.604 -2.4909999 6.855 30
22.652 -2.5009999 6.8520002 31
22.707001 -2.5109999 6.8499999 26
22.75 -2.5190001 6.8449998 31
22.799 -2.5280001 6.842 31
22.851999 -2.5369999 6.8390002 31
22.910999 -2.5469999 6.8369999 32
22.958 -2.5550001 6.8319998 26
23.021 -2.5650001 6.8309999 31
23.096001 -2.576 6.8330002 27
23.152 -2.585 6.829 32
23.228001 -2.5969999 6.8309999 33
23.284 -2.6059999 6.8260002 31
23.336 -2.6140001 6.8189998 30
23.407 -2.6240001 6.8179998 26
23.469 -2.6340001 6.8140001 27
23.531 -2.642 6.8099999 26
23.593 -2.652 6.8049998 30
23.677 -2.6619999 6.8060002 27
23.742001 -2.6719999 6.8010001 31
23.830999 -2.6830001 6.802 31
23.903 -2.6930001 6.7989998 29
23.999001 -2.7049999 6.8010001 25
24.059 -2.7130001 6.7930002 25
24.129 -2.7219999 6.7880001 30
24.211 -2.7320001 6.7849998 25
24.299999 -2.743 6.7839999 24
24.381001 -2.7520001 6.7800002 24
24.483 -2.7639999 6.7810001 25
24.579 -2.776 6.7800002 26
24.671 -2.786 6.7779999 31
24.749001 -2.7950001 6.7709999 28
24.834999 -2.8039999 6.7659998 29
24.923 -2.8139999 6.7610002 29
25.016001 -2.8239999 6.757 27
25.115 -2.835 6.7550001 29
25.236 -2.848 6.7579999 31
25.341 -2.859 6.7550001 25
25.437 -2.869 6.75 25
25.527 -2.878 6.743 29
25.632 -2.888 6.7389998 28
25.747 -2.9000001 6.7379999 23
25.841999 -2.9089999 6.7309999 27
25.952 -2.9189999 6.7259998 27
26.079 -2.9319999 6.7259998 24
26.205 -2.9430001 6.7259998 24
26.313 -2.9530001 6.7189999 23
26.41 -2.9619999 6.71 24
26.527 -2.9719999 6.7049999 26
26.657 -2.983 6.7030001 26
26.804001 -2.997 6.704 24
26.93 -3.0079999 6.6999998 23
27.052999 -3.017 6.6939998 28
27.155001 -3.026 6.6820002 28
27.245001 -3.0320001 6.6669998 27
27.285999 -3.0320001 6.6389999 28
27.302 -3.029 6.605 26
27.316999 -3.027 6.5710001 26
27.333 -3.0239999 6.5359998 22
27.271999 -3.0120001 6.4840002 26
27.141001 -2.993 6.414 23
26.969999 -2.9690001 6.335 19
26.865 -2.9519999 6.2719998 16
26.798 -2.9400001 6.217 25
26.879 -2.9430001 6.197 24
27.034 -2.9530001 6.1929998 25
27.183001 -2.9630001 6.1869998 23
27.358999 -2.9760001 6.1869998 24
27.497999 -2.9849999 6.177 25
27.65 -2.9949999 6.171 27
27.802999 -3.0039999 6.1630001 26
27.976 -3.016 6.1589999 25
28.146999 -3.027 6.1550002 23
28.296 -3.0350001 6.1440001 24
28.479 -3.0469999 6.1399999 24
28.664 -3.059 6.1350002 23
28.841999 -3.0699999 6.1290002 26
29.014999 -3.079 6.1199999 28
29.211 -3.0910001 6.1160002 25
29.4 -3.102 6.1100001 25
29.597 -3.1140001 6.1030002 25
29.780001 -3.1229999 6.0939999 25
29.989 -3.135 6.0900002 25
30.214001 -3.148 6.0869999 19
30.393 -3.1559999 6.0749998 25
30.613001 -3.168 6.0700002 25
30.855 -3.1819999 6.0679998 22
31.073 -3.1930001 6.0599999 24
31.282 -3.2030001 6.0500002 23
31.497 -3.2130001 6.04 22
31.73 -3.224 6.0320001 22
31.957001 -3.234 6.0229998 21
32.210999 -3.247 6.0170002 22
32.446999 -3.257 6.0079999 21
32.692001 -3.2679999 5.9990001 23
32.963001 -3.2809999 5.993 23
33.207001 -3.2909999 5.9819999 23
33.473999 -3.303 5.973 24
33.743999 -3.3150001 5.9660001 24
34.023998 -3.3269999 5.9569998 24
34.256001 -3.3329999 5.9390001 25
34.450001 -3.335 5.9130001 20
34.678001 -3.342 5.895 13
34.882999 -3.3440001 5.868 6
35.264999 -3.3629999 5.8709998 3
35.548 -3.372 5.8569999 2
36.094002 -3.4059999 5.8850002 2
36.467999 -3.4219999 5.8829999 2
36.727001 -3.428 5.8600001 2
0 0 0 0
0 0 0 2
0 0 0 0
0 0 0 4
17.736 -1.607 2.675 9
17.688999 -1.592 2.6370001 13
17.659 -1.58 2.6010001 15
17.629 -1.567 2.566 17
17.613001 -1.5549999 2.5320001 19
17.596001 -1.543 2.4990001 21
17.587 -1.5319999 2.4660001 23
17.554001 -1.518 2.4300001 23
17.542999 -1.506 2.3959999 25
17.523001 -1.494 2.362 28
17.502001 -1.4809999 2.3280001 30
17.499001 -1.47 2.2969999 32
17.464001 -1.455 2.26 32
17.459 -1.444 2.2279999 33
17.457001 -1.432 2.1960001 30
17.436001 -1.418 2.1619999 34
17.445 -1.4069999 2.131 26
17.419001 -1.393 2.096 37
17.424999 -1.381 2.0650001 42
17.4 -1.367 2.0309999 41
17.389 -1.354 1.998 41
17.391001 -1.342 1.966 46
17.379999 -1.3279999 1.933 45
17.375999 -1.3150001 1.901 53
17.372999 -1.302 1.868 49
17.364 -1.288 1.836 33
17.361 -1.275 1.803 48
17.358999 -1.262 1.771 32
17.356001 -1.248 1.739 43
17.361 -1.235 1.707 44
17.344 -1.221 1.674 52
17.341 -1.207 1.642 34
17.33 -1.193 1.609 33
17.326 -1.178 1.577 54
17.322001 -1.164 1.544 57
17.316999 -1.149 1.512 35
17.302999 -1.1339999 1.479 57
17.325001 -1.1210001 1.449 37
17.302 -1.1059999 1.415 54
17.319 -1.091 1.3839999 59
17.302 -1.076 1.351 53
17.298 -1.061 1.319 56
17.312 -1.0470001 1.288 62
17.313999 -1.0319999 1.256 59
17.318001 -1.017 1.224 57
17.299999 -1 1.191 52
17.319 -0.98500001 1.16 54
17.320999 -0.97000003 1.1289999 51
17.323 -0.95499998 1.097 51
17.327999 -0.93900001 1.0650001 46
17.322001 -0.92299998 1.0319999 45
17.332001 -0.90700001 1.001 47
17.341 -0.89099997 0.97000003 47
17.354 -0.875 0.93800002 31
17.362 -0.86000001 0.90700001 43
17.364 -0.84299999 0.875 46
17.371 -0.82700002 0.84299999 38
17.386999 -0.81 0.81199998 41
17.396 -0.79400003 0.77999997 44
17.402 -0.77700001 0.74800003 39
17.42 -0.75999999 0.71700001 38
17.440001 -0.74400002 0.68599999 41
17.454 -0.727 0.65399998 33
17.473 -0.70999998 0.62300003 30
17.486 -0.69199997 0.59100002 27
17.527 -0.676 0.56099999 24
17.552999 -0.65899998 0.52899998 21
17.580999 -0.64200002 0.498 19
17.629999 -0.625 0.46700001 19
17.676001 -0.60799998 0.43599999 12
17.674 -0.58899999 0.40400001 1
0 0 0 128
33.939999 -1.0599999 0.653 95
33.919998 -1.023 0.59100002 93
33.908001 -0.98500001 0.52899998 121
33.881001 -0.94800001 0.46700001 122
33.875999 -0.91000003 0.40599999 127
33.861 -0.87300003 0.345 127
33.851002 -0.83499998 0.28400001 119
33.848999 -0.79699999 0.223 124
33.839001 -0.759 0.162 122
33.823002 -0.72000003 0.101 128
33.813999 -0.68199998 0.041000001 118
33.787998 -0.64200002 -0.018999999 120
33.778 -0.60399997 -0.079000004 117
33.761002 -0.565 -0.138 112
33.768002 -0.52600002 -0.199 84
33.775002 -0.48699999 -0.25799999 54
33.773998 -0.447 -0.31900001 56
0 0 0 5
0 0 0 0
0 0 0 1
17.268999 -0.147 -0.28400001 1
17.209 -0.126 -0.31299999 1
17.216 -0.105 -0.34400001 1
17.225 -0.083999999 -0.37400001 1
17.142 -0.063000001 -0.40200001 1
17.103001 -0.041999999 -0.43099999 1
17.011999 -0.021 -0.458 1
16.979 0 -0.486 1
16.938 0.02 -0.514 1
16.878 0.039999999 -0.54100001 1
16.879999 0.061000001 -0.56999999 1
16.915001 0.082000002 -0.60000002 2
16.910999 0.103 -0.62800002 2
16.941999 0.125 -0.65799999 2
16.982 0.146 -0.68800002 2
17.115 0.169 -0.72299999 3
17.297001 0.193 -0.75999999 4
17.671 0.22 -0.80599999 5
17.660999 0.243 -0.83499998 3
17.676001 0.266 -0.866 1
0 0 0 27
0 0 0 0
0 0 0 2
17.832001 0.36000001 -0.991 2
17.797001 0.384 -1.0190001 2
16.861 0.38600001 -0.99299997 2
0 0 0 2
15.023 0.38299999 -0.93300003 2
14.433 0.38600001 -0.92000002 3
13.82 0.38800001 -0.903 3
13.117 0.38600001 -0.87900001 3
12.647 0.389 -0.86699998 3
12.346 0.39700001 -0.866 6
11.883 0.398 -0.85299999 3
11.449 0.39899999 -0.83999997 3
11.059 0.40000001 -0.829 4
10.72 0.40200001 -0.82099998 3
10.392 0.40400001 -0.81199998 3
10.083 0.40599999 -0.80400002 3
9.7919998 0.40799999 -0.796 3
9.5190001 0.40900001 -0.78799999 4
9.2580004 0.41100001 -0.78100002 4
8.9910002 0.41100001 -0.77200001 4
8.7329998 0.41100001 -0.76300001 5
8.5430002 0.414 -0.75999999 7
8.3479996 0.41600001 -0.755 11
8.1440001 0.417 -0.74900001 11
7.9320002 0.417 -0.741 14
7.763 0.419 -0.73699999 13
7.6659999 0.42399999 -0.73900002 13
7.513 0.426 -0.73500001 7
7.2810001 0.42300001 -0.72299999 4
7.112 0.42300001 -0.71700001 4
6.9770002 0.42500001 -0.71399999 4
6.8340001 0.426 -0.70899999 4
6.7080002 0.42699999 -0.70599997 3
6.5669999 0.428 -0.69999999 3
6.4349999 0.428 -0.69499999 3
6.2989998 0.428 -0.68900001 3
6.2030001 0.43000001 -0.68800002 3
6.086 0.43000001 -0.68300003 3
6.0029998 0.433 -0.68199998 3
5.8720002 0.43200001 -0.676 3
5.7820001 0.433 -0.67299998 3
5.6939998 0.435 -0.671 3
5.605 0.43599999 -0.66799998 3
5.506 0.43599999 -0.66399997 3
5.4089999 0.43599999 -0.65899998 3
5.323 0.43599999 -0.65600002 2
5.2480001 0.43700001 -0.65399998 4
5.178 0.43900001 -0.65200001 3
5.0949998 0.43900001 -0.648 3
5.0019999 0.43799999 -0.64300001 2
4.9450002 0.44 -0.64200002 3
4.8730001 0.44100001 -0.639 3
4.802 0.44100001 -0.63599998 5
4.7490001 0.44299999 -0.63499999 3
4.6869998 0.44400001 -0.63300002 3
4.632 0.44499999 -0.63099998 3
4.5749998 0.44600001 -0.62900001 3
4.5149999 0.447 -0.62699997 3
4.4580002 0.447 -0.62400001 3
4.3940001 0.447 -0.62099999 3
4.322 0.44600001 -0.616 4
4.2810001 0.44800001 -0.61500001 5
4.25 0.45100001 -0.616 5
4.211 0.45199999 -0.61500001 3
4.2329998 0.461 -0.62400001 3
4.2750001 0.47099999 -0.63499999 3
4.0489998 0.45199999 -0.60600001 4
4.026 0.45500001 -0.60699999 4
4.0029998 0.458 -0.60799998 3
4.0650001 0.47099999 -0.62300003 2
4.0120001 0.47 -0.61900002 2
3.934 0.46700001 -0.611 2
3.842 0.461 -0.60100001 1
3.8210001 0.46399999 -0.602 2
3.816 0.46900001 -0.60600001 2
3.7290001 0.463 -0.59600002 2
3.7579999 0.472 -0.60500002 3
3.711 0.47099999 -0.60100001 3
3.7049999 0.47600001 -0.60399997 3
3.6600001 0.47499999 -0.60100001 3
3.599 0.472 -0.59500003 2
3.572 0.47400001 -0.59399998 2
3.5339999 0.47299999 -0.59100002 1
3.5699999 0.48300001 -0.60100001 2
3.5190001 0.48100001 -0.59600002 2
3.457 0.477 -0.58899999 1
3.5190001 0.491 -0.60299999 2
3.4070001 0.47999999 -0.58700001 3
3.3989999 0.48300001 -0.58899999 5
3.3770001 0.48500001 -0.58899999 8
3.3570001 0.486 -0.588 9
3.335 0.48800001 -0.588 9
3.313 0.48899999 -0.58700001 9
3.289 0.49000001 -0.58600003 9
3.2739999 0.49200001 -0.58600003 10
3.2479999 0.49200001 -0.58399999 9
3.2309999 0.49399999 -0.58399999 9
3.21 0.495 -0.58399999 9
3.1930001 0.49700001 -0.583 8
3.1700001 0.498 -0.58200002 8
3.1530001 0.49900001 -0.58099997 8
3.1289999 0.49900001 -0.57999998 8
3.1170001 0.50199997 -0.57999998 8
3.0999999 0.50300002 -0.57999998 8
3.079 0.50400001 -0.57800001 8
3.0680001 0.50599998 -0.579 9
3.039 0.505 -0.57599998 8
3.03 0.50700003 -0.57700002 8
3.0150001 0.509 -0.57599998 8
2.9990001 0.50999999 -0.57599998 8
2.987 0.51200002 -0.57599998 7
2.9809999 0.514 -0.57700002 6
2.9660001 0.51499999 -0.57599998 5
2.948 0.51599997 -0.57499999 3
2.927 0.51599997 -0.57300001 2
2.895 0.514 -0.56900001 2
2.997 0.53600001 -0.59100002 2
2.921 0.52600002 -0.57800001 2
2.8529999 0.51700002 -0.56699997 2
2.8469999 0.51999998 -0.56699997 2
2.839 0.52200001 -0.56800002 2
2.822 0.52200001 -0.56599998 2
2.8139999 0.52399999 -0.56699997 2
2.8069999 0.52600002 -0.56699997 2
2.789 0.52600002 -0.565 2
2.77 0.52600002 -0.56300002 2
2.763 0.52700001 -0.56300002 1
2.753 0.52899998 -0.56300002 1
2.823 0.546 -0.579 1
2.7349999 0.53200001 -0.56300002 1
2.7320001 0.53399998 -0.56400001 1
2.7160001 0.53399998 -0.56199998 2
2.7079999 0.53600001 -0.56199998 2
2.7 0.537 -0.56199998 2
2.6889999 0.53799999 -0.56099999 1
2.6830001 0.54000002 -0.56099999 2
2.674 0.54100001 -0.56099999 2
2.6700001 0.54400003 -0.56099999 2
2.6630001 0.54500002 -0.56099999 2
2.6600001 0.54699999 -0.56199998 2
2.6470001 0.54699999 -0.56 2
2.642 0.54900002 -0.56099999 2
2.631 0.55000001 -0.55900002 2
2.6289999 0.55199999 -0.56 1
2.619 0.55299997 -0.55900002 1
2.612 0.55400002 -0.55900002 1
2.6040001 0.55500001 -0.55800003 1
2.595 0.55599999 -0.55800003 1
2.595 0.55900002 -0.55900002 1
2.694 0.583 -0.58099997 1
2.5869999 0.56199998 -0.55900002 1
2.635 0.57499999 -0.56999999 1
2.6340001 0.57800001 -0.57099998 1
2.664 0.58700001 -0.579 1
2.642 0.58499998 -0.57499999 1
2.6040001 0.579 -0.56699997 1
2.5869999 0.57800001 -0.565 1
2.5910001 0.58099997 -0.56599998 1
2.5510001 0.574 -0.55800003 1
2.592 0.58600003 -0.56800002 1
2.552 0.579 -0.56 1
2.6070001 0.59399998 -0.57300001 1
2.6059999 0.59600002 -0.574 1
2.5999999 0.597 -0.57300001 1
2.6470001 0.61000001 -0.58399999 1
2.553 0.59100002 -0.56400001 1
2.5209999 0.58600003 -0.55699998 1
2.586 0.60299999 -0.57200003 1
2.5569999 0.59799999 -0.56599998 1
2.507 0.58899999 -0.55599999 1
2.5420001 0.59899998 -0.56400001 1
2.4909999 0.58899999 -0.55299997 1
2.4960001 0.59200001 -0.55500001 1
2.494 0.59399998 -0.55500001 1
2.487 0.59399998 -0.55400002 1
2.487 0.59600002 -0.55400002 1
2.4909999 0.59899998 -0.55500001 2
2.4890001 0.60100001 -0.55500001 2
2.4849999 0.602 -0.55500001 1
2.4809999 0.602 -0.55400002 1
2.4820001 0.60500002 -0.55500001 1
2.4809999 0.60600001 -0.55400002 1
2.4690001 0.60500002 -0.55199999 1
2.47 0.60699999 -0.55199999 1
2.47 0.60900003 -0.55299997 1
2.471 0.611 -0.55299997 1
2.4679999 0.61199999 -0.55199999 1
2.47 0.61400002 -0.55299997 1
2.4649999 0.61400002 -0.55199999 1
2.4660001 0.616 -0.55199999 1
2.4719999 0.61900002 -0.55299997 1
2.471 0.62 -0.55299997 1
2.4790001 0.62400001 -0.55500001 1
2.477 0.625 -0.55400002 1
2.474 0.625 -0.55400002 1
2.474 0.62699997 -0.55400002 1
2.474 0.62800002 -0.55400002 1
2.474 0.63 -0.55299997 1
2.477 0.63200003 -0.55400002 1
2.4790001 0.634 -0.55400002 1
2.474 0.634 -0.55299997 1
2.4790001 0.63599998 -0.55400002 1
2.4760001 0.63700002 -0.55299997 1
2.4779999 0.639 -0.55299997 1
2.484 0.64099997 -0.55400002 1
2.4890001 0.64399999 -0.55500001 1
2.4779999 0.64200002 -0.55199999 1
2.4879999 0.64600003 -0.55400002 1
2.4879999 0.64700001 -0.55299997 1
2.4879999 0.648 -0.55299997 1
2.493 0.64999998 -0.55299997 1
2.4949999 0.65200001 -0.55299997 1
2.497 0.653 -0.55299997 1
2.5039999 0.65600002 -0.55400002 1
2.506 0.65799999 -0.55400002 1
2.5020001 0.65700001 -0.55299997 1
2.5039999 0.65899998 -0.55299997 1
2.513 0.662 -0.55400002 1
2.5139999 0.66299999 -0.55400002 1
2.5090001 0.66299999 -0.55199999 1
2.5139999 0.66500002 -0.55199999 1
2.5250001 0.66799998 -0.55400002 1
2.5250001 0.66900003 -0.55299997 1
2.517 0.66799998 -0.551 1
2.573 0.68300003 -0.56199998 1
2.5899999 0.68800002 -0.565 1
2.608 0.69400001 -0.56800002 1
2.602 0.69300002 -0.56599998 1
2.661 0.70899999 -0.57800001 1
2.622 0.699 -0.56800002 1
2.622 0.699 -0.56800002 1
2.743 0.73199999 -0.59299999 1
2.6240001 0.70099998 -0.56599998 1
2.658 0.70999998 -0.57200003 1
2.585 0.69099998 -0.55599999 1
2.664 0.713 -0.57099998 1
2.5929999 0.69400001 -0.55500001 1
2.6059999 0.69800001 -0.55699998 1
2.6099999 0.699 -0.55699998 1
2.6159999 0.70099998 -0.55699998 1
2.6240001 0.70300001 -0.55699998 1
2.625 0.704 -0.55599999 1
2.632 0.70599997 -0.55699998 1
2.6389999 0.708 -0.55699998 1
2.6500001 0.70999998 -0.55800003 1
2.654 0.71200001 -0.55699998 1
2.6600001 0.713 -0.55699998 1
2.664 0.71399999 -0.55699998 1
2.6730001 0.71700001 -0.55699998 1
2.678 0.71799999 -0.55699998 1
2.6949999 0.722 -0.55900002 1
2.7049999 0.72500002 -0.56 2
2.707 0.72500002 -0.55900002 2
2.7119999 0.72600001 -0.55800003 1
2.7249999 0.73000002 -0.55900002 1
2.74 0.73299998 -0.56099999 1
2.7850001 0.745 -0.56800002 1
2.8280001 0.75599998 -0.57599998 1
2.8369999 0.75800002 -0.57599998 1
2.8110001 0.75 -0.56900001 1
2.8940001 0.77200001 -0.58399999 1
2.8469999 0.759 -0.57300001 1
2.928 0.77999997 -0.58700001 1
2.8540001 0.75999999 -0.56999999 1
2.9130001 0.77499998 -0.57999998 1
2.9519999 0.78500003 -0.58600003 1
3.029 0.80400002 -0.60000002 1
2.9619999 0.78600001 -0.58399999 1
3.036 0.80500001 -0.597 2
2.948 0.77999997 -0.57800001 1
2.964 0.78399998 -0.579 1
2.961 0.78200001 -0.57599998 1
0 0 0 2
3.043 0.80199999 -0.588 2
3.115 0.81999999 -0.60000002 2
3.072 0.80699998 -0.58899999 1
3.036 0.79699999 -0.57999998 1
3.0869999 0.80900002 -0.588 1
3.013 0.78799999 -0.57099998 1
3.1300001 0.81699997 -0.59100002 1
3.1300001 0.81599998 -0.58899999 1
3.096 0.80599999 -0.57999998 1
3.1600001 0.82200003 -0.58999997 1
3.221 0.83600003 -0.59899998 2
3.2219999 0.83399999 -0.597 2
3.1719999 0.81999999 -0.58499998 1
3.2490001 0.838 -0.59600002 2
3.25 0.83700001 -0.59399998 2
3.201 0.82300001 -0.583 1
3.2309999 0.829 -0.58499998 1
3.3269999 0.852 -0.60000002 2
3.2539999 0.83099997 -0.58399999 1
3.3299999 0.84899998 -0.59500003 2
3.45 0.87699997 -0.61400002 2
3.461 0.87800002 -0.61299998 2
3.4030001 0.861 -0.60000002 2
3.299 0.833 -0.579 2
3.3199999 0.83600003 -0.57999998 2
3.3989999 0.85399997 -0.59100002 2
3.4000001 0.852 -0.588 2
3.3789999 0.84500003 -0.58099997 2
3.4489999 0.86000001 -0.58999997 2
3.441 0.85600001 -0.58600003 2
3.4549999 0.85600001 -0.58499998 2
3.4779999 0.86000001 -0.58600003 2
3.4749999 0.85699999 -0.583 2
3.5150001 0.86400002 -0.58600003 2
3.543 0.86799997 -0.588 2
3.6370001 0.88800001 -0.60000002 2
3.691 0.89899999 -0.60600001 2
3.6459999 0.88499999 -0.59500003 2
3.6830001 0.89099997 -0.59799999 2
3.763 0.90799999 -0.60699999 2
3.7460001 0.89999998 -0.60100001 2
3.8110001 0.91299999 -0.60799998 3
3.7969999 0.90600002 -0.602 2
3.8540001 0.917 -0.60799998 2
3.961 0.93900001 -0.62099999 3
3.8 0.89700001 -0.59200001 2
3.8900001 0.91500002 -0.602 3
3.927 0.92000002 -0.60399997 3
3.9070001 0.912 -0.59799999 3
3.973 0.92400002 -0.60399997 3
4.0349998 0.935 -0.60900003 3
4.0560002 0.93599999 -0.60799998 3
4.105 0.94300002 -0.61199999 3
4.1059999 0.93900001 -0.60799998 2
4.1279998 0.94099998 -0.60699999 3
4.131 0.93699998 -0.60399997 2
4.1880002 0.94599998 -0.60799998 2
4.2399998 0.95300001 -0.611 2
4.276 0.95700002 -0.61199999 3
4.2820001 0.954 -0.60900003 3
4.3309999 0.96100003 -0.61199999 3
4.3639998 0.96399999 -0.61199999 3
4.4060001 0.96799999 -0.61400002 3
4.4520001 0.97399998 -0.616 3
4.5100002 0.98100001 -0.61900002 3
4.546 0.98400003 -0.61900002 3
4.5939999 0.99000001 -0.62099999 3
4.6389999 0.99400002 -0.62300003 3
4.6849999 0.99900001 -0.62400001 3
4.7259998 1.002 -0.625 3
4.7789998 1.008 -0.62699997 3
4.8260002 1.012 -0.62900001 3
4.9029999 1.023 -0.63300002 5
4.9780002 1.033 -0.63800001 5
5.0240002 1.036 -0.639 6
5.0890002 1.044 -0.64200002 8
5.1230001 1.044 -0.64099997 10
5.1680002 1.0470001 -0.64099997 12
5.2350001 1.0549999 -0.64399999 12
5.2779999 1.057 -0.64399999 12
5.3520002 1.0650001 -0.648 12
5.4219999 1.072 -0.65100002 12
5.4809999 1.077 -0.65200001 12
5.5469999 1.0829999 -0.65399998 11
5.6030002 1.086 -0.65499997 10
5.651 1.0880001 -0.65499997 9
5.7280002 1.096 -0.65799999 7
5.848 1.1109999 -0.66500002 4
5.9380002 1.12 -0.67000002 3
6.0079999 1.125 -0.671 3
6.0760002 1.13 -0.67299998 4
6.1399999 1.1339999 -0.67299998 4
6.2189999 1.14 -0.676 3
6.302 1.146 -0.67799997 4
6.4190001 1.159 -0.68400002 3
6.5100002 1.166 -0.68699998 3
6.6290002 1.178 -0.69300002 3
6.7329998 1.187 -0.69700003 3
6.8179998 1.192 -0.69800001 3
6.9260001 1.201 -0.70200002 4
7.0310001 1.21 -0.70599997 4
7.1209998 1.215 -0.70700002 3
7.2179999 1.221 -0.70999998 3
7.3270001 1.229 -0.713 3
7.461 1.24 -0.71799999 3
7.5669999 1.247 -0.72100002 3
7.6900001 1.256 -0.72399998 3
7.8379998 1.268 -0.73000002 4
7.9629998 1.276 -0.73400003 4
8.1000004 1.286 -0.73799998 4
8.21 1.29 -0.74000001 4
8.3330002 1.2970001 -0.74199998 4
8.4659996 1.3049999 -0.745 4
8.599 1.312 -0.74800003 4
8.7659998 1.324 -0.75400001 3
8.9130001 1.332 -0.75700003 3
9.0930004 1.344 -0.76300001 3
9.2469997 1.352 -0.76700002 3
9.4160004 1.362 -0.77200001 3
9.5939999 1.373 -0.77600002 3
9.7880001 1.385 -0.78200001 2
9.9870005 1.397 -0.78799999 3
10.178 1.4069999 -0.79299998 2
10.392 1.419 -0.79900002 3
10.603 1.431 -0.80500001 3
10.903 1.4529999 -0.81699997 4
11.107 1.462 -0.82099998 4
11.231 1.459 -0.81900001 2
11.47 1.471 -0.82499999 2
11.771 1.49 -0.83499998 2
12.007 1.5 -0.83999997 4
12.232 1.507 -0.84399998 3
12.587 1.529 -0.85600001 3
12.849 1.539 -0.86199999 3
13.087 1.545 -0.86500001 3
13.561 1.577 -0.88300002 3
13.875 1.59 -0.88999999 3
14.206 1.603 -0.898 3
14.567 1.618 -0.90700001 3
14.986 1.6390001 -0.91799998 2
15.461 1.664 -0.93300003 2
15.969 1.6900001 -0.949 2
15.505 1.614 -0.90700001 2
16.301001 1.6670001 -0.93800002 4
16.77 1.6849999 -0.949 4
17.535 1.7309999 -0.97600001 6
17.275 1.674 -0.94499999 5
17.247 1.64 -0.92799997 4
17.236 1.607 -0.91100001 3
17.219 1.575 -0.89499998 4
17.183001 1.54 -0.87699997 3
17.194 1.51 -0.86299998 6
17.461 1.501 -0.86000001 5
17.563999 1.477 -0.84899998 8
17.547001 1.444 -0.833 8
17.069 1.372 -0.79500002 2
17.048 1.3380001 -0.77899998 2
17.113001 1.312 -0.76700002 3
17.118999 1.28 -0.75199997 4
17.075001 1.245 -0.736 4
17.030001 1.21 -0.71899998 3
16.829 1.163 -0.69599998 2
16.759001 1.127 -0.67799997 3
16.740999 1.0930001 -0.66299999 3
16.700001 1.059 -0.648 3
16.669001 1.026 -0.63300002 3
16.676001 0.995 -0.61900002 3
16.653999 0.95999998 -0.60399997 3
16.662001 0.92900002 -0.59100002 4
16.778 0.903 -0.58099997 8
16.808001 0.87300003 -0.56900001 8
16.785999 0.83899999 -0.55500001 4
16.702 0.80199999 -0.53799999 4
16.639999 0.76700002 -0.523 161
16.677999 0.736 -0.51099998 164
16.645 0.70200002 -0.49700001 183
16.66 0.67000002 -0.48500001 173
16.657 0.63700002 -0.472 183
16.698999 0.60600001 -0.46000001 184
16.714001 0.57300001 -0.44800001 184
16.712 0.54000002 -0.435 184
16.702 0.50599998 -0.42199999 184
16.702 0.47400001 -0.41 184
16.702999 0.44 -0.39700001 183
16.714001 0.40700001 -0.38499999 178
16.719999 0.375 -0.373 162
16.764 0.34200001 -0.36199999 151
16.936001 0.31099999 -0.354 8
16.905001 0.27599999 -0.34099999 3
16.865999 0.241 -0.32800001 1
16.914 0.208 -0.31799999 1
16.877001 0.17399999 -0.30500001 1
16.841999 0.139 -0.29300001 1
0 0 0 0
0 0 0 0
0 0 0 0
0 0 0 0
0 0 0 1
17.202999 -0.067000002 -0.23100001 1
17.179001 -0.102 -0.219 1
17.319 -0.138 -0.20999999 1
0 0 0 4
19.83 -0.23999999 -0.21600001 1
0 0 0 54
33.813 -0.54799998 -0.32699999 57
33.816002 -0.61699998 -0.30700001 62
33.838001 -0.68699998 -0.28799999 57
33.849998 -0.75700003 -0.26800001 64
33.888 -0.82800001 -0.248 70
33.882 -0.898 -0.229 94
33.881001 -0.96799999 -0.20999999 106
33.91 -1.039 -0.191 80
0 0 0 17
17.542 -0.61000001 -0.079000004 24
17.476 -0.64399999 -0.068999998 23
17.433001 -0.67799997 -0.059999999 27
17.406 -0.713 -0.050999999 28
17.379999 -0.74800003 -0.041999999 28
17.341999 -0.78200001 -0.033 41
17.329 -0.81699997 -0.024 54
17.32 -0.85299999 -0.015 32
17.287001 -0.88700002 -0.0070000002 55
17.271 -0.92199999 0.001 59
17.277 -0.95899999 0.0089999996 42
17.263 -0.99299997 0.017000001 41
17.257 -1.029 0.025 43
17.280001 -1.066 0.033 40
17.273001 -1.102 0.041000001 65
17.287001 -1.1390001 0.048 54
17.302999 -1.176 0.056000002 44
17.318001 -1.214 0.063000001 50
17.327 -1.25 0.071000002 43
17.337999 -1.2869999 0.078000002 46
17.371 -1.325 0.085000001 42
17.409 -1.364 0.092 35
17.431 -1.402 0.098999999 34
17.471001 -1.442 0.106 25
17.58 -1.488 0.114 15
17.704 -1.535 0.121 1
0 0 0 2
0 0 0 0
0 0 0 4
38.653 -3.6730001 0.31999999 4
38.658001 -3.753 0.333 4
38.669998 -3.8340001 0.34599999 4
38.700001 -3.9170001 0.35800001 4
0 0 0 38
34.924 -3.6789999 0.345 37
0 0 0 25
0 0 0 25
0 0 0 25
0 0 0 25
0 0 0 25
0 0 0 11
35.069 -4.1950002 0.41499999 43
34.915001 -4.2480001 0.42199999 20
34.776001 -4.302 0.42899999 12
0 0 0 1
30.500999 -3.8989999 0.391 1
30.409 -3.9489999 0.396 1
30.437 -4.0139999 0.403 2
30.523001 -4.0869999 0.41100001 7
30.537001 -4.1500001 0.417 1
0 0 0 20
34.914001 -4.8850002 0.491 28
34.951 -4.961 0.498 28
34.938999 -5.0300002 0.50400001 29
34.976002 -5.105 0.50999999 29
35.005001 -5.1799998 0.51599997 28
35.016998 -5.25 0.52200001 26
35.042999 -5.3239999 0.528 21
35.069 -5.3979998 0.53299999 25
35.087002 -5.473 0.53799999 20
0 0 0 1
28.025 -4.4809999 0.43700001 1
0 0 0 0
0 0 0 2
28.111 -4.6599998 0.447 2
28.115999 -4.7160001 0.44999999 7
0 0 0 2
31.601999 -5.4239998 0.51200002 3
31.476999 -5.4629998 0.51200002 3
31.371 -5.5050001 0.51300001 3
31.291 -5.5510001 0.514 6
31.302 -5.6129999 0.51599997 7
31.341 -5.6810002 0.51899999 7
31.34 -5.7410002 0.51999998 6
31.364 -5.8039999 0.52100003 6
31.367001 -5.8649998 0.523 6
31.400999 -5.9320002 0.52399999 6
31.377001 -5.9860001 0.52499998 5
31.4 -6.0500002 0.52600002 6
31.415001 -6.112 0.52600002 5
0 0 0 0
0 0 0 0
0 0 0 0
0 0 0 2
28.407 -5.79 0.47499999 1
0 0 0 1
31.052 -6.4419999 0.51700002 3
31.069 -6.5029998 0.51700002 6
31.035 -6.552 0.51499999 9
31.028999 -6.6079998 0.514 9
31.048 -6.6680002 0.51300001 12
31.065001 -6.7270002 0.50999999 13
31.066999 -6.7820001 0.509 13
31.087999 -6.842 0.50700003 13
31.101999 -6.901 0.505 12
31.111 -6.9580002 0.50199997 13
31.122 -7.0149999 0.5 10
31.129 -7.0710001 0.498 8
31.055 -7.1090002 0.493 7
0 0 0 10
27.555 -6.402 0.43200001 22
27.465 -6.4289999 0.428 32
27.417999 -6.4650002 0.42399999 36
27.377001 -6.5019999 0.41999999 38
27.336 -6.539 0.41499999 38
27.306 -6.5780001 0.41100001 40
27.275 -6.6160002 0.40799999 41
27.263 -6.6589999 0.403 46
27.233999 -6.698 0.40000001 64
27.216999 -6.7379999 0.39399999 66
27.188999 -6.776 0.38999999 67
27.212999 -6.8270001 0.38699999 56
27.205 -6.868 0.382 55
27.208 -6.9130001 0.377 47
27.224001 -6.961 0.373 37
27.23 -7.006 0.368 39
27.257 -7.0560002 0.36399999 35
27.271 -7.1030002 0.35800001 32
27.319 -7.1589999 0.354 25
0 0 0 2
9.9099998 -2.6270001 0.124 12
9.8529997 -2.628 0.121 20
9.8100004 -2.631 0.119 14
9.7799997 -2.638 0.117 18
9.7530003 -2.645 0.114 16
9.7320004 -2.654 0.112 20
9.6960001 -2.6589999 0.109 19
9.6789999 -2.6689999 0.107 24
9.6610003 -2.678 0.104 27
9.6450005 -2.688 0.102 27
9.6309996 -2.698 0.098999999 28
9.6140003 -2.707 0.097000003 30
9.6070004 -2.7190001 0.093999997 30
9.592 -2.7279999 0.092 30
9.5819998 -2.7390001 0.089000002 31
9.5719995 -2.75 0.086999997 31
9.5640001 -2.76 0.083999999 31
9.552 -2.77 0.081 33
9.5190001 -2.7739999 0.078000002 34
9.5290003 -2.79 0.075999998 34
9.5229998 -2.8010001 0.072999999 36
9.507 -2.809 0.07 37
9.5 -2.819 0.068000004 37
9.4949999 -2.8310001 0.064999998 38
9.4910002 -2.842 0.061999999 37
9.4809999 -2.8510001 0.059 40
9.4759998 -2.8610001 0.056000002 37
9.4709997 -2.872 0.054000001 37
9.4589996 -2.8800001 0.050000001 37
9.4589996 -2.892 0.046999998 42
9.448 -2.9000001 0.045000002 43
9.4460001 -2.911 0.041999999 42
9.4519997 -2.925 0.039000001 41
9.4460001 -2.934 0.035999998 42
9.4440002 -2.9449999 0.033 42
9.4420004 -2.9549999 0.029999999 41
9.4390001 -2.9649999 0.027000001 40
9.4379997 -2.9760001 0.024 39
9.441 -2.987 0.02 39
9.4289999 -2.994 0.017000001 38
9.4250002 -3.003 0.014 38
9.4259996 -3.0139999 0.011 39
9.4200001 -3.0220001 0.0080000004 38
9.4200001 -3.0320001 0.0040000002 36
9.4289999 -3.0450001 0.001 34
9.4180002 -3.0510001 -0.001 35
9.4180002 -3.0610001 -0.0040000002 34
9.4209995 -3.072 -0.0080000004 34
9.4180002 -3.0799999 -0.011 32
9.4169998 -3.089 -0.014 15
9.408 -3.096 -0.017999999 7
9.0319996 -2.9809999 -0.02 1
8.9849997 -2.974 -0.023 2
8.9980001 -2.9860001 -0.026000001 1
0 0 0 0
0 0 0 0
0 0 0 0
0 0 0 0
0 0 0 0
0 0 0 0
0 0 0 6
9.427 -3.1949999 -0.056000002 16
9.4169998 -3.1989999 -0.059 29
9.4139996 -3.2060001 -0.063000001 31
9.4139996 -3.2130001 -0.067000002 31
9.3959999 -3.2149999 -0.07 29
9.3199997 -3.1960001 -0.072999999 29
9.165 -3.1489999 -0.075000003 25
9.0530005 -3.118 -0.078000002 21
9.0200005 -3.1129999 -0.081 20
9.1110001 -3.1500001 -0.085000001 9
8.7180004 -3.02 -0.085000001 1
0 0 0 0
0 0 0 1
8.5310001 -2.973 -0.093000002 2
8.5380001 -2.9809999 -0.097000003 3
8.5209999 -2.98 -0.1 4
8.5299997 -2.9890001 -0.104 3
8.5059996 -2.9849999 -0.107 2
8.5209999 -2.9960001 -0.11 1
0 0 0 0
0 0 0 0
0 0 0 3
8.4119997 -2.9749999 -0.122 12
8.3999996 -2.9760001 -0.125 14
8.3979998 -2.9790001 -0.12899999 24
8.3950005 -2.9820001 -0.132 28
8.3809996 -2.9809999 -0.13500001 31
8.3769999 -2.983 -0.139 36
8.3789997 -2.987 -0.142 46
8.3669996 -2.987 -0.145 55
8.3730001 -2.993 -0.148 60
8.3789997 -2.9979999 -0.152 60
8.3669996 -2.997 -0.155 56
8.3590002 -2.997 -0.15899999 50
8.3529997 -2.9979999 -0.162 43
8.3439999 -2.997 -0.16500001 37
8.3339996 -2.9960001 -0.168 33
8.3210001 -2.994 -0.171 31
8.3240004 -2.9979999 -0.175 33
8.3240004 -3 -0.178 36
8.3109999 -2.9979999 -0.18099999 40
8.309 -2.9990001 -0.184 45
8.3170004 -3.003 -0.18799999 49
8.3039999 -3.0009999 -0.191 54
8.3149996 -3.006 -0.19499999 57
8.3179998 -3.0090001 -0.198 60
8.3120003 -3.0079999 -0.20200001 60
8.3030005 -3.006 -0.205 60
8.3129997 -3.0109999 -0.208 61
8.3059998 -3.01 -0.211 60
8.3100004 -3.0120001 -0.215 60
8.3059998 -3.0109999 -0.21799999 59
8.3070002 -3.0120001 -0.221 58
8.2939997 -3.0079999 -0.22400001 57
8.2910004 -3.007 -0.228 57
8.2849998 -3.006 -0.23100001 57
8.2860003 -3.006 -0.234 57
8.29 -3.0079999 -0.23800001 57
8.2959995 -3.01 -0.241 56
8.2889996 -3.007 -0.244 57
8.2849998 -3.0050001 -0.24699999 56
8.2950001 -3.0079999 -0.25099999 58
8.2969999 -3.0090001 -0.25400001 58
8.3039999 -3.01 -0.257 58
8.3030005 -3.0090001 -0.26100001 60
8.2980003 -3.006 -0.264 60
8.3100004 -3.01 -0.26800001 60
8.3039999 -3.006 -0.27000001 59
8.3079996 -3.006 -0.27399999 60
8.3050003 -3.0039999 -0.27700001 60
8.3079996 -3.003 -0.28 60
8.3140001 -3.0039999 -0.28400001 59
8.2989998 -2.997 -0.28600001 57
8.3129997 -3 -0.28999999 51
8.3079996 -2.9960001 -0.29300001 48
8.3100004 -2.9949999 -0.29699999 42
8.323 -2.997 -0.30000001 36
8.3240004 -2.9949999 -0.303 34
8.323 -2.9920001 -0.30599999 34
8.3339996 -2.993 -0.31 36
8.3409996 -2.993 -0.31299999 42
8.3520002 -2.994 -0.31600001 49
8.3649998 -2.9960001 -0.31999999 56
8.3570004 -2.9890001 -0.32300001 63
8.3719997 -2.9920001 -0.32600001 65
8.3760004 -2.99 -0.329 65
8.3739996 -2.9849999 -0.33199999 55
8.3660002 -2.9790001 -0.33500001 45
8.3769999 -2.9790001 -0.33899999 36
8.3730001 -2.974 -0.34200001 32
8.3879995 -2.9749999 -0.345 29
8.3909998 -2.9719999 -0.34799999 22
8.3879995 -2.9660001 -0.35100001 18
8.4090004 -2.97 -0.35499999 9
8.4469995 -2.9779999 -0.359 1
0 0 0 0
0 0 0 0
0 0 0 0
0 0 0 0
0 0 0 0
0 0 0 0
0 0 0 0
0 0 0 0
0 0 0 0
0 0 0 3
8.5679998 -2.9619999 -0.396 9
8.5539999 -2.951 -0.398 23
8.5609999 -2.948 -0.40099999 40
8.5559998 -2.9389999 -0.403 52
8.5600004 -2.934 -0.40599999 48
8.566 -2.9300001 -0.40900001 38
8.5760002 -2.927 -0.412 32
8.5900002 -2.925 -0.41499999 43
8.6110001 -2.925 -0.419 63
8.6190004 -2.921 -0.42199999 65
8.6260004 -2.9159999 -0.42399999 46
8.6359997 -2.9119999 -0.42699999 34
8.6490002 -2.9089999 -0.43099999 38
8.6660004 -2.9070001 -0.43399999 53
8.677 -2.9030001 -0.43700001 51
8.691 -2.9000001 -0.44 38
8.7019997 -2.8959999 -0.44299999 33
8.7119999 -2.891 -0.44600001 49
8.7440004 -2.8929999 -0.44999999 61
8.7530003 -2.888 -0.45300001 51
8.7620001 -2.8829999 -0.45500001 34
8.7799997 -2.8800001 -0.45899999 47
8.8050003 -2.8789999 -0.46200001 64
8.8070002 -2.8710001 -0.46399999 63
8.8079996 -2.8629999 -0.46700001 42
8.8319998 -2.862 -0.47 35
8.8450003 -2.8570001 -0.47299999 52
8.8710003 -2.8559999 -0.477 60
8.875 -2.848 -0.479 41
8.9949999 -2.8759999 -0.48699999 30
9.1300001 -2.9100001 -0.49700001 25
9.3839998 -2.98 -0.51300001 40
9.4020004 -2.9760001 -0.51599997 42
9.4160004 -2.9690001 -0.51800001 42
9.408 -2.9560001 -0.51999998 45
9.408 -2.9449999 -0.52200001 44
9.4110003 -2.9360001 -0.52399999 44
9.4099998 -2.924 -0.52600002 46
9.4239998 -2.9170001 -0.528 46
9.4300003 -2.908 -0.53100002 42
9.4370003 -2.8989999 -0.53299999 43
9.4280005 -2.8840001 -0.53399998 41
9.4429998 -2.8770001 -0.537 39
9.4429998 -2.8659999 -0.53899997 38
9.4449997 -2.8540001 -0.54000002 37
9.448 -2.8429999 -0.542 37
9.4639997 -2.836 -0.54400003 34
9.4700003 -2.825 -0.546 34
9.467 -2.812 -0.54799998 35
9.4790001 -2.803 -0.55000001 35
9.493 -2.7950001 -0.55199999 34
9.493 -2.7820001 -0.55299997 32
9.493 -2.77 -0.55400002 31
9.5059996 -2.76 -0.55699998 32
9.5229998 -2.7520001 -0.55900002 30
9.5360003 -2.743 -0.56099999 30
9.54 -2.7309999 -0.56199998 29
9.5369997 -2.717 -0.56300002 28
9.5679998 -2.7119999 -0.56599998 27
9.5769997 -2.701 -0.56800002 28
9.5950003 -2.6919999 -0.56999999 27
9.5970001 -2.6789999 -0.57099998 25
9.6300001 -2.674 -0.574 27
9.6389999 -2.6630001 -0.57499999 27
9.6479998 -2.651 -0.57599998 25
9.6669998 -2.642 -0.57800001 18
9.6899996 -2.6340001 -0.57999998 16
9.7180004 -2.6270001 -0.58200002 15
9.7449999 -2.619 -0.58499998 14
9.7770004 -2.6129999 -0.58700001 11
9.8179998 -2.609 -0.58999997 16
9.8730001 -2.608 -0.59399998 11
9.9379997 -2.6099999 -0.59899998 5
0 0 0 1
20.341999 -5.2789998 -1.227 1
20.211 -5.2140002 -1.22 1
21.096001 -5.408 -1.273 2
20.186001 -5.1430001 -1.219 1
20.121 -5.0939999 -1.215 1
20.055 -5.0450001 -1.211 1
20.926001 -5.23 -1.2640001 1
19.954 -4.9549999 -1.205 1
19.884001 -4.9050002 -1.201 1
19.856001 -4.8649998 -1.198 1
20.018999 -4.8720002 -1.2079999 1
21.059 -5.0900002 -1.27 1
21.125 -5.072 -1.274 1
21.282 -5.073 -1.2819999 2
0 0 0 0
0 0 0 1
6.5630002 -1.531 -0.39399999 82
6.5609999 -1.5190001 -0.39300001 156
6.5630002 -1.508 -0.39300001 156
6.5619998 -1.497 -0.39300001 156
6.573 -1.488 -0.39300001 156
6.5739999 -1.477 -0.39199999 156
6.5310001 -1.456 -0.389 155
6.5669999 -1.452 -0.391 155
6.619 -1.452 -0.39300001 150
6.5510001 -1.425 -0.38800001 37
6.4770002 -1.398 -0.38299999 6
6.4819999 -1.387 -0.38299999 30
6.5279999 -1.386 -0.38499999 157
6.539 -1.376 -0.384 155
6.5630002 -1.37 -0.38499999 156
6.5679998 -1.359 -0.384 156
6.585 -1.351 -0.384 156
6.6040001 -1.342 -0.384 156
6.6220002 -1.334 -0.384 150
6.6350002 -1.325 -0.384 24
6.6739998 -1.3200001 -0.38499999 1
0 0 0 1
22.429001 -4.3559999 -1.2869999 1
22.565001 -4.3400002 -1.29 1
22.363001 -4.2589998 -1.274 1
22.320999 -4.21 -1.267 1
22.441 -4.1900001 -1.2690001 1
0 0 0 13
12.35 -2.26 -0.69300002 25
12.352 -2.237 -0.69 23
12.347 -2.2130001 -0.68599999 24
12.34 -2.188 -0.68300003 23
12.329 -2.1630001 -0.67900002 28
12.315 -2.1370001 -0.67500001 24
12.324 -2.115 -0.67199999 30
12.312 -2.089 -0.66799998 25
12.312 -2.066 -0.66500002 24
12.291 -2.0380001 -0.66000003 28
12.315 -2.0190001 -0.65799999 42
12.297 -1.992 -0.653 23
12.277 -1.966 -0.648 23
12.251 -1.938 -0.64300001 27
12.268 -1.9170001 -0.63999999 29
12.26 -1.892 -0.63599998 20
12.309 -1.875 -0.634 8
12.377 -1.8609999 -0.634 11
12.42 -1.8430001 -0.63099998 12
12.475 -1.827 -0.63 12
12.548 -1.813 -0.62900001 20
12.612 -1.798 -0.62699997 14
12.687 -1.784 -0.62599999 9
12.749 -1.767 -0.625 13
12.817 -1.752 -0.62300003 16
12.885 -1.735 -0.62099999 11
12.933 -1.716 -0.61799997 17
13.035 -1.704 -0.61799997 9
13.098 -1.686 -0.61500001 10
13.16 -1.668 -0.61199999 10
13.23 -1.65 -0.61000001 1
0 0 0 12
28.410999 -3.431 -1.286 10
28.955999 -3.4389999 -1.2970001 10
29.190001 -3.4089999 -1.294 10
29.471001 -3.382 -1.293 10
29.811001 -3.3629999 -1.294 17
29.912001 -3.3139999 -1.284 18
0 0 0 41
14.936 -1.595 -0.62599999 40
14.919 -1.563 -0.61799997 44
14.922 -1.534 -0.611 37
14.918 -1.503 -0.60299999 36
14.914 -1.473 -0.59500003 43
14.91 -1.443 -0.58700001 24
14.896 -1.411 -0.57800001 34
14.891 -1.381 -0.56999999 22
14.872 -1.349 -0.56099999 37
14.86 -1.318 -0.55199999 33
14.86 -1.288 -0.54400003 36
14.857 -1.258 -0.53500003 40
14.861 -1.229 -0.52700001 15
14.953 -1.206 -0.52200001 9
15.048 -1.184 -0.51599997 14
15.129 -1.159 -0.50999999 15
15.23 -1.136 -0.50400001 12
15.323 -1.113 -0.498 10
15.425 -1.089 -0.491 10
15.521 -1.0650001 -0.48500001 8
15.637 -1.041 -0.47799999 8
15.705 -1.0140001 -0.47099999 10
0 0 0 41
17.250999 -1.045 -0.495 40
17.246 -1.01 -0.48300001 68
17.253 -0.97500002 -0.472 43
17.264999 -0.94199997 -0.46000001 39
17.27 -0.90700001 -0.449 61
17.273001 -0.87199998 -0.43700001 53
17.295 -0.83899999 -0.426 34
17.316999 -0.80599999 -0.414 31
17.325001 -0.77100003 -0.40200001 44
17.362 -0.73799998 -0.391 28
17.388 -0.70499998 -0.37900001 28
17.408001 -0.671 -0.366 41
17.459 -0.63800001 -0.35499999 24
17.51 -0.60500002 -0.34299999 26
17.591999 -0.57300001 -0.331 19
17.684 -0.54000002 -0.31999999 2
0 0 0 56
33.897999 -0.90100002 -0.56199998 60
33.884998 -0.83399999 -0.53600001 50
33.860001 -0.76599997 -0.509 60
33.855999 -0.699 -0.48199999 47
33.801998 -0.63200003 -0.45500001 43
33.743999 -0.56400001 -0.42699999 42
0 0 0 1
19.822001 -0.25299999 -0.219 1
0 0 0 55
33.891998 -0.30000001 -0.31900001 10
0 0 0 0
0 0 0 1
17.367001 -0.052000001 -0.12 9
17.423 -0.017999999 -0.106 159
17.368999 0.014 -0.090999998 153
17.261 0.048 -0.075000003 4
17.166 0.081 -0.059999999 1
17.066 0.113 -0.045000002 1
17.011 0.146 -0.029999999 1
0 0 0 0
0 0 0 0
0 0 0 1
17.240999 0.28 0.029999999 1
17.268999 0.31400001 0.046 1
17.263 0.347 0.061999999 1
17.424999 0.38299999 0.078000002 1
17.462 0.417 0.093999997 1
17.541 0.45300001 0.111 1
17.573 0.48699999 0.12800001 1
17.586 0.52100003 0.14399999 1
0 0 0 0
0 0 0 0
0 0 0 0
0 0 0 0
0 0 0 0
0 0 0 0
0 0 0 0
0 0 0 1
0 0 0 0
0 0 0 0
0 0 0 0
0 0 0 0
0 0 0 0
0 0 0 0
0 0 0 0
0 0 0 0
0 0 0 0
0 0 0 0
0 0 0 0
0 0 0 0
0 0 0 0
0 0 0 2
33.047001 2.3710001 1.03 13
33.026001 2.427 1.063 35
33.018002 2.4849999 1.098 62
33.005001 2.5420001 1.132 89
32.977001 2.5969999 1.1670001 103
32.963001 2.6530001 1.201 107
32.941002 2.7079999 1.2359999 115
32.944 2.7650001 1.271 110
32.914001 2.819 1.3049999 107
32.896999 2.8740001 1.34 106
32.893002 2.9289999 1.375 101
32.879002 2.984 1.41 110
32.854 3.0369999 1.4450001 107
32.853001 3.092 1.4809999 116
32.817001 3.1440001 1.515 98
32.834 3.2 1.552 106
32.819 3.253 1.587 110
32.813999 3.3069999 1.623 116
32.789001 3.358 1.658 116
32.765999 3.4100001 1.693 91
32.796001 3.4660001 1.7309999 47
32.959 3.5369999 1.777 6
32.925999 3.5869999 1.812 12
32.922001 3.6389999 1.848 13
32.912998 3.691 1.8839999 12
32.900002 3.7420001 1.921 12
32.873001 3.7909999 1.956 12
32.882 3.8440001 1.993 11
32.862 3.8929999 2.03 10
32.785999 3.9360001 2.062 13
32.723 3.9790001 2.095 16
32.672001 4.0240002 2.1300001 25
32.646999 4.0710001 2.165 31
32.891998 4.152 2.2179999 13
33.278 4.2519999 2.283 10
33.603001 4.3449998 2.3429999 16
34.005001 4.448 2.411 14
34.326 4.5419998 2.473 17
34.625999 4.6329999 2.533 31
35.106998 4.75 2.6099999 23
35.460999 4.8499999 2.6760001 18
36.064999 4.9850001 2.7639999 24
36.598 5.112 2.8469999 25
36.831001 5.198 2.9070001 20
37.619999 5.3639998 3.0120001 2
0 0 0 27
40.729 5.9239998 3.3559999 18
41.262001 6.0599999 3.448 10
0 0 0 59
44.655998 6.6830001 3.8340001 64
44.646999 6.744 3.885 65
44.639999 6.8039999 3.9360001 62
44.627998 6.8639998 3.987 61
44.619999 6.9229999 4.0370002 32
45.167 7.0700002 4.1399999 10
46.299 7.309 4.2969999 57
47.187 7.5120001 4.434 39
47.615002 7.645 4.5289998 57
48.384998 7.8319998 4.6589999 36
48.931999 7.9829998 4.7670002 58
49.936001 8.2119999 4.9229999 44
50.249001 8.3280001 5.0110002 58
51.382 8.5819998 5.1849999 56
51.569 8.6800003 5.263 58
52.842999 8.96 5.4530001 55
52.916 9.0380001 5.5219998 54
54.196999 9.3249998 5.7179999 53
54.667999 9.4729996 5.8309999 37
55.502998 9.6859999 5.9840002 47
56.284 9.8900003 6.132 17
56.694 10.031 6.2420001 11
57.414001 10.227 6.3870001 8
58.165001 10.431 6.5370002 9
58.999001 10.65 6.6989999 7
0 0 0 25
114.359 20.909 13.243 32
0 0 0 0
0 0 0 0
0 0 0 0
0 0 0 7
66.350998 12.505 8.0609999 37
67.403 12.777 8.2629995 53
68.653 13.089 8.4940004 46
69.943001 13.41 8.7309999 41
71.258003 13.739 8.9770002 55
72.387001 14.032 9.198 39
72.637001 14.157 9.3120003 14
0 0 0 0
0 0 0 0
0 0 0 0
0 0 0 22
116.725 23.343 15.609 26
116.659 23.444 15.725 28
116.503 23.525999 15.832 38
116.396 23.617001 15.945 44
116.331 23.715 16.063 53
116.171 23.791 16.164 54
116.228 23.912001 16.298 62
116.156 24.004 16.414 74
116.138 24.106001 16.537001 71
116.164 24.216 16.665001 70
116.092 24.305 16.778999 72
116.075 24.403 16.896999 66
116.039 24.497 17.014999 57
116.068 24.601999 17.142 48
116.017 24.690001 17.254 46
116.01 24.785999 17.374001 38
116.085 24.898001 17.507 27
116.073 24.99 17.625999 32
116.16 25.106001 17.759001 26
116.057 25.176001 17.863001 26
116.029 25.261 17.978001 27
116.136 25.374001 18.110001 27
116.068 25.447001 18.218 27
115.91 25.5 18.309999 30
115.971 25.599001 18.437 29
115.944 25.677999 18.546 29
115.97 25.767 18.666 30
115.887 25.83 18.768 30
115.943 25.924 18.891001 30
115.88 25.989 18.990999 30
115.919 26.076 19.111 26
115.886 26.146 19.219 28
115.806 26.202999 19.320999 31
115.7 26.253 19.410999 33
115.803 26.353001 19.537001 33
115.708 26.403 19.631001 27
115.595 26.448 19.721001 26
115.689 26.535 19.847 26
115.565 26.575001 19.93 31
115.516 26.632 20.031 38
115.505 26.695999 20.132 43
115.545 26.768999 20.245001 47
115.416 26.801001 20.327 47
115.421 26.864 20.431999 63
115.395 26.917 20.531 63
115.374 26.971001 20.629999 72
115.386 27.032 20.73 70
115.421 27.096001 20.837999 65
115.351 27.134001 20.924999 65
115.332 27.183001 21.021 67
115.341 27.237 21.122 58
115.339 27.288 21.219 72
115.278 27.323 21.302 65
115.282 27.372999 21.399 76
115.263 27.415001 21.490999 84
115.254 27.458 21.584 74
115.245 27.500999 21.673 75
115.217 27.540001 21.763 84
115.207 27.579 21.853001 77
115.185 27.615 21.937 80
115.198 27.653999 22.031 69
115.198 27.691999 22.118 76
115.214 27.733 22.209999 82
115.204 27.768 22.294001 75
115.165 27.792999 22.374001 80
115.125 27.816 22.452 77
115.154 27.854 22.542999 72
115.124 27.875999 22.621 66
115.116 27.903 22.702999 58
115.105 27.929001 22.780001 49
115.122 27.958 22.865 36
114.922 27.934999 22.906 27
0 0 0 0
0 0 0 43
153.745 37.463001 30.952999 47
153.733 37.486 31.052999 59
153.717 37.507 31.152 69
153.748 37.536999 31.257999 68
153.677 37.540001 31.343 66
153.681 37.560001 31.441 74
153.69701 37.578999 31.540001 67
153.692 37.596001 31.629999 61
153.57899 37.582001 31.701 46
0 0 0 0
0 0 0 0
0 0 0 0
0 0 0 0
0 0 0 0
0 0 0 0
0 0 0 0
0 0 0 0
0 0 0 0
0 0 0 0
0 0 0 0
0 0 0 0
0 0 0 40
145.604 35.648998 31.156 51
145.646 35.650002 31.231001 52
145.552 35.613998 31.278999 49
145.571 35.608002 31.347 64
145.571 35.588001 31.416 53
145.58701 35.577999 31.48 56
145.57201 35.554001 31.540001 70
145.52499 35.525002 31.587999 52
145.52901 35.500999 31.652 43
0 0 0 0
0 0 0 0
0 0 0 0
0 0 0 0
0 0 0 0
0 0 0 0
0 0 0 0
0 0 0 0
0 0 0 0
0 0 0 0
0 0 0 0
0 0 0 0
0 0 0 0
0 0 0 0
0 0 0 44
143.10201 34.354 31.871 55
143.06599 34.299999 31.895 59
143.108 34.259998 31.938999 53
143.078 34.201 31.965 56
143.13699 34.162998 32.008999 48
143.12801 34.105999 32.036999 41
143.05499 34.033001 32.049 42
0 0 0 0
0 0 0 35
140.68201 33.298 31.59 41
140.63499 33.226002 31.601 45
140.61501 33.159 31.618 40
140.644 33.105999 31.641001 43
140.63699 33.039001 31.657 48
140.618 32.967999 31.669001 53
140.72 32.924 31.707001 52
140.715 32.856998 31.716999 55
140.73801 32.792 31.735001 55
140.728 32.716999 31.743 59
140.73599 32.645 31.754 61
140.70799 32.563999 31.756001 57
140.80901 32.511002 31.785 54
140.733 32.417999 31.768999 56
140.849 32.367001 31.799999 55
140.823 32.284 31.794001 62
140.858 32.209999 31.802 62
140.83 32.119999 31.795 56
140.879 32.049999 31.801001 60
141.005 31.993 31.826 60
140.976 31.899 31.813999 64
141.02 31.823999 31.815001 57
140.989 31.726999 31.799999 63
141.071 31.652 31.812 68
0 0 0 0
0 0 0 0
0 0 0 0
0 0 0 0
0 0 0 0
0 0 0 0
0 0 0 0
0 0 0 57
141.278 30.823 31.698 54
141.319 30.726999 31.681999 67
141.339 30.628 31.657 60
141.36501 30.527 31.635 49
141.396 30.426001 31.613001 54
141.55099 30.35 31.615999 51
141.505 30.229 31.573999 47
141.483 30.115999 31.534 49
141.62 30.032 31.528999 47
141.608 29.919001 31.488001 45
141.659 29.815001 31.461 39
141.646 29.695 31.417999 35
0 0 0 0
0 0 0 54
144.35899 29.903999 31.888 49
144.424 29.794001 31.855 58
0 0 0 0
0 0 0 0
0 0 0 0
0 0 0 0
0 0 0 0
0 0 0 0
0 0 0 54
144.791 28.841 31.504999 59
144.85201 28.723 31.455999 63
144.99001 28.615 31.424 47
145.024 28.485001 31.368 46
0 0 0 0
0 0 0 52
147.537 28.561001 31.705999 51
147.66299 28.441999 31.662001 74
147.692 28.302999 31.594999 66
147.80299 28.179001 31.545 91
147.828 28.042 31.473 85
147.86501 27.900999 31.403 84
147.85899 27.752001 31.323 66
147.91499 27.613001 31.254 55
147.931 27.469999 31.174 76
147.87199 27.308001 31.077999 65
148.11099 27.198999 31.042999 61
148.16299 27.055 30.966999 61
148.239 26.915001 30.893999 56
148.28 26.768 30.808001 48
0 0 0 0
0 0 0 0
0 0 0 0
0 0 0 0
0 0 0 0
0 0 0 0
0 0 0 0
0 0 0 0
0 0 0 0
0 0 0 0
0 0 0 0
0 0 0 0
0 0 0 13
49.540001 8.191 9.8170004 8
49.837002 8.1850004 9.8380003 6
0 0 0 0
0 0 0 9
48.708 7.8330002 9.5010004 37
48.534 7.75 9.4280005 41
47.747002 7.5679998 9.2360001 37
47.773998 7.5180001 9.2019997 37
46.497002 7.263 8.9169998 36
46.448002 7.2020001 8.868 37
45.831001 7.053 8.7110004 27
45.147999 6.895 8.5419998 36
45.129002 6.8379998 8.4989996 35
43.883999 6.598 8.2259998 42
43.821999 6.5370002 8.1750002 41
43.708 6.4679999 8.1140003 41
42.525002 6.243 7.8559999 40
42.512001 6.191 7.8150001 43
42.181 6.0929999 7.7140002 32
41.186001 5.8990002 7.493 42
41.127998 5.8410001 7.4429998 45
40.898998 5.7579999 7.362 36
39.866001 5.5640001 7.1370001 35
39.872002 5.5170002 7.099 39
39.830002 5.4629998 7.052 33
38.581001 5.244 6.7919998 39
38.566002 5.1950002 6.75 42
38.57 5.1490002 6.7119999 45
37.759998 4.994 6.5320001 25
37.222 4.8759999 6.4000001 39
37.233002 4.8319998 6.3629999 39
37.229 4.7849998 6.322 40
35.963001 4.5780001 6.0689998 31
35.932999 4.5300002 6.026 40
35.932999 4.4850001 5.9860001 47
35.847 4.4299998 5.9320002 42
34.602001 4.2329998 5.6890001 39
34.602001 4.1900001 5.6500001 47
34.603001 4.1459999 5.6110001 48
34.258999 4.0630002 5.5170002 17
33.241001 3.9000001 5.3150001 9
32.848 3.812 5.2140002 19
32.820999 3.767 5.171 49
32.818001 3.7260001 5.1329999 56
32.838001 3.687 5.0970001 54
32.849998 3.6470001 5.0599999 56
32.847 3.605 5.0209999 53
32.855999 3.5639999 4.9809999 53
32.872002 3.5239999 4.9439998 53
32.866001 3.4820001 4.9029999 53
32.891998 3.4430001 4.8670001 52
32.900002 3.402 4.8260002 55
32.911999 3.3610001 4.7859998 54
32.924999 3.3199999 4.7459998 52
32.932999 3.279 4.7049999 55
32.939999 3.2379999 4.665 56
32.958 3.198 4.625 55
32.966999 3.1559999 4.5830002 55
32.969002 3.115 4.54 56
32.980999 3.0739999 4.4990001 51
32.978001 3.0309999 4.454 53
32.992001 2.99 4.4120002 57
33.002998 2.9489999 4.369 53
33.021999 2.908 4.3270001 57
33.025002 2.8659999 4.2810001 55
33.033001 2.8239999 4.237 54
33.055 2.7839999 4.1939998 46
33.084 2.7449999 4.1529999 3
33.25 2.7160001 4.1269999 2
33.332001 2.6800001 4.0900002 2
33.319 2.6359999 4.0419998 2
0 0 0 2
0 0 0 0
0 0 0 4
51.808998 3.8369999 5.9889998 6
51.834 3.7720001 5.9159999 6
51.623001 3.691 5.8169999 7
51.459999 3.6159999 5.724 5
0 0 0 0
0 0 0 4
0 0 0 0
0 0 0 0
0 0 0 6
0 0 0 0
0 0 0 9
33.275002 2.0020001 3.3010001 23
33.312 1.9630001 3.253 40
0 0 0 7
25.475 1.437 2.4089999 18
25.41 1.401 2.3629999 26
25.360001 1.367 2.3180001 30
25.313999 1.334 2.2750001 32
25.285 1.301 2.2320001 38
25.249001 1.268 2.188 39
25.237 1.2359999 2.1470001 42
25.221001 1.204 2.1059999 47
25.202 1.1720001 2.063 47
25.195999 1.141 2.0220001 36
25.184 1.11 1.98 47
25.162001 1.0779999 1.938 54
25.172001 1.048 1.898 57
25.150999 1.017 1.855 62
25.166 0.98699999 1.814 47
25.153999 0.95700002 1.773 59
25.160999 0.92699999 1.7309999 58
25.179001 0.89700001 1.6900001 51
25.183001 0.86699998 1.648 56
25.190001 0.83700001 1.6059999 38
25.216999 0.80800003 1.5650001 48
25.240999 0.77899998 1.524 45
25.264999 0.75 1.483 34
25.289 0.72100002 1.441 30
25.308001 0.69199997 1.399 32
25.344 0.66299999 1.357 31
25.406 0.63599998 1.317 27
25.452999 0.60699999 1.275 22
25.534 0.579 1.235 10
0 0 0 6
0 0 0 0
0 0 0 18
33.882 0.61299998 1.401 25
33.863998 0.57499999 1.341 32
33.875 0.537 1.2819999 39
33.890999 0.5 1.223 39
33.887001 0.461 1.1619999 15
33.918999 0.42399999 1.103 5
33.938 0.38600001 1.043 11
33.873001 0.34799999 0.98000002 25
33.912998 0.31099999 0.92000002 48
33.879002 0.27399999 0.85799998 34
33.918999 0.237 0.79799998 2
0 0 0 0
0 0 0 0
0 0 0 0
0 0 0 0
0 0 0 0
0 0 0 25
0 0 0 6
0 0 0 25
0 0 0 7
64.518997 -0.23199999 0.33700001 7
0 0 0 12
34.050999 -0.193 0.050999999 12
33.977001 -0.227 -0.011 15
33.903 -0.26100001 -0.074000001 24
33.764 -0.294 -0.13699999 44
33.771999 -0.32800001 -0.20100001 57
33.778 -0.361 -0.264 56
33.798 -0.39500001 -0.32800001 57
0 0 0 2
19.844999 -0.271 -0.26699999 10
