# .PCD v0.7 - Point Cloud Data file format
VERSION 0.7
FIELDS x y z intensity
SIZE 4 4 4 4
TYPE F F F F
COUNT 1 1 1 1
WIDTH 1888
HEIGHT 1
VIEWPOINT 0 0 0 1 0 0 0
POINTS 1888
DATA ascii
0 0 0 0
0 0 0 31
120.456 2.8570001 15.6 42
120.368 2.8859999 15.822 59
120.33 2.9159999 16.051001 85
120.326 2.9460001 16.283001 79
120.322 2.9749999 16.514999 71
120.364 3.006 16.754999 65
120.385 3.0339999 16.989 53
120.48 3.0639999 17.23 34
120.473 3.089 17.459999 32
120.511 3.115 17.695 38
120.509 3.1400001 17.924 39
120.574 3.165 18.162001 37
120.561 3.187 18.388 36
120.495 3.207 18.606001 30
120.53 3.2279999 18.837999 31
120.55 3.2490001 19.066999 31
120.466 3.2690001 19.282 31
120.479 3.2869999 19.509001 33
120.433 3.3039999 19.725 43
120.393 3.3199999 19.941999 61
120.413 3.3369999 20.165001 70
120.463 3.3540001 20.395 63
120.365 3.3659999 20.599001 68
120.405 3.381 20.826 82
120.414 3.3940001 21.048 77
120.421 3.4070001 21.268 97
120.417 3.4189999 21.482 81
120.412 3.4300001 21.698 98
120.414 3.4400001 21.915001 85
120.444 3.45 22.136999 83
120.403 3.457 22.344 52
120.353 3.464 22.549 25
0 0 0 48
160.265 4.6329999 30.596001 80
160.185 4.638 30.863001 90
160.172 4.6440001 31.139999 56
157.716 4.579 30.938 49
157.556 4.5780001 31.18 51
0 0 0 0
0 0 0 40
151.87601 4.4219999 30.834999 70
151.875 4.4229999 31.094 86
151.72301 4.4180002 31.320999 68
0 0 0 0
0 0 0 61
149.054 4.3369999 31.518 54
146.38499 4.256 31.197001 48
146.351 4.25 31.431999 59
146.194 4.2410002 31.639999 44
143.63901 4.1630001 31.319 48
143.577 4.1539998 31.540001 52
143.476 4.1440001 31.75 36
0 0 0 0
0 0 0 0
0 0 0 0
0 0 0 0
0 0 0 0
0 0 0 50
134.994 3.832 31.371 71
134.92101 3.8199999 31.566 68
134.938 3.8069999 31.778 47
0 0 0 0
0 0 0 0
0 0 0 0
0 0 0 0
0 0 0 0
0 0 0 0
0 0 0 0
0 0 0 50
126.777 3.441 31.562 74
126.77 3.4189999 31.746 94
126.783 3.4030001 31.929001 115
126.714 3.381 32.091999 81
126.607 3.3570001 32.243999 66
126.549 3.335 32.407001 29
0 0 0 0
0 0 0 33
120.779 3.122 31.433001 63
120.774 3.0999999 31.596001 75
120.743 3.073 31.754 70
120.768 3.0539999 31.924 62
120.732 3.029 32.076 62
120.766 3.006 32.243999 71
120.804 2.9820001 32.411999 53
120.83 2.957 32.576 59
120.732 2.9289999 32.705002 42
120.793 2.9059999 32.873001 31
120.898 2.882 33.054001 24
0 0 0 0
0 0 0 0
0 0 0 0
0 0 0 0
0 0 0 0
0 0 0 0
0 0 0 0
0 0 0 0
0 0 0 0
0 0 0 0
0 0 0 0
0 0 0 0
0 0 0 0
0 0 0 0
0 0 0 0
0 0 0 27
121.239 2.3729999 35.533001 26
121.05 2.3340001 35.605 30
121.07 2.3 35.736 41
121.093 2.2679999 35.868 39
120.985 2.23 35.959 47
120.942 2.1930001 36.067001 61
120.945 2.1570001 36.187 60
120.959 2.1199999 36.310001 59
120.96 2.086 36.424 71
120.938 2.0480001 36.532001 66
120.994 2.0139999 36.660999 68
120.977 1.972 36.765999 61
120.97 1.933 36.874001 77
121.015 1.898 36.994999 81
120.983 1.859 37.091999 79
120.968 1.819 37.193001 87
120.988 1.779 37.303001 74
121.004 1.742 37.409 83
121.033 1.7029999 37.521 79
121.036 1.6619999 37.620998 83
121.012 1.6210001 37.710999 80
121.021 1.579 37.808998 73
121.047 1.541 37.91 84
121.03 1.499 37.998001 72
121.018 1.457 38.084999 68
121.056 1.415 38.186001 63
121.025 1.375 38.263 49
120.99 1.3279999 38.339001 37
120.958 1.285 38.412998 28
0 0 0 0
0 0 0 0
0 0 0 0
0 0 0 0
0 0 0 0
0 0 0 0
0 0 0 0
0 0 0 0
0 0 0 0
0 0 0 0
0 0 0 0
0 0 0 0
0 0 0 0
0 0 0 0
0 0 0 0
0 0 0 0
0 0 0 0
0 0 0 0
0 0 0 0
0 0 0 0
0 0 0 0
0 0 0 0
0 0 0 0
0 0 0 0
0 0 0 0
0 0 0 0
0 0 0 0
0 0 0 0
0 0 0 0
0 0 0 0
0 0 0 0
0 0 0 0
0 0 0 0
0 0 0 0
0 0 0 0
0 0 0 0
0 0 0 0
0 0 0 0
0 0 0 0
0 0 0 0
0 0 0 0
0 0 0 0
0 0 0 0
0 0 0 0
0 0 0 0
0 0 0 0
0 0 0 0
0 0 0 0
0 0 0 0
0 0 0 0
0 0 0 0
0 0 0 0
0 0 0 0
0 0 0 0
0 0 0 0
0 0 0 0
0 0 0 0
0 0 0 0
0 0 0 0
0 0 0 0
0 0 0 0
0 0 0 0
0 0 0 0
0 0 0 0
0 0 0 0
0 0 0 0
0 0 0 0
0 0 0 0
0 0 0 0
0 0 0 0
0 0 0 0
0 0 0 0
0 0 0 0
0 0 0 0
0 0 0 0
0 0 0 0
0 0 0 0
0 0 0 0
0 0 0 0
0 0 0 0
0 0 0 0
0 0 0 0
0 0 0 0
0 0 0 0
0 0 0 0
0 0 0 0
0 0 0 0
0 0 0 0
0 0 0 0
0 0 0 0
0 0 0 0
0 0 0 0
0 0 0 0
0 0 0 0
0 0 0 0
0 0 0 0
0 0 0 0
0 0 0 0
0 0 0 25
121.422 -3.4230001 38.273998 32
121.516 -3.47 38.213001 42
121.414 -3.5109999 38.09 49
121.424 -3.5510001 38.000999 64
121.461 -3.596 37.917999 76
121.447 -3.6389999 37.817001 75
121.471 -3.6830001 37.726002 75
121.464 -3.7249999 37.624001 76
121.483 -3.7650001 37.529999 79
121.467 -3.8069999 37.422001 73
121.468 -3.848 37.318001 80
121.501 -3.891 37.222 74
121.465 -3.931 37.103001 71
121.488 -3.97 37.002998 78
121.448 -4.0089998 36.880001 70
121.477 -4.0510001 36.776001 68
121.518 -4.092 36.674 64
121.504 -4.132 36.554001 63
121.485 -4.171 36.431999 71
121.513 -4.211 36.320999 65
121.467 -4.2480001 36.188 65
121.459 -4.2859998 36.063 53
121.527 -4.3200002 35.960999 58
121.446 -4.355 35.812 51
121.525 -4.3959999 35.709 43
121.613 -4.4359999 35.606998 37
121.653 -4.474 35.488998 32
121.768 -4.5149999 35.395 27
121.813 -4.553 35.276001 27
0 0 0 0
0 0 0 0
0 0 0 0
0 0 0 0
0 0 0 0
0 0 0 0
0 0 0 0
0 0 0 0
0 0 0 0
0 0 0 0
0 0 0 0
0 0 0 0
0 0 0 0
0 0 0 0
0 0 0 0
0 0 0 0
0 0 0 26
121.454 -5.1079998 32.553001 35
121.487 -5.1350002 32.401001 56
121.347 -5.1560001 32.202999 53
121.437 -5.1869998 32.066002 60
121.434 -5.2140002 31.902 61
121.476 -5.2420001 31.749001 65
121.361 -5.2620001 31.554001 61
121.449 -5.2909999 31.41 70
121.468 -5.3140001 31.245001 61
121.508 -5.342 31.083 40
0 0 0 0
0 0 0 0
0 0 0 35
127.448 -5.6960001 31.875999 62
127.505 -5.7210002 31.705999 89
127.501 -5.743 31.52 102
127.547 -5.7670002 31.344 78
127.612 -5.7880001 31.174999 52
0 0 0 0
0 0 0 0
0 0 0 0
0 0 0 45
133.47 -6.152 31.605 59
133.522 -6.1719999 31.413 44
135.80299 -6.296 31.74 54
135.82201 -6.3140001 31.534 86
135.83099 -6.3280001 31.327999 80
135.86501 -6.348 31.118999 76
135.924 -6.3639998 30.921 48
0 0 0 0
0 0 0 4
50.210999 -2.365 11.181 6
50.112 -2.365 11.078 7
50.099998 -2.368 10.994 8
50.006001 -2.368 10.892 8
49.942001 -2.369 10.796 9
49.939999 -2.372 10.713 8
49.879002 -2.3729999 10.618 8
50.040001 -2.3829999 10.569 13
50.164001 -2.391 10.51 17
50.275002 -2.3989999 10.449 24
50.304001 -2.402 10.37 28
50.306 -2.404 10.285 32
50.290001 -2.404 10.197 31
50.283001 -2.4059999 10.11 32
50.310001 -2.408 10.031 34
50.268002 -2.4070001 9.9359999 32
50.294998 -2.408 9.8529997 36
50.286999 -2.408 9.7639999 33
50.291 -2.408 9.677 34
50.27 -2.4070001 9.585 36
50.278999 -2.4059999 9.4980001 37
50.256001 -2.404 9.4020004 34
50.257999 -2.4030001 9.3129997 36
50.256001 -2.401 9.2250004 36
50.273998 -2.4000001 9.1379995 36
50.273998 -2.398 9.0480003 35
50.249001 -2.3940001 8.9530001 35
50.247002 -2.391 8.8629999 37
50.268002 -2.3889999 8.7749996 35
50.251999 -2.385 8.6809998 33
50.23 -2.3800001 8.585 39
50.236 -2.3759999 8.4940004 36
50.248001 -2.372 8.4049997 38
50.237 -2.3670001 8.3100004 37
50.238998 -2.362 8.2180004 40
50.245998 -2.358 8.125 39
50.229 -2.3510001 8.0290003 41
50.222 -2.345 7.9359999 38
50.238998 -2.339 7.8439999 38
50.212002 -2.3310001 7.7470002 39
50.219002 -2.325 7.652 43
50.222 -2.3180001 7.5570002 40
50.221001 -2.3110001 7.4629998 43
50.212002 -2.302 7.3670001 40
50.221001 -2.2950001 7.2719998 39
50.213001 -2.2850001 7.1739998 39
50.209 -2.277 7.0780001 43
50.251999 -2.27 6.9889998 45
50.324001 -2.263 6.9000001 42
50.470001 -2.26 6.8239999 35
50.611 -2.256 6.7449999 31
50.736 -2.2509999 6.664 37
50.919998 -2.2490001 6.5900002 44
51.062 -2.244 6.5110002 55
51.132999 -2.2349999 6.4200001 44
51.138 -2.224 6.3210001 38
51.243 -2.2149999 6.2319999 32
51.412998 -2.21 6.152 32
51.495998 -2.201 6.0630002 38
51.494999 -2.188 5.9619999 42
51.534 -2.175 5.8639998 47
51.764 -2.171 5.789 44
52.134998 -2.171 5.7259998 33
52.52 -2.1719999 5.664 42
52.807999 -2.168 5.592 51
52.827 -2.1530001 5.487 43
52.844002 -2.138 5.3839998 43
52.828999 -2.1210001 5.277 45
52.837002 -2.1029999 5.171 49
52.827 -2.086 5.0669999 49
53.008999 -2.075 4.9770002 47
53.5 -2.076 4.9159999 35
53.933998 -2.0739999 4.848 49
54.145 -2.062 4.7579999 58
54.172001 -2.0439999 4.651 58
54.164001 -2.023 4.5419998 59
54.165001 -2.003 4.4320002 59
54.283001 -1.9859999 4.3340001 61
54.832001 -1.985 4.2670002 36
55.354 -1.982 4.198 50
55.507999 -1.965 4.0949998 56
55.507999 -1.942 3.983 52
55.491001 -1.918 3.869 50
55.605999 -1.899 3.766 52
56.195 -1.8940001 3.6919999 38
56.763 -1.8890001 3.6140001 67
56.827 -1.865 3.503 70
56.834 -1.84 3.388 68
56.914001 -1.816 3.279 67
57.557999 -1.809 3.1960001 40
58.146 -1.801 3.1129999 70
58.165001 -1.772 2.9949999 69
58.174 -1.744 2.8770001 68
58.502998 -1.725 2.7739999 54
59.349998 -1.72 2.6930001 42
56.174 -1.6 2.4349999 24
56.199001 -1.571 2.3210001 22
56.275002 -1.544 2.211 14
56.397999 -1.517 2.1010001 14
56.944 -1.502 2.006 19
57.210999 -1.477 1.899 32
57.507999 -1.4529999 1.791 25
57.596001 -1.423 1.677 7
59.423 -1.4349999 1.6109999 42
60.094002 -1.4170001 1.505 25
0 0 0 0
0 0 0 0
0 0 0 0
0 0 0 0
0 0 0 15
68.356003 -1.367 0.87800002 24
68.375 -1.325 0.74000001 9
67.488998 -1.266 0.59500003 15
0 0 0 13
72.315002 -1.265 0.345 62
73.147003 -1.232 0.20100001 77
73.212997 -1.1849999 0.052999999 87
73.221001 -1.137 -0.093999997 84
73.125 -1.087 -0.241 30
0 0 0 64
0 0 0 0
0 0 0 0
0 0 0 0
0 0 0 0
0 0 0 0
0 0 0 28
117.132 -1.0930001 -2.2609999 32
117.12 -1.011 -2.4879999 44
0 0 0 0
0 0 0 154
52.132999 -0.33399999 -1.419 192
52.103001 -0.296 -1.521 189
52.049999 -0.25600001 -1.624 153
52.074001 -0.21600001 -1.728 34
52.029999 -0.177 -1.8279999 4
0 0 0 0
0 0 0 0
0 0 0 0
0 0 0 0
0 0 0 0
0 0 0 1
0 0 0 3
0 0 0 1
0 0 0 1
0 0 0 2
0 0 0 2
16.021999 0.1 -0.93900001 2
15.228 0.108 -0.92199999 2
14.382 0.114 -0.89899999 2
13.706 0.12 -0.88300002 3
13.023 0.125 -0.86400002 3
12.671 0.133 -0.86500001 7
12.304 0.139 -0.86299998 5
0 0 0 2
11.041 0.14399999 -0.81599998 4
10.709 0.149 -0.81199998 5
10.377 0.154 -0.80699998 5
9.9700003 0.15700001 -0.79400003 4
9.6429996 0.16 -0.78600001 3
9.2849998 0.163 -0.77399999 3
8.9560003 0.16500001 -0.764 3
8.658 0.168 -0.75400001 3
8.3520002 0.169 -0.74299997 4
8.0810003 0.171 -0.73400003 3
7.8299999 0.17299999 -0.72600001 3
7.5770001 0.175 -0.71600002 4
7.3790002 0.177 -0.71100003 3
7.1570001 0.178 -0.70300001 3
6.9380002 0.17900001 -0.69400001 3
6.7509999 0.18099999 -0.68699998 3
6.5830002 0.183 -0.68199998 3
6.4229999 0.184 -0.67699999 3
6.257 0.185 -0.671 3
6.1199999 0.18700001 -0.667 4
5.96 0.18799999 -0.66000003 4
5.8410001 0.19 -0.65799999 4
5.7259998 0.192 -0.65499997 4
5.6290002 0.19400001 -0.65399998 4
5.5029998 0.19499999 -0.64899999 4
5.395 0.197 -0.64600003 3
5.303 0.199 -0.64399999 3
5.2119999 0.2 -0.64200002 3
5.105 0.20100001 -0.63800001 3
5.0100002 0.20299999 -0.63499999 2
4.9169998 0.204 -0.63099998 3
4.8270001 0.205 -0.62800002 2
4.7389998 0.206 -0.625 3
4.6620002 0.207 -0.62300003 2
4.5869999 0.20900001 -0.62 2
4.5110002 0.20999999 -0.61799997 4
4.4330001 0.211 -0.61500001 4
4.3600001 0.212 -0.61199999 2
4.2950001 0.213 -0.61000001 2
4.2210002 0.214 -0.60600001 3
4.1500001 0.214 -0.60299999 2
4.1149998 0.21699999 -0.60500002 2
4.0910001 0.22 -0.60799998 3
4.0370002 0.221 -0.60699999 2
4.0349998 0.22499999 -0.61299998 3
3.915 0.223 -0.60100001 2
3.925 0.227 -0.60900003 2
3.8099999 0.22499999 -0.597 2
3.7650001 0.226 -0.59600002 2
3.766 0.23 -0.602 2
3.6889999 0.229 -0.59600002 2
3.612 0.228 -0.58899999 1
3.6259999 0.233 -0.597 3
3.5539999 0.23199999 -0.58999997 2
3.546 0.235 -0.59500003 2
3.4330001 0.23100001 -0.58099997 2
3.4779999 0.23800001 -0.59399998 2
3.5569999 0.24699999 -0.61299998 2
3.454 0.244 -0.60000002 2
3.437 0.24600001 -0.60299999 2
3.293 0.23899999 -0.58200002 2
3.3529999 0.24699999 -0.59799999 1
3.2130001 0.23999999 -0.57800001 2
3.2460001 0.24600001 -0.588 2
3.2279999 0.248 -0.58999997 1
3.2249999 0.252 -0.59399998 1
3.148 0.249 -0.58399999 1
3.165 0.25400001 -0.59200001 2
3.073 0.25 -0.579 1
3.085 0.25400001 -0.58600003 2
2.96 0.24699999 -0.56599998 2
2.9360001 0.248 -0.56599998 2
2.9159999 0.25 -0.56599998 2
2.8989999 0.25099999 -0.56699997 2
2.8800001 0.25299999 -0.56699997 2
2.8529999 0.25299999 -0.56599998 2
2.8299999 0.25400001 -0.565 2
2.8050001 0.255 -0.56400001 2
2.7880001 0.257 -0.56400001 2
2.767 0.25799999 -0.56300002 2
2.747 0.259 -0.56300002 2
2.7179999 0.259 -0.56099999 2
2.7 0.25999999 -0.56 2
2.677 0.26100001 -0.55900002 2
2.668 0.26300001 -0.56 2
2.648 0.26300001 -0.56 2
2.6270001 0.264 -0.55900002 2
2.6170001 0.266 -0.56 2
2.598 0.26699999 -0.55900002 2
2.579 0.26800001 -0.55800003 2
2.562 0.26800001 -0.55699998 2
2.5369999 0.26899999 -0.55500001 1
2.5280001 0.27000001 -0.55599999 1
2.5109999 0.271 -0.55500001 1
2.49 0.27200001 -0.55400002 1
2.48 0.273 -0.55400002 1
2.4679999 0.27399999 -0.55500001 1
2.4519999 0.27500001 -0.55400002 1
2.4419999 0.27700001 -0.55400002 1
2.425 0.27700001 -0.55299997 1
2.4089999 0.278 -0.55199999 1
2.3940001 0.27900001 -0.551 1
2.3800001 0.27900001 -0.551 1
2.3640001 0.28 -0.55000001 1
2.3599999 0.28200001 -0.551 1
2.342 0.28200001 -0.55000001 2
2.332 0.28400001 -0.55000001 2
2.3239999 0.285 -0.55000001 2
2.313 0.28600001 -0.55000001 2
2.3 0.287 -0.55000001 2
2.2869999 0.287 -0.54900002 2
2.2809999 0.289 -0.55000001 2
2.266 0.289 -0.54799998 2
2.256 0.28999999 -0.54799998 2
2.253 0.292 -0.54900002 2
2.2479999 0.294 -0.55000001 2
2.2309999 0.294 -0.54799998 2
2.2179999 0.294 -0.54699999 1
2.1900001 0.29300001 -0.542 1
2.1860001 0.294 -0.54299998 1
2.178 0.296 -0.54299998 1
2.171 0.29699999 -0.54400003 1
2.1570001 0.29699999 -0.542 1
2.1459999 0.29800001 -0.54100001 1
2.1440001 0.29899999 -0.542 1
2.131 0.30000001 -0.54100001 1
2.1329999 0.30199999 -0.54299998 1
2.1210001 0.30199999 -0.542 1
2.112 0.303 -0.542 1
2.1040001 0.30399999 -0.54100001 1
2.0969999 0.30500001 -0.54100001 1
2.0910001 0.30599999 -0.54100001 1
2.0799999 0.30599999 -0.54000002 1
2.0780001 0.308 -0.54100001 1
2.0639999 0.308 -0.53899997 1
2.062 0.31 -0.54000002 1
2.053 0.31 -0.53899997 1
2.046 0.31099999 -0.53899997 1
2.0450001 0.31299999 -0.54000002 1
2.0309999 0.31200001 -0.53799999 1
2.0250001 0.31299999 -0.53799999 1
2.0179999 0.31400001 -0.537 1
2.0150001 0.315 -0.53799999 1
2.007 0.31600001 -0.537 1
2.0039999 0.317 -0.537 1
1.992 0.317 -0.53500003 1
1.9910001 0.31900001 -0.53600001 1
1.988 0.31999999 -0.537 1
1.982 0.32100001 -0.53600001 1
1.983 0.322 -0.53799999 1
1.978 0.32300001 -0.53799999 1
1.961 0.322 -0.53399998 1
1.971 0.32499999 -0.53799999 1
1.964 0.32600001 -0.537 1
1.955 0.32600001 -0.53600001 1
1.9450001 0.32600001 -0.53399998 1
1.938 0.32600001 -0.53299999 1
1.936 0.32800001 -0.53299999 1
1.934 0.329 -0.53399998 1
1.9349999 0.33000001 -0.53500003 1
1.927 0.331 -0.53299999 1
1.924 0.33199999 -0.53399998 1
1.927 0.33399999 -0.53500003 1
1.913 0.333 -0.53200001 1
1.918 0.33500001 -0.53399998 1
1.906 0.33399999 -0.53200001 1
1.908 0.336 -0.53299999 1
1.909 0.338 -0.53399998 1
1.901 0.338 -0.53200001 1
1.905 0.34 -0.53399998 1
1.895 0.33899999 -0.53200001 1
1.8940001 0.34 -0.53200001 1
1.892 0.34200001 -0.53200001 1
1.885 0.34200001 -0.53100002 1
1.887 0.34299999 -0.53200001 1
1.886 0.34400001 -0.53200001 1
1.8839999 0.345 -0.53200001 1
1.878 0.345 -0.53100002 1
1.872 0.34599999 -0.52999997 1
1.874 0.347 -0.53100002 1
1.874 0.34799999 -0.53100002 1
1.872 0.34900001 -0.53100002 1
1.8660001 0.34900001 -0.52999997 1
1.868 0.35100001 -0.52999997 1
1.8660001 0.35100001 -0.52999997 1
1.86 0.35100001 -0.52899998 1
1.864 0.35299999 -0.52999997 1
1.868 0.35499999 -0.53200001 1
1.862 0.35499999 -0.52999997 1
1.8660001 0.35699999 -0.53200001 1
1.862 0.35699999 -0.52999997 1
1.858 0.35699999 -0.52899998 1
1.857 0.359 -0.52899998 1
1.86 0.36000001 -0.52999997 1
1.858 0.361 -0.52999997 1
1.86 0.36199999 -0.52999997 1
1.855 0.36199999 -0.52899998 1
1.858 0.36399999 -0.52999997 1
1.8559999 0.36399999 -0.52999997 1
1.859 0.366 -0.52999997 1
1.863 0.36700001 -0.53100002 1
1.8660001 0.36899999 -0.53200001 1
1.86 0.36899999 -0.52999997 1
1.865 0.37 -0.53200001 1
1.864 0.37099999 -0.53100002 1
1.867 0.37200001 -0.53200001 1
1.8710001 0.37400001 -0.53299999 1
1.86 0.37200001 -0.52999997 1
1.865 0.37400001 -0.53100002 1
1.8660001 0.375 -0.53100002 1
1.868 0.37599999 -0.53100002 1
1.87 0.37799999 -0.53100002 1
1.865 0.377 -0.52999997 1
1.865 0.37799999 -0.52899998 1
1.868 0.37900001 -0.52999997 1
1.867 0.38 -0.52899998 1
1.865 0.38 -0.528 1
1.875 0.38299999 -0.53100002 1
1.876 0.38299999 -0.53100002 1
1.873 0.38299999 -0.52899998 1
1.874 0.384 -0.52899998 1
1.878 0.38600001 -0.52999997 1
1.881 0.38699999 -0.52999997 1
1.8789999 0.38699999 -0.52899998 1
1.8789999 0.38699999 -0.528 1
1.886 0.389 -0.52999997 1
1.8890001 0.38999999 -0.52999997 1
1.888 0.391 -0.52899998 1
1.896 0.39300001 -0.53100002 1
1.898 0.39399999 -0.52999997 1
1.9 0.39399999 -0.52999997 1
1.892 0.39300001 -0.52700001 1
1.9 0.39500001 -0.52899998 1
1.9119999 0.398 -0.53100002 1
1.915 0.39899999 -0.53200001 1
1.919 0.40000001 -0.53200001 1
1.9220001 0.40099999 -0.53200001 1
1.928 0.403 -0.53299999 1
1.928 0.403 -0.53200001 1
1.943 0.40599999 -0.53500003 1
1.943 0.40599999 -0.53399998 1
1.9450001 0.40700001 -0.53399998 1
1.946 0.40799999 -0.53299999 1
1.956 0.41 -0.53399998 1
1.95 0.40900001 -0.53200001 1
1.954 0.41 -0.53200001 1
1.967 0.412 -0.53399998 1
1.967 0.41299999 -0.53299999 1
1.9579999 0.41100001 -0.52999997 1
1.976 0.41499999 -0.53299999 1
1.9809999 0.41600001 -0.53399998 1
1.987 0.417 -0.53399998 1
1.995 0.419 -0.53500003 1
2.0020001 0.41999999 -0.53600001 1
2.0020001 0.41999999 -0.53399998 1
2.0120001 0.42199999 -0.53600001 1
2.0209999 0.42399999 -0.537 1
2.0250001 0.42500001 -0.53600001 1
2.03 0.426 -0.53600001 1
2.04 0.428 -0.53799999 1
2.0439999 0.428 -0.537 1
2.046 0.42899999 -0.537 2
2.05 0.42899999 -0.53600001 1
2.0599999 0.43099999 -0.537 1
2.0650001 0.43200001 -0.537 2
2.0739999 0.433 -0.53799999 1
2.0769999 0.43399999 -0.537 2
2.085 0.435 -0.537 2
2.0940001 0.43700001 -0.53799999 1
2.099 0.43700001 -0.53799999 1
2.105 0.43799999 -0.53799999 2
2.1140001 0.44 -0.53799999 2
2.119 0.44 -0.53799999 2
2.1270001 0.442 -0.53799999 1
2.1400001 0.44400001 -0.54000002 2
2.1440001 0.44400001 -0.53899997 1
2.152 0.44499999 -0.53899997 1
2.164 0.447 -0.54000002 1
2.174 0.449 -0.54100001 1
2.1789999 0.449 -0.54000002 1
2.1860001 0.44999999 -0.54000002 1
2.194 0.45100001 -0.54000002 1
2.207 0.45300001 -0.54100001 1
2.2160001 0.454 -0.54100001 1
2.22 0.454 -0.54000002 1
2.23 0.456 -0.54100001 2
2.24 0.45699999 -0.54100001 2
2.2639999 0.461 -0.54500002 2
2.2750001 0.46200001 -0.54500002 2
2.2739999 0.461 -0.54299998 2
2.283 0.46200001 -0.54299998 2
2.2980001 0.46399999 -0.54400003 2
2.3 0.46399999 -0.542 2
2.316 0.46599999 -0.54400003 2
2.3280001 0.46799999 -0.54400003 2
2.3380001 0.46900001 -0.54400003 2
2.3540001 0.47099999 -0.54500002 1
2.362 0.47099999 -0.54500002 1
2.382 0.47400001 -0.54699999 1
2.398 0.47600001 -0.54799998 1
2.4070001 0.477 -0.54799998 1
2.4159999 0.47799999 -0.54699999 1
2.4319999 0.479 -0.54799998 1
2.447 0.48100001 -0.54900002 2
2.464 0.48300001 -0.55000001 2
2.467 0.48199999 -0.54799998 1
2.49 0.486 -0.551 2
2.4960001 0.48500001 -0.54900002 1
2.5139999 0.48800001 -0.55000001 2
2.5309999 0.48899999 -0.551 2
2.5450001 0.491 -0.551 2
2.569 0.49399999 -0.55400002 2
2.576 0.493 -0.55199999 2
2.598 0.49599999 -0.55400002 2
2.615 0.498 -0.55500001 2
2.6300001 0.49900001 -0.55500001 2
2.6470001 0.5 -0.55500001 2
2.655 0.5 -0.55400002 2
2.677 0.50199997 -0.55500001 2
2.694 0.50400001 -0.55599999 2
2.717 0.50599998 -0.55699998 2
2.7379999 0.50800002 -0.55800003 2
2.7490001 0.50800002 -0.55699998 2
2.7639999 0.509 -0.55699998 2
2.793 0.51300001 -0.55900002 2
2.8150001 0.51499999 -0.56 2
2.8299999 0.51499999 -0.56 2
2.846 0.51599997 -0.56 2
2.875 0.51899999 -0.56199998 2
2.8989999 0.52100003 -0.56300002 2
2.9119999 0.52100003 -0.56199998 2
2.9319999 0.52200001 -0.56199998 2
2.9630001 0.52600002 -0.56400001 2
2.9809999 0.52600002 -0.56400001 2
3.0039999 0.528 -0.56400001 2
3.026 0.52899998 -0.565 2
3.059 0.53299999 -0.56699997 2
3.076 0.53299999 -0.56599998 2
3.1059999 0.53500003 -0.56800002 2
3.131 0.537 -0.56800002 2
3.204 0.54699999 -0.57800001 2
3.198 0.54299998 -0.57200003 2
3.2179999 0.54299998 -0.57200003 2
3.2420001 0.54400003 -0.57200003 2
3.2690001 0.546 -0.57200003 2
3.4170001 0.56699997 -0.59399998 2
3.471 0.57300001 -0.59799999 2
3.4059999 0.55900002 -0.583 2
3.46 0.565 -0.58700001 2
3.451 0.56 -0.58099997 2
3.48 0.56099999 -0.58200002 2
3.55 0.56900001 -0.58899999 2
3.5380001 0.56400001 -0.58200002 2
3.599 0.56999999 -0.58700001 2
3.687 0.57999998 -0.597 2
3.7279999 0.58200002 -0.59799999 2
3.832 0.59500003 -0.61000001 3
3.809 0.58700001 -0.60100001 2
3.8139999 0.58399999 -0.597 2
3.9170001 0.59600002 -0.60699999 2
3.8640001 0.583 -0.59399998 2
3.895 0.58399999 -0.59299999 2
3.954 0.588 -0.597 2
4.0310001 0.59500003 -0.60299999 2
4.0440001 0.59299999 -0.60000002 2
4.0479999 0.58899999 -0.59500003 2
4.0970001 0.59200001 -0.59600002 2
4.1389999 0.59299999 -0.597 2
4.2150002 0.59899998 -0.602 2
4.303 0.60600001 -0.60799998 2
4.3499999 0.60799998 -0.60900003 4
4.3899999 0.60900003 -0.60900003 2
4.4419999 0.611 -0.61000001 2
4.507 0.61400002 -0.61299998 2
4.5739999 0.61799997 -0.61500001 2
4.6350002 0.62 -0.61699998 2
4.6929998 0.62199998 -0.61799997 2
4.7610002 0.62599999 -0.62099999 2
4.8299999 0.62900001 -0.62300003 3
4.9050002 0.63200003 -0.62599999 2
4.9770002 0.63599998 -0.62800002 3
5.0609999 0.63999999 -0.63200003 3
5.1479998 0.64399999 -0.63599998 4
5.2069998 0.64499998 -0.63599998 4
5.2709999 0.64600003 -0.63599998 3
5.3439999 0.648 -0.63800001 3
5.4310002 0.65200001 -0.63999999 3
5.5310001 0.65700001 -0.64499998 3
5.6290002 0.66100001 -0.648 3
5.757 0.66799998 -0.65499997 7
5.8000002 0.66600001 -0.65200001 11
5.8569999 0.66399997 -0.64999998 6
5.994 0.67199999 -0.65700001 4
6.119 0.67699999 -0.662 4
6.2340002 0.68199998 -0.66600001 4
6.3530002 0.68599999 -0.67000002 5
6.474 0.69 -0.67400002 4
6.6030002 0.69400001 -0.67799997 5
6.7189999 0.69700003 -0.68000001 4
6.8509998 0.70099998 -0.68400002 4
7.0339999 0.70999998 -0.69300002 4
7.177 0.71399999 -0.69700003 4
7.335 0.71899998 -0.70200002 4
7.5 0.72500002 -0.708 4
7.6739998 0.73100001 -0.71399999 4
7.881 0.73900002 -0.722 4
8.0799999 0.74599999 -0.72899997 5
8.2980003 0.75300002 -0.73699999 5
8.4989996 0.759 -0.74400002 5
8.7349997 0.76700002 -0.75300002 3
8.9790001 0.77499998 -0.76099998 3
9.2180004 0.78200001 -0.76899999 4
9.4200001 0.78500003 -0.773 5
9.6540003 0.79000002 -0.77899998 3
9.8669996 0.79299998 -0.78299999 3
10.162 0.801 -0.79299998 2
10.397 0.80299997 -0.79699999 3
10.701 0.81 -0.80599999 3
10.995 0.815 -0.81300002 3
11.297 0.81999999 -0.82099998 2
11.617 0.82499999 -0.82800001 2
12.012 0.83399999 -0.83999997 3
12.421 0.84299999 -0.85299999 3
12.758 0.84600002 -0.85900003 3
13.108 0.84799999 -0.86500001 3
13.534 0.85399997 -0.875 3
13.973 0.86000001 -0.88499999 3
14.485 0.86799997 -0.898 2
14.97 0.87400001 -0.90899998 2
15.531 0.88099998 -0.92299998 2
16.132999 0.88800001 -0.93699998 3
16.955 0.90600002 -0.963 5
16.412001 0.85100001 -0.91100001 4
0 0 0 3
0 0 0 0
0 0 0 2
0 0 0 0
0 0 0 0
0 0 0 1
0 0 0 0
0 0 0 3
0 0 0 2
0 0 0 0
0 0 0 0
0 0 0 0
0 0 0 3
40.064999 1.13 -1.512 6
39.896999 1.057 -1.456 9
39.755001 0.98400003 -1.402 11
39.021 0.898 -1.3279999 16
38.903999 0.82800001 -1.277 23
38.917 0.75999999 -1.23 27
38.965 0.69199997 -1.184 24
39.041 0.62599999 -1.14 22
39.141998 0.55699998 -1.095 19
39.258999 0.48899999 -1.051 19
39.391998 0.421 -1.008 73
0 0 0 18
0 0 0 0
0 0 0 0
0 0 0 0
0 0 0 0
0 0 0 0
0 0 0 0
0 0 0 0
0 0 0 88
133.67 -0.98000002 -1.862 123
0 0 0 0
0 0 0 0
0 0 0 0
0 0 0 12
72.959999 -1.205 -0.60600001 37
72.209 -1.324 -0.52100003 36
0 0 0 29
66.977997 -1.476 -0.336 81
66.839996 -1.595 -0.264 72
66.863998 -1.7180001 -0.193 100
66.822998 -1.842 -0.121 92
0 0 0 17
59.008999 -1.848 0.018999999 41
58.806999 -1.952 0.081 87
58.801998 -2.062 0.142 118
58.804001 -2.1719999 0.20299999 135
58.616001 -2.2750001 0.26300001 75
57.794998 -2.3529999 0.31999999 60
55.891998 -2.378 0.36500001 9
0 0 0 19
50.915001 -2.3610001 0.43700001 40
50.713001 -2.4460001 0.48500001 99
50.713001 -2.5420001 0.53600001 100
0 0 0 16
47.062 -2.5380001 0.58999997 36
46.923 -2.619 0.634 98
46.876999 -2.7060001 0.67799997 30
46.68 -2.783 0.72000003 12
45.293999 -2.7869999 0.74199998 31
43.714001 -2.7720001 0.75700003 3
43.148998 -2.8180001 0.78799999 4
42.632 -2.8640001 0.81800002 96
42.646 -2.947 0.85799998 111
42.637001 -3.0280001 0.89700001 93
40.223999 -2.9330001 0.88200003 25
40.192001 -3.0079999 0.91799998 21
39.516998 -3.0320001 0.93800002 5
38.933998 -3.062 0.95899999 5
38.570999 -3.1059999 0.98299998 85
38.584 -3.181 1.018 83
38.595001 -3.256 1.051 88
38.488998 -3.319 1.081 55
36.442001 -3.211 1.054 7
35.960999 -3.237 1.0700001 7
35.536999 -3.267 1.0880001 7
35.033001 -3.2880001 1.101 8
34.699001 -3.322 1.119 86
34.688999 -3.388 1.147 109
34.673 -3.4530001 1.175 108
34.682999 -3.5209999 1.2029999 105
34.689999 -3.5880001 1.232 107
34.708 -3.6570001 1.26 111
34.705002 -3.723 1.2869999 117
34.709999 -3.7909999 1.314 110
34.714001 -3.858 1.34 101
34.740002 -3.9260001 1.368 98
34.722 -3.9909999 1.393 103
34.736 -4.059 1.419 114
34.743 -4.125 1.4450001 96
34.734001 -4.1900001 1.47 106
34.765999 -4.2610002 1.4960001 92
34.741001 -4.323 1.52 104
34.752998 -4.3899999 1.545 103
34.751999 -4.4580002 1.5700001 103
34.754002 -4.5250001 1.594 100
34.751999 -4.5900002 1.618 103
34.867001 -4.6719999 1.647 50
35.068001 -4.7639999 1.6799999 14
35.066002 -4.8299999 1.7029999 16
0 0 0 5
27.103001 -3.836 1.351 20
27.007999 -3.8729999 1.364 29
26.934 -3.914 1.377 35
26.886999 -3.9579999 1.392 42
26.853001 -4.0029998 1.4069999 44
26.826 -4.0500002 1.421 51
26.799999 -4.0949998 1.436 53
26.781 -4.1430001 1.451 56
26.732 -4.1849999 1.464 63
26.742001 -4.2360001 1.48 67
26.739 -4.2859998 1.495 49
26.761999 -4.3379998 1.511 53
26.764 -4.388 1.526 53
26.785 -4.4400001 1.5420001 47
26.812 -4.494 1.558 43
26.841 -4.5479999 1.574 35
26.886 -4.6059999 1.591 29
26.948 -4.6659999 1.609 22
27.054001 -4.7340002 1.6289999 9
0 0 0 26
35.067001 -6.263 2.1459999 26
35.036999 -6.3200002 2.161 25
35.011002 -6.3790002 2.177 25
34.952 -6.4320002 2.1889999 39
34.938 -6.4910002 2.2049999 44
34.928001 -6.552 2.22 46
34.945999 -6.618 2.237 47
34.943001 -6.6820002 2.253 50
34.936001 -6.743 2.2679999 48
34.939999 -6.8060002 2.283 49
34.958 -6.8720002 2.299 51
34.955002 -6.9320002 2.3139999 55
34.960999 -6.9949999 2.3280001 54
34.970001 -7.0570002 2.3429999 53
34.963001 -7.1170001 2.3570001 52
34.966 -7.1789999 2.3699999 52
34.969002 -7.2410002 2.3840001 51
34.973 -7.3010001 2.3970001 50
34.985001 -7.3639998 2.411 53
34.981998 -7.4239998 2.4230001 55
34.990002 -7.4840002 2.4349999 54
34.976002 -7.5419998 2.447 53
35.002998 -7.6069999 2.461 55
34.998001 -7.6659999 2.4719999 54
0 0 0 2
19.079 -4.243 1.36 19
19.017 -4.2610002 1.3609999 23
18.93 -4.2729998 1.3609999 29
18.889 -4.2950001 1.363 31
18.875999 -4.3239999 1.367 26
18.836 -4.3470001 1.37 36
18.811001 -4.3720002 1.374 40
18.795 -4.3979998 1.378 31
18.763 -4.421 1.38 29
18.75 -4.4489999 1.3839999 50
18.728001 -4.473 1.387 48
18.719999 -4.5009999 1.39 37
18.690001 -4.5240002 1.393 53
18.673 -4.5489998 1.396 55
18.679001 -4.5799999 1.4 42
18.66 -4.605 1.403 65
18.664 -4.6350002 1.4069999 56
18.662001 -4.664 1.41 39
18.663 -4.6929998 1.414 50
18.660999 -4.7220001 1.418 49
18.67 -4.7519999 1.4220001 32
18.677999 -4.7820001 1.425 35
18.67 -4.809 1.428 47
18.677999 -4.8390002 1.432 32
18.683001 -4.868 1.4349999 45
18.695999 -4.8990002 1.439 42
18.718 -4.9320002 1.443 43
18.731001 -4.9629998 1.446 28
18.726999 -4.9899998 1.448 32
18.780001 -5.0310001 1.455 28
18.819 -5.0689998 1.46 25
18.865999 -5.1079998 1.466 20
18.903999 -5.1459999 1.471 15
19.009001 -5.2020001 1.4809999 1
0 0 0 48
35.123001 -9.7089996 2.743 40
35.129002 -9.7589998 2.7460001 47
35.110001 -9.802 2.7479999 50
35.132 -9.8559999 2.7509999 50
35.139999 -9.9060001 2.7539999 50
35.138 -9.9519997 2.756 49
35.139999 -9.9989996 2.7579999 49
35.145 -10.047 2.76 50
35.147999 -10.095 2.7609999 51
35.152 -10.141 2.7620001 51
35.147999 -10.185 2.763 51
35.160999 -10.234 2.7650001 51
35.152 -10.276 2.7650001 46
35.155998 -10.322 2.7650001 49
35.158001 -10.366 2.7650001 50
35.176998 -10.415 2.767 50
35.174 -10.457 2.766 48
35.174 -10.501 2.7650001 51
35.181 -10.544 2.766 43
35.169998 -10.582 2.763 49
35.174999 -10.625 2.7620001 51
35.166 -10.664 2.76 50
35.188 -10.711 2.76 61
35.187 -10.751 2.7590001 46
35.181 -10.789 2.756 46
35.187 -10.831 2.7550001 50
35.188999 -10.871 2.753 52
35.188999 -10.91 2.7509999 49
35.192001 -10.949 2.7490001 48
35.191002 -10.986 2.7449999 50
35.206001 -11.029 2.744 43
35.196999 -11.063 2.7390001 50
35.202 -11.101 2.737 49
35.202 -11.137 2.7320001 47
35.203999 -11.173 2.7290001 45
35.217999 -11.214 2.7249999 46
35.215 -11.248 2.7219999 49
35.219002 -11.284 2.717 50
35.223999 -11.32 2.7130001 47
35.209999 -11.349 2.707 44
35.179001 -11.372 2.7 51
35.186001 -11.407 2.6960001 23
35.095001 -11.41 2.6830001 18
35 -11.411 2.6700001 16
34.921001 -11.416 2.6589999 16
34.841 -11.42 2.6470001 16
34.77 -11.427 2.6370001 16
34.675999 -11.425 2.622 16
34.613998 -11.434 2.612 16
34.540001 -11.438 2.5999999 16
34.457001 -11.439 2.5880001 16
34.403999 -11.449 2.576 18
34.333 -11.452 2.5650001 16
34.257 -11.453 2.553 17
34.191002 -11.457 2.54 16
34.144001 -11.467 2.53 16
34.049 -11.46 2.5150001 16
33.992001 -11.466 2.5039999 16
33.921001 -11.466 2.49 18
33.868 -11.472 2.48 17
33.784 -11.466 2.4649999 18
33.751999 -11.478 2.4549999 18
33.68 -11.475 2.4419999 17
33.625999 -11.478 2.4300001 16
33.585999 -11.486 2.418 17
33.526001 -11.486 2.405 17
33.476002 -11.489 2.3929999 16
33.419998 -11.49 2.3800001 17
33.389999 -11.498 2.368 17
33.330002 -11.496 2.3559999 16
33.285999 -11.499 2.3429999 15
33.240002 -11.501 2.3310001 16
33.209999 -11.508 2.319 15
33.162998 -11.509 2.306 16
33.119999 -11.51 2.2939999 18
33.070999 -11.508 2.2809999 17
33.042999 -11.514 2.2690001 17
33.005001 -11.515 2.256 17
32.959999 -11.514 2.2420001 16
32.943001 -11.522 2.2320001 17
32.895 -11.518 2.2179999 16
32.870998 -11.522 2.2049999 17
32.833 -11.522 2.1919999 17
32.804001 -11.523 2.1800001 17
32.806999 -11.536 2.168 18
32.798 -11.543 2.158 19
32.816002 -11.56 2.148 22
32.833 -11.576 2.1370001 20
32.855999 -11.594 2.1270001 20
32.891998 -11.616 2.118 20
32.977001 -11.654 2.1129999 20
33.000999 -11.67 2.102 19
33.089001 -11.709 2.096 17
33.214001 -11.761 2.092 15
33.359001 -11.819 2.0880001 15
33.456001 -11.859 2.0829999 15
33.599998 -11.916 2.079 15
33.744999 -11.973 2.075 15
33.888 -12.028 2.072 15
34.021 -12.08 2.0669999 15
34.189999 -12.144 2.063 19
34.361 -12.208 2.0610001 20
34.504002 -12.262 2.056 20
34.645 -12.314 2.05 23
34.797001 -12.37 2.0469999 28
34.893002 -12.406 2.0380001 33
34.967999 -12.434 2.0280001 40
35.016998 -12.451 2.0179999 46
35.060001 -12.467 2.0050001 49
35.105 -12.482 1.994 55
35.139999 -12.493 1.9809999 69
35.167999 -12.501 1.969 69
35.175999 -12.503 1.9529999 60
35.188 -12.504 1.9400001 73
35.187 -12.5 1.925 75
35.187 -12.497 1.91 79
35.179001 -12.49 1.8940001 77
35.186001 -12.488 1.88 81
35.182999 -12.481 1.865 78
35.182999 -12.476 1.85 82
35.181999 -12.469 1.8329999 81
35.174 -12.459 1.817 78
35.195999 -12.46 1.803 80
35.175999 -12.445 1.788 81
35.182999 -12.439 1.771 80
35.193001 -12.434 1.756 82
35.174999 -12.418 1.739 79
35.168999 -12.406 1.724 80
35.174 -12.398 1.7079999 80
35.172001 -12.386 1.692 77
35.173 -12.376 1.676 77
35.175999 -12.364 1.66 68
35.174 -12.352 1.643 82
35.181 -12.341 1.627 67
35.167 -12.323 1.6109999 80
35.169998 -12.31 1.595 83
35.169998 -12.295 1.5779999 83
35.154999 -12.275 1.561 81
35.162998 -12.263 1.545 66
35.167 -12.248 1.529 84
35.148998 -12.226 1.511 83
35.165001 -12.215 1.495 67
35.158001 -12.195 1.478 81
35.160999 -12.178 1.462 74
35.165001 -12.161 1.446 65
35.146 -12.136 1.428 75
35.152 -12.118 1.41 65
35.151001 -12.098 1.3940001 79
35.138 -12.073 1.376 75
35.139 -12.052 1.36 63
35.144001 -12.033 1.342 73
35.146 -12.012 1.324 64
35.132 -11.985 1.308 79
35.132999 -11.963 1.291 82
35.136002 -11.94 1.274 80
35.136002 -11.917 1.257 78
35.139 -11.894 1.239 66
35.134998 -11.867 1.223 69
35.131001 -11.84 1.205 70
35.127998 -11.813 1.186 83
35.132999 -11.789 1.17 67
35.120998 -11.758 1.152 82
35.118999 -11.73 1.1339999 83
35.116001 -11.702 1.118 68
35.119999 -11.675 1.1 82
35.103001 -11.641 1.082 80
35.117001 -11.616 1.0650001 84
35.112999 -11.585 1.0470001 84
35.104 -11.553 1.029 72
35.105 -11.522 1.013 68
35.098999 -11.49 0.995 84
35.099998 -11.459 0.977 84
35.103001 -11.428 0.96100003 68
35.098999 -11.394 0.94300002 67
35.098999 -11.361 0.92500001 41
35.139999 -11.342 0.90899998 11
35.207001 -11.329 0.89300001 17
35.341 -11.338 0.87900001 34
35.405998 -11.324 0.86199999 43
35.448002 -11.302 0.847 23
35.471001 -11.274 0.82999998 21
35.603001 -11.279 0.815 6
35.605999 -11.244 0.79799998 3
0 0 0 0
0 0 0 0
0 0 0 0
0 0 0 0
0 0 0 0
0 0 0 0
0 0 0 0
0 0 0 3
0 0 0 6
35.374001 -10.778 0.61900002 30
35.369999 -10.736 0.602 33
35.391998 -10.7 0.58499998 30
35.424999 -10.669 0.56900001 10
0 0 0 4
38.998001 -11.65 0.58899999 4
39.016998 -11.607 0.56999999 5
39.012001 -11.557 0.55199999 4
38.970001 -11.496 0.53200001 5
38.979 -11.45 0.51499999 4
39.049999 -11.419 0.49700001 4
39.082001 -11.379 0.479 2
0 0 0 0
0 0 0 0
0 0 0 0
0 0 0 0
0 0 0 0
0 0 0 0
0 0 0 3
0 0 0 0
0 0 0 0
0 0 0 0
0 0 0 0
0 0 0 0
0 0 0 0
0 0 0 5
18.836 -5.0949998 0.103 17
18.783001 -5.053 0.093999997 21
18.747999 -5.0159998 0.086000003 27
18.688999 -4.9720001 0.078000002 29
18.674999 -4.941 0.07 32
18.677 -4.9130001 0.061999999 37
18.650999 -4.8779998 0.054000001 41
18.645 -4.848 0.046 31
18.646999 -4.8189998 0.037999999 30
18.632 -4.7870002 0.030999999 47
18.628 -4.756 0.023 35
18.634001 -4.7290001 0.015 33
18.597 -4.6900001 0.0080000004 54
18.625999 -4.6680002 0 37
18.615 -4.6350002 -0.0060000001 40
18.618999 -4.6069999 -0.014 44
18.618 -4.5760002 -0.021 45
18.629999 -4.5489998 -0.028000001 43
18.643 -4.5219998 -0.035 43
18.657 -4.494 -0.041999999 40
18.667999 -4.4660001 -0.048999999 37
18.679001 -4.4380002 -0.056000002 37
18.705999 -4.4130001 -0.063000001 34
18.709999 -4.3829999 -0.07 41
18.74 -4.3579998 -0.077 38
18.767 -4.3330002 -0.083999999 38
18.797001 -4.3080001 -0.090000004 36
18.816999 -4.2810001 -0.097000003 32
18.863001 -4.2589998 -0.104 29
18.927999 -4.2399998 -0.111 25
19 -4.223 -0.117 19
19.070999 -4.2059999 -0.124 11
0 0 0 85
34.882 -7.572 -0.25099999 104
34.895 -7.5120001 -0.26199999 105
34.889999 -7.4489999 -0.273 93
34.877998 -7.3860002 -0.28400001 91
34.917999 -7.3299999 -0.29499999 48
35.000999 -7.2859998 -0.30599999 33
35.161999 -7.2550001 -0.31799999 12
35.212002 -7.2020001 -0.32800001 20
0 0 0 0
0 0 0 0
0 0 0 0
0 0 0 0
0 0 0 0
0 0 0 1
18.938 -3.6300001 -0.213 71
18.912001 -3.589 -0.21699999 22
18.745001 -3.5220001 -0.22 4
18.702999 -3.4790001 -0.22400001 3
18.608 -3.427 -0.228 1
18.532 -3.3770001 -0.23100001 1
18.638 -3.3610001 -0.237 1
18.481001 -3.2969999 -0.23899999 1
18.532 -3.2709999 -0.244 2
18.532 -3.2349999 -0.248 4
18.513 -3.197 -0.25099999 6
18.593 -3.175 -0.25600001 8
18.587 -3.138 -0.259 10
18.570999 -3.099 -0.26300001 8
18.573999 -3.063 -0.266 6
18.549 -3.023 -0.26899999 6
18.431999 -2.9679999 -0.271 2
18.412001 -2.928 -0.27399999 2
18.414 -2.892 -0.27700001 3
18.391001 -2.852 -0.27900001 13
18.500999 -2.832 -0.28400001 8
18.500999 -2.796 -0.28600001 5
18.507999 -2.76 -0.289 7
18.488001 -2.72 -0.29100001 8
18.473 -2.681 -0.294 8
18.483999 -2.6459999 -0.296 9
18.504 -2.6110001 -0.29800001 12
18.506001 -2.575 -0.301 8
18.455 -2.5309999 -0.30199999 1
18.419001 -2.4890001 -0.303 1
18.540001 -2.467 -0.30599999 1
18.48 -2.421 -0.30700001 1
0 0 0 0
0 0 0 0
0 0 0 0
0 0 0 0
0 0 0 25
0 0 0 25
0 0 0 1
18.674 -2.1429999 -0.31900001 1
18.698 -2.1070001 -0.31999999 1
18.789 -2.0780001 -0.322 1
0 0 0 25
0 0 0 25
0 0 0 25
0 0 0 4
19.58 -1.9630001 -0.336 5
19.603001 -1.924 -0.336 1
19.950001 -1.9170001 -0.34200001 1
20.231001 -1.902 -0.34599999 1
20.67 -1.9 -0.35299999 1
0 0 0 2
0 0 0 0
0 0 0 0
0 0 0 6
22.223 -1.811 -0.373 1
0 0 0 40
39.159 -3.026 -0.65200001 5
39.854 -2.9960001 -0.66000003 5
0 0 0 102
42.591999 -3.0239999 -0.69700003 112
42.602001 -2.934 -0.69300002 88
42.556 -2.8410001 -0.68699998 72
42.196999 -2.73 -0.676 37
42.141998 -2.6370001 -0.67000002 36
42.166 -2.549 -0.66500002 30
42.574001 -2.484 -0.66500002 37
43.220001 -2.4330001 -0.66900003 37
43.466999 -2.3559999 -0.66600001 39
43.474998 -2.2639999 -0.65899998 39
43.784 -2.188 -0.65600002 39
43.848 -2.099 -0.64999998 40
43.66 -1.998 -0.639 39
44.002998 -1.92 -0.63599998 40
44.407001 -1.844 -0.63300002 41
44.643002 -1.758 -0.62699997 55
44.733002 -1.668 -0.61900002 8
0 0 0 105
58.785999 -1.941 -0.78799999 41
0 0 0 16
66.829002 -1.924 -0.86400002 115
66.849998 -1.785 -0.84799999 112
66.822998 -1.643 -0.83099997 76
66.891998 -1.503 -0.815 20
69.998001 -1.424 -0.83499998 124
72.223 -1.3150001 -0.84100002 125
73.329002 -1.178 -0.833 39
0 0 0 0
0 0 0 0
0 0 0 0
0 0 0 118
0 0 0 0
0 0 0 0
0 0 0 0
0 0 0 0
0 0 0 0
0 0 0 41
0 0 0 0
0 0 0 0
0 0 0 0
0 0 0 30
133.60001 2.0550001 -0.85799998 64
133.384 2.3299999 -0.80500001 39
133.373 2.608 -0.75300002 42
133.351 2.881 -0.70099998 59
133.31 3.158 -0.64700001 66
0 0 0 0
0 0 0 29
0 0 0 95
0 0 0 40
0 0 0 117
133.22701 4.8000002 -0.30899999 109
133.207 5.0770001 -0.249 100
133.172 5.3460002 -0.189 101
133.16299 5.6149998 -0.12899999 126
133.13699 5.8870001 -0.067000002 75
0 0 0 30
0 0 0 59
0 0 0 0
0 0 0 0
0 0 0 26
0 0 0 0
0 0 0 0
0 0 0 20
88.695 5.5440001 0.34999999 13
0 0 0 0
0 0 0 0
0 0 0 0
0 0 0 0
0 0 0 0
0 0 0 0
0 0 0 0
0 0 0 15
0 0 0 0
0 0 0 0
0 0 0 0
0 0 0 0
0 0 0 0
0 0 0 0
0 0 0 0
0 0 0 0
0 0 0 0
0 0 0 11
0 0 0 63
0 0 0 31
0 0 0 0
0 0 0 0
0 0 0 32
78.467003 8.5780001 1.4119999 24
78.433998 8.7209997 1.461 30
78.661003 8.8940001 1.517 11
0 0 0 0
0 0 0 29
75.186996 8.9250002 1.599 40
74.844002 9.0229998 1.642 27
0 0 0 0
0 0 0 32
70.720001 8.9160004 1.696 21
70.462997 9.0129995 1.739 24
70.521004 9.1470003 1.788 14
70.356003 9.2530003 1.8329999 17
0 0 0 12
85.228996 11.515 2.339 14
83.906998 11.487 2.362 16
0 0 0 23
67.348 9.46 1.992 34
67.123001 9.5469999 2.0339999 37
0 0 0 5
46.195 6.7319999 1.466 14
46.089001 6.7969999 1.4960001 18
46.153999 6.8870001 1.5319999 16
46.037998 6.9489999 1.562 19
46.112 7.04 1.599 16
46.271 7.1440001 1.6390001 12
46.231998 7.217 1.6720001 15
46.290001 7.3039999 1.7079999 11
46.056 7.3449998 1.734 11
43.858002 7.0679998 1.684 24
43.784 7.1290002 1.714 39
43.827999 7.2090001 1.749 40
43.463001 7.2220001 1.768 23
43.209999 7.2509999 1.791 34
43.103001 7.303 1.819 39
42.894001 7.3379998 1.8430001 39
42.825001 7.3959999 1.873 39
42.806 7.4619999 1.906 38
0 0 0 7
36.490002 6.4770002 1.681 14
0 0 0 0
0 0 0 23
43.566002 7.9400001 2.108 25
43.661999 8.026 2.148 34
0 0 0 9
36.216 6.77 1.839 22
36.148998 6.8119998 1.863 31
36.063999 6.8509998 1.888 4
0 0 0 31
43.98 8.4879999 2.3729999 34
44.188999 8.5950003 2.4189999 24
44.084999 8.6400003 2.448 13
44.324001 8.7530003 2.497 24
0 0 0 0
0 0 0 0
0 0 0 23
36.715 7.4640002 2.187 33
36.717999 7.5180001 2.217 28
36.686001 7.5630002 2.244 41
36.608002 7.599 2.2690001 30
36.578999 7.6440001 2.2969999 37
36.476002 7.6729999 2.3199999 35
36.476002 7.724 2.3499999 34
36.556 7.7909999 2.3840001 36
36.487 7.8260002 2.4089999 30
36.464001 7.8699999 2.437 29
36.467999 7.9200001 2.467 32
36.502998 7.9759998 2.4990001 35
36.529999 8.0299997 2.5309999 39
36.571999 8.0869999 2.5639999 34
36.481998 8.1149998 2.5869999 27
36.452 8.1549997 2.6140001 29
36.465 8.2049999 2.645 29
36.448002 8.2469997 2.6730001 21
36.419998 8.2869997 2.701 29
36.369999 8.3210001 2.727 29
36.271999 8.3430004 2.7479999 28
36.391998 8.415 2.7869999 35
36.327999 8.4449997 2.812 27
36.248001 8.4700003 2.835 27
36.102001 8.4790001 2.8529999 27
36.076 8.5159998 2.881 27
36.054001 8.5530005 2.908 28
35.969002 8.5749998 2.9300001 29
36.015999 8.6280003 2.9630001 25
35.923 8.6459999 2.984 19
35.827999 8.6639996 3.006 11
35.800999 8.6969995 3.0309999 16
35.695999 8.7110004 3.052 26
35.712002 8.7539997 3.0810001 23
35.779999 8.8100004 3.1159999 19
35.818001 8.8579998 3.148 16
35.591999 8.8389997 3.1559999 22
35.557999 8.868 3.1819999 21
35.477001 8.8850002 3.2019999 23
35.332001 8.8839998 3.2179999 27
35.240002 8.8970003 3.237 23
35.146999 8.9090004 3.257 27
34.658001 8.8190002 3.2390001 26
34.455002 8.8009996 3.2460001 26
34.819 8.9280005 3.3080001 27
34.855 8.9700003 3.339 27
35.026001 9.0469999 3.381 23
34.188999 8.8629999 3.3269999 21
33.869999 8.8109999 3.323 15
33.762001 8.8140001 3.3380001 15
33.632999 8.8100004 3.352 13
33.633999 8.8400002 3.378 16
33.605 8.8620005 3.4000001 19
33.591999 8.8870001 3.424 25
33.506001 8.8929996 3.441 25
33.431999 8.901 3.4590001 19
33.417999 8.9250002 3.483 13
33.362 8.9370003 3.5020001 12
33.301998 8.948 3.52 24
33.736 9.0909996 3.5910001 25
0 0 0 5
29.986 8.1260004 3.2360001 14
0 0 0 0
0 0 0 21
0 0 0 0
0 0 0 11
26.024 7.1469998 2.9030001 25
26.035 7.1680002 2.9230001 29
26.021999 7.1820002 2.941 27
26.062 7.211 2.964 16
26.184999 7.2610002 2.9960001 15
26.186001 7.2779999 3.0150001 26
26.153999 7.2849998 3.029 33
26.156 7.302 3.0469999 42
26.186001 7.3260002 3.069 41
26.166 7.336 3.085 38
26.143 7.3449998 3.0999999 34
26.094999 7.3449998 3.112 46
26.107 7.3639998 3.131 40
26.098 7.375 3.148 35
26.125 7.3959999 3.168 40
26.142 7.414 3.187 39
26.145 7.428 3.2049999 34
26.127001 7.4359999 3.22 26
26.103001 7.441 3.234 25
26.115 7.4559999 3.2520001 28
26.125999 7.4710002 3.2709999 33
26.129999 7.4829998 3.2880001 38
26.108999 7.4879999 3.3010001 39
26.103001 7.4980001 3.3169999 41
26.097 7.506 3.3329999 41
26.089001 7.5139999 3.348 40
26.079 7.5209999 3.362 44
26.073999 7.5289998 3.3770001 41
26.069 7.5359998 3.392 39
26.09 7.5500002 3.411 31
26.108999 7.5640001 3.4289999 34
26.122999 7.5760002 3.4460001 33
26.143999 7.5900002 3.464 32
26.167 7.6040001 3.4820001 34
26.139 7.6030002 3.493 34
26.112 7.6020002 3.5050001 35
26.087999 7.6009998 3.516 37
26.061001 7.599 3.527 38
26.059999 7.6040001 3.5409999 41
26.051001 7.6069999 3.5539999 41
26.056999 7.6139998 3.5680001 36
26.055 7.6170001 3.5829999 36
26.046 7.619 3.595 40
26.052 7.6240001 3.609 38
26.037001 7.6230001 3.6210001 35
26.048 7.6300001 3.6359999 32
26.044001 7.631 3.6489999 29
26.046 7.6339998 3.6619999 25
26.049 7.638 3.675 23
26.056999 7.6420002 3.6889999 22
26.059 7.6440001 3.701 21
26.049999 7.6430001 3.7119999 21
26.056 7.645 3.7249999 21
26.073999 7.6500001 3.7409999 21
26.059999 7.6469998 3.75 22
26.035999 7.6389999 3.7579999 24
26.035999 7.6389999 3.77 25
26.035 7.6370001 3.7820001 27
26.021 7.6329999 3.79 26
26.028999 7.6329999 3.803 27
26.013 7.6259999 3.8110001 29
26 7.6199999 3.8199999 29
26.000999 7.618 3.8299999 30
25.99 7.612 3.839 34
25.982 7.6059999 3.848 33
25.971001 7.5999999 3.8559999 37
25.975 7.5970001 3.868 39
25.886999 7.5669999 3.8629999 40
0 0 0 0
0 0 0 3
24.297001 7.0879998 3.6530001 2
24.221001 7.0609999 3.6489999 3
24.266001 7.0689998 3.664 5
24.156 7.0310001 3.6559999 7
24.152 7.0229998 3.6630001 10
24.184 7.027 3.675 12
24.256001 7.0409999 3.694 12
24.240999 7.0289998 3.6989999 12
24.163 7 3.694 12
24.101 6.974 3.6919999 12
24.191999 6.9920001 3.7119999 27
24.218 6.9910002 3.723 30
24.209 6.98 3.7290001 32
24.190001 6.9660001 3.7320001 12
24.271 6.98 3.75 12
24.202 6.9510002 3.7460001 12
24.264999 6.96 3.7609999 12
24.292 6.9569998 3.7709999 18
24.268 6.9400001 3.773 22
24.257999 6.9260001 3.777 22
24.396999 6.9549999 3.803 21
24.319 6.921 3.7969999 26
24.399 6.9320002 3.8139999 19
24.414 6.9250002 3.8199999 13
24.959999 7.0669999 3.9100001 13
24.806 7.0110002 3.891 13
24.691 6.9650002 3.8770001 14
24.660999 6.9429998 3.8759999 16
24.742001 6.9530001 3.892 13
24.834999 6.9650002 3.911 13
24.950001 6.9829998 3.9319999 13
25.024 6.9899998 3.947 13
24.993999 6.9660001 3.9449999 13
24.85 6.9109998 3.925 13
24.778999 6.875 3.9170001 14
24.818001 6.8709998 3.925 14
24.830999 6.8579998 3.9289999 14
24.827 6.8410001 3.931 14
24.746 6.802 3.9200001 16
24.794001 6.7979999 3.9289999 18
24.879999 6.8049998 3.944 22
24.921 6.7979999 3.9519999 23
24.892 6.7729998 3.948 32
24.799999 6.73 3.9349999 43
24.827 6.7189999 3.9400001 41
24.85 6.7069998 3.9430001 47
25.038 6.7379999 3.974 29
25.094999 6.7340002 3.983 18
24.893 6.6609998 3.951 24
24.862 6.6329999 3.9449999 32
24.868 6.6149998 3.9460001 28
24.882999 6.598 3.947 25
24.924 6.5879998 3.9530001 25
25.099001 6.6139998 3.9790001 25
25.231001 6.6279998 3.9990001 20
25.187 6.5939999 3.9909999 15
25.400999 6.6279998 4.0229998 18
25.546 6.6430001 4.0450001 26
25.511999 6.612 4.0370002 32
25.413 6.5640001 4.0190001 23
25.381001 6.5320001 4.0110002 33
25.445999 6.526 4.0180001 31
25.549999 6.5279999 4.0310001 25
25.740999 6.553 4.059 27
25.789 6.54 4.0619998 30
25.801001 6.5190001 4.0599999 26
25.743 6.4790001 4.0469999 14
25.577999 6.4130001 4.0170002 23
25.481001 6.3629999 3.9979999 23
25.628 6.3740001 4.0159998 29
25.655001 6.355 4.0159998 37
25.658001 6.329 4.0120001 42
25.561001 6.2800002 3.9909999 45
24.659 6.0320001 3.845 41
25.187 6.1350002 3.9219999 20
25.024 6.0679998 3.891 13
24.861 6.0019999 3.8599999 14
25.002001 6.0089998 3.8759999 22
24.933001 5.9650002 3.859 28
24.927 5.9369998 3.8510001 44
24.973 5.9200001 3.8510001 39
24.955999 5.888 3.842 39
25.089001 5.8920002 3.855 41
25.290001 5.9109998 3.878 22
25.631001 5.961 3.9230001 25
25.565001 5.9159999 3.905 19
25.409 5.8509998 3.8729999 41
25.386 5.816 3.8610001 40
25.365 5.7820001 3.849 45
25.382 5.7550001 3.8429999 55
25.403 5.73 3.8369999 46
25.443001 5.7080002 3.8340001 29
25.459999 5.6810002 3.8269999 10
25.531 5.6659999 3.8280001 1
0 0 0 28
40.681 8.9280005 6.0679998 24
40.758999 8.8940001 6.0630002 20
40.716999 8.835 6.04 20
40.716 8.7840004 6.0219998 17
40.751999 8.7399998 6.0100002 13
0 0 0 0
0 0 0 5
40.791 8.5909996 5.96 3
40.877998 8.5559998 5.9530001 4
43.212002 8.9870005 6.2729998 30
43.049 8.8979998 6.2280002 34
43.012001 8.8330002 6.2020001 40
42.942001 8.7620001 6.1700001 40
42.847 8.6859999 6.1350002 40
42.889 8.6370001 6.118 40
42.820999 8.566 6.086 38
42.859001 8.5150003 6.0689998 40
42.881001 8.4610004 6.0479999 40
42.814999 8.3889999 6.0149999 37
42.826 8.3330002 5.993 40
42.821999 8.2729998 5.9679999 40
42.700001 8.1899996 5.9260001 35
42.608002 8.1129999 5.8870001 39
42.533001 8.0389996 5.8509998 37
42.528999 7.9780002 5.8249998 24
42.518002 7.9159999 5.7969999 23
42.674 7.8860002 5.7919998 26
42.716 7.8330002 5.7709999 11
42.570999 7.7470002 5.724 3
0 0 0 34
44.172001 7.9109998 5.881 9
44.16 7.8449998 5.8499999 6
44.251999 7.7969999 5.8319998 6
44.262001 7.7340002 5.803 4
0 0 0 46
47.147999 8.1020002 6.1160002 47
47.112 8.026 6.0780001 38
47.008999 7.9390001 6.0310001 34
47.153 7.8940001 6.0149999 33
47.099998 7.8150001 5.974 37
47.223999 7.7659998 5.954 33
47.113998 7.678 5.9050002 28
46.865002 7.5669999 5.8379998 20
47.132999 7.539 5.835 16
47.108002 7.4650002 5.7950001 19
47.167999 7.4039998 5.7649999 13
47.463001 7.3779998 5.7639999 27
0 0 0 0
0 0 0 26
48.747002 7.355 5.8010001 30
48.898998 7.3039999 5.7779999 35
49.032001 7.2490001 5.7529998 33
48.798 7.1389999 5.684 30
48.904999 7.079 5.6539998 28
49.179001 7.0430002 5.6430001 30
48.870998 6.9229999 5.5650001 30
48.931999 6.8559999 5.5289998 30
48.834999 6.7659998 5.4749999 30
48.041 6.5809999 5.3410001 20
0 0 0 0
0 0 0 0
0 0 0 0
0 0 0 15
46.16 5.9640002 4.9190001 12
46.014 5.8720002 4.8590002 24
46.062 5.8060002 4.8200002 27
46.109001 5.7399998 4.7810001 26
46.355 5.697 4.7620001 32
46.556 5.6479998 4.737 27
46.596001 5.5809999 4.6950002 27
46.535999 5.5 4.6420002 27
46.502998 5.4219999 4.592 33
46.702999 5.3709998 4.5640001 32
46.957001 5.3249998 4.5409999 13
49.5 5.5370002 4.7360001 30
49.776001 5.4879999 4.711 39
49.262001 5.3540001 4.6110001 13
49.608002 5.3130002 4.5910001 20
49.691002 5.2420001 4.5450001 5
0 0 0 0
0 0 0 0
0 0 0 0
0 0 0 0
0 0 0 0
0 0 0 35
117.269 11.064 9.8269997 48
117.259 10.875 9.6940002 43
117.398 10.699 9.5710001 36
117.606 10.53 9.4540005 26
117.655 10.345 9.3219995 33
0 0 0 0
0 0 0 0
0 0 0 0
0 0 0 28
126.101 10.075 9.2440004 36
126.127 9.8789997 9.0959997 32
0 0 0 0
0 0 0 0
0 0 0 26
90.028 6.4770002 6.0539999 16
0 0 0 25
117.457 8.0749998 7.6059999 27
117.476 7.8899999 7.4629998 21
0 0 0 22
89.542 5.73 5.4629998 20
88.594002 5.5279999 5.2919998 13
