# .PCD v0.7 - Point Cloud Data file format
VERSION 0.7
FIELDS x y z intensity
SIZE 4 4 4 4
TYPE F F F F
COUNT 1 1 1 1
WIDTH 1906
HEIGHT 1
VIEWPOINT 0 0 0 1 0 0 0
POINTS 1906
DATA ascii
6.9320002 -0.90100002 -0.773 5
7.0250001 -0.90200001 -0.77600002 5
7.1469998 -0.90600002 -0.78100002 4
7.2600002 -0.90799999 -0.78500003 4
7.368 -0.91000003 -0.78899997 4
7.5419998 -0.91900003 -0.79900002 4
7.6750002 -0.92299998 -0.80500001 4
7.7969999 -0.92400002 -0.80800003 4
7.9450002 -0.92900002 -0.81400001 4
8.1020002 -0.93400002 -0.82099998 3
8.29 -0.94199997 -0.83099997 4
8.4490004 -0.94599998 -0.83700001 4
8.6569996 -0.95499998 -0.847 3
8.8409996 -0.96100003 -0.85399997 3
9.0380001 -0.96799999 -0.86299998 4
9.2250004 -0.97299999 -0.87 4
9.4399996 -0.98100001 -0.87900001 3
9.632 -0.98500001 -0.88499999 3
9.908 -0.99699998 -0.898 3
10.275 -1.017 -0.91900003 6
10.55 -1.027 -0.93000001 12
10.731 -1.027 -0.93300003 12
10.808 -1.017 -0.926 6
11.143 -1.03 -0.94099998 2
11.458 -1.041 -0.95300001 2
11.746 -1.048 -0.96200001 3
11.988 -1.05 -0.96600002 2
12.611 -1.084 -1 4
12.881 -1.086 -1.005 3
13.192 -1.091 -1.012 3
13.602 -1.104 -1.026 3
14.155 -1.126 -1.049 4
14.572 -1.136 -1.061 4
15.112 -1.153 -1.08 2
15.694 -1.173 -1.101 3
16.278 -1.1900001 -1.12 3
16.503 -1.1799999 -1.113 3
0 0 0 2
18.462 -1.261 -1.1950001 2
18.497999 -1.234 -1.1720001 1
0 0 0 1
0 0 0 0
0 0 0 0
0 0 0 4
26.007999 -1.529 -1.4680001 3
26.836 -1.536 -1.477 2
0 0 0 2
31.063999 -1.6799999 -1.6210001 2
31.211 -1.6390001 -1.585 35
31.236 -1.592 -1.5420001 150
31.254 -1.543 -1.497 151
31.301001 -1.497 -1.454 150
0 0 0 65
42.582001 -1.906 -1.8559999 54
42.806 -1.849 -1.803 60
42.796001 -1.783 -1.74 53
42.942001 -1.723 -1.683 45
43.044998 -1.6619999 -1.624 54
43.333 -1.6059999 -1.5700001 39
43.780998 -1.556 -1.521 39
44.201 -1.5039999 -1.471 43
44.243999 -1.439 -1.406 51
44.244999 -1.372 -1.339 37
44.334999 -1.307 -1.275 22
44.382 -1.242 -1.209 15
0 0 0 56
67.085999 -1.677 -1.624 77
67.060997 -1.577 -1.521 96
67.078003 -1.477 -1.418 11
70.250999 -1.443 -1.377 61
70.386002 -1.34 -1.2690001 12
72.536003 -1.274 -1.1950001 108
73.614998 -1.1849999 -1.098 41
73.420998 -1.076 -0.98199999 22
73.411003 -0.96899998 -0.86699998 42
73.400002 -0.86199999 -0.75199997 69
73.402 -0.75599998 -0.63599998 73
73.43 -0.64999998 -0.52100003 59
0 0 0 0
0 0 0 0
0 0 0 0
0 0 0 37
86.213997 -0.152 0.07 24
86.313004 -0.029999999 0.20900001 28
86.029999 0.090000004 0.34599999 37
83.954002 0.205 0.47299999 17
85.744003 0.331 0.62400001 22
0 0 0 25
0 0 0 0
0 0 0 0
0 0 0 0
0 0 0 17
87.995003 1.058 1.494 14
0 0 0 0
0 0 0 27
0 0 0 0
0 0 0 25
87.707001 1.637 2.2049999 23
0 0 0 0
0 0 0 0
0 0 0 0
0 0 0 0
0 0 0 15
0 0 0 0
0 0 0 0
0 0 0 35
90.376999 2.733 3.6210001 48
0 0 0 0
0 0 0 0
0 0 0 18
90.033997 3.174 4.2150002 24
0 0 0 0
0 0 0 0
0 0 0 18
90.891998 3.648 4.869 21
90.363998 3.7349999 4.9910002 21
89.918999 3.8239999 5.119 40
89.863998 3.928 5.2680001 40
89.864998 4.0359998 5.4219999 25
88.651001 4.0830002 5.4959998 21
0 0 0 36
118.073 5.7119999 7.7220001 43
118.005 5.8449998 7.9180002 23
118.054 5.9809999 8.1190004 32
117.944 6.1079998 8.309 36
117.938 6.2410002 8.5089998 34
117.79 6.3670001 8.7030001 23
0 0 0 0
0 0 0 0
0 0 0 0
0 0 0 0
0 0 0 22
118.379 7.1750002 9.9540005 26
118.253 7.296 10.147 34
118.248 7.4219999 10.349 35
117.714 7.5079999 10.498 65
117.662 7.631 10.696 90
117.626 7.7470002 10.891 98
117.645 7.869 11.09 78
117.641 7.9889998 11.29 86
117.655 8.1090002 11.492 89
117.614 8.2270002 11.69 78
117.647 8.3470001 11.893 68
117.669 8.4650002 12.096 52
117.634 8.5780001 12.292 32
0 0 0 0
0 0 0 0
0 0 0 0
0 0 0 0
0 0 0 24
0 0 0 0
0 0 0 0
0 0 0 0
0 0 0 0
0 0 0 25
117.966 9.816 14.516 30
117.831 9.9090004 14.697 34
117.75 10.005 14.881 61
117.706 10.104 15.073 65
117.612 10.197 15.258 82
117.635 10.3 15.457 76
117.604 10.396 15.649 71
117.641 10.498 15.85 79
117.652 10.596 16.047001 60
117.632 10.691 16.236 38
117.837 10.805 16.459 28
117.923 10.908 16.663 23
117.84 10.994 16.846001 30
117.82 11.082 17.035 30
117.764 11.171 17.222 30
117.834 11.269 17.426001 27
117.788 11.354 17.608 38
117.786 11.443 17.804001 31
117.698 11.522 17.979 31
117.853 11.625 18.194 29
117.83 11.708 18.382 31
117.802 11.794 18.569 34
117.768 11.874 18.754 37
117.712 11.952 18.934 47
117.669 12.029 19.115999 58
117.642 12.108 19.299999 62
117.587 12.182 19.479 65
117.6 12.262 19.667999 78
117.617 12.345 19.858 57
117.568 12.417 20.035999 55
117.616 12.499 20.226 48
117.659 12.575 20.417999 30
0 0 0 0
0 0 0 0
0 0 0 0
0 0 0 0
0 0 0 0
0 0 0 0
0 0 0 0
0 0 0 0
0 0 0 0
0 0 0 0
0 0 0 0
0 0 0 28
117.923 13.499 22.809999 31
117.815 13.548 22.965 31
117.694 13.595 23.115999 44
117.668 13.651 23.285 51
117.628 13.709 23.451 69
117.571 13.76 23.612 60
117.625 13.823 23.795 62
117.622 13.878 23.965 72
117.635 13.935 24.138 52
117.628 13.989 24.302999 44
117.683 14.048 24.483 36
117.628 14.093 24.639 34
117.715 14.156 24.820999 29
117.654 14.199 24.974001 26
117.782 14.264 25.163 28
117.807 14.315 25.337 25
0 0 0 0
0 0 0 0
0 0 0 0
0 0 0 0
0 0 0 0
0 0 0 0
0 0 0 0
0 0 0 0
0 0 0 25
117.938 14.765 26.959 34
117.821 14.79 27.083 43
117.745 14.817 27.219 38
117.691 14.846 27.358 47
117.656 14.876 27.500999 69
117.646 14.911 27.646 61
117.627 14.941 27.790001 68
117.61 14.971 27.934 60
117.68 15.011 28.097 51
117.736 15.052 28.257 47
117.788 15.088 28.414 39
117.825 15.122 28.566999 25
0 0 0 0
0 0 0 0
0 0 0 0
0 0 0 0
0 0 0 0
0 0 0 0
0 0 0 0
0 0 0 0
0 0 0 0
0 0 0 0
0 0 0 0
0 0 0 0
0 0 0 0
0 0 0 0
0 0 0 0
0 0 0 0
0 0 0 0
0 0 0 32
117.8 15.492 31.063999 31
117.825 15.507 31.188 30
117.774 15.51 31.294001 41
117.724 15.516 31.399 46
117.742 15.526 31.52 49
117.788 15.539 31.648001 60
117.759 15.541 31.754999 61
117.722 15.543 31.855 59
117.812 15.559 31.990999 58
117.749 15.555 32.084 58
117.731 15.555 32.188 37
117.871 15.575 32.334 31
117.849 15.573 32.435001 27
0 0 0 0
0 0 0 0
0 0 0 0
0 0 0 24
117.966 15.584 32.974998 24
0 0 0 0
0 0 0 23
117.961 15.567 33.263 25
0 0 0 0
0 0 0 0
0 0 0 0
0 0 0 0
0 0 0 0
0 0 0 0
0 0 0 0
0 0 0 0
0 0 0 0
0 0 0 0
0 0 0 0
0 0 0 0
0 0 0 0
0 0 0 0
0 0 0 0
0 0 0 0
0 0 0 0
0 0 0 0
0 0 0 26
0 0 0 0
0 0 0 28
118.036 15.255 35.026001 31
118.096 15.238 35.106998 30
118.031 15.205 35.148998 33
117.982 15.172 35.193001 35
117.955 15.142 35.243999 36
117.959 15.119 35.299999 39
117.981 15.093 35.362 38
117.956 15.061 35.408001 47
117.988 15.038 35.467999 51
117.935 14.997 35.502998 43
117.933 14.969 35.549999 60
117.918 14.935 35.592999 63
117.906 14.904 35.632999 55
117.978 14.879 35.699001 59
117.923 14.838 35.726002 54
117.943 14.806 35.772999 64
117.967 14.773 35.82 62
118.004 14.742 35.868999 61
117.963 14.7 35.894001 56
117.96 14.665 35.925999 56
118.019 14.634 35.978001 61
118.004 14.593 36.005001 69
117.977 14.55 36.027 64
117.992 14.511 36.060001 58
118.012 14.472 36.094002 53
117.962 14.427 36.103001 53
117.986 14.388 36.133999 54
117.962 14.345 36.147999 59
118.05 14.312 36.195999 57
118.039 14.269 36.210999 65
118.022 14.222 36.223 57
118.022 14.176 36.238998 59
118.013 14.128 36.250999 59
118.025 14.082 36.268002 68
118.034 14.039 36.280998 69
118.048 13.992 36.294998 66
118.014 13.939 36.292999 66
118.046 13.893 36.308998 62
118.034 13.841 36.311001 66
118.043 13.795 36.316002 67
118.079 13.747 36.328999 65
118.007 13.687 36.306999 63
118.08 13.642 36.327999 55
118.081 13.589 36.325001 61
118.063 13.536 36.313999 57
118.073 13.483 36.311001 51
118.069 13.427 36.301998 75
118.059 13.37 36.290001 65
118.078 13.316 36.285 63
118.081 13.263 36.271999 61
118.144 13.212 36.277 57
118.077 13.15 36.240002 58
118.074 13.091 36.221001 58
118.097 13.034 36.209999 63
118.13 12.978 36.199001 61
118.152 12.92 36.183998 65
118.121 12.856 36.151001 58
118.108 12.794 36.120998 55
118.154 12.737 36.108002 60
118.158 12.678 36.078999 56
118.167 12.616 36.051998 65
118.097 12.548 35.998001 57
118.11 12.483 35.971001 63
118.132 12.424 35.942001 55
118.123 12.361 35.901001 58
118.148 12.298 35.869999 59
118.153 12.233 35.832001 56
118.211 12.173 35.807999 59
118.142 12.102 35.743999 57
118.176 12.035 35.712002 56
118.21 11.974 35.674 55
118.171 11.902 35.615002 56
118.189 11.835 35.570999 59
118.212 11.768 35.527 58
118.216 11.698 35.473999 66
118.198 11.63 35.414001 52
118.22 11.561 35.365002 56
118.218 11.49 35.307999 52
118.279 11.425 35.266998 43
118.242 11.353 35.195999 44
118.327 11.289 35.159 40
118.25 11.209 35.073002 41
118.338 11.145 35.034 35
118.332 11.071 34.965 37
118.435 11.01 34.926998 34
118.445 10.937 34.861 29
0 0 0 0
0 0 0 0
0 0 0 26
0 0 0 0
0 0 0 0
0 0 0 0
0 0 0 0
0 0 0 0
0 0 0 0
0 0 0 0
0 0 0 0
0 0 0 0
0 0 0 0
0 0 0 0
0 0 0 0
0 0 0 0
0 0 0 0
0 0 0 28
118.612 9.4899998 33.287998 26
118.566 9.4090004 33.174999 23
118.463 9.323 33.042 28
0 0 0 0
0 0 0 0
0 0 0 0
0 0 0 0
0 0 0 0
0 0 0 0
0 0 0 30
118.267 8.6630001 32.125999 28
118.36 8.5880003 32.036999 39
118.369 8.5059996 31.923 48
118.336 8.4250002 31.798 64
118.345 8.3400002 31.68 61
118.336 8.2600002 31.558001 61
118.373 8.1800003 31.445999 56
118.355 8.0959997 31.318001 71
118.318 8.0129995 31.18 54
118.478 7.9400001 31.096001 41
118.378 7.8509998 30.941999 39
118.567 7.783 30.864 36
118.689 7.7069998 30.764999 25
0 0 0 0
0 0 0 26
0 0 0 0
0 0 0 0
0 0 0 0
0 0 0 0
0 0 0 0
0 0 0 0
0 0 0 0
0 0 0 0
0 0 0 25
0 0 0 0
0 0 0 24
0 0 0 0
0 0 0 0
0 0 0 0
0 0 0 30
118.457 6.1999998 28.132 32
118.36 6.1110001 27.954 48
118.365 6.0310001 27.799999 57
118.362 5.948 27.641001 72
118.416 5.8660002 27.489 69
118.419 5.783 27.33 58
118.45 5.7020001 27.174999 57
118.496 5.6209998 27.021999 39
118.648 5.5469999 26.889 30
118.561 5.461 26.702999 26
118.72 5.3870001 26.577 27
118.593 5.2969999 26.375 29
118.68 5.2220001 26.226999 28
118.757 5.1430001 26.073 31
118.777 5.059 25.903 32
118.757 4.9790001 25.726999 27
0 0 0 0
0 0 0 0
0 0 0 0
0 0 0 0
0 0 0 0
0 0 0 0
0 0 0 72
146.853 5.3579998 30.044001 47
0 0 0 0
0 0 0 0
0 0 0 0
0 0 0 0
0 0 0 52
152.37801 4.9549999 29.739 97
152.38499 4.855 29.496 51
0 0 0 0
0 0 0 45
0 0 0 0
0 0 0 40
160.627 4.5949998 29.784 69
160.73 4.4980001 29.540001 91
160.80901 4.4000001 29.283001 63
0 0 0 0
0 0 0 0
0 0 0 45
120.889 3.0039999 21.202 69
120.92 2.928 21.004 83
120.915 2.8540001 20.792999 84
120.915 2.78 20.584999 83
120.911 2.7049999 20.375 86
120.923 2.632 20.167 80
120.9 2.5599999 19.955 78
120.941 2.4879999 19.75 58
120.915 2.4130001 19.531 71
120.893 2.3429999 19.316 70
120.927 2.2720001 19.107 72
120.948 2.201 18.893999 51
120.964 2.1329999 18.683001 39
121.134 2.066 18.492001 27
121.111 1.995 18.27 31
121.024 1.927 18.040001 33
121.036 1.858 17.822001 28
121.095 1.7920001 17.615999 32
121.104 1.724 17.395 31
121.188 1.658 17.184 27
121.094 1.592 16.950001 31
121.114 1.527 16.725 36
121.13 1.462 16.502001 27
121.113 1.3940001 16.271 30
120.96 1.3279999 16.023001 43
120.918 1.266 15.794 59
120.913 1.2029999 15.565 73
120.895 1.142 15.337 76
120.878 1.079 15.105 77
120.904 1.02 14.881 60
120.957 0.95700002 14.654 46
121.206 0.89899999 14.451 30
0 0 0 0
0 0 0 0
0 0 0 0
0 0 0 0
0 0 0 0
0 0 0 0
0 0 0 0
0 0 0 0
0 0 0 25
120.796 0.33199999 12.066 30
120.841 0.27900001 11.832 52
120.816 0.226 11.59 72
120.801 0.17399999 11.345 80
120.819 0.125 11.109 77
120.789 0.074000001 10.865 82
120.786 0.022 10.62 83
120.892 -0.026000001 10.387 57
0 0 0 0
0 0 0 41
0 0 0 0
0 0 0 25
0 0 0 25
0 0 0 25
0 0 0 25
0 0 0 40
120.841 -0.43599999 8.1800003 47
120.931 -0.477 7.9419999 33
121.014 -0.52100003 7.6960001 39
120.998 -0.56099999 7.4460001 42
121.021 -0.602 7.1989999 35
0 0 0 16
87.311996 -0.48899999 4.836 18
84.641998 -0.50099999 4.513 12
84.736 -0.52700001 4.3439999 14
0 0 0 34
120.629 -0.82200003 5.684 54
0 0 0 0
0 0 0 36
84.927002 -0.64899999 3.473 26
84.454002 -0.66799998 3.2780001 33
84.237 -0.68800002 3.095 34
84.183998 -0.70899999 2.9170001 22
0 0 0 0
0 0 0 0
0 0 0 19
85.653999 -0.80299997 2.2490001 17
0 0 0 24
75.945999 -0.74599999 1.674 37
0 0 0 21
71.336998 -0.72899997 1.273 56
71.171997 -0.74199998 1.12 61
71.047997 -0.75400001 0.97000003 45
70.833 -0.764 0.81699997 45
70.616997 -0.77399999 0.66500002 51
70.360001 -0.78299999 0.51599997 49
70.239998 -0.79299998 0.366 26
0 0 0 0
0 0 0 0
0 0 0 14
0 0 0 28
73.425003 -0.88099998 -0.39199999 70
73.398003 -0.88999999 -0.54799998 79
73.384003 -0.898 -0.70300001 63
73.367996 -0.90600002 -0.85699999 29
0 0 0 42
0 0 0 0
0 0 0 0
0 0 0 0
0 0 0 0
0 0 0 0
0 0 0 25
0 0 0 25
0 0 0 22
0 0 0 150
46.360001 -0.60699999 -1.627 163
46.308998 -0.60799998 -1.723 197
46.323002 -0.60900003 -1.821 233
46.32 -0.60900003 -1.918 233
46.307999 -0.61000001 -2.0139999 201
46.278999 -0.60900003 -2.112 162
46.227001 -0.60900003 -2.2060001 21
0 0 0 0
0 0 0 0
0 0 0 0
0 0 0 1
0 0 0 1
0 0 0 1
18.486 -0.23899999 -1.156 1
0 0 0 2
16.197001 -0.207 -1.082 3
15.282 -0.19400001 -1.053 2
14.399 -0.182 -1.022 3
13.745 -0.17299999 -1.0039999 3
13.108 -0.163 -0.98500001 3
12.48 -0.154 -0.96399999 3
11.898 -0.146 -0.94400001 2
11.376 -0.138 -0.926 3
10.896 -0.131 -0.91000003 3
10.468 -0.125 -0.89600003 4
10.097 -0.119 -0.88499999 3
9.6569996 -0.112 -0.86699998 3
9.2770004 -0.106 -0.852 3
8.8959999 -0.101 -0.83499998 2
8.5109997 -0.094999999 -0.81699997 4
8.1590004 -0.090000004 -0.80000001 15
7.9190001 -0.086000003 -0.79299998 14
7.6830001 -0.082000002 -0.78500003 13
7.4980001 -0.078000002 -0.78100002 12
7.2820001 -0.075000003 -0.77399999 8
6.9980001 -0.071000002 -0.75800002 6
6.7779999 -0.067000002 -0.74800003 4
6.5500002 -0.063000001 -0.736 4
6.3509998 -0.059999999 -0.727 6
6.1939998 -0.057 -0.72100002 5
6.0450001 -0.055 -0.71600002 4
5.9039998 -0.052000001 -0.71200001 4
5.776 -0.048999999 -0.708 3
5.6370001 -0.046999998 -0.70200002 3
5.5110002 -0.044 -0.69800001 3
5.3850002 -0.041999999 -0.69199997 3
5.2779999 -0.039999999 -0.69 3
5.1440001 -0.037 -0.68199998 3
5.02 -0.035 -0.676 4
4.9289999 -0.033 -0.67299998 2
4.8400002 -0.030999999 -0.671 2
4.73 -0.028999999 -0.66500002 2
4.6430001 -0.027000001 -0.662 3
4.5479999 -0.025 -0.65700001 3
4.474 -0.024 -0.65499997 2
4.3959999 -0.022 -0.653 2
4.3579998 -0.02 -0.65600002 4
4.2210002 -0.017999999 -0.64300001 2
4.1469998 -0.016000001 -0.63999999 2
4.1110001 -0.015 -0.64200002 2
4.059 -0.013 -0.64200002 2
3.987 -0.012 -0.63800001 2
3.9219999 -0.0099999998 -0.63599998 2
3.8629999 -0.0089999996 -0.63300002 3
3.7449999 -0.0070000002 -0.62099999 1
3.698 -0.0060000001 -0.62 1
3.7460001 -0.0040000002 -0.63599998 3
3.6240001 -0.003 -0.62199998 3
3.5550001 -0.0020000001 -0.61699998 2
3.517 0 -0.61699998 1
3.4690001 0 -0.61500001 2
3.4389999 0.001 -0.616 2
3.4389999 0.003 -0.62199998 1
3.3410001 0.0040000002 -0.611 1
3.3469999 0.0049999999 -0.61799997 1
3.3570001 0.0070000002 -0.62599999 2
3.349 0.0080000004 -0.63099998 2
3.2579999 0.0089999996 -0.62 1
3.2030001 0.0099999998 -0.61500001 1
3.2539999 0.012 -0.63099998 1
3.1900001 0.013 -0.62400001 2
3.119 0.014 -0.616 2
3.069 0.015 -0.611 2
3.0840001 0.017000001 -0.62 2
3.0009999 0.017999999 -0.60799998 2
2.8970001 0.017999999 -0.59200001 2
2.868 0.018999999 -0.59100002 2
2.839 0.02 -0.58999997 2
2.802 0.021 -0.588 2
2.891 0.024 -0.611 1
2.75 0.024 -0.58600003 2
2.7260001 0.025 -0.58600003 2
2.701 0.026000001 -0.58499998 2
2.681 0.027000001 -0.58499998 2
2.648 0.028000001 -0.583 1
2.6259999 0.028999999 -0.58200002 1
2.5999999 0.029999999 -0.58099997 1
2.5780001 0.030999999 -0.57999998 1
2.5510001 0.032000002 -0.579 1
2.5409999 0.033 -0.57999998 1
2.5109999 0.034000002 -0.57700002 1
2.4979999 0.035 -0.579 1
2.477 0.035999998 -0.57800001 1
2.4530001 0.037 -0.57599998 1
2.4319999 0.037999999 -0.57499999 1
2.4189999 0.039000001 -0.57599998 1
2.395 0.039999999 -0.574 1
2.378 0.041000001 -0.574 1
2.362 0.041999999 -0.574 1
2.3410001 0.041999999 -0.57200003 1
2.323 0.043000001 -0.57099998 1
2.303 0.044 -0.56999999 1
2.2939999 0.045000002 -0.57099998 1
2.273 0.046 -0.56900001 1
2.2579999 0.046999998 -0.56900001 2
2.2539999 0.048 -0.57099998 2
2.2279999 0.048999999 -0.56800002 2
2.211 0.048999999 -0.56699997 1
2.188 0.050000001 -0.565 1
2.1760001 0.050999999 -0.565 1
2.1589999 0.052000001 -0.56400001 1
2.1600001 0.052999999 -0.56699997 1
2.1359999 0.054000001 -0.56300002 1
2.118 0.054000001 -0.56199998 1
2.0999999 0.055 -0.56 1
2.0899999 0.056000002 -0.56 1
2.0799999 0.057 -0.56099999 1
2.0710001 0.057999998 -0.56099999 1
2.0599999 0.059 -0.56099999 1
2.0439999 0.059 -0.55900002 1
2.0369999 0.059999999 -0.56 1
2.013 0.061000001 -0.55599999 1
2.003 0.061999999 -0.55599999 1
1.995 0.063000001 -0.55599999 1
1.989 0.063000001 -0.55699998 1
1.978 0.064000003 -0.55699998 1
1.9680001 0.064999998 -0.55599999 1
1.955 0.066 -0.55500001 1
1.95 0.067000002 -0.55599999 1
1.932 0.067000002 -0.55299997 1
1.925 0.068000004 -0.55400002 1
1.916 0.068999998 -0.55400002 1
1.901 0.068999998 -0.55199999 1
1.895 0.07 -0.55199999 1
1.888 0.071000002 -0.55199999 1
1.885 0.071999997 -0.55400002 1
1.875 0.072999999 -0.55299997 1
1.8609999 0.072999999 -0.551 1
1.86 0.074000001 -0.55299997 1
1.8559999 0.075000003 -0.55400002 1
1.844 0.075999998 -0.55199999 1
1.84 0.077 -0.55299997 1
1.8329999 0.078000002 -0.55299997 1
1.8200001 0.078000002 -0.551 1
1.809 0.079000004 -0.55000001 1
1.808 0.079999998 -0.551 1
1.799 0.079999998 -0.55000001 1
1.789 0.081 -0.54900002 1
1.777 0.081 -0.54699999 1
1.776 0.082000002 -0.54900002 1
1.766 0.082999997 -0.54699999 1
1.762 0.083999999 -0.54799998 1
1.753 0.083999999 -0.54699999 1
1.743 0.085000001 -0.54500002 1
1.74 0.086000003 -0.546 1
1.74 0.086999997 -0.54799998 1
1.732 0.086999997 -0.54699999 1
1.722 0.088 -0.54500002 1
1.719 0.089000002 -0.546 1
1.714 0.089000002 -0.546 1
1.7079999 0.090000004 -0.54500002 1
1.705 0.090999998 -0.546 1
1.7029999 0.092 -0.546 1
1.698 0.092 -0.546 1
1.681 0.092 -0.542 1
1.681 0.093000002 -0.54299998 1
1.676 0.093999997 -0.54299998 1
1.673 0.094999999 -0.54299998 1
1.671 0.096000001 -0.54400003 1
1.664 0.096000001 -0.54299998 1
1.659 0.097000003 -0.54299998 1
1.664 0.097999997 -0.54500002 1
1.652 0.097999997 -0.54299998 1
1.649 0.098999999 -0.54299998 1
1.651 0.1 -0.54500002 1
1.645 0.1 -0.54400003 1
1.642 0.101 -0.54400003 1
1.63 0.101 -0.54100001 1
1.627 0.102 -0.54100001 1
1.624 0.103 -0.54100001 1
1.618 0.103 -0.54000002 1
1.618 0.104 -0.54100001 1
1.6109999 0.105 -0.53899997 1
1.617 0.106 -0.542 1
1.613 0.106 -0.542 1
1.604 0.107 -0.54000002 1
1.609 0.108 -0.542 1
1.608 0.109 -0.54299998 1
1.596 0.109 -0.53899997 1
1.594 0.109 -0.53899997 1
1.584 0.109 -0.537 1
1.59 0.111 -0.53899997 1
1.589 0.111 -0.54000002 1
1.576 0.111 -0.53600001 1
1.58 0.112 -0.53799999 1
1.58 0.113 -0.53899997 1
1.581 0.114 -0.54000002 1
1.574 0.114 -0.53799999 1
1.574 0.115 -0.53799999 1
1.568 0.115 -0.537 1
1.571 0.116 -0.53799999 1
1.576 0.118 -0.54100001 1
1.566 0.118 -0.53799999 1
1.579 0.119 -0.54299998 1
1.5599999 0.119 -0.53600001 1
1.567 0.12 -0.53899997 1
1.5650001 0.12 -0.53899997 1
1.558 0.121 -0.537 1
1.5650001 0.122 -0.53899997 1
1.549 0.121 -0.53399998 1
1.558 0.123 -0.537 1
1.549 0.123 -0.53500003 1
1.563 0.125 -0.54000002 1
1.557 0.125 -0.53799999 1
1.557 0.126 -0.53799999 1
1.557 0.126 -0.53799999 1
1.557 0.127 -0.53799999 1
1.557 0.12800001 -0.53899997 1
1.552 0.12800001 -0.537 1
1.554 0.12899999 -0.53799999 1
1.557 0.13 -0.53899997 1
1.55 0.13 -0.53600001 1
1.548 0.13 -0.53600001 1
1.548 0.131 -0.53600001 1
1.557 0.132 -0.53899997 1
1.55 0.132 -0.53600001 1
1.552 0.133 -0.537 1
1.55 0.133 -0.53600001 1
1.563 0.13500001 -0.54000002 1
1.552 0.13500001 -0.53600001 1
1.553 0.13500001 -0.537 1
1.55 0.13600001 -0.53500003 1
1.563 0.138 -0.54000002 1
1.558 0.138 -0.53799999 1
1.561 0.139 -0.53899997 1
1.563 0.139 -0.53899997 1
1.558 0.139 -0.537 1
1.564 0.14 -0.53899997 1
1.561 0.141 -0.537 1
1.568 0.142 -0.53899997 1
1.563 0.142 -0.537 1
1.564 0.14300001 -0.537 1
1.567 0.14300001 -0.53799999 1
1.5779999 0.145 -0.54100001 1
1.566 0.14399999 -0.53600001 1
1.572 0.145 -0.53799999 1
1.566 0.145 -0.53500003 1
1.574 0.147 -0.537 1
1.576 0.147 -0.53799999 1
1.577 0.148 -0.537 1
1.579 0.148 -0.537 1
1.577 0.149 -0.53600001 1
1.592 0.15099999 -0.54100001 1
1.592 0.15099999 -0.54000002 1
1.586 0.15099999 -0.537 1
1.591 0.152 -0.53799999 1
1.5930001 0.152 -0.53799999 1
1.585 0.152 -0.53399998 1
1.6059999 0.154 -0.54100001 1
1.609 0.155 -0.54100001 1
1.601 0.155 -0.53799999 1
1.6059999 0.156 -0.53799999 1
1.61 0.156 -0.53899997 1
1.613 0.15700001 -0.53899997 1
1.613 0.15700001 -0.53799999 1
1.622 0.15899999 -0.54000002 1
1.624 0.15899999 -0.53899997 1
1.626 0.16 -0.53899997 1
1.63 0.16 -0.53899997 1
1.641 0.162 -0.542 1
1.636 0.162 -0.53899997 1
1.637 0.162 -0.53899997 1
1.648 0.163 -0.54100001 1
1.652 0.164 -0.54100001 1
1.651 0.164 -0.54000002 1
1.663 0.16599999 -0.542 1
1.659 0.16599999 -0.54000002 1
1.673 0.167 -0.54299998 1
1.671 0.167 -0.54100001 1
1.6720001 0.168 -0.54000002 1
1.682 0.169 -0.542 1
1.691 0.17 -0.54400003 1
1.693 0.17 -0.54299998 1
1.6950001 0.171 -0.542 1
1.7 0.171 -0.542 1
1.709 0.17299999 -0.54400003 1
1.709 0.17299999 -0.542 1
1.716 0.17399999 -0.54299998 1
1.722 0.17399999 -0.54299998 1
1.726 0.175 -0.54299998 1
1.734 0.176 -0.54400003 1
1.745 0.177 -0.546 1
1.734 0.176 -0.54100001 1
1.757 0.178 -0.546 1
1.758 0.17900001 -0.54500002 1
1.767 0.18000001 -0.546 1
1.773 0.18000001 -0.546 1
1.78 0.18099999 -0.546 1
1.784 0.182 -0.546 1
1.7920001 0.182 -0.546 1
1.799 0.183 -0.54699999 1
1.806 0.184 -0.54699999 1
1.819 0.185 -0.54900002 1
1.822 0.185 -0.54799998 1
1.834 0.18700001 -0.54900002 1
1.842 0.18700001 -0.55000001 1
1.845 0.18799999 -0.54900002 1
1.854 0.189 -0.54900002 1
1.8609999 0.189 -0.54900002 1
1.875 0.191 -0.551 1
1.877 0.191 -0.55000001 1
1.887 0.192 -0.551 1
1.897 0.192 -0.551 1
1.9069999 0.193 -0.55199999 1
1.919 0.19400001 -0.55299997 1
1.929 0.19499999 -0.55400002 1
1.937 0.19599999 -0.55400002 1
1.946 0.197 -0.55400002 1
1.9529999 0.197 -0.55299997 1
1.97 0.199 -0.55599999 1
1.9680001 0.198 -0.55299997 1
1.988 0.2 -0.55599999 1
1.993 0.2 -0.55500001 1
2.007 0.20100001 -0.55599999 1
2.0120001 0.20200001 -0.55500001 1
2.0280001 0.20299999 -0.55699998 1
2.0320001 0.20299999 -0.55500001 1
2.0450001 0.204 -0.55599999 1
2.0569999 0.205 -0.55599999 1
2.073 0.206 -0.55800003 1
2.0769999 0.206 -0.55599999 1
2.102 0.208 -0.56 1
2.108 0.208 -0.55900002 1
2.122 0.20900001 -0.56 1
2.141 0.211 -0.56199998 1
2.1570001 0.212 -0.56300002 1
2.168 0.212 -0.56300002 1
2.1819999 0.213 -0.56300002 1
2.2019999 0.215 -0.565 1
2.221 0.21600001 -0.56699997 1
2.2349999 0.21699999 -0.56699997 1
2.25 0.21799999 -0.56800002 1
2.2639999 0.21799999 -0.56800002 1
2.28 0.219 -0.56900001 1
2.2920001 0.22 -0.56800002 1
2.309 0.221 -0.56900001 1
2.3329999 0.222 -0.57200003 1
2.348 0.223 -0.57200003 1
2.3629999 0.22400001 -0.57200003 1
2.3829999 0.22499999 -0.57300001 1
2.3970001 0.22499999 -0.57300001 1
2.414 0.226 -0.57300001 1
2.4430001 0.228 -0.57599998 1
2.457 0.228 -0.57599998 2
2.484 0.23 -0.57800001 2
2.4990001 0.23100001 -0.57800001 2
2.513 0.23100001 -0.57700002 2
2.5369999 0.23199999 -0.579 2
2.562 0.234 -0.57999998 2
2.582 0.234 -0.58099997 2
2.5999999 0.235 -0.58099997 2
2.615 0.235 -0.57999998 1
2.6389999 0.236 -0.58099997 1
2.664 0.237 -0.58200002 1
2.6900001 0.23800001 -0.583 2
2.714 0.23899999 -0.58399999 2
2.7379999 0.23999999 -0.58499998 2
2.76 0.241 -0.58499998 2
2.7950001 0.243 -0.588 2
2.822 0.244 -0.58899999 2
2.8570001 0.24600001 -0.59200001 2
2.888 0.24699999 -0.59299999 2
2.918 0.248 -0.59399998 2
2.937 0.248 -0.59299999 2
2.9690001 0.249 -0.59500003 2
2.993 0.25 -0.59500003 2
3.0320001 0.25099999 -0.597 2
3.063 0.252 -0.59799999 2
3.092 0.25299999 -0.59799999 2
3.1359999 0.255 -0.602 2
3.1619999 0.255 -0.60100001 2
3.1919999 0.25600001 -0.60100001 2
3.2909999 0.26199999 -0.61400002 2
3.3610001 0.266 -0.62199998 2
3.3440001 0.26199999 -0.61299998 2
3.457 0.26899999 -0.62800002 2
3.4549999 0.26699999 -0.62099999 2
3.5309999 0.271 -0.62900001 2
3.539 0.26899999 -0.62400001 2
3.598 0.271 -0.62800002 2
3.6659999 0.27399999 -0.63300002 2
3.652 0.271 -0.62400001 2
3.671 0.27000001 -0.62099999 2
3.7739999 0.27500001 -0.63200003 2
3.8199999 0.27599999 -0.63300002 2
3.9260001 0.28099999 -0.64399999 2
3.9489999 0.28 -0.63999999 2
3.9159999 0.27500001 -0.62800002 2
4.1279998 0.287 -0.65499997 3
4.0999999 0.28200001 -0.64300001 3
4.1240001 0.28099999 -0.639 3
4.2280002 0.285 -0.648 3
4.2519999 0.28299999 -0.64399999 3
4.3060002 0.28400001 -0.64399999 4
4.4349999 0.289 -0.65600002 3
4.4809999 0.289 -0.65399998 3
4.5419998 0.289 -0.65499997 2
4.631 0.29100001 -0.66000003 3
4.704 0.292 -0.66100001 3
4.8080001 0.29499999 -0.667 3
4.8899999 0.296 -0.67000002 3
4.9860001 0.29800001 -0.67400002 2
5.0799999 0.29899999 -0.67699999 3
5.198 0.30199999 -0.68400002 3
5.3150001 0.30500001 -0.68900001 3
5.4320002 0.30700001 -0.69499999 4
5.5310001 0.308 -0.69700003 5
5.6170001 0.308 -0.69800001 6
5.7399998 0.31 -0.70300001 5
5.8839998 0.31299999 -0.70999998 5
6.0100002 0.31400001 -0.71399999 6
6.1329999 0.315 -0.71700001 5
6.2789998 0.317 -0.72299999 5
6.46 0.32100001 -0.73199999 5
6.6389999 0.324 -0.74000001 5
6.809 0.32600001 -0.74699998 4
6.987 0.32800001 -0.75300002 5
7.2290001 0.333 -0.76599997 3
7.4429998 0.336 -0.77499998 5
7.665 0.33899999 -0.78399998 4
7.908 0.34200001 -0.79500002 5
8.1610003 0.345 -0.80500001 4
8.4549999 0.34999999 -0.81900001 4
8.7250004 0.35299999 -0.829 3
9.0299997 0.35600001 -0.84100002 3
9.3780003 0.361 -0.85699999 3
9.7460003 0.366 -0.87300003 4
10.108 0.36899999 -0.88599998 4
10.435 0.37099999 -0.89600003 4
10.833 0.37400001 -0.91100001 4
11.212 0.37599999 -0.92199999 4
11.621 0.37799999 -0.93400002 2
12.131 0.382 -0.95300001 2
12.701 0.38699999 -0.97399998 3
13.252 0.38999999 -0.99199998 3
13.727 0.389 -1.003 3
14.431 0.39399999 -1.028 3
14.62 0.384 -1.015 5
0 0 0 5
15.889 0.38299999 -1.046 5
0 0 0 0
0 0 0 2
0 0 0 2
0 0 0 1
0 0 0 1
0 0 0 0
0 0 0 1
0 0 0 0
0 0 0 0
0 0 0 0
0 0 0 16
71.204002 0.764 -3.145 164
71.241997 0.68199998 -3.0209999 216
0 0 0 14
65.903999 0.47400001 -2.5550001 163
65.926003 0.39700001 -2.4400001 164
65.950996 0.31900001 -2.323 23
0 0 0 0
0 0 0 25
0 0 0 25
0 0 0 25
0 0 0 25
0 0 0 25
0 0 0 0
0 0 0 0
0 0 0 126
133.963 -0.99199998 -2.3570001 133
134.132 -1.159 -2.1289999 43
134.052 -1.3279999 -1.895 56
0 0 0 35
73.379997 -0.91100001 -0.78600001 63
73.407997 -1.005 -0.66000003 81
73.420998 -1.1 -0.53299999 71
73.488998 -1.194 -0.40900001 78
72.530998 -1.273 -0.27900001 63
0 0 0 42
68.031998 -1.37 -0.030999999 28
68.222 -1.464 0.083999999 7
67.150002 -1.529 0.19599999 132
67.094002 -1.615 0.308 66
0 0 0 0
0 0 0 0
0 0 0 0
0 0 0 0
0 0 0 0
0 0 0 0
0 0 0 0
0 0 0 0
0 0 0 4
0 0 0 0
0 0 0 0
0 0 0 0
0 0 0 0
0 0 0 5
43.794998 -1.946 1.2819999 3
0 0 0 33
47.213001 -2.2309999 1.534 94
0 0 0 5
43.380001 -2.1719999 1.548 39
43.238998 -2.2260001 1.612 45
43.171001 -2.283 1.676 13
42.445999 -2.3050001 1.714 7
41.675999 -2.323 1.749 16
41.112 -2.348 1.7869999 12
40.722 -2.3840001 1.8329999 18
40.393002 -2.4219999 1.881 6
39.377998 -2.4170001 1.893 24
39.049999 -2.4530001 1.937 30
38.437 -2.47 1.965 19
37.987999 -2.497 2 21
37.527 -2.52 2.0320001 24
37.066002 -2.543 2.063 30
36.622002 -2.566 2.0929999 21
36.289001 -2.595 2.128 26
35.833 -2.615 2.155 20
35.330002 -2.6289999 2.1760001 20
35.148998 -2.668 2.217 37
34.999001 -2.7079999 2.2579999 50
35.000999 -2.7590001 2.3099999 49
35.007999 -2.812 2.362 49
35.021999 -2.865 2.4130001 50
35.023998 -2.9170001 2.4630001 48
35.022999 -2.9690001 2.5139999 51
35.015999 -3.02 2.563 86
35.013 -3.0710001 2.612 86
35.032001 -3.125 2.6619999 78
35.040001 -3.178 2.7119999 89
35.037998 -3.23 2.7609999 82
35.068001 -3.2850001 2.812 69
35.068001 -3.3369999 2.8599999 59
35.083 -3.392 2.9100001 58
35.085999 -3.4430001 2.957 64
35.091999 -3.4960001 3.0050001 62
35.097 -3.549 3.052 61
35.103001 -3.602 3.099 59
35.099998 -3.6530001 3.145 62
35.096001 -3.7060001 3.1919999 61
35.117001 -3.7609999 3.24 59
35.122002 -3.813 3.286 58
35.123001 -3.8659999 3.3299999 59
35.133999 -3.9200001 3.3770001 56
35.132 -3.9719999 3.421 54
35.146 -4.027 3.4690001 55
35.188999 -4.0840001 3.516 8
35.441002 -4.1669998 3.5869999 2
35.331001 -4.2069998 3.6199999 2
35.347 -4.2610002 3.6659999 2
0 0 0 0
0 0 0 0
0 0 0 0
0 0 0 0
0 0 0 0
0 0 0 0
0 0 0 2
0 0 0 0
0 0 0 0
0 0 0 0
0 0 0 0
0 0 0 0
0 0 0 9
27.464001 -3.885 3.3 23
27.375 -3.914 3.3199999 29
27.316999 -3.947 3.3440001 33
27.280001 -3.9820001 3.369 36
27.233 -4.0149999 3.3929999 40
27.209999 -4.053 3.4200001 40
27.188 -4.0890002 3.447 41
27.165001 -4.1259999 3.4719999 48
27.149 -4.1630001 3.4979999 48
27.135 -4.2010002 3.5250001 53
27.136 -4.2410002 3.553 58
27.118 -4.2779999 3.5799999 56
27.128 -4.3200002 3.609 55
27.122 -4.3590002 3.635 46
27.138 -4.401 3.665 51
27.142 -4.441 3.6919999 51
27.143999 -4.4809999 3.7190001 45
27.18 -4.527 3.7509999 44
27.198999 -4.5700002 3.78 39
27.226999 -4.6139998 3.8099999 35
27.267 -4.6589999 3.8410001 33
27.309999 -4.7059999 3.8729999 25
27.378 -4.757 3.908 16
0 0 0 0
0 0 0 5
35.439999 -6.3099999 5.1560001 4
35.422001 -6.3579998 5.1849999 3
35.415001 -6.4070001 5.2160001 2
0 0 0 0
0 0 0 0
0 0 0 0
0 0 0 0
0 0 0 4
35.382 -6.6999998 5.3920002 22
35.408001 -6.7540002 5.4250002 12
35.467999 -6.8140001 5.4629998 2
35.549 -6.8790002 5.5040002 2
35.540001 -6.9260001 5.5310001 2
0 0 0 0
0 0 0 2
0 0 0 0
0 0 0 0
0 0 0 0
0 0 0 0
0 0 0 0
0 0 0 2
0 0 0 0
0 0 0 0
0 0 0 0
0 0 0 2
35.674999 -7.5749998 5.8909998 2
36.025002 -7.6960001 5.973 2
36.106998 -7.7600002 6.0100002 3
35.895 -7.7610002 5.9990001 3
35.820999 -7.7909999 6.0100002 3
0 0 0 1
19.459 -4.2820001 3.289 16
19.402 -4.2940001 3.2909999 18
19.344 -4.3060002 3.2920001 22
19.316 -4.323 3.299 26
19.27 -4.3369999 3.302 29
19.232 -4.3520002 3.3069999 32
19.204 -4.369 3.313 34
19.176001 -4.3860002 3.319 36
19.162001 -4.4060001 3.3269999 39
19.149 -4.4260001 3.335 41
19.128 -4.4439998 3.3410001 46
19.101 -4.461 3.346 45
19.103001 -4.4840002 3.3559999 47
19.075001 -4.5 3.3599999 46
19.075001 -4.5219998 3.3699999 47
19.070999 -4.5430002 3.378 33
19.066 -4.5640001 3.3870001 49
19.038 -4.5799999 3.3900001 49
19.042999 -4.6020002 3.4000001 53
19.033001 -4.6209998 3.4059999 51
19.027 -4.6409998 3.4130001 57
19.021 -4.6609998 3.4200001 59
19.033001 -4.6849999 3.4300001 35
19.024 -4.7030001 3.4360001 56
19.011 -4.7210002 3.441 51
19.009001 -4.7410002 3.448 48
19.007 -4.7610002 3.4549999 50
19.021 -4.7849998 3.464 48
19.006001 -4.8010001 3.4679999 37
19.017 -4.8239999 3.477 44
19.016001 -4.8429999 3.483 46
19.030001 -4.8660002 3.4920001 52
19.028 -4.8850002 3.4979999 42
19.032 -4.9050002 3.5039999 42
19.040001 -4.9260001 3.5109999 40
19.045 -4.9460001 3.5179999 39
19.049 -4.9660001 3.5239999 38
19.077 -4.9920001 3.5339999 34
19.076 -5.0100002 3.539 31
19.110001 -5.0370002 3.55 32
19.124001 -5.059 3.5569999 29
19.134001 -5.0799999 3.5639999 26
19.150999 -5.1020002 3.5710001 23
19.181999 -5.1269999 3.5810001 22
19.216999 -5.1550002 3.5910001 19
19.249001 -5.1810002 3.6010001 17
19.291 -5.2080002 3.612 11
19.337999 -5.2379999 3.625 2
0 0 0 30
30.85 -8.4099998 5.7930002 27
30.84 -8.4329996 5.7950001 27
30.787001 -8.4440002 5.789 31
30.782 -8.4680004 5.7919998 30
30.763 -8.4870005 5.7930002 26
30.740999 -8.507 5.7909999 28
30.726999 -8.5270004 5.7919998 27
30.712 -8.5469999 5.7919998 30
30.695999 -8.566 5.7909999 25
30.691999 -8.5880003 5.7930002 26
30.681 -8.6079998 5.7930002 29
30.667999 -8.6269999 5.7930002 26
30.663 -8.6479998 5.7930002 26
30.652 -8.6669998 5.7919998 28
30.653 -8.6890001 5.7930002 31
30.638 -8.7060003 5.7909999 30
30.645 -8.7290001 5.7930002 26
30.639999 -8.7480001 5.7919998 27
30.631001 -8.7659998 5.79 26
30.639 -8.7889996 5.79 26
30.628 -8.8039999 5.7880001 28
30.643 -8.8280001 5.79 25
30.645 -8.8479996 5.789 28
30.643 -8.8660002 5.7870002 24
30.648001 -8.8859997 5.7859998 27
30.672001 -8.9110003 5.7880001 29
30.671 -8.9280005 5.7859998 26
30.679001 -8.9490004 5.7839999 26
30.695 -8.9689999 5.7849998 27
30.704 -8.9890003 5.783 26
30.716 -9.0080004 5.7820001 28
30.747999 -9.0340004 5.7839999 25
30.76 -9.0530005 5.7820001 28
30.768999 -9.0710001 5.7789998 25
30.768999 -9.0860004 5.7740002 25
30.812 -9.1129999 5.7779999 24
30.815001 -9.1269999 5.7740002 26
30.858 -9.1540003 5.7750001 27
30.861 -9.1689997 5.77 24
30.889 -9.1899996 5.7690001 24
30.931999 -9.2150002 5.7719998 23
30.943001 -9.2299995 5.7680001 24
30.969999 -9.2510004 5.7659998 22
31.014 -9.276 5.7670002 23
31.049 -9.2969999 5.7659998 23
31.086 -9.3190002 5.7649999 24
31.122 -9.3400002 5.7639999 23
31.153999 -9.3599997 5.7620001 24
31.186001 -9.3789997 5.7600002 23
31.221001 -9.3999996 5.757 22
31.254 -9.4180002 5.7540002 23
31.298 -9.4399996 5.7529998 24
31.354 -9.4659996 5.7540002 22
31.392 -9.4849997 5.7509999 21
31.431999 -9.5050001 5.7480001 22
31.476 -9.5249996 5.7459998 23
31.528999 -9.5480003 5.7449999 22
31.552 -9.5609999 5.7379999 22
31.628 -9.5909996 5.7399998 22
31.671 -9.6090002 5.737 23
31.701 -9.6239996 5.73 22
31.794001 -9.6560001 5.7360001 23
31.846001 -9.677 5.7329998 23
31.879 -9.691 5.7259998 23
31.961 -9.7189999 5.7280002 23
32.019001 -9.7410002 5.7259998 23
32.073002 -9.7600002 5.7220001 24
32.110001 -9.7729998 5.7150002 22
32.182999 -9.7980003 5.7140002 23
32.250999 -9.8199997 5.7119999 24
32.314999 -9.8409996 5.7090001 24
32.402 -9.868 5.71 24
32.446999 -9.8830004 5.7020001 24
32.501999 -9.8999996 5.697 24
32.570999 -9.9209995 5.6929998 24
32.652 -9.9449997 5.691 24
32.730999 -9.967 5.6890001 24
32.782001 -9.9809999 5.6830001 25
32.876999 -10.009 5.6820002 25
32.950001 -10.028 5.678 25
33.049999 -10.056 5.678 25
33.143002 -10.08 5.677 25
33.216999 -10.099 5.671 25
33.296001 -10.119 5.6669998 25
33.361 -10.135 5.6589999 25
33.456001 -10.158 5.6570001 26
33.577 -10.19 5.6589999 26
33.659 -10.21 5.652 26
33.729 -10.224 5.6459999 26
33.841999 -10.251 5.645 26
33.948002 -10.276 5.6420002 26
34.033001 -10.295 5.6360002 26
34.144001 -10.32 5.6329999 27
34.235001 -10.339 5.6269999 27
34.318001 -10.355 5.6199999 27
34.436001 -10.382 5.6170001 27
34.543999 -10.404 5.6129999 27
34.618999 -10.416 5.6030002 27
34.749001 -10.444 5.6020002 28
34.839001 -10.46 5.5929999 28
34.939999 -10.478 5.5879998 26
35.062 -10.503 5.5830002 28
35.161999 -10.52 5.5760002 28
35.269001 -10.538 5.5689998 23
35.321999 -10.541 5.553 22
35.418999 -10.556 5.5440001 20
35.467999 -10.556 5.527 15
35.578999 -10.574 5.5190001 12
35.661999 -10.583 5.507 10
35.751999 -10.593 5.4959998 7
36.002998 -10.651 5.5089998 4
36.066002 -10.653 5.4920001 3
36.083 -10.64 5.4679999 2
0 0 0 0
0 0 0 0
0 0 0 0
0 0 0 0
0 0 0 0
0 0 0 0
0 0 0 0
0 0 0 0
0 0 0 0
0 0 0 0
0 0 0 2
35.594002 -10.254 5.0679998 3
35.636002 -10.243 5.046 3
35.598999 -10.209 5.0120001 4
35.651001 -10.2 4.9910002 3
35.605 -10.162 4.9559999 3
35.514999 -10.112 4.914 2
0 0 0 0
0 0 0 0
0 0 0 2
0 0 0 0
0 0 0 2
37.738998 -10.578 5.033 2
37.783001 -10.561 5.0079999 2
37.733002 -10.518 4.9689999 3
37.922001 -10.539 4.9619999 2
37.842999 -10.486 4.9180002 2
38.035999 -10.508 4.9099998 2
0 0 0 0
0 0 0 2
38.296001 -10.483 4.8439999 3
38.313999 -10.454 4.8130002 2
0 0 0 0
0 0 0 0
0 0 0 1
19.246 -5.1820002 2.349 10
19.212 -5.1550002 2.3280001 16
19.174 -5.1269999 2.3069999 20
19.134001 -5.0970001 2.2850001 22
19.106001 -5.072 2.2639999 25
19.086 -5.0479999 2.244 28
19.066999 -5.0240002 2.2249999 30
19.033001 -4.9949999 2.204 35
19.028999 -4.9749999 2.1860001 36
19.004999 -4.9499998 2.1659999 36
19.002001 -4.9289999 2.148 41
18.988001 -4.9060001 2.1289999 40
18.988001 -4.8860002 2.1110001 44
18.983 -4.8649998 2.0940001 44
18.978001 -4.8429999 2.075 43
18.973 -4.8210001 2.0569999 49
18.966999 -4.7989998 2.0380001 48
18.965 -4.777 2.0209999 42
18.965 -4.7550001 2.003 43
18.955 -4.7319999 1.984 48
18.954 -4.71 1.966 53
18.951 -4.6869998 1.948 58
18.968 -4.6700001 1.932 58
18.958 -4.645 1.913 63
18.976 -4.6269999 1.897 63
18.974001 -4.6030002 1.8789999 41
18.982 -4.5819998 1.8609999 41
18.989 -4.5609999 1.844 61
18.996 -4.54 1.826 59
19.007 -4.5190001 1.809 59
19.009001 -4.4949999 1.791 53
19.028999 -4.4759998 1.775 53
19.039 -4.4549999 1.757 54
19.054001 -4.434 1.7410001 51
19.054001 -4.4089999 1.723 47
19.077999 -4.3899999 1.707 43
19.113001 -4.3730001 1.692 45
19.125 -4.3509998 1.674 29
19.132999 -4.3270001 1.656 37
19.165001 -4.309 1.641 33
19.223 -4.296 1.628 32
19.261 -4.2789998 1.612 27
19.305 -4.2620001 1.597 21
19.381001 -4.2519999 1.585 18
19.461 -4.243 1.573 4
0 0 0 19
35.368 -7.612 2.7909999 33
35.367001 -7.5619998 2.757 44
35.353001 -7.5079999 2.721 52
35.312 -7.4499998 2.6849999 52
35.32 -7.4000001 2.652 52
35.292999 -7.3429999 2.6159999 51
35.285 -7.29 2.5810001 49
35.278999 -7.2360001 2.5469999 51
35.284 -7.1849999 2.513 54
35.257 -7.1269999 2.477 51
35.258999 -7.0749998 2.4449999 56
35.263 -7.0219998 2.411 54
35.25 -6.967 2.3770001 52
35.251999 -6.9130001 2.3429999 53
35.234001 -6.8559999 2.309 55
35.235001 -6.802 2.2750001 53
35.237 -6.7470002 2.2420001 53
35.236 -6.6919999 2.2079999 53
35.222 -6.6339998 2.174 49
35.229 -6.5799999 2.141 52
35.219002 -6.5219998 2.1070001 51
35.216999 -6.4650002 2.0739999 52
35.214001 -6.408 2.0409999 50
35.219002 -6.3540001 2.0079999 54
35.202999 -6.2940001 1.974 52
35.214001 -6.2389998 1.943 43
35.251999 -6.1880002 1.9119999 32
0 0 0 2
27.261 -4.6950002 1.428 19
27.183001 -4.6360002 1.399 26
27.143 -4.5840001 1.3710001 29
27.1 -4.5320001 1.344 36
27.077999 -4.4829998 1.319 40
27.066 -4.4349999 1.293 44
27.040001 -4.3850002 1.267 47
27.035 -4.3400002 1.243 52
27.027 -4.2909999 1.2180001 57
27.01 -4.2420001 1.193 62
27.017 -4.198 1.169 48
27.046 -4.1560001 1.146 57
27.058001 -4.1100001 1.123 49
27.08 -4.066 1.099 44
27.114 -4.0229998 1.077 43
27.146 -3.98 1.054 40
27.191999 -3.9389999 1.0319999 35
27.237 -3.8970001 1.01 33
27.306 -3.859 0.98900002 24
27.395 -3.822 0.96799999 15
0 0 0 0
0 0 0 0
0 0 0 5
35.061001 -4.638 1.118 99
35.023998 -4.5689998 1.087 83
35.032001 -4.506 1.057 108
35.044998 -4.4429998 1.028 100
35.015999 -4.3769999 0.99800003 107
35.000999 -4.3109999 0.96899998 102
35.023998 -4.2480001 0.94 101
35.007 -4.1820002 0.91100001 98
35.007 -4.1160002 0.88200003 99
34.999001 -4.0500002 0.85299999 103
35.011002 -3.9849999 0.82499999 93
35.002998 -3.9189999 0.79699999 90
35.006001 -3.8529999 0.76800001 91
34.970001 -3.783 0.74000001 97
34.964001 -3.717 0.71200001 90
34.969002 -3.651 0.685 95
34.976002 -3.586 0.65799999 100
34.957001 -3.517 0.63 103
34.950001 -3.451 0.60299999 95
34.945 -3.3829999 0.57599998 101
34.960999 -3.3180001 0.55000001 66
35.355999 -3.2869999 0.52999997 8
35.867001 -3.2650001 0.50999999 8
36.306999 -3.2360001 0.49000001 8
36.793999 -3.207 0.46799999 8
38.853001 -3.3110001 0.46599999 77
38.852001 -3.2349999 0.43700001 83
38.851002 -3.1589999 0.40900001 83
38.853001 -3.0840001 0.38100001 54
39.444 -3.053 0.359 5
40.02 -3.0190001 0.33500001 5
40.422001 -2.9690001 0.31 25
40.682999 -2.9089999 0.28400001 4
42.886002 -2.9809999 0.27000001 103
42.873001 -2.895 0.23999999 89
43.331001 -2.8410001 0.213 14
43.666 -2.7750001 0.185 39
43.926998 -2.704 0.15700001 38
43.713001 -2.6029999 0.127 30
0 0 0 30
47.171001 -2.6199999 0.074000001 83
47.266998 -2.5309999 0.044 63
47.717999 -2.4590001 0.014 11
0 0 0 95
50.965 -2.4200001 -0.048999999 80
51.183998 -2.326 -0.082000002 75
51.594002 -2.24 -0.114 9
0 0 0 70
58.673 -2.3080001 -0.20200001 71
59.077 -2.2049999 -0.23800001 126
59.062 -2.0840001 -0.273 119
59.077 -1.964 -0.308 69
59.351002 -1.854 -0.34400001 23
0 0 0 111
67.091003 -1.821 -0.465 150
67.106003 -1.683 -0.50300002 73
67.087997 -1.545 -0.54100001 65
67.387001 -1.415 -0.57999998 21
0 0 0 18
73.369003 -1.237 -0.71100003 60
73.421997 -1.084 -0.75099999 63
73.403 -0.93300003 -0.78899997 46
73.380997 -0.78299999 -0.82700002 38
73.392998 -0.63200003 -0.86400002 24
0 0 0 92
133.951 -0.60699999 -1.71 76
133.98599 -0.33000001 -1.777 65
133.905 -0.052000001 -1.841 60
133.855 0.228 -1.905 43
133.73399 0.505 -1.966 33
133.972 0.78299999 -2.0320001 54
0 0 0 0
0 0 0 0
0 0 0 0
0 0 0 0
0 0 0 40
0 0 0 0
0 0 0 0
0 0 0 0
0 0 0 3
39.306 1.045 -0.764 7
39.186001 1.122 -0.77700001 13
39.07 1.199 -0.78899997 15
38.980999 1.279 -0.80199999 17
38.943001 1.358 -0.81599998 22
38.969002 1.4400001 -0.82999998 19
39.009998 1.522 -0.84500003 20
39.041 1.605 -0.85900003 26
39.064999 1.688 -0.87300003 36
39.103001 1.77 -0.88700002 40
39.112 1.85 -0.89999998 40
39.152 1.932 -0.91299999 41
39.182999 2.0150001 -0.926 41
39.214001 2.0969999 -0.93900001 25
39.243 2.1789999 -0.95099998 32
39.308998 2.2639999 -0.96499997 34
39.341999 2.346 -0.977 33
39.387001 2.4300001 -0.98900002 35
39.421001 2.513 -1 38
39.485001 2.599 -1.012 40
39.516998 2.6819999 -1.023 39
39.576 2.766 -1.035 38
39.634998 2.852 -1.046 40
39.683998 2.937 -1.057 38
39.733002 3.023 -1.068 37
39.778 3.108 -1.0779999 38
39.842999 3.194 -1.0880001 42
39.896999 3.28 -1.098 40
39.950001 3.3659999 -1.108 39
39.985001 3.4489999 -1.117 37
40.044998 3.5369999 -1.126 38
40.103001 3.622 -1.135 39
40.162998 3.7090001 -1.1440001 39
40.223 3.796 -1.152 37
40.282001 3.8829999 -1.16 33
40.347 3.97 -1.169 35
40.402 4.0570002 -1.176 38
40.462002 4.1440001 -1.184 35
40.528 4.2319999 -1.191 31
40.601002 4.3200002 -1.199 22
40.650002 4.4070001 -1.205 20
40.708 4.4949999 -1.212 20
40.776001 4.5830002 -1.2180001 16
41.018002 4.6919999 -1.23 9
0 0 0 69
49.217999 5.8270001 -1.4859999 154
49.206001 5.9200001 -1.489 151
49.223999 6.02 -1.493 99
49.203999 6.1139998 -1.4960001 83
0 0 0 4
0 0 0 4
32.419998 4.217 -0.99199998 2
0 0 0 0
0 0 0 2
32.005001 4.3509998 -0.98299998 13
31.975 4.4089999 -0.98299998 44
31.909 4.461 -0.98199999 49
31.853001 4.5149999 -0.98100001 57
31.822001 4.572 -0.98000002 81
31.732 4.619 -0.977 48
31.705999 4.6760001 -0.97600001 8
31.662001 4.73 -0.97500002 12
31.719999 4.7979999 -0.97600001 11
31.742001 4.862 -0.97600001 9
31.74 4.921 -0.97500002 7
31.719 4.9780002 -0.97399998 9
31.684999 5.0320001 -0.972 16
31.679001 5.0900002 -0.97000003 12
31.724001 5.1570001 -0.97000003 10
31.75 5.2199998 -0.96899998 8
31.733999 5.276 -0.96700001 8
31.68 5.3249998 -0.963 8
31.673 5.382 -0.95999998 7
31.677 5.4400001 -0.958 6
31.660999 5.4949999 -0.95499998 7
31.636 5.5479999 -0.95200002 8
31.645 5.6069999 -0.949 8
31.650999 5.665 -0.94599998 8
31.618 5.7160001 -0.94099998 7
31.672001 5.783 -0.93900001 8
31.652 5.836 -0.935 8
31.655001 5.8920002 -0.93099999 8
31.673 5.9510002 -0.92799997 7
31.663 6.0050001 -0.92400002 7
31.632999 6.0549998 -0.91900003 7
31.622999 6.1090002 -0.91399997 7
31.634001 6.1659999 -0.90899998 6
31.629 6.2189999 -0.90499997 6
31.652 6.277 -0.89999998 5
31.632999 6.3270001 -0.89499998 5
31.639 6.382 -0.889 6
31.618999 6.4320002 -0.88300002 4
31.625 6.487 -0.87800002 4
31.657 6.5469999 -0.87300003 4
31.639999 6.5970001 -0.86699998 4
31.631001 6.6469998 -0.861 4
31.607 6.6939998 -0.85399997 3
31.620001 6.7490001 -0.84799999 3
31.625999 6.802 -0.84200001 3
31.666 6.862 -0.83600003 3
31.652 6.9109998 -0.829 3
31.635 6.9580002 -0.82099998 3
31.636 7.0089998 -0.81400001 3
31.568001 7.0440001 -0.80500001 3
31.618 7.1059999 -0.80000001 3
31.631001 7.1589999 -0.792 2
31.653 7.2140002 -0.78500003 2
31.646 7.2610002 -0.778 2
31.656 7.3119998 -0.76999998 2
0 0 0 1
12.235 2.8640001 -0.29100001 16
12.197 2.8729999 -0.287 8
12.154 2.881 -0.28299999 1
12.121 2.892 -0.27900001 1
12.078 2.8989999 -0.27500001 1
12.07 2.915 -0.271 1
11.994 2.915 -0.266 1
11.974 2.927 -0.26199999 1
11.954 2.9389999 -0.25799999 1
11.899 2.9430001 -0.25400001 1
11.811 2.938 -0.248 1
11.772 2.9449999 -0.244 4
11.735 2.9519999 -0.23999999 8
11.728 2.967 -0.236 10
11.722 2.9809999 -0.23199999 10
11.714 2.9949999 -0.229 10
11.699 3.0079999 -0.22499999 7
11.712 3.027 -0.221 3
11.71 3.0420001 -0.21699999 1
11.713 3.0580001 -0.214 1
11.726 3.0769999 -0.20999999 1
11.698 3.085 -0.206 1
0 0 0 1
9.9770002 2.6570001 -0.169 28
9.8990002 2.6489999 -0.164 120
9.8999996 2.6619999 -0.161 153
9.8850002 2.6700001 -0.15700001 153
9.7919998 2.6570001 -0.152 33
9.7620001 2.661 -0.148 10
9.7329998 2.665 -0.14399999 6
9.7040005 2.6689999 -0.141 6
9.6689997 2.671 -0.13699999 4
9.6459999 2.6760001 -0.133 3
9.6120005 2.678 -0.12899999 2
9.5860004 2.6819999 -0.125 2
9.5790005 2.691 -0.122 2
9.5600004 2.6960001 -0.118 1
9.5270004 2.698 -0.114 1
9.5050001 2.7019999 -0.11 1
9.493 2.7090001 -0.106 1
9.4720001 2.714 -0.102 1
9.441 2.7149999 -0.097999997 2
9.4259996 2.721 -0.094999999 4
9.3929996 2.721 -0.090999998 10
9.3760004 2.7260001 -0.086999997 21
9.3879995 2.7390001 -0.082999997 25
9.3739996 2.7449999 -0.079999998 16
9.3690004 2.753 -0.075999998 15
9.3809996 2.766 -0.071999997 17
9.3559999 2.767 -0.068000004 21
9.3699999 2.7809999 -0.064999998 8
9.3859997 2.7939999 -0.061000001 4
9.3870001 2.803 -0.057 4
9.3839998 2.8110001 -0.054000001 4
9.3669996 2.8150001 -0.050000001 6
9.3559999 2.8199999 -0.046 6
9.3690004 2.832 -0.041999999 4
9.3830004 2.8440001 -0.037999999 3
9.4099998 2.8610001 -0.035 3
9.3859997 2.862 -0.030999999 1
9.375 2.8659999 -0.027000001 1
0 0 0 0
0 0 0 1
9.3640003 2.8859999 -0.015 2
9.3409996 2.8859999 -0.012 4
9.3310003 2.8900001 -0.0080000004 6
9.3450003 2.901 -0.0040000002 4
9.342 2.908 0 1
9.316 2.9059999 0.003 1
9.2629995 2.8959999 0.0070000002 2
9.2700005 2.905 0.011 2
9.2679996 2.911 0.015 1
9.2399998 2.908 0.018999999 1
9.2600002 2.921 0.023 1
9.2410002 2.921 0.027000001 3
9.2349997 2.925 0.030999999 6
9.2329998 2.9300001 0.034000002 6
9.2449999 2.9389999 0.037999999 5
9.2220001 2.937 0.041999999 8
9.2159996 2.941 0.046 21
9.2209997 2.948 0.050000001 22
9.2119999 2.95 0.054000001 21
9.2440004 2.9649999 0.057999998 6
9.2489996 2.9719999 0.061999999 1
0 0 0 0
0 0 0 0
0 0 0 1
9.2030001 2.9749999 0.078000002 2
9.21 2.9809999 0.082000002 5
9.1929998 2.98 0.085000001 10
9.1949997 2.984 0.089000002 18
9.1899996 2.987 0.093000002 17
9.1709995 2.984 0.097000003 21
9.177 2.99 0.101 24
9.1789999 2.994 0.105 30
9.1870003 3 0.109 41
9.1820002 3.0009999 0.112 56
9.1800003 3.003 0.116 71
9.1870003 3.0090001 0.12 78
9.191 3.013 0.124 87
9.1890001 3.0150001 0.12800001 91
9.1990004 3.0209999 0.132 96
9.1890001 3.02 0.13600001 103
9.184 3.02 0.14 89
9.191 3.0250001 0.14399999 89
9.1850004 3.0250001 0.148 72
9.1730003 3.0220001 0.15099999 41
9.1599998 3.02 0.155 26
9.158 3.0209999 0.15899999 19
9.1700001 3.026 0.163 12
9.1700001 3.0280001 0.167 8
9.1969995 3.0380001 0.171 7
9.2030001 3.0409999 0.175 5
9.2150002 3.046 0.17900001 5
9.2049999 3.043 0.183 4
9.1949997 3.04 0.186 3
9.2250004 3.0510001 0.19 2
9.2259998 3.0510001 0.19400001 2
9.2309999 3.053 0.198 2
9.2390003 3.056 0.20200001 1
9.2559996 3.062 0.206 1
9.2889996 3.072 0.211 1
9.283 3.0699999 0.214 1
0 0 0 0
0 0 0 0
0 0 0 0
0 0 0 1
9.5509996 3.155 0.23999999 1
9.6359997 3.1819999 0.24600001 1
9.6239996 3.177 0.249 1
9.6440001 3.1819999 0.25299999 1
9.7229996 3.207 0.259 1
9.6630001 3.1849999 0.26100001 1
9.7690001 3.2179999 0.26800001 1
9.776 3.2179999 0.27200001 1
0 0 0 35
43.918999 14.441 1.256 35
43.911999 14.428 1.273 44
43.939999 14.425 1.29 43
44 14.433 1.308 44
44.039001 14.433 1.327 44
44.120998 14.446 1.346 44
44.122002 14.433 1.36 44
44.118 14.417 1.376 44
44.134998 14.407 1.393 44
0 0 0 9
33.445 10.892 1.08 21
33.43 10.875 1.092 39
33.417 10.857 1.102 47
33.403 10.839 1.114 55
33.395 10.821 1.126 59
33.391998 10.806 1.137 67
33.396999 10.792 1.149 72
33.386002 10.772 1.161 74
33.397999 10.76 1.1720001 77
33.407001 10.746 1.183 73
33.415001 10.732 1.1950001 71
33.443001 10.723 1.206 62
33.455002 10.709 1.2180001 56
33.478001 10.698 1.23 44
33.507999 10.688 1.2410001 20
33.551998 10.683 1.2539999 5
0 0 0 30
44.193001 14.017 1.6799999 28
44.186001 13.987 1.694 30
44.230999 13.973 1.709 30
44.284 13.961 1.724 20
44.387001 13.963 1.743 18
44.509998 13.972 1.761 15
0 0 0 0
0 0 0 12
37.883999 11.811 1.531 14
37.91 11.791 1.544 9
37.891998 11.757 1.554 9
37.863998 11.72 1.564 12
37.919998 11.707 1.577 19
37.943001 11.685 1.5880001 25
37.91 11.644 1.597 24
37.824001 11.587 1.604 17
37.82 11.554 1.614 15
37.816002 11.521 1.624 12
37.798 11.484 1.632 10
37.834999 11.462 1.643 10
37.863998 11.438 1.654 13
37.823002 11.391 1.6619999 14
37.82 11.356 1.671 17
37.834999 11.326 1.6799999 17
37.785 11.275 1.687 17
37.737 11.225 1.694 23
37.609001 11.152 1.696 24
37.720001 11.149 1.709 21
35.817001 10.551 1.631 9
35.691002 10.478 1.633 69
35.688 10.442 1.64 94
35.712002 10.413 1.649 67
35.702999 10.373 1.656 9
0 0 0 0
0 0 0 32
37.362999 10.738 1.7539999 37
