# .PCD v0.7 - Point Cloud Data file format
VERSION 0.7
FIELDS x y z intensity
SIZE 4 4 4 4
TYPE F F F F
COUNT 1 1 1 1
WIDTH 1843
HEIGHT 1
VIEWPOINT 0 0 0 1 0 0 0
POINTS 1843
DATA ascii
0 0 0 0
0 0 0 17
68.978996 -1.33 0.454 9
0 0 0 0
0 0 0 0
0 0 0 0
0 0 0 0
0 0 0 6
57.903 -1.408 1.063 17
57.289001 -1.442 1.164 19
56.938 -1.483 1.268 16
56.25 -1.513 1.3609999 19
55.935001 -1.554 1.462 36
55.310001 -1.586 1.553 21
54.640999 -1.6160001 1.64 29
54.362999 -1.656 1.737 20
53.662998 -1.684 1.818 6
0 0 0 0
0 0 0 9
55.484001 -1.892 2.198 14
54.838001 -1.921 2.2780001 39
54.736 -1.969 2.378 62
53.529999 -1.974 2.4260001 54
53.477001 -2.0239999 2.526 72
52.751999 -2.046 2.5899999 38
52.140999 -2.072 2.6600001 74
52.139999 -2.1210001 2.757 75
50.966 -2.122 2.789 54
50.803001 -2.165 2.8759999 66
50.618 -2.207 2.9619999 53
49.499001 -2.2060001 2.987 55
49.409 -2.25 3.073 47
48.249001 -2.2449999 3.0910001 11
47.768002 -2.27 3.148 25
47.742001 -2.3169999 3.234 58
47.737999 -2.3629999 3.3199999 69
47.758999 -2.4119999 3.4089999 69
47.757 -2.46 3.494 67
47.755001 -2.5090001 3.5799999 68
47.757999 -2.5580001 3.668 65
47.771 -2.608 3.756 58
0 0 0 10
44.022999 -2.493 3.618 12
43.728001 -2.5209999 3.6719999 46
43.742001 -2.5669999 3.7479999 59
43.534 -2.5999999 3.8069999 54
42.764999 -2.5999999 3.8180001 56
42.764 -2.645 3.8929999 61
42.756001 -2.688 3.9660001 62
41.848 -2.6760001 3.9549999 36
41.433998 -2.6930001 3.9879999 50
41.422001 -2.7360001 4.0560002 56
41.43 -2.7809999 4.1279998 56
40.328999 -2.75 4.0879998 34
40.056 -2.7739999 4.1290002 48
40.049 -2.8169999 4.1960001 50
40.058998 -2.862 4.2659998 49
38.970001 -2.825 4.2160001 30
38.738998 -2.8510001 4.256 56
38.730999 -2.892 4.3200002 56
38.741001 -2.9349999 4.3850002 54
37.973999 -2.9189999 4.3610001 30
37.375999 -2.9130001 4.3540001 53
37.386002 -2.9549999 4.4159999 54
37.372002 -2.9960001 4.4759998 54
36.762001 -2.987 4.4629998 12
35.955002 -2.9619999 4.4229999 9
35.589001 -2.971 4.4349999 22
35.556 -3.0079999 4.4889998 51
35.574001 -3.05 4.5489998 61
35.57 -3.089 4.605 58
35.571999 -3.128 4.6599998 60
35.576 -3.168 4.7160001 57
35.596001 -3.21 4.7740002 56
35.591 -3.25 4.829 58
35.606998 -3.2909999 4.8860002 59
35.594002 -3.3299999 4.9390001 61
35.606998 -3.3710001 4.9949999 64
35.610001 -3.411 5.0489998 63
35.618 -3.4519999 5.105 61
35.610001 -3.4920001 5.1570001 62
35.618999 -3.533 5.2119999 59
35.632 -3.5739999 5.2659998 62
35.625999 -3.6140001 5.3179998 63
35.638 -3.6559999 5.3720002 61
35.634998 -3.697 5.4239998 58
35.645 -3.7379999 5.4780002 57
35.644001 -3.779 5.5289998 55
35.653999 -3.8210001 5.5819998 53
35.655998 -3.8610001 5.6329999 52
35.647999 -3.901 5.6820002 55
35.666 -3.944 5.7350001 54
35.672001 -3.9849999 5.7859998 50
35.669998 -4.026 5.835 51
35.673 -4.0669999 5.8850002 51
35.675999 -4.1079998 5.9349999 43
35.756001 -4.158 5.9980001 5
35.990002 -4.2270002 6.086 4
35.852001 -4.25 6.1100001 5
35.761002 -4.2810001 6.1430001 9
35.619999 -4.3049998 6.1659999 16
35.443001 -4.3239999 6.1820002 22
35.325001 -4.349 6.2059999 26
35.160999 -4.369 6.224 26
34.966999 -4.3850002 6.2350001 26
34.775002 -4.4000001 6.244 26
34.578999 -4.414 6.2519999 26
34.334 -4.4219999 6.2509999 25
34.18 -4.441 6.2659998 25
33.972 -4.4520001 6.27 25
33.793999 -4.4660001 6.2789998 24
33.584 -4.4770002 6.2810001 23
33.421001 -4.493 6.29 23
33.245998 -4.507 6.2979999 23
33.077999 -4.5219998 6.3049998 22
32.889999 -4.533 6.3080001 25
0 0 0 5
28.016001 -3.9230001 5.4380002 13
27.952999 -3.9460001 5.4580002 22
27.900999 -3.97 5.48 26
27.839001 -3.9920001 5.4990001 31
27.83 -4.0219998 5.5289998 33
27.781 -4.0450001 5.5500002 37
27.764 -4.0739999 5.5770001 40
27.743999 -4.1009998 5.6040001 42
27.74 -4.131 5.6329999 41
27.716999 -4.158 5.658 43
27.691999 -4.1849999 5.6820002 43
27.677999 -4.2129998 5.7080002 49
27.671 -4.243 5.7350001 50
27.662001 -4.2709999 5.7620001 56
27.662001 -4.302 5.79 56
27.677999 -4.3340001 5.822 45
27.662001 -4.3610001 5.8460002 44
27.67 -4.3930001 5.875 54
27.660999 -4.421 5.9000001 35
27.667999 -4.4510002 5.928 47
27.650999 -4.4780002 5.9510002 45
27.672001 -4.5110002 5.9809999 45
27.688999 -4.5430002 6.0110002 44
27.701 -4.573 6.039 42
27.709 -4.6040001 6.066 38
27.739 -4.638 6.0970001 38
27.754999 -4.6700001 6.125 34
27.775 -4.7020001 6.1539998 30
27.809 -4.737 6.1849999 27
27.843 -4.7709999 6.217 25
27.882 -4.8060002 6.2490001 21
28.159 -4.882 6.3340001 17
28.621 -4.9920001 6.4619999 24
28.554001 -5.0089998 6.4699998 24
28.475 -5.0240002 6.4749999 25
28.377001 -5.0349998 6.4749999 28
28.309 -5.0510001 6.4809999 27
28.219 -5.0630002 6.4819999 28
28.138 -5.0760002 6.4850001 25
28.044001 -5.0869999 6.4840002 27
27.962999 -5.099 6.4860001 27
27.885 -5.112 6.4879999 24
27.801001 -5.1240001 6.4879999 27
27.735001 -5.138 6.4920001 27
27.653 -5.1490002 6.4920001 28
27.598 -5.165 6.4970002 28
27.521999 -5.177 6.4970002 29
27.455999 -5.191 6.4990001 27
27.392 -5.204 6.5029998 29
27.349001 -5.2199998 6.5100002 24
27.278 -5.2319999 6.5100002 23
27.226999 -5.2470002 6.5139999 23
27.153999 -5.2579999 6.5120001 28
27.076 -5.2680001 6.5100002 26
27.031 -5.283 6.5139999 24
26.976999 -5.2969999 6.5170002 25
26.924999 -5.3109999 6.5190001 29
26.872 -5.323 6.52 28
26.827 -5.3379998 6.5240002 28
26.764999 -5.349 6.5219998 27
26.745001 -5.368 6.5310001 25
26.687 -5.3790002 6.5300002 27
26.636 -5.3909998 6.5300002 26
26.577999 -5.402 6.5289998 25
26.535 -5.415 6.5300002 29
26.502001 -5.4299998 6.5339999 25
26.444 -5.4400001 6.5310001 29
26.403 -5.4530001 6.5320001 30
26.370001 -5.467 6.5349998 26
26.327 -5.4790001 6.5349998 27
26.302 -5.4949999 6.539 30
26.250999 -5.5050001 6.5359998 30
26.236 -5.5229998 6.5409999 26
26.186001 -5.5320001 6.539 31
26.173 -5.5489998 6.5440001 25
26.139 -5.5609999 6.5440001 27
26.107 -5.5749998 6.5450001 27
26.08 -5.5869999 6.546 31
26.049999 -5.5999999 6.546 31
0 0 0 2
19.986 -4.3249998 5.033 11
19.937 -4.329 5.026 17
19.903999 -4.335 5.0229998 18
19.886 -4.3449998 5.0229998 20
19.851999 -4.3520002 5.0190001 22
19.83 -4.3600001 5.0170002 24
19.799999 -4.3660002 5.0139999 25
19.791 -4.3779998 5.0159998 27
19.768999 -4.3860002 5.0139999 27
19.754999 -4.3959999 5.013 29
19.740999 -4.4050002 5.013 31
19.729 -4.415 5.013 32
19.718 -4.4239998 5.0120001 33
19.705 -4.434 5.0120001 35
19.672001 -4.4380002 5.0050001 34
19.666 -4.448 5.006 36
19.652 -4.4559999 5.0040002 38
19.643999 -4.4660001 5.0029998 38
19.628 -4.474 5 36
19.622 -4.4829998 5 37
19.621 -4.494 5 38
19.601 -4.5 4.9959998 37
19.601999 -4.5110002 4.9959998 39
19.596001 -4.5190001 4.9949999 41
19.601999 -4.5310001 4.9970002 41
19.601 -4.54 4.9959998 32
19.584 -4.546 4.9910002 44
19.582001 -4.5549998 4.9899998 45
19.558001 -4.559 4.9829998 45
19.568001 -4.5710001 4.9840002 47
19.57 -4.5799999 4.9829998 47
19.559999 -4.5869999 4.9790001 49
19.559999 -4.5949998 4.9770002 49
19.565001 -4.605 4.9759998 49
19.548 -4.6090002 4.9689999 46
19.552 -4.618 4.9679999 34
19.539 -4.6230001 4.9619999 48
19.556999 -4.6350002 4.9629998 38
19.545 -4.6399999 4.9569998 52
19.546 -4.6479998 4.9530001 51
19.521999 -4.6490002 4.9439998 48
19.528999 -4.658 4.9419999 54
19.523001 -4.6630001 4.9359999 51
19.514999 -4.6680002 4.9299998 50
19.525 -4.6760001 4.928 50
19.521999 -4.6810002 4.9229999 51
19.528999 -4.6890001 4.9190001 54
19.530001 -4.6960001 4.914 37
19.530001 -4.7020001 4.9089999 52
19.528999 -4.7069998 4.9029999 51
19.514 -4.7090001 4.8930001 53
19.511999 -4.7129998 4.8860002 52
19.527 -4.7220001 4.8839998 54
19.511999 -4.723 4.8740001 52
19.52 -4.7290001 4.869 53
19.52 -4.7340002 4.862 48
19.507999 -4.7350001 4.8520002 45
19.523001 -4.7420001 4.848 36
19.499001 -4.7399998 4.835 45
19.511 -4.7470002 4.8299999 32
19.518 -4.7519999 4.8239999 35
19.518 -4.7550001 4.816 52
19.514 -4.757 4.8060002 53
19.495001 -4.7550001 4.7930002 49
19.511 -4.7610002 4.7880001 52
19.506001 -4.763 4.7779999 50
19.507999 -4.7649999 4.7690001 51
19.496 -4.7639999 4.757 51
19.509001 -4.77 4.75 49
19.499001 -4.7690001 4.7379999 50
19.504 -4.7709999 4.7290001 51
19.495001 -4.7709999 4.717 45
19.499001 -4.7719998 4.7080002 48
19.507 -4.7750001 4.6989999 48
19.489 -4.7709999 4.684 45
19.499001 -4.7740002 4.6750002 45
19.497999 -4.7740002 4.6630001 45
19.497999 -4.7740002 4.652 51
19.504999 -4.7750001 4.6420002 49
19.497999 -4.7729998 4.6290002 45
19.506001 -4.7750001 4.619 50
19.495001 -4.7709999 4.6040001 47
19.51 -4.7740002 4.5949998 35
19.496 -4.7690001 4.579 51
19.495001 -4.7670002 4.566 36
19.509001 -4.7690001 4.5570002 37
19.504 -4.7659998 4.5419998 53
19.488001 -4.7600002 4.5250001 48
19.496 -4.7600002 4.5139999 50
19.497999 -4.7579999 4.5 37
19.493 -4.7540002 4.4850001 49
19.506001 -4.7550001 4.474 39
19.493999 -4.7490001 4.4569998 57
19.490999 -4.744 4.4419999 50
19.496 -4.7420001 4.4289999 53
19.486 -4.7360001 4.4120002 55
19.497 -4.7350001 4.3990002 39
19.495001 -4.73 4.3829999 53
19.481001 -4.723 4.3649998 50
19.482 -4.7179999 4.3499999 53
19.483999 -4.7140002 4.335 57
19.493999 -4.7119999 4.3210001 58
19.483 -4.704 4.303 55
19.492001 -4.7010002 4.289 50
19.507 -4.6989999 4.2750001 38
19.483999 -4.6880002 4.2540002 53
19.495001 -4.6849999 4.2399998 55
19.493999 -4.678 4.223 54
19.495001 -4.6719999 4.2059999 59
19.509001 -4.6690001 4.1919999 38
19.502001 -4.6609998 4.1729999 40
19.496 -4.6529999 4.1550002 60
19.497999 -4.6459999 4.1370001 57
19.514999 -4.6420002 4.1230001 41
19.500999 -4.631 4.1020002 54
19.513 -4.6269999 4.0869999 56
19.51 -4.618 4.0679998 53
19.511999 -4.6100001 4.0489998 51
19.502001 -4.599 4.0289998 57
19.504 -4.5910001 4.0110002 54
19.514 -4.585 3.994 53
19.521 -4.5780001 3.9760001 49
19.514999 -4.5669999 3.9560001 53
19.517 -4.5580001 3.937 50
19.532 -4.552 3.921 36
19.530001 -4.5419998 3.9000001 51
19.528 -4.5310001 3.8800001 50
19.518999 -4.5190001 3.858 49
19.559999 -4.5180001 3.8469999 35
19.537001 -4.5019999 3.822 46
19.556 -4.4949999 3.8050001 43
19.563 -4.4860001 3.786 33
19.552 -4.473 3.763 44
19.58 -4.4679999 3.7479999 42
19.566 -4.4530001 3.724 40
19.577999 -4.4439998 3.7060001 42
19.587 -4.434 3.687 40
19.594 -4.4229999 3.6659999 38
19.601 -4.4120002 3.6459999 38
19.618999 -4.4029999 3.628 40
19.629 -4.3930001 3.608 35
19.65 -4.3850002 3.5910001 33
19.669001 -4.3759999 3.572 33
19.683001 -4.3649998 3.552 31
19.698 -4.355 3.533 29
19.712999 -4.3439999 3.513 28
19.73 -4.3340001 3.494 27
19.761999 -4.3260002 3.477 26
19.785 -4.3169999 3.4579999 24
19.802 -4.3049998 3.438 22
19.834999 -4.2979999 3.4200001 19
19.872 -4.29 3.404 18
19.919001 -4.2849998 3.3889999 15
19.968 -4.2789998 3.3729999 4
0 0 0 8
36.277 -7.7160001 6.0430002 4
36.306999 -7.6929998 6.0050001 3
36.521 -7.7080002 5.9959998 2
0 0 0 0
0 0 0 0
0 0 0 0
0 0 0 0
0 0 0 0
0 0 0 0
0 0 0 0
0 0 0 2
36.02 -7.3200002 5.52 2
0 0 0 0
0 0 0 0
0 0 0 2
0 0 0 0
0 0 0 0
0 0 0 0
0 0 0 0
0 0 0 0
0 0 0 2
0 0 0 0
0 0 0 2
0 0 0 0
0 0 0 0
0 0 0 0
0 0 0 4
35.799 -6.7049999 4.7620001 20
35.808998 -6.6690001 4.7179999 18
35.882 -6.6430001 4.6810002 2
0 0 0 0
0 0 0 0
0 0 0 2
40.148998 -7.2540002 5.0300002 2
40.119999 -7.2030001 4.974 3
40.238998 -7.1789999 4.9359999 3
40.358002 -7.1539998 4.8969998 3
40.213001 -7.0809999 4.8270001 3
0 0 0 0
0 0 0 0
0 0 0 0
0 0 0 4
27.790001 -4.7290001 3.1530001 16
27.715 -4.6830001 3.108 23
27.672001 -4.6420002 3.0669999 28
27.629999 -4.6009998 3.026 30
27.628 -4.566 2.9890001 36
27.603001 -4.527 2.9489999 38
27.569 -4.4860001 2.9089999 44
27.552999 -4.4489999 2.8710001 43
27.554001 -4.414 2.8340001 38
27.524 -4.3740001 2.7950001 49
27.539 -4.3410001 2.76 44
27.524 -4.302 2.7219999 55
27.531 -4.2680001 2.6860001 58
27.542999 -4.2329998 2.6500001 47
27.545 -4.197 2.615 60
27.541 -4.1599998 2.5780001 55
27.561001 -4.1259999 2.543 53
27.57 -4.0910001 2.5079999 47
27.593 -4.0570002 2.473 44
27.625 -4.0229998 2.4389999 34
27.634001 -3.987 2.404 37
27.674 -3.954 2.3699999 34
27.705 -3.9200001 2.336 32
27.761999 -3.8889999 2.3039999 28
27.813999 -3.8570001 2.2720001 21
27.927999 -3.8340001 2.2449999 13
0 0 0 44
35.617001 -4.789 2.77 51
35.622002 -4.7379999 2.723 50
35.582001 -4.6820002 2.6730001 51
35.550999 -4.6259999 2.6240001 78
35.551998 -4.5749998 2.5780001 81
35.539001 -4.5209999 2.53 80
35.526001 -4.467 2.483 78
35.530998 -4.415 2.4360001 80
35.535999 -4.3610001 2.3900001 76
35.500999 -4.3039999 2.3410001 95
35.514999 -4.2519999 2.2950001 93
35.499001 -4.197 2.2479999 78
35.509998 -4.1440001 2.2019999 92
35.507 -4.0890002 2.1559999 94
35.495998 -4.0339999 2.109 91
35.492001 -3.9779999 2.063 85
35.486 -3.9219999 2.016 83
35.462002 -3.8640001 1.969 64
35.471001 -3.8099999 1.924 66
35.471001 -3.7539999 1.878 82
35.467999 -3.698 1.8329999 78
35.002998 -3.5940001 1.765 33
34.669998 -3.5050001 1.7029999 97
34.728001 -3.457 1.6619999 56
35.25 -3.451 1.642 8
35.439999 -3.4130001 1.6059999 45
35.416 -3.3529999 1.5599999 104
35.519001 -3.3050001 1.52 22
35.622002 -3.257 1.48 6
35.624001 -3.1989999 1.4349999 13
35.596001 -3.138 1.3890001 12
35.651001 -3.0840001 1.347 8
0 0 0 0
0 0 0 12
39.014 -3.1800001 1.3279999 23
39.223 -3.132 1.288 46
39.305 -3.073 1.242 38
39.808998 -3.0450001 1.209 5
40.299 -3.0139999 1.174 4
41.060001 -3.0009999 1.146 3
41.018002 -2.928 1.095 28
43.279999 -3.0150001 1.102 89
43.330002 -2.944 1.051 103
43.363998 -2.872 1 98
43.624001 -2.8150001 0.954 4
44.275002 -2.78 0.91500002 6
45.917 -2.8039999 0.89499998 21
44.252998 -2.625 0.81 31
44.259998 -2.549 0.75800002 41
44.251999 -2.471 0.70499998 45
44.272999 -2.3940001 0.65399998 31
44.249001 -2.316 0.60299999 20
44.261002 -2.2390001 0.551 10
44.291 -2.1619999 0.5 3
0 0 0 32
51.806 -2.345 0.46599999 16
52.182999 -2.2690001 0.41 26
52.068001 -2.171 0.34999999 38
0 0 0 0
0 0 0 22
59.514999 -2.1619999 0.2 97
59.530998 -2.0539999 0.133 102
59.548 -1.947 0.066 83
60.199001 -1.859 0.001 19
60.181 -1.749 -0.064999998 31
0 0 0 66
67.563004 -1.717 -0.22 149
67.545998 -1.595 -0.292 92
67.567001 -1.472 -0.36500001 49
67.894997 -1.354 -0.44 12
70.828003 -1.2819999 -0.53399998 12
73.241997 -1.191 -0.63 65
73.903 -1.067 -0.713 59
73.833 -0.93099999 -0.78899997 37
73.833 -0.79500002 -0.866 22
0 0 0 0
0 0 0 104
134.51199 -0.70099998 -1.992 108
0 0 0 0
0 0 0 0
0 0 0 0
0 0 0 0
0 0 0 0
0 0 0 0
0 0 0 0
0 0 0 25
0 0 0 0
0 0 0 0
0 0 0 0
0 0 0 0
0 0 0 0
0 0 0 0
0 0 0 0
0 0 0 22
0 0 0 13
40.266998 1.151 -1.293 16
40.084999 1.221 -1.323 18
39.931999 1.293 -1.354 19
39.821999 1.365 -1.386 21
39.703999 1.4349999 -1.416 22
39.639 1.508 -1.448 23
39.562 1.581 -1.48 42
39.541 1.655 -1.513 41
39.582001 1.732 -1.548 31
39.598999 1.809 -1.5829999 32
39.652 1.888 -1.619 24
39.659 1.964 -1.652 18
39.757 2.0450001 -1.689 11
0 0 0 0
0 0 0 3
39.653 2.267 -1.781 4
39.648998 2.3429999 -1.813 4
39.562 2.4130001 -1.84 2
0 0 0 0
0 0 0 0
0 0 0 0
0 0 0 0
0 0 0 2
0 0 0 25
0 0 0 25
0 0 0 1
26.094999 2.0409999 -1.392 1
0 0 0 25
0 0 0 2
0 0 0 0
0 0 0 1
0 0 0 1
18.732 1.6799999 -1.0779999 1
19.33 1.771 -1.126 2
18.993 1.776 -1.119 2
0 0 0 2
18.222 1.773 -1.097 2
17.77 1.762 -1.081 2
17.476 1.766 -1.075 2
17.146 1.765 -1.0650001 3
16.907 1.773 -1.061 3
16.528 1.7640001 -1.048 3
16.103001 1.75 -1.031 4
15.888 1.755 -1.026 3
15.595 1.752 -1.017 3
15.282 1.7460001 -1.005 2
15.015 1.743 -0.99699998 3
14.753 1.7410001 -0.98799998 3
14.553 1.745 -0.98299998 3
14.437 1.758 -0.98299998 3
14.211 1.757 -0.97600001 4
14.014 1.7589999 -0.97000003 4
13.841 1.763 -0.96499997 4
13.681 1.768 -0.96100003 3
13.506 1.77 -0.95599997 3
13.34 1.773 -0.95099998 3
13.13 1.77 -0.94300002 3
12.957 1.77 -0.93699998 3
12.753 1.765 -0.92900002 3
12.695 1.781 -0.93099999 3
12.557 1.784 -0.926 3
12.448 1.791 -0.92400002 3
12.267 1.7869999 -0.91600001 3
12.122 1.788 -0.91100001 2
12 1.793 -0.90799999 2
11.892 1.798 -0.90499997 2
11.782 1.803 -0.90100002 2
11.653 1.803 -0.89700001 2
11.56 1.8099999 -0.89399999 2
11.44 1.812 -0.88999999 3
11.353 1.818 -0.88800001 3
11.23 1.819 -0.88200003 3
11.134 1.823 -0.87900001 3
11.071 1.832 -0.87900001 3
10.966 1.835 -0.875 4
10.875 1.8380001 -0.87199998 3
10.811 1.847 -0.87 4
10.717 1.849 -0.866 4
10.654 1.857 -0.86500001 4
10.583 1.863 -0.86299998 4
10.508 1.868 -0.861 4
10.434 1.873 -0.85799998 3
10.36 1.877 -0.85500002 4
10.291 1.883 -0.85299999 4
10.221 1.887 -0.85000002 4
10.142 1.89 -0.847 4
10.089 1.897 -0.84500003 3
10.005 1.898 -0.84100002 4
9.9720001 1.909 -0.84100002 3
9.9049997 1.9119999 -0.838 4
9.8050003 1.909 -0.833 4
9.7539997 1.916 -0.83099997 3
9.7130003 1.924 -0.82999998 4
9.6669998 1.9299999 -0.82800001 3
9.6190004 1.937 -0.82700002 4
9.592 1.947 -0.82700002 3
9.5139999 1.947 -0.82200003 3
9.4729996 1.954 -0.81999999 3
9.4350004 1.961 -0.81900001 3
9.3839998 1.965 -0.81699997 3
9.3269997 1.9680001 -0.81400001 3
9.2790003 1.973 -0.81099999 3
9.198 1.97 -0.80599999 4
9.1730003 1.979 -0.80500001 3
9.1339998 1.985 -0.80400002 3
9.1079998 1.994 -0.80299997 2
9.0559998 1.997 -0.80000001 3
9.0369997 2.006 -0.80000001 2
8.9949999 2.0109999 -0.79699999 3
8.9750004 2.02 -0.79699999 3
8.9639997 2.0309999 -0.79699999 3
8.9530001 2.0420001 -0.79699999 3
8.8660002 2.036 -0.79100001 3
8.8299999 2.0409999 -0.78899997 4
8.8280001 2.053 -0.79000002 4
8.7880001 2.0569999 -0.787 3
8.7620001 2.0639999 -0.78600001 4
8.7379999 2.0710001 -0.78399998 3
8.7270002 2.0810001 -0.78399998 3
8.7030001 2.0880001 -0.78299999 3
8.684 2.095 -0.78200001 3
8.6850004 2.108 -0.78200001 3
8.6520004 2.1129999 -0.77999997 3
8.6750002 2.1300001 -0.78200001 3
8.7189999 2.1530001 -0.787 5
8.6789999 2.1559999 -0.78399998 3
8.6870003 2.1689999 -0.78500003 4
8.7180004 2.1889999 -0.78799999 4
8.7150002 2.2 -0.78799999 4
8.6700001 2.2 -0.78399998 4
8.6599998 2.2090001 -0.78299999 4
8.6540003 2.2190001 -0.78299999 5
8.6499996 2.23 -0.78299999 6
8.632 2.2360001 -0.78100002 5
8.6370001 2.2490001 -0.78200001 7
8.6190004 2.2550001 -0.77999997 7
8.6169996 2.266 -0.77999997 7
8.618 2.277 -0.77999997 6
8.6009998 2.283 -0.778 8
8.6110001 2.2969999 -0.778 9
8.6009998 2.3050001 -0.77700001 9
8.5830002 2.3099999 -0.77499998 8
8.5579996 2.3139999 -0.77200001 9
8.5489998 2.322 -0.77100003 10
8.5640001 2.336 -0.77200001 10
8.5629997 2.346 -0.77100003 8
8.559 2.355 -0.76999998 7
8.5699997 2.368 -0.77100003 8
8.5749998 2.3789999 -0.76999998 7
8.573 2.388 -0.76999998 7
8.5889997 2.402 -0.76999998 6
8.6029997 2.4159999 -0.77100003 5
8.618 2.4289999 -0.77100003 6
8.6260004 2.441 -0.77100003 5
8.6569996 2.4590001 -0.773 5
8.7150002 2.4849999 -0.77700001 3
8.7559996 2.506 -0.77999997 4
8.7530003 2.5139999 -0.77899998 4
8.7729998 2.529 -0.77899998 3
8.7779999 2.539 -0.778 4
8.8140001 2.5580001 -0.77999997 2
8.8330002 2.573 -0.78100002 3
8.8690004 2.592 -0.78200001 3
8.8859997 2.605 -0.78299999 3
8.915 2.622 -0.78399998 4
8.9469995 2.6400001 -0.78500003 4
8.9870005 2.6600001 -0.787 4
9.0489998 2.687 -0.79100001 6
9.1429996 2.723 -0.79799998 5
9.1569996 2.7360001 -0.79699999 8
9.1719999 2.7479999 -0.79699999 11
9.2209997 2.7709999 -0.79900002 10
9.2349997 2.783 -0.79900002 14
9.2349997 2.7909999 -0.79699999 20
9.2709999 2.809 -0.79799998 8
9.3100004 2.829 -0.79900002 7
9.3360004 2.8440001 -0.80000001 7
9.3479996 2.855 -0.79900002 8
9.368 2.869 -0.79799998 8
9.3809996 2.8800001 -0.79699999 8
9.4239998 2.9000001 -0.79900002 7
9.4969997 2.9300001 -0.80299997 5
9.5450001 2.9519999 -0.80400002 6
9.599 2.9749999 -0.80699998 6
9.6599998 3.0009999 -0.80900002 6
9.6859999 3.016 -0.80900002 8
9.7130003 3.0309999 -0.80900002 12
9.7530003 3.05 -0.81 9
9.8000002 3.0710001 -0.81099999 11
9.9029999 3.109 -0.81699997 11
9.9879999 3.142 -0.82099998 14
10.045 3.1659999 -0.82300001 12
10.084 3.1849999 -0.824 12
10.137 3.207 -0.82499999 10
10.167 3.223 -0.82499999 9
10.207 3.2409999 -0.82499999 9
10.242 3.2579999 -0.82499999 8
10.291 3.279 -0.82599998 7
10.343 3.3010001 -0.82700002 6
10.4 3.3239999 -0.82800001 5
10.477 3.3540001 -0.83099997 6
10.558 3.385 -0.83399999 4
10.594 3.401 -0.83399999 5
10.719 3.4460001 -0.83999997 5
10.775 3.4690001 -0.84100002 7
10.888 3.51 -0.84600002 6
10.921 3.5250001 -0.84500003 8
10.981 3.5480001 -0.84600002 9
11.051 3.575 -0.84799999 8
11.072 3.586 -0.84600002 7
11.097 3.598 -0.84399998 8
11.12 3.609 -0.84200001 7
11.103 3.6070001 -0.83600003 7
11.129 3.619 -0.83499998 8
11.135 3.6240001 -0.83200002 7
11.129 3.625 -0.82700002 7
11.112 3.6229999 -0.82099998 6
11.114 3.6259999 -0.81800002 7
11.054 3.609 -0.80900002 7
11.02 3.6010001 -0.80299997 6
11.001 3.5969999 -0.79699999 6
10.985 3.5940001 -0.792 6
10.974 3.592 -0.787 6
10.982 3.596 -0.78299999 6
10.981 3.5969999 -0.77899998 6
10.971 3.596 -0.77399999 6
10.971 3.5969999 -0.76999998 6
10.966 3.5969999 -0.76599997 5
10.965 3.5969999 -0.76099998 5
10.971 3.5999999 -0.75700003 5
10.965 3.599 -0.75199997 5
10.964 3.599 -0.74800003 5
10.947 3.5940001 -0.74199998 5
10.9 3.579 -0.73500001 5
10.783 3.54 -0.722 5
0 0 0 4
9.5340004 3.1300001 -0.63099998 1
9.4879999 3.1140001 -0.62400001 2
9.5360003 3.1300001 -0.62300003 7
9.5609999 3.1370001 -0.62 11
9.5699997 3.1400001 -0.61699998 18
9.4919996 3.1129999 -0.60799998 1
9.4809999 3.109 -0.60299999 1
9.5 3.1140001 -0.60000002 1
9.7779999 3.2030001 -0.61299998 2
9.6459999 3.1589999 -0.60100001 2
9.5430002 3.1229999 -0.59100002 6
9.5220003 3.115 -0.58499998 7
9.4899998 3.1029999 -0.579 9
9.474 3.095 -0.574 12
9.467 3.0910001 -0.56900001 9
9.46 3.086 -0.565 16
9.4540005 3.082 -0.56 21
9.448 3.0780001 -0.55500001 14
9.4449997 3.0739999 -0.551 17
9.4390001 3.069 -0.54699999 29
9.4399996 3.0669999 -0.542 34
9.4320002 3.0610001 -0.53799999 42
9.4429998 3.0610001 -0.53399998 46
9.4519997 3.0610001 -0.52999997 51
9.4589996 3.0599999 -0.52600002 59
9.4519997 3.0539999 -0.52100003 64
9.4499998 3.05 -0.51700002 65
9.46 3.049 -0.51300001 66
9.4510002 3.0420001 -0.50800002 65
9.4540005 3.039 -0.50400001 65
9.4580002 3.036 -0.5 59
9.46 3.0320001 -0.49599999 47
9.4499998 3.0239999 -0.491 33
9.4499998 3.02 -0.48699999 22
9.4619999 3.0190001 -0.48300001 15
9.4840002 3.0209999 -0.479 14
9.4709997 3.0120001 -0.47400001 29
9.4709997 3.006 -0.47 48
9.4779997 3.003 -0.46599999 79
9.4969997 3.0039999 -0.46200001 150
9.4910002 2.9960001 -0.45699999 152
9.5179996 2.9990001 -0.454 152
9.4919996 2.9849999 -0.44800001 152
9.5059996 2.983 -0.44499999 124
9.4820004 2.97 -0.43900001 43
9.4759998 2.961 -0.43399999 14
9.4949999 2.961 -0.43000001 14
9.5019999 2.957 -0.426 10
9.5100002 2.9519999 -0.42199999 7
9.5179996 2.948 -0.41800001 7
9.526 2.944 -0.414 6
9.5380001 2.9400001 -0.41 5
9.5430002 2.9349999 -0.405 4
9.54 2.927 -0.40099999 5
9.5450001 2.921 -0.396 5
9.5450001 2.9130001 -0.39199999 5
9.5469999 2.9059999 -0.38800001 6
9.5559998 2.901 -0.38299999 6
9.5570002 2.8929999 -0.37900001 6
9.5629997 2.8870001 -0.375 6
9.5740004 2.882 -0.37099999 6
9.5810003 2.8759999 -0.366 6
9.566 2.8629999 -0.361 5
9.5860004 2.8599999 -0.35800001 5
9.6009998 2.8559999 -0.354 5
9.6049995 2.848 -0.34900001 5
9.6070004 2.839 -0.345 4
9.6359997 2.839 -0.34099999 3
9.6420002 2.8310001 -0.33700001 4
9.6490002 2.8239999 -0.333 4
9.6459999 2.813 -0.32800001 3
9.665 2.809 -0.324 3
9.665 2.799 -0.31999999 3
9.6990004 2.799 -0.31600001 3
9.684 2.7850001 -0.31099999 3
9.6990004 2.779 -0.30700001 3
9.7060003 2.7709999 -0.303 3
9.7139997 2.7620001 -0.29899999 3
9.7299995 2.756 -0.29499999 3
9.7399998 2.7479999 -0.29100001 3
9.7609997 2.744 -0.287 3
9.79 2.7409999 -0.28400001 4
9.7799997 2.727 -0.27900001 3
9.8050003 2.7219999 -0.27500001 2
9.816 2.714 -0.271 2
9.8269997 2.7060001 -0.26699999 2
9.849 2.7 -0.26300001 2
9.8579998 2.691 -0.259 2
9.8929996 2.6889999 -0.25600001 1
9.8920002 2.6760001 -0.25099999 1
9.9069996 2.668 -0.24699999 1
9.9490004 2.6670001 -0.244 1
9.9589996 2.6570001 -0.23999999 1
9.974 2.648 -0.236 1
10.005 2.6440001 -0.23199999 1
10.037 2.6389999 -0.229 1
10.113 2.6459999 -0.227 1
10.142 2.6400001 -0.223 1
10.221 2.6470001 -0.221 1
10.288 2.651 -0.21799999 1
10.32 2.645 -0.214 1
10.431 2.6589999 -0.212 1
10.545 2.674 -0.20999999 1
0 0 0 1
12.095 3.033 -0.23100001 4
12.141 3.0280001 -0.227 7
12.135 3.0090001 -0.222 9
12.158 2.9979999 -0.21799999 10
12.171 2.983 -0.213 9
12.191 2.971 -0.20900001 7
12.242 2.9649999 -0.205 3
12.308 2.9630001 -0.20100001 1
12.341 2.9530001 -0.197 1
12.369 2.941 -0.193 1
12.401 2.9300001 -0.18799999 1
12.473 2.928 -0.185 1
12.543 2.9260001 -0.182 1
12.618 2.924 -0.178 2
12.622 2.905 -0.17399999 1
12.757 2.9170001 -0.171 1
12.899 2.9289999 -0.168 1
0 0 0 0
0 0 0 0
0 0 0 0
0 0 0 0
0 0 0 0
0 0 0 0
0 0 0 0
0 0 0 0
0 0 0 0
0 0 0 0
0 0 0 0
0 0 0 0
0 0 0 0
0 0 0 0
0 0 0 0
0 0 0 0
0 0 0 0
0 0 0 0
0 0 0 12
63.549 12.345 -0.43599999 11
0 0 0 0
0 0 0 0
0 0 0 0
0 0 0 4
0 0 0 0
0 0 0 4
49.625 9.0270004 -0.25299999 4
0 0 0 0
0 0 0 0
0 0 0 12
0 0 0 53
0 0 0 21
72.360001 12.377 -0.273 25
0 0 0 9
66.873001 11.188 -0.226 16
67.049004 11.095 -0.214 43
67.081001 10.976 -0.20200001 40
67.051003 10.845 -0.189 57
67.096001 10.729 -0.17900001 20
0 0 0 0
0 0 0 0
0 0 0 19
76.721001 11.688 -0.154 22
76.896004 11.568 -0.14300001 53
76.915001 11.424 -0.132 63
76.898003 11.276 -0.122 58
0 0 0 14
0 0 0 0
0 0 0 0
0 0 0 0
0 0 0 0
0 0 0 0
0 0 0 0
0 0 0 0
0 0 0 31
117.203 14.902 -0.067000002 36
117.17 14.666 -0.059 47
117.155 14.431 -0.050999999 44
117.333 14.22 -0.045000002 46
117.44 13.999 -0.037999999 27
0 0 0 29
0 0 0 0
0 0 0 0
0 0 0 0
0 0 0 37
0 0 0 0
0 0 0 0
0 0 0 0
0 0 0 0
0 0 0 0
0 0 0 0
0 0 0 0
0 0 0 0
0 0 0 0
0 0 0 0
0 0 0 0
0 0 0 0
0 0 0 0
0 0 0 0
0 0 0 0
0 0 0 0
0 0 0 0
0 0 0 0
0 0 0 0
0 0 0 0
0 0 0 12
0 0 0 0
0 0 0 18
87.893997 5.2610002 -0.152 17
89.992996 5.1989999 -0.169 13
87.976997 4.8979998 -0.17900001 15
0 0 0 0
0 0 0 0
0 0 0 31
0 0 0 0
0 0 0 0
0 0 0 19
88.338997 3.6259999 -0.29300001 19
0 0 0 0
0 0 0 0
0 0 0 0
0 0 0 28
0 0 0 0
0 0 0 29
0 0 0 0
0 0 0 0
0 0 0 0
0 0 0 0
0 0 0 0
0 0 0 0
0 0 0 0
0 0 0 32
134.35001 1.267 -0.97299999 36
134.198 0.98199999 -1.015 43
134.25101 0.699 -1.059 46
134.351 0.41100001 -1.105 55
134.24001 0.13500001 -1.149 56
134.349 -0.14399999 -1.196 62
134.40199 -0.42899999 -1.244 75
134.399 -0.713 -1.2920001 85
0 0 0 34
73.851997 -0.70099998 -0.764 35
73.865997 -0.85500002 -0.792 39
73.869003 -1.0089999 -0.81999999 29
73.032997 -1.151 -0.83999997 89
0 0 0 0
0 0 0 75
67.535004 -1.489 -0.85900003 70
67.546997 -1.632 -0.88800001 102
67.525002 -1.773 -0.91600001 114
0 0 0 6
59.750999 -1.8200001 -0.86299998 23
59.480999 -1.938 -0.88599998 111
0 0 0 3
45.382 -1.666 -0.71700001 27
45.374001 -1.762 -0.73900002 25
45.193001 -1.849 -0.75700003 7
44.728001 -1.9220001 -0.77100003 18
44.601002 -2.0079999 -0.79000002 41
44.577 -2.0999999 -0.81199998 41
44.505001 -2.1889999 -0.833 23
44.703999 -2.293 -0.85900003 24
44.213001 -2.359 -0.87300003 40
43.203999 -2.3929999 -0.875 38
42.949001 -2.467 -0.89200002 36
42.915001 -2.553 -0.91399997 38
42.856998 -2.638 -0.93599999 36
43.175999 -2.7460001 -0.96600002 38
43.284 -2.842 -0.99299997 102
43.271999 -2.9300001 -1.017 103
43.293999 -3.02 -1.0420001 72
40.960999 -2.941 -1.0089999 11
39.990002 -2.9519999 -1.008 5
39.278 -2.9809999 -1.013 14
0 0 0 4
22.936001 -1.8329999 -0.61799997 5
0 0 0 0
0 0 0 0
0 0 0 0
0 0 0 1
0 0 0 0
0 0 0 1
20.132 -1.893 -0.63 4
19.83 -1.905 -0.63300002 3
19.818001 -1.943 -0.64600003 3
19.542999 -1.956 -0.64999998 1
0 0 0 25
0 0 0 1
19.475 -2.0639999 -0.68599999 27
19.481001 -2.1029999 -0.699 19
19.384001 -2.1300001 -0.70899999 3
19.201 -2.148 -0.71499997 1
0 0 0 25
0 0 0 1
19.156 -2.2550001 -0.75400001 1
19.181999 -2.2950001 -0.76800001 1
19.15 -2.3280001 -0.77999997 2
19.125999 -2.362 -0.79299998 2
19.135 -2.4000001 -0.80699998 3
19.118 -2.434 -0.81999999 3
19.132999 -2.473 -0.83499998 3
19.162001 -2.513 -0.85000002 3
19.256001 -2.562 -0.86900002 6
19.247 -2.5969999 -0.88300002 5
19.254999 -2.6340001 -0.89700001 5
19.26 -2.671 -0.912 4
19.268 -2.7079999 -0.92699999 3
19.362 -2.7579999 -0.94599998 3
19.586 -2.8269999 -0.972 2
19.615999 -2.8670001 -0.98799998 2
19.723 -2.9189999 -1.0089999 2
19.518999 -2.925 -1.0140001 1
20.052 -3.0409999 -1.057 1
19.986 -3.0680001 -1.069 1
19.813999 -3.0769999 -1.075 1
0 0 0 3
22.570999 -3.5869999 -1.261 2
0 0 0 42
24.646999 -4.0040002 -1.416 29
24.607 -4.0419998 -1.434 26
0 0 0 1
21.979 -3.688 -1.316 1
0 0 0 0
0 0 0 1
19.377001 -3.3540001 -1.2079999 1
19.702 -3.4449999 -1.245 3
19.372 -3.4200001 -1.239 3
0 0 0 1
17.158001 -3.089 -1.126 2
16.649 -3.0250001 -1.107 2
17.145 -3.145 -1.154 2
16.853001 -3.1199999 -1.149 3
16.381001 -3.0599999 -1.131 3
15.985 -3.0120001 -1.117 2
15.598 -2.9660001 -1.103 2
15.202 -2.9159999 -1.0880001 2
14.795 -2.862 -1.071 2
14.46 -2.8210001 -1.059 3
14.102 -2.7739999 -1.045 3
13.887 -2.7539999 -1.041 3
13.6 -2.7190001 -1.031 3
13.326 -2.6860001 -1.022 3
13.075 -2.6559999 -1.0140001 3
12.784 -2.6170001 -1.003 3
12.486 -2.576 -0.99000001 3
12.192 -2.5339999 -0.977 3
11.97 -2.507 -0.97000003 2
11.802 -2.49 -0.96600002 3
11.588 -2.4630001 -0.95899999 3
11.387 -2.437 -0.95200002 3
11.189 -2.4119999 -0.94599998 4
11.011 -2.3900001 -0.94 5
10.859 -2.3729999 -0.93699998 5
10.694 -2.3540001 -0.93199998 7
10.538 -2.335 -0.92799997 5
10.379 -2.3150001 -0.92299998 7
10.167 -2.283 -0.91299999 4
9.967 -2.2520001 -0.90399998 3
9.7449999 -2.2160001 -0.89200002 2
9.5439997 -2.184 -0.88200003 3
9.3800001 -2.1600001 -0.875 3
9.2010002 -2.132 -0.86699998 3
9.0670004 -2.1140001 -0.86199999 3
8.9069996 -2.089 -0.85500002 3
8.7869997 -2.073 -0.85100001 3
8.665 -2.0569999 -0.847 3
8.552 -2.0409999 -0.84299999 3
8.3970003 -2.016 -0.83600003 4
8.2639999 -1.995 -0.82999998 4
8.1409998 -1.976 -0.82499999 4
8.0139999 -1.956 -0.81900001 4
7.9260001 -1.9450001 -0.81699997 5
7.8119998 -1.928 -0.81199998 4
7.6999998 -1.91 -0.80699998 5
7.5879998 -1.892 -0.80199999 4
7.4899998 -1.877 -0.79799998 5
7.3839998 -1.859 -0.79400003 5
7.3049998 -1.849 -0.792 5
7.2010002 -1.832 -0.787 4
7.1069999 -1.817 -0.78299999 4
7.0170002 -1.802 -0.77899998 4
6.9330001 -1.789 -0.77600002 4
6.849 -1.776 -0.77200001 4
6.7509999 -1.758 -0.76700002 4
6.6760001 -1.747 -0.76499999 4
6.6020002 -1.735 -0.76200002 4
6.5489998 -1.729 -0.76099998 4
6.4439998 -1.7079999 -0.755 3
6.3850002 -1.7 -0.75300002 4
6.3150001 -1.688 -0.75 3
6.2490001 -1.678 -0.74800003 4
6.1729999 -1.664 -0.74400002 4
6.1110001 -1.654 -0.74199998 4
6.0479999 -1.643 -0.74000001 4
5.9809999 -1.632 -0.73699999 4
5.9089999 -1.618 -0.73299998 4
5.862 -1.612 -0.73199999 4
5.7989998 -1.6 -0.72899997 4
5.7270002 -1.586 -0.72500002 3
5.6700001 -1.576 -0.722 3
5.618 -1.567 -0.72100002 3
5.5510001 -1.554 -0.71600002 3
5.513 -1.549 -0.71600002 3
5.467 -1.541 -0.71499997 3
5.4159999 -1.5319999 -0.713 3
5.3579998 -1.521 -0.70899999 3
5.3140001 -1.513 -0.708 3
5.2639999 -1.5039999 -0.70599997 3
5.2069998 -1.492 -0.70200002 2
5.1609998 -1.483 -0.69999999 2
5.1110001 -1.474 -0.69800001 3
5.0809999 -1.469 -0.69800001 3
5.0349998 -1.46 -0.69599998 3
4.987 -1.451 -0.69300002 3
4.9489999 -1.444 -0.69199997 3
4.902 -1.434 -0.68900001 3
4.8850002 -1.433 -0.69099998 2
4.8189998 -1.4170001 -0.685 4
4.7940001 -1.414 -0.685 2
4.7639999 -1.409 -0.685 3
4.7199998 -1.399 -0.68199998 3
4.6810002 -1.391 -0.68000001 3
4.6529999 -1.386 -0.67900002 3
4.6279998 -1.382 -0.67900002 3
4.5890002 -1.374 -0.67699999 3
4.5599999 -1.368 -0.676 3
4.5190001 -1.359 -0.67299998 3
4.4959998 -1.355 -0.67299998 3
4.467 -1.349 -0.67199999 2
4.4289999 -1.341 -0.67000002 4
4.408 -1.337 -0.67000002 4
4.3709998 -1.329 -0.66799998 2
4.3449998 -1.323 -0.667 2
4.3070002 -1.314 -0.66399997 4
4.289 -1.311 -0.66399997 4
4.256 -1.304 -0.662 4
4.2470002 -1.303 -0.66399997 2
4.2140002 -1.295 -0.662 2
4.1929998 -1.291 -0.66100001 2
4.1880002 -1.2920001 -0.66299999 2
4.125 -1.274 -0.65600002 2
4.1370001 -1.28 -0.66100001 2
4.0760002 -1.263 -0.65399998 4
4.1040001 -1.274 -0.66100001 2
4.006 -1.245 -0.648 2
4.0320001 -1.255 -0.65499997 2
4 -1.247 -0.65200001 2
4.013 -1.252 -0.65700001 2
3.997 -1.249 -0.65700001 2
3.967 -1.2410001 -0.65499997 2
3.944 -1.235 -0.653 2
3.9820001 -1.249 -0.662 3
3.902 -1.225 -0.65100002 2
3.901 -1.226 -0.65399998 3
3.8959999 -1.226 -0.65499997 2
3.9130001 -1.232 -0.66000003 2
3.8789999 -1.222 -0.65700001 2
3.8329999 -1.209 -0.65100002 2
3.8299999 -1.209 -0.653 2
3.806 -1.2029999 -0.65100002 2
3.878 -1.226 -0.66600001 2
3.832 -1.2130001 -0.66000003 2
3.694 -1.17 -0.63800001 2
3.6830001 -1.1670001 -0.639 2
3.757 -1.191 -0.653 2
3.7219999 -1.181 -0.64899999 2
3.7130001 -1.178 -0.64999998 2
3.7119999 -1.179 -0.65200001 2
3.691 -1.173 -0.64999998 3
3.631 -1.154 -0.64099997 2
3.615 -1.149 -0.63999999 2
3.665 -1.165 -0.65100002 2
3.625 -1.153 -0.64600003 2
3.6059999 -1.147 -0.64399999 2
3.5969999 -1.145 -0.64399999 2
3.6159999 -1.151 -0.64899999 2
3.586 -1.141 -0.64499998 2
3.5480001 -1.1289999 -0.63999999 3
3.5150001 -1.119 -0.63599998 2
3.506 -1.1160001 -0.63599998 2
3.4619999 -1.102 -0.62900001 2
3.454 -1.099 -0.62900001 2
3.4330001 -1.092 -0.62699997 3
3.4230001 -1.089 -0.62699997 3
3.4100001 -1.084 -0.62599999 3
3.4000001 -1.081 -0.625 3
3.3929999 -1.0779999 -0.625 3
3.3889999 -1.077 -0.62599999 3
3.3870001 -1.076 -0.62699997 3
3.372 -1.0700001 -0.625 3
3.3570001 -1.0650001 -0.62400001 3
3.359 -1.0650001 -0.625 3
3.3510001 -1.062 -0.625 3
3.342 -1.059 -0.625 2
3.3989999 -1.076 -0.63599998 2
3.342 -1.057 -0.62699997 2
3.3540001 -1.0599999 -0.63 2
3.3329999 -1.053 -0.62699997 2
3.3540001 -1.058 -0.63200003 2
3.326 -1.049 -0.62800002 2
3.355 -1.057 -0.634 2
3.3759999 -1.062 -0.639 2
3.3039999 -1.039 -0.62699997 2
3.342 -1.05 -0.63499999 2
3.3369999 -1.0470001 -0.63499999 2
3.3080001 -1.0369999 -0.63 2
3.3940001 -1.063 -0.64700001 2
3.3069999 -1.034 -0.63099998 1
3.3410001 -1.044 -0.639 2
3.2939999 -1.027 -0.63 2
3.342 -1.041 -0.63999999 1
3.336 -1.038 -0.63999999 2
3.286 -1.021 -0.63099998 2
3.2490001 -1.008 -0.62400001 2
3.277 -1.015 -0.63 1
3.2720001 -1.012 -0.63 2
3.316 -1.024 -0.639 2
3.2720001 -1.0089999 -0.63099998 2
3.234 -0.995 -0.62400001 1
3.277 -1.007 -0.63300002 2
3.2249999 -0.98900002 -0.62300003 1
3.2309999 -0.98900002 -0.625 2
3.2390001 -0.99000001 -0.62699997 1
3.2320001 -0.986 -0.62599999 1
3.1570001 -0.96100003 -0.61199999 1
3.224 -0.98000002 -0.625 1
3.253 -0.986 -0.63099998 1
3.2539999 -0.98500001 -0.63099998 2
3.2720001 -0.98799998 -0.63499999 2
3.2460001 -0.97799999 -0.63 1
3.2620001 -0.98100001 -0.63300002 2
3.247 -0.97399998 -0.63099998 2
3.22 -0.96399999 -0.62599999 2
3.224 -0.963 -0.62599999 2
3.2219999 -0.95999998 -0.62599999 2
3.201 -0.95099998 -0.62199998 1
3.2130001 -0.95300001 -0.62400001 1
3.2320001 -0.95599997 -0.62800002 2
3.243 -0.95700002 -0.63 1
3.2279999 -0.94999999 -0.62699997 1
3.2509999 -0.954 -0.63099998 2
3.2060001 -0.93800002 -0.62199998 1
3.217 -0.93900001 -0.62400001 1
3.2360001 -0.94199997 -0.62800002 1
3.1630001 -0.91799998 -0.61400002 1
3.211 -0.92900002 -0.62300003 1
3.266 -0.94199997 -0.63300002 2
3.2490001 -0.935 -0.62900001 2
3.253 -0.93300003 -0.63 2
3.2539999 -0.93099999 -0.63 2
3.1989999 -0.912 -0.61900002 1
3.23 -0.91799998 -0.62400001 2
3.27 -0.92699999 -0.63200003 2
3.204 -0.90499997 -0.61799997 1
3.227 -0.90799999 -0.62199998 1
3.2449999 -0.91000003 -0.625 2
3.283 -0.91799998 -0.63200003 2
3.3410001 -0.93099999 -0.64200002 2
3.276 -0.91000003 -0.62900001 2
3.2590001 -0.90200001 -0.625 1
3.2520001 -0.89700001 -0.62300003 1
3.253 -0.89399999 -0.62300003 1
3.2620001 -0.89300001 -0.62400001 2
3.319 -0.90499997 -0.634 2
3.3870001 -0.92000002 -0.64600003 2
3.3180001 -0.898 -0.63200003 2
3.3889999 -0.91399997 -0.64499998 2
3.369 -0.90499997 -0.63999999 2
3.286 -0.87900001 -0.62300003 2
3.4089999 -0.90799999 -0.64600003 2
3.3540001 -0.88999999 -0.634 2
3.2920001 -0.87 -0.62199998 2
3.2969999 -0.86799997 -0.62099999 3
3.299 -0.86400002 -0.62099999 3
3.302 -0.861 -0.62 3
3.313 -0.861 -0.62099999 3
3.3139999 -0.85699999 -0.62 3
3.3269999 -0.85699999 -0.62099999 3
3.329 -0.85299999 -0.62099999 3
3.3380001 -0.852 -0.62099999 3
3.339 -0.84799999 -0.62 3
3.3510001 -0.847 -0.62099999 3
3.3529999 -0.84399998 -0.62 3
3.48 -0.87199998 -0.64200002 2
3.3710001 -0.83999997 -0.62 2
3.4860001 -0.86500001 -0.63999999 3
3.4030001 -0.83999997 -0.62300003 2
3.4070001 -0.83700001 -0.62199998 2
3.4230001 -0.83600003 -0.62400001 1
3.493 -0.84899998 -0.63499999 2
3.4879999 -0.84299999 -0.63200003 2
3.45 -0.82999998 -0.62400001 2
3.4879999 -0.83499998 -0.62900001 2
3.5639999 -0.84799999 -0.64099997 2
3.4879999 -0.82599998 -0.625 2
3.497 -0.82300001 -0.625 2
3.5309999 -0.82700002 -0.62900001 2
3.5699999 -0.83099997 -0.634 2
3.6259999 -0.83999997 -0.64200002 2
3.684 -0.84799999 -0.65100002 2
3.6500001 -0.83499998 -0.64300001 2
3.648 -0.82999998 -0.63999999 2
3.6270001 -0.81999999 -0.634 2
3.7679999 -0.847 -0.65700001 2
3.6849999 -0.82300001 -0.63999999 2
3.7349999 -0.82999998 -0.64600003 2
3.756 -0.829 -0.648 2
3.701 -0.81199998 -0.63599998 2
3.763 -0.81999999 -0.64399999 2
3.7869999 -0.81999999 -0.64600003 2
3.776 -0.81300002 -0.64200002 2
3.878 -0.829 -0.65600002 2
3.793 -0.80599999 -0.63999999 2
3.8080001 -0.80400002 -0.639 2
3.8659999 -0.81 -0.64600003 3
3.9000001 -0.81199998 -0.64899999 3
3.869 -0.80000001 -0.64099997 2
3.885 -0.79799998 -0.64099997 2
3.8840001 -0.792 -0.63800001 2
3.9489999 -0.79900002 -0.64600003 2
3.9430001 -0.792 -0.64200002 2
3.973 -0.79299998 -0.64399999 2
4.0100002 -0.79400003 -0.64700001 3
3.9920001 -0.78500003 -0.64099997 2
4.0640001 -0.79299998 -0.64999998 2
4.0380001 -0.78200001 -0.64200002 2
4.1170001 -0.79100001 -0.65200001 2
4.2179999 -0.80400002 -0.66399997 4
4.1269999 -0.78100002 -0.64600003 2
4.1950002 -0.78799999 -0.65399998 2
4.2610002 -0.79400003 -0.66100001 2
4.2379999 -0.78299999 -0.65399998 3
4.2800002 -0.78399998 -0.65600002 3
4.303 -0.78200001 -0.65600002 2
4.3280001 -0.77999997 -0.65600002 4
4.3629999 -0.77999997 -0.65799999 3
4.3979998 -0.77899998 -0.65899998 3
4.4530001 -0.78200001 -0.66299999 2
4.4829998 -0.77999997 -0.66399997 4
4.5190001 -0.77999997 -0.66500002 4
4.5440001 -0.77700001 -0.66399997 3
4.585 -0.77700001 -0.66600001 3
4.6300001 -0.778 -0.66900003 2
4.678 -0.77899998 -0.671 3
4.7179999 -0.778 -0.67199999 2
4.7610002 -0.778 -0.67400002 2
4.8119998 -0.778 -0.676 2
4.8590002 -0.778 -0.67799997 3
4.895 -0.77700001 -0.67900002 2
4.9559999 -0.77899998 -0.68199998 3
5.007 -0.77899998 -0.68400002 3
5.0489998 -0.77700001 -0.685 3
5.0949998 -0.77600002 -0.68599999 2
5.152 -0.77700001 -0.68800002 3
5.2290001 -0.77999997 -0.69300002 2
5.2690001 -0.778 -0.69300002 3
5.342 -0.77999997 -0.69700003 2
5.395 -0.77999997 -0.69800001 2
5.4559999 -0.77999997 -0.69999999 2
5.526 -0.78100002 -0.70300001 2
5.6009998 -0.78299999 -0.70700002 3
5.6659999 -0.78299999 -0.70899999 2
5.7360001 -0.78399998 -0.71100003 2
5.8070002 -0.78399998 -0.713 2
5.9060001 -0.78799999 -0.71899998 3
5.9749999 -0.78799999 -0.72100002 3
6.0560002 -0.78899997 -0.72399998 3
6.1339998 -0.78899997 -0.72600001 3
6.2160001 -0.79000002 -0.72899997 3
6.3239999 -0.79400003 -0.73400003 3
6.4180002 -0.796 -0.73799998 3
6.4959998 -0.79500002 -0.73900002 3
6.6030002 -0.79799998 -0.74400002 3
6.7490001 -0.80500001 -0.75199997 5
6.8270001 -0.80299997 -0.75300002 8
6.8839998 -0.79900002 -0.75099999 10
6.9569998 -0.79699999 -0.75 11
7.1630001 -0.80900002 -0.764 4
7.2979999 -0.81300002 -0.76899999 4
7.4359999 -0.81599998 -0.77499998 4
7.5669999 -0.81900001 -0.77899998 4
7.717 -0.82300001 -0.78500003 3
7.914 -0.83099997 -0.79500002 3
8.0819998 -0.83600003 -0.80199999 3
8.2580004 -0.84100002 -0.80900002 4
8.4440002 -0.847 -0.81599998 4
8.651 -0.85399997 -0.82499999 4
8.8620005 -0.861 -0.83399999 3
9.1160002 -0.87099999 -0.84600002 3
9.3059998 -0.875 -0.852 3
9.5570002 -0.88300002 -0.86199999 3
9.7910004 -0.889 -0.87 4
10.049 -0.89700001 -0.88 3
10.317 -0.90499997 -0.88999999 3
10.582 -0.912 -0.89899999 2
10.902 -0.92199999 -0.91100001 2
11.21 -0.93099999 -0.92199999 2
11.513 -0.93800002 -0.93099999 2
11.864 -0.94800001 -0.94300002 2
12.234 -0.958 -0.95599997 3
12.649 -0.97100002 -0.97100002 3
13.064 -0.98299998 -0.98400003 3
13.443 -0.99000001 -0.99400002 3
13.98 -1.008 -1.0140001 3
14.515 -1.024 -1.033 4
14.897 -1.028 -1.039 2
15.575 -1.051 -1.064 2
16.247999 -1.071 -1.087 2
16.881001 -1.0880001 -1.1059999 2
17.660999 -1.1109999 -1.131 2
18.438999 -1.131 -1.154 2
18.513 -1.108 -1.132 1
0 0 0 1
0 0 0 0
0 0 0 0
0 0 0 3
27.1 -1.415 -1.457 3
0 0 0 0
0 0 0 4
31.579 -1.507 -1.557 16
31.712 -1.466 -1.515 27
0 0 0 67
43.034 -1.862 -1.928 41
43.205002 -1.8049999 -1.87 50
43.243999 -1.743 -1.8049999 39
43.314999 -1.683 -1.742 42
43.507999 -1.626 -1.683 51
43.521999 -1.563 -1.6160001 46
43.805 -1.508 -1.559 39
44.314999 -1.461 -1.508 40
44.778 -1.411 -1.454 46
44.751999 -1.346 -1.3839999 37
44.766998 -1.2819999 -1.314 30
44.784 -1.2180001 -1.243 29
44.807999 -1.154 -1.173 11
0 0 0 62
67.500999 -1.5470001 -1.554 76
67.504997 -1.451 -1.446 59
0 0 0 0
0 0 0 132
72.917 -1.257 -1.209 79
73.503998 -1.164 -1.1 41
74.022003 -1.068 -0.98799998 25
0 0 0 0
0 0 0 40
73.822998 -0.75800002 -0.62400001 75
73.807999 -0.65600002 -0.50300002 80
73.841003 -0.55599999 -0.382 48
0 0 0 0
0 0 0 0
0 0 0 0
0 0 0 38
86.656998 -0.067000002 0.266 25
86.810997 0.046 0.40900001 25
86.366997 0.162 0.55299997 31
84.847 0.27000001 0.68300003 28
86.183998 0.38800001 0.83899999 14
0 0 0 0
0 0 0 0
0 0 0 15
87.209999 0.84899998 1.438 30
0 0 0 0
0 0 0 0
0 0 0 0
0 0 0 31
0 0 0 0
0 0 0 23
88.036003 1.636 2.4979999 15
0 0 0 0
0 0 0 0
0 0 0 0
0 0 0 14
93.611 2.3169999 3.4619999 18
0 0 0 0
0 0 0 21
0 0 0 0
0 0 0 21
90.834 2.789 4.1420002 41
0 0 0 0
0 0 0 0
0 0 0 45
120.942 4.2750001 6.355 43
121.019 4.4190001 6.572 34
0 0 0 13
0 0 0 0
0 0 0 39
90.509003 3.71 5.5419998 40
0 0 0 0
0 0 0 0
0 0 0 0
0 0 0 0
0 0 0 41
118.517 5.6350002 8.5019999 46
118.522 5.7610002 8.7089996 42
118.422 5.8800001 8.9060001 34
118.374 6.0019999 9.1090002 43
118.453 6.125 9.3170004 46
118.494 6.2490001 9.5249996 34
118.572 6.375 9.7379999 47
118.733 6.5040002 9.9589996 34
118.748 6.625 10.169 29
0 0 0 0
0 0 0 0
0 0 0 48
118.14 7.059 10.94 83
118.109 7.1719999 11.143 90
118.123 7.289 11.353 78
118.134 7.4029999 11.56 81
118.12 7.5139999 11.765 76
118.084 7.6230001 11.971 83
118.122 7.7360001 12.181 66
118.155 7.8470001 12.39 51
118.21 7.9590001 12.598 26
0 0 0 0
0 0 0 0
0 0 0 0
0 0 0 29
0 0 0 0
0 0 0 23
0 0 0 0
0 0 0 0
0 0 0 0
0 0 0 0
0 0 0 27
118.2 9.1879997 15.045 69
118.103 9.276 15.235 81
118.096 9.368 15.435 86
118.051 9.4580002 15.631 78
118.069 9.5559998 15.837 79
118.109 9.6479998 16.038 73
118.093 9.7379999 16.237 68
118.045 9.8240004 16.431 52
118.136 9.9239998 16.646 34
118.267 10.024 16.864 29
118.265 10.111 17.063999 26
118.171 10.187 17.243999 24
118.203 10.275 17.444 26
118.358 10.374 17.669001 30
118.226 10.446 17.844 31
118.237 10.533 18.045 32
118.261 10.614 18.243999 34
118.248 10.697 18.440001 30
118.269 10.776 18.635 32
118.265 10.854 18.83 32
118.149 10.921 19.006001 29
118.121 10.996 19.193001 50
118.063 11.067 19.377001 60
118.039 11.14 19.566 68
118.062 11.216 19.763 77
118.048 11.288 19.952999 72
118.051 11.364 20.146 65
118.128 11.442 20.35 51
118.014 11.499 20.516001 28
0 0 0 0
0 0 0 0
0 0 0 0
0 0 0 0
0 0 0 0
0 0 0 0
0 0 0 0
0 0 0 0
0 0 0 0
0 0 0 0
0 0 0 0
0 0 0 0
0 0 0 26
118.168 12.403 23.139999 34
118.089 12.452 23.301001 42
118.092 12.507 23.481001 47
118.068 12.559 23.655001 56
118.082 12.614 23.836 68
118.028 12.663 24.006001 62
118.087 12.718 24.190001 65
118.09 12.772 24.367001 45
118.086 12.821 24.541 34
118.096 12.87 24.721001 26
0 0 0 0
0 0 0 0
0 0 0 0
0 0 0 0
0 0 0 27
0 0 0 0
0 0 0 0
0 0 0 0
0 0 0 0
0 0 0 0
0 0 0 0
0 0 0 27
118.502 13.469 26.985001 28
118.432 13.495 27.127001 29
118.292 13.514 27.254999 31
118.222 13.54 27.398001 40
118.098 13.56 27.524 43
118.15 13.598 27.693001 56
118.135 13.628 27.846001 68
118.115 13.659 27.996 61
118.09 13.686 28.143999 67
118.118 13.718 28.304001 58
118.161 13.75 28.466 53
118.23 13.785 28.632999 39
118.224 13.81 28.782 31
118.459 13.863 28.988001 27
118.376 13.877 29.115 28
118.556 13.921 29.306 29
118.522 13.943 29.444 29
118.502 13.962 29.583 30
118.527 13.986 29.733 27
118.382 13.988 29.839001 26
118.466 14.019 29.997999 29
118.523 14.042 30.155001 27
118.574 14.065 30.306999 31
118.566 14.08 30.443001 28
118.476 14.087 30.552999 29
118.65 14.124 30.73 26
118.558 14.127 30.84 28
118.554 14.139 30.972 25
118.584 14.152 31.114 25
118.38 14.141 31.188 29
118.206 14.131 31.271 27
118.2 14.139 31.396 34
118.2 14.148 31.521999 34
118.183 14.155 31.639999 47
118.234 14.168 31.777 59
118.234 14.174 31.9 60
118.215 14.177 32.015999 55
118.215 14.181 32.136002 62
118.186 14.181 32.245998 56
118.227 14.189 32.375 41
118.176 14.187 32.473999 33
118.225 14.194 32.602001 31
118.214 14.195 32.709 26
118.476 14.225 32.890999 24
0 0 0 0
0 0 0 27
118.389 14.209 33.198002 29
118.422 14.211 33.311001 28
118.431 14.208 33.418999 28
118.377 14.196 33.507999 27
0 0 0 0
0 0 0 0
0 0 0 0
0 0 0 0
0 0 0 0
0 0 0 0
0 0 0 0
0 0 0 0
0 0 0 0
0 0 0 0
0 0 0 0
0 0 0 0
0 0 0 0
0 0 0 0
0 0 0 0
0 0 0 28
118.658 14.027 35.131001 29
118.653 14.007 35.208 28
118.598 13.98 35.268002 36
118.61 13.961 35.347 31
118.426 13.918 35.366001 39
118.488 13.903 35.457001 36
118.424 13.872 35.507999 41
118.357 13.841 35.556999 44
118.395 13.821 35.636002 48
118.325 13.791 35.68 51
118.342 13.767 35.75 53
118.378 13.745 35.824001 63
118.376 13.72 35.882 55
118.304 13.684 35.921001 56
118.402 13.663 36.008999 57
118.339 13.629 36.044998 57
118.389 13.604 36.116001 60
118.4 13.575 36.173 58
118.434 13.547 36.236 63
118.434 13.518 36.284 66
118.405 13.482 36.325001 64
118.392 13.45 36.366001 61
118.455 13.423 36.431999 59
118.443 13.387 36.472 62
118.432 13.35 36.512001 66
118.455 13.316 36.560001 67
118.413 13.275 36.587002 68
118.39 13.238 36.616001 65
118.478 13.209 36.679001 70
118.432 13.165 36.700001 76
118.436 13.13 36.734001 67
118.41 13.083 36.757999 79
118.467 13.049 36.806 67
118.434 13.007 36.823002 81
118.444 12.966 36.853001 72
118.484 12.928 36.890999 73
118.503 12.891 36.918999 77
118.512 12.848 36.944 71
118.477 12.803 36.952999 79
118.501 12.757 36.98 74
118.495 12.711 36.995998 78
118.522 12.671 37.019001 82
118.459 12.614 37.014 76
118.552 12.583 37.053001 82
118.52 12.532 37.054001 75
118.556 12.484 37.076 66
118.525 12.431 37.074001 77
118.545 12.384 37.085999 78
118.575 12.343 37.097 68
118.505 12.285 37.077999 78
118.517 12.232 37.084 85
118.561 12.188 37.096001 79
118.567 12.136 37.096001 77
118.529 12.076 37.081001 74
118.559 12.028 37.084 73
118.566 11.975 37.078999 75
118.558 11.92 37.068001 77
118.549 11.864 37.055 73
118.579 11.811 37.051998 86
118.604 11.761 37.044998 82
118.561 11.7 37.016998 78
118.588 11.645 37.007999 70
118.613 11.59 36.997002 81
118.585 11.529 36.967999 73
118.632 11.479 36.960999 74
118.573 11.414 36.918999 80
118.559 11.356 36.889 81
118.613 11.301 36.879002 69
118.613 11.237 36.852001 76
118.614 11.18 36.821999 81
118.647 11.122 36.799999 78
118.625 11.058 36.759998 74
118.627 10.996 36.726002 79
118.629 10.936 36.689999 74
118.652 10.875 36.659 72
118.643 10.811 36.616001 72
118.669 10.749 36.583 66
118.626 10.681 36.527 68
118.673 10.624 36.497002 66
118.653 10.557 36.445 58
118.677 10.493 36.403999 64
118.651 10.425 36.347 55
118.659 10.359 36.298 58
118.691 10.298 36.254002 56
118.68 10.226 36.195999 62
118.728 10.166 36.154999 62
118.685 10.094 36.084 55
118.703 10.028 36.030998 61
118.669 9.9560003 35.959999 57
118.668 9.8900003 35.897999 56
118.724 9.8260002 35.851002 53
118.702 9.7539997 35.778999 60
118.754 9.6879997 35.727001 58
118.737 9.6160002 35.653999 53
118.696 9.5419998 35.570999 54
118.743 9.4750004 35.514 46
118.78 9.4099998 35.452 46
118.764 9.3369999 35.372002 41
118.856 9.2729998 35.323002 41
118.881 9.2060003 35.252998 31
118.915 9.1359997 35.182999 42
119 9.0699997 35.126999 39
118.972 8.9940004 35.035999 31
119.142 8.934 35.000999 26
0 0 0 0
0 0 0 0
0 0 0 0
0 0 0 0
0 0 0 0
0 0 0 0
0 0 0 0
0 0 0 0
0 0 0 0
0 0 0 0
0 0 0 0
0 0 0 0
0 0 0 28
118.95 7.8800001 33.608002 31
119.058 7.8099999 33.530998 34
119.01 7.7309999 33.409 32
118.95 7.6529999 33.283001 30
119.049 7.5819998 33.195 33
118.925 7.4970002 33.048 38
118.969 7.4239998 32.949001 34
118.954 7.348 32.826 32
118.923 7.2690001 32.700001 34
118.921 7.191 32.581001 32
118.816 7.1069999 32.431999 35
118.863 7.033 32.323002 43
118.831 6.9559999 32.192001 50
118.891 6.882 32.084 56
118.825 6.8010001 31.940001 58
118.867 6.7249999 31.823999 60
118.815 6.6440001 31.681 51
118.822 6.5700002 31.554001 55
118.866 6.4949999 31.434 44
