# .PCD v0.7 - Point Cloud Data file format
VERSION 0.7
FIELDS x y z intensity
SIZE 4 4 4 4
TYPE F F F F
COUNT 1 1 1 1
WIDTH 1742
HEIGHT 1
VIEWPOINT 0 0 0 1 0 0 0
POINTS 1742
DATA ascii
43.708 6.283 1.8 28
43.912998 6.3860002 1.845 40
44.071999 6.4829998 1.888 35
44.273998 6.5869999 1.933 13
44.962002 6.7649999 2.0009999 8
44.819 6.8179998 2.033 25
44.386002 6.8270001 2.05 26
44.341 6.8940001 2.086 35
44.439999 6.9819999 2.1289999 39
0 0 0 3
35.912998 5.7589998 1.7819999 14
35.916 5.8169999 1.812 14
35.876999 5.869 1.841 14
0 0 0 0
0 0 0 13
33.080002 5.5700002 1.783 18
33.105 5.625 1.812 13
33.104 5.678 1.842 22
32.925999 5.698 1.8609999 24
32.889 5.744 1.887 36
32.848999 5.7870002 1.913 52
32.640999 5.8000002 1.9299999 25
31.629999 5.6690001 1.898 16
31.768 5.7399998 1.933 34
31.912001 5.8140001 1.97 25
31.974001 5.8730001 2.0020001 33
31.997 5.9250002 2.0320001 39
32.181 6.007 2.072 21
32.258999 6.0679998 2.105 21
32.173 6.0999999 2.1289999 29
32.146 6.1409998 2.155 30
32.132 6.1849999 2.1819999 22
31.421 6.0929999 2.1619999 20
31.393 6.132 2.188 20
32.098 6.3150001 2.266 21
32.001999 6.3400002 2.2869999 21
31.525999 6.29 2.2809999 20
30.995001 6.2259998 2.27 19
30.552 6.178 2.2650001 19
30.950001 6.3010001 2.322 19
30.796 6.3109999 2.3380001 22
30.822001 6.3590002 2.3670001 37
30.849001 6.4050002 2.3970001 29
30.790001 6.434 2.4200001 23
30.698 6.4549999 2.4389999 22
30.674 6.4879999 2.4649999 19
30.636999 6.52 2.4890001 19
30.549 6.5409999 2.5090001 23
30.636999 6.599 2.543 19
30.691999 6.6490002 2.575 21
30.761999 6.7030001 2.608 19
30.791 6.7470002 2.638 19
30.841 6.796 2.6700001 19
30.981001 6.8639998 2.71 20
30.774 6.8559999 2.7190001 19
30.712999 6.8790002 2.7409999 29
30.788 6.9320002 2.7739999 27
30.927 6.9990001 2.8139999 20
30.834 7.0139999 2.8329999 19
30.913 7.0679998 2.8670001 21
30.981001 7.119 2.901 20
31.077999 7.1760001 2.938 20
30.820999 7.151 2.9400001 19
30.889999 7.2010002 2.973 20
30.896 7.2360001 3 21
30.872999 7.2639999 3.0250001 21
30.898001 7.3039999 3.0539999 17
30.906 7.3379998 3.0810001 12
31.136999 7.4260001 3.131 18
31.408001 7.5229998 3.1860001 21
31.385 7.5500002 3.211 18
31.554001 7.6230001 3.2550001 22
32.373001 7.8530002 3.3670001 22
31.933001 7.7779999 3.348 22
31.556999 7.717 3.336 22
31.632999 7.7670002 3.3710001 22
31.639999 7.7989998 3.3989999 22
31.718 7.849 3.4330001 22
31.423 7.8060002 3.428 22
31.556999 7.868 3.4690001 22
32.546001 8.1440001 3.605 22
32.472 8.1549997 3.625 25
32.348999 8.1529999 3.638 31
32.307999 8.1709995 3.6600001 29
0 0 0 4
26.396 6.7210002 3.0339999 11
26.444 6.756 3.0610001 18
0 0 0 0
0 0 0 10
24.992001 6.4460001 2.9530001 14
25.08 6.4889998 2.9849999 13
24.934999 6.4710002 2.987 13
24.816999 6.4590001 2.993 13
24.945 6.5120001 3.0280001 13
24.923 6.5250001 3.0450001 13
24.907 6.539 3.062 13
25.197001 6.6329999 3.118 27
26.445999 6.9809999 3.293 31
26.535 7.0229998 3.325 31
26.441999 7.0159998 3.3329999 42
25.409 6.7589998 3.2219999 24
25.993999 6.9320002 3.316 22
26.115 6.9809999 3.3510001 22
26.312 7.0500002 3.3970001 25
26.361 7.0799999 3.4230001 34
26.228001 7.0599999 3.425 34
26.201 7.0689998 3.441 39
26.299 7.1110001 3.473 39
25.358999 6.8709998 3.3670001 36
25.416 6.901 3.3929999 33
25.174999 6.849 3.3800001 27
26.35 7.1830001 3.556 32
26.284 7.1789999 3.566 40
25.298 6.9229999 3.45 36
24.990999 6.8509998 3.4260001 38
25.006001 6.868 3.4449999 22
25.025 6.8850002 3.4649999 13
25.368 6.9910002 3.53 13
25.462 7.0279999 3.5610001 14
25.569 7.0689998 3.5929999 14
24.962 6.9120002 3.5239999 13
24.907 6.9070001 3.533 13
24.899 6.915 3.549 13
24.77 6.8889999 3.5469999 13
24.798 6.9060001 3.5669999 13
24.792 6.914 3.582 13
24.781 6.9190001 3.596 14
25.385 7.0960002 3.7 14
25.316999 7.086 3.7060001 13
25.254999 7.0770001 3.7130001 13
25.282 7.092 3.7320001 14
25.316999 7.1090002 3.753 15
25.312 7.1139998 3.7679999 18
25.271999 7.1100001 3.777 18
25.190001 7.0929999 3.779 26
25.139999 7.0840001 3.7869999 36
25.148001 7.092 3.803 42
25.153999 7.0999999 3.8180001 40
25.176001 7.1110001 3.836 39
25.184 7.118 3.852 38
25.223 7.1329999 3.8710001 39
25.25 7.145 3.8900001 39
25.278 7.1570001 3.908 37
25.313 7.1700001 3.9260001 36
25.367001 7.1890001 3.948 30
25.382999 7.1960001 3.964 35
25.402 7.204 3.9809999 31
25.423 7.2119999 3.9960001 28
25.434999 7.217 4.0110002 25
25.462999 7.2270002 4.0289998 21
25.473 7.2309999 4.0430002 18
25.500999 7.2399998 4.0599999 15
25.503 7.2410002 4.073 10
25.525999 7.2470002 4.0890002 8
25.561001 7.257 4.1059999 6
25.547001 7.2529998 4.1149998 3
0 0 0 0
0 0 0 0
0 0 0 0
0 0 0 0
0 0 0 0
0 0 0 0
0 0 0 0
0 0 0 11
41.886002 11.863 6.9070001 12
41.882 11.856 6.9229999 15
41.898998 11.855 6.941 17
41.900002 11.847 6.9580002 19
0 0 0 0
0 0 0 0
0 0 0 5
27.115 7.6459999 4.5409999 6
27.076 7.6290002 4.5430002 8
27.031 7.6100001 4.5450001 11
26.997 7.5929999 4.5479999 16
26.962 7.5760002 4.5500002 23
26.909 7.5539999 4.5500002 29
26.908001 7.546 4.5570002 31
26.882 7.5300002 4.5609999 35
26.872999 7.5190001 4.5669999 34
26.819 7.4949999 4.566 32
26.799 7.4809999 4.5689998 33
26.798 7.4710002 4.5760002 28
26.767 7.4530001 4.5770001 29
26.753 7.4390001 4.5819998 34
26.728001 7.4219999 4.5830002 29
26.674 7.3959999 4.5799999 35
26.6 7.3649998 4.573 29
26.476 7.3189998 4.5580001 23
26.289 7.256 4.5310001 15
26.165001 7.21 4.5149999 15
26.148001 7.1939998 4.5170002 15
26.115999 7.1729999 4.5159998 13
26.125999 7.1630001 4.5219998 13
26.243 7.1820002 4.546 13
26.416 7.2160001 4.5809999 16
26.648001 7.2659998 4.625 16
26.881001 7.3150001 4.6690001 22
27.047001 7.3449998 4.7020001 20
27.115999 7.349 4.717 23
27.146999 7.342 4.7259998 29
27.139 7.3249998 4.7270002 38
27.163 7.3150001 4.7340002 36
27.157 7.2969999 4.7350001 28
27.128 7.2729998 4.7329998 29
27.125999 7.256 4.7340002 35
27.111 7.2350001 4.7329998 30
0 0 0 4
25.096001 6.664 4.3839998 5
0 0 0 0
0 0 0 42
26.893999 7.0869999 4.6999998 42
26.979 7.0910001 4.7160001 37
26.978001 7.0710001 4.7160001 44
26.902 7.0320001 4.7020001 48
26.856001 7 4.6939998 42
26.569 6.9060001 4.6430001 44
26.319 6.8210001 4.5999999 15
26.212 6.7740002 4.579 14
26.297001 6.7750001 4.5929999 14
26.372 6.7740002 4.605 15
26.222 6.7150002 4.5770001 14
26.046 6.6479998 4.5450001 34
25.985001 6.612 4.5320001 38
25.959999 6.5840001 4.5250001 38
25.969 6.5650001 4.5240002 40
26.096001 6.5749998 4.5430002 16
26.091999 6.5510001 4.539 24
26.103001 6.5310001 4.5380001 16
26.011999 6.4860001 4.5180001 31
26.030001 6.4679999 4.5180001 23
26.042 6.447 4.5159998 23
26.069 6.4299998 4.5170002 24
26.009001 6.3920002 4.5019999 42
26.055 6.3790002 4.506 36
26.23 6.3969998 4.5310001 34
26.271 6.3829999 4.533 41
26.353001 6.3769999 4.5419998 55
26.386 6.3600001 4.5419998 39
26.416 6.3410001 4.5409999 48
26.42 6.316 4.5359998 42
26.441 6.296 4.533 45
26.511999 6.2859998 4.5380001 23
0 0 0 0
0 0 0 24
41.617001 9.7399998 7.092 22
41.724998 9.7209997 7.098 26
41.862 9.7089996 7.1090002 23
41.946999 9.6850004 7.1100001 27
41.932999 9.6370001 7.0949998 26
41.945999 9.5939999 7.085 23
41.891998 9.5369997 7.0609999 31
41.800999 9.4709997 7.0320001 39
41.785999 9.4209995 7.0149999 31
41.983002 9.4200001 7.033 29
42.143002 9.4090004 7.0450001 23
42.183998 9.3699999 7.0359998 23
42.188999 9.323 7.0209999 27
42.119999 9.2609997 6.9920001 25
42.130001 9.2150002 6.9770002 22
42.132999 9.1660004 6.961 24
42.110001 9.1120005 6.9390001 25
42.131001 9.0679998 6.9239998 17
42.080002 9.007 6.8979998 16
42.063 8.9530001 6.8759999 12
42.049999 8.8999996 6.855 9
42.154999 8.8730001 6.8520002 7
42.181 8.8280001 6.836 11
42.105999 8.7609997 6.8039999 16
41.966 8.6800003 6.7610002 9
41.979 8.6309996 6.7420001 9
0 0 0 0
0 0 0 14
0 0 0 0
0 0 0 7
41.917999 8.3570004 6.6230001 17
41.959999 8.3109999 6.6059999 14
42.125 8.2910004 6.6079998 3
0 0 0 30
0 0 0 15
42.404999 8.1809998 6.579 7
42.549 8.1529999 6.5749998 5
0 0 0 30
48.469002 9.1610003 7.4310002 34
48.382 9.0799999 7.3870001 30
48.363998 9.0120001 7.3540001 30
48.396999 8.9540005 7.3270001 30
47.984001 8.8129997 7.2340002 20
0 0 0 0
0 0 0 24
48.566002 8.7220001 7.224 22
48.814999 8.6999998 7.2270002 12
48.740002 8.6190004 7.1820002 21
0 0 0 0
0 0 0 21
57.939999 10.005 8.4119997 21
0 0 0 0
0 0 0 38
60.043999 10.118 8.585 32
60.098 10.042 8.5450001 32
60.209 9.9779997 8.5159998 32
60.238998 9.8970003 8.474 20
60.166 9.8009996 8.4160004 6
0 0 0 0
0 0 0 0
0 0 0 49
0 0 0 0
0 0 0 9
45.596001 7.0349998 6.1539998 20
45.511002 6.9559999 6.1030002 21
45.491001 6.888 6.0619998 18
45.577999 6.8340001 6.0339999 18
45.487 6.7540002 5.9819999 30
45.432999 6.6789999 5.934 33
46.056 6.704 5.9749999 26
46.172001 6.6529999 5.9489999 41
46.284 6.6020002 5.9219999 37
46.314999 6.5380001 5.882 46
46.319 6.4699998 5.8410001 46
46.362 6.4070001 5.8010001 46
46.307999 6.3299999 5.7509999 44
46.327999 6.2639999 5.7090001 46
46.410999 6.2049999 5.6739998 27
0 0 0 0
0 0 0 33
0 0 0 0
0 0 0 0
0 0 0 0
0 0 0 0
0 0 0 0
0 0 0 30
117.752 14.158 13.334 33
117.745 13.981 13.21 27
117.767 13.805 13.088 26
117.748 13.624 12.96 28
0 0 0 0
0 0 0 0
0 0 0 0
0 0 0 0
0 0 0 24
117.629 12.531 12.169 25
117.567 12.345 12.03 31
117.565 12.165 11.897 45
117.554 11.979 11.757 56
117.539 11.797 11.62 80
117.522 11.619 11.483 75
117.558 11.442 11.349 75
117.561 11.262 11.212 77
117.607 11.086 11.077 72
117.554 10.9 10.931 64
117.56 10.721 10.791 123
117.577 10.542 10.65 121
117.609 10.364 10.51 130
117.61 10.184 10.366 107
117.634 10.008 10.225 53
0 0 0 0
0 0 0 0
0 0 0 27
128.024 10.105 10.483 40
128.06799 9.9130001 10.324 48
128.07201 9.717 10.16 37
128.157 9.5270004 10.002 29
0 0 0 0
0 0 0 0
0 0 0 0
0 0 0 33
117.959 7.8740001 8.4370003 42
117.946 7.6929998 8.2779999 49
117.919 7.5089998 8.1169996 52
118.008 7.3379998 7.9660001 32
118.089 7.164 7.8109999 23
118.04 6.9819999 7.6469998 26
0 0 0 0
0 0 0 14
88.903999 4.8540001 5.3920002 13
89.080002 4.7319999 5.2800002 26
0 0 0 0
0 0 0 27
90.595001 4.3990002 4.9840002 34
90.196999 4.2459998 4.836 27
90.585999 4.1290002 4.7280002 21
91.205002 4.0209999 4.6290002 23
91.308998 3.8889999 4.5029998 14
0 0 0 0
0 0 0 14
89.863998 3.428 4.0409999 19
89.958 3.2980001 3.914 20
90.226997 3.174 3.7920001 18
90.362999 3.0450001 3.664 16
0 0 0 0
0 0 0 26
91.121002 2.6689999 3.2869999 32
91.313004 2.54 3.1570001 15
0 0 0 0
0 0 0 23
0 0 0 0
0 0 0 0
0 0 0 0
0 0 0 0
0 0 0 13
87.695 1.429 1.961 21
0 0 0 0
0 0 0 36
85.646004 1.028 1.513 17
0 0 0 0
0 0 0 23
86.724998 0.67500001 1.122 31
86.719002 0.55299997 0.98299998 18
0 0 0 25
0 0 0 25
0 0 0 23
84.443001 0.068000004 0.41600001 30
84.549004 -0.046 0.28200001 23
85.870003 -0.167 0.145 16
86.408997 -0.287 0.0049999999 18
86.237999 -0.405 -0.13500001 26
89.648003 -0.54299998 -0.28799999 14
0 0 0 0
0 0 0 0
0 0 0 42
73.560997 -0.84200001 -0.72000003 68
73.561996 -0.94099998 -0.84299999 72
73.542 -1.04 -0.96700001 65
73.624001 -1.1390001 -1.091 52
73.483002 -1.233 -1.211 32
72.650002 -1.3150001 -1.319 82
70.452003 -1.368 -1.398 46
0 0 0 0
0 0 0 19
67.232002 -1.567 -1.674 78
67.226997 -1.655 -1.79 69
67.239998 -1.74 -1.903 76
0 0 0 10
44.511002 -1.2640001 -1.41 25
44.477001 -1.3200001 -1.4859999 28
44.507 -1.377 -1.564 34
44.462002 -1.432 -1.6390001 39
44.289001 -1.4809999 -1.7079999 40
43.710999 -1.516 -1.761 39
43.389 -1.559 -1.823 39
43.174 -1.604 -1.8890001 42
43.304001 -1.6619999 -1.97 39
43.074001 -1.706 -2.0350001 38
42.915001 -1.752 -2.102 36
42.851002 -1.8 -2.1730001 29
43.060001 -1.8609999 -2.2590001 18
42.872002 -1.904 -2.3239999 4
0 0 0 2
29.163 -1.364 -1.683 2
28.864 -1.3839999 -1.717 2
0 0 0 1
0 0 0 2
0 0 0 0
0 0 0 2
17.691 -0.94999999 -1.2079999 2
16.844999 -0.92299998 -1.1799999 2
15.961 -0.89300001 -1.146 3
15.335 -0.875 -1.128 2
14.636 -0.85100001 -1.102 2
13.861 -0.82099998 -1.069 2
13.288 -0.80199999 -1.048 2
12.773 -0.78500003 -1.03 2
12.268 -0.76700002 -1.011 3
11.782 -0.74900001 -0.99199998 2
11.356 -0.73400003 -0.97600001 2
10.932 -0.71899998 -0.95899999 2
10.55 -0.70499998 -0.94400001 2
10.176 -0.69 -0.92900002 2
9.8319998 -0.67699999 -0.91500002 2
9.5010004 -0.66399997 -0.90100002 3
9.2049999 -0.653 -0.88999999 4
8.8789997 -0.639 -0.87400001 2
8.5819998 -0.62599999 -0.86000001 3
8.3249998 -0.616 -0.84899998 4
8.0760002 -0.60600001 -0.838 4
7.8260002 -0.59500003 -0.82599998 3
7.592 -0.58399999 -0.815 4
7.3649998 -0.574 -0.80400002 4
7.1609998 -0.565 -0.79400003 4
6.9990001 -0.55900002 -0.78899997 5
6.8130002 -0.551 -0.77999997 5
6.6389999 -0.54299998 -0.77200001 5
6.4759998 -0.53600001 -0.76499999 4
6.3400002 -0.52999997 -0.75999999 3
6.191 -0.52399999 -0.75300002 3
6.0380001 -0.51599997 -0.745 3
5.914 -0.51099998 -0.741 3
5.8000002 -0.50599998 -0.73699999 2
5.6820002 -0.50099999 -0.73199999 2
5.5619998 -0.49599999 -0.72600001 2
5.4429998 -0.49000001 -0.72100002 2
5.3520002 -0.486 -0.71799999 2
5.243 -0.48100001 -0.713 3
5.1370001 -0.47600001 -0.70700002 3
5.04 -0.47099999 -0.70300001 2
4.9439998 -0.46599999 -0.69800001 3
4.8509998 -0.46200001 -0.69400001 3
4.77 -0.458 -0.69099998 3
4.7080002 -0.456 -0.69 2
4.619 -0.45100001 -0.685 3
4.546 -0.447 -0.68199998 3
4.4749999 -0.44400001 -0.67900002 3
4.4000001 -0.44 -0.676 2
4.3309999 -0.43599999 -0.67299998 3
4.2399998 -0.43000001 -0.66600001 2
4.1550002 -0.42500001 -0.66000003 3
4.1030002 -0.42300001 -0.65899998 2
4.0339999 -0.419 -0.65499997 1
4.007 -0.419 -0.65700001 2
3.9100001 -0.412 -0.648 1
3.9300001 -0.417 -0.65799999 3
3.8210001 -0.40799999 -0.64600003 2
3.766 -0.405 -0.64399999 1
3.733 -0.40400001 -0.64399999 2
3.6800001 -0.40099999 -0.64200002 2
3.665 -0.40099999 -0.64499998 3
3.6110001 -0.398 -0.64200002 3
3.6389999 -0.40400001 -0.653 3
3.4949999 -0.38999999 -0.63300002 2
3.4419999 -0.38600001 -0.63 1
3.421 -0.38600001 -0.63200003 1
3.484 -0.396 -0.64899999 1
3.4170001 -0.38999999 -0.64200002 2
3.349 -0.384 -0.63499999 2
3.381 -0.38999999 -0.64700001 2
3.346 -0.38800001 -0.64600003 1
3.2279999 -0.37599999 -0.62800002 2
3.2809999 -0.384 -0.64399999 1
3.25 -0.38299999 -0.64300001 1
3.0810001 -0.36500001 -0.61500001 2
3.0569999 -0.36399999 -0.61500001 4
3.0280001 -0.36199999 -0.61400002 6
3.0079999 -0.361 -0.61500001 7
2.984 -0.36000001 -0.61500001 8
2.9530001 -0.35800001 -0.61400002 8
2.9260001 -0.35600001 -0.61299998 8
2.898 -0.354 -0.61199999 8
2.8729999 -0.35299999 -0.611 8
2.8469999 -0.35100001 -0.61000001 8
2.8180001 -0.34900001 -0.60799998 9
2.7950001 -0.347 -0.60799998 9
2.7679999 -0.345 -0.60600001 9
2.743 -0.34299999 -0.60500002 9
2.7190001 -0.34200001 -0.60399997 9
2.7019999 -0.34099999 -0.60399997 9
2.6719999 -0.338 -0.602 9
2.651 -0.33700001 -0.60100001 9
2.6329999 -0.336 -0.60100001 8
2.608 -0.33399999 -0.59899998 8
2.585 -0.33199999 -0.59799999 8
2.5680001 -0.331 -0.59799999 8
2.552 -0.33000001 -0.59799999 7
2.527 -0.32800001 -0.59600002 7
2.513 -0.32699999 -0.597 5
2.494 -0.32499999 -0.59600002 5
2.48 -0.324 -0.59600002 4
2.46 -0.32300001 -0.59500003 3
2.437 -0.32100001 -0.59299999 3
2.4230001 -0.31999999 -0.59299999 2
2.392 -0.31600001 -0.58899999 2
2.3710001 -0.31400001 -0.588 1
2.3559999 -0.31299999 -0.58700001 1
2.3399999 -0.31200001 -0.58700001 1
2.319 -0.31 -0.58499998 1
2.312 -0.31 -0.58600003 1
2.286 -0.30700001 -0.583 1
2.273 -0.30599999 -0.583 1
2.26 -0.30500001 -0.58200002 1
2.2390001 -0.30199999 -0.57999998 1
2.2290001 -0.30199999 -0.58099997 1
2.2130001 -0.30000001 -0.579 1
2.197 -0.29899999 -0.57800001 1
2.187 -0.29800001 -0.57800001 1
2.1760001 -0.29699999 -0.579 1
2.165 -0.296 -0.579 1
2.1489999 -0.294 -0.57700002 1
2.141 -0.294 -0.57800001 1
2.1229999 -0.292 -0.57599998 1
2.105 -0.289 -0.57300001 1
2.096 -0.289 -0.574 1
2.0829999 -0.287 -0.57300001 1
2.0710001 -0.28600001 -0.57200003 1
2.0599999 -0.285 -0.57200003 2
2.052 -0.28400001 -0.57200003 2
2.049 -0.28400001 -0.574 3
2.0369999 -0.28299999 -0.57300001 3
2.026 -0.28200001 -0.57200003 3
2.0250001 -0.28200001 -0.574 3
2.017 -0.28099999 -0.57499999 3
2.0079999 -0.28 -0.574 3
1.994 -0.278 -0.57300001 2
1.9809999 -0.27700001 -0.57099998 2
1.97 -0.27500001 -0.56999999 1
1.959 -0.27399999 -0.56900001 1
1.941 -0.27200001 -0.56599998 1
1.938 -0.271 -0.56800002 1
1.931 -0.271 -0.56800002 1
1.928 -0.27000001 -0.56900001 1
1.919 -0.26899999 -0.56800002 1
1.906 -0.26800001 -0.56699997 1
1.903 -0.26699999 -0.56800002 1
1.892 -0.266 -0.56599998 1
1.887 -0.26499999 -0.56699997 1
1.8839999 -0.26499999 -0.56800002 1
1.864 -0.26199999 -0.56400001 1
1.863 -0.26199999 -0.565 1
1.86 -0.26199999 -0.56599998 1
1.851 -0.25999999 -0.56599998 1
1.837 -0.25799999 -0.56300002 1
1.834 -0.25799999 -0.56400001 1
1.823 -0.25600001 -0.56199998 1
1.823 -0.25600001 -0.56400001 1
1.814 -0.255 -0.56300002 1
1.809 -0.25400001 -0.56300002 1
1.8 -0.25299999 -0.56199998 1
1.7970001 -0.252 -0.56199998 1
1.784 -0.25099999 -0.56 1
1.7819999 -0.25 -0.56099999 1
1.777 -0.249 -0.56099999 1
1.771 -0.249 -0.56 1
1.7640001 -0.24699999 -0.56 1
1.752 -0.24600001 -0.55699998 1
1.7460001 -0.245 -0.55699998 1
1.739 -0.243 -0.55599999 1
1.7359999 -0.243 -0.55599999 1
1.7359999 -0.243 -0.55800003 1
1.722 -0.23999999 -0.55400002 1
1.724 -0.241 -0.55599999 1
1.717 -0.23899999 -0.55500001 1
1.712 -0.23800001 -0.55500001 1
1.705 -0.237 -0.55400002 1
1.704 -0.237 -0.55500001 1
1.697 -0.236 -0.55400002 1
1.697 -0.235 -0.55500001 1
1.6900001 -0.234 -0.55299997 1
1.688 -0.234 -0.55400002 1
1.683 -0.233 -0.55299997 1
1.676 -0.23100001 -0.55199999 1
1.679 -0.23100001 -0.55400002 1
1.673 -0.23 -0.55299997 1
1.666 -0.229 -0.55199999 1
1.664 -0.228 -0.55199999 1
1.665 -0.228 -0.55299997 1
1.66 -0.227 -0.55199999 1
1.658 -0.226 -0.55299997 1
1.651 -0.22499999 -0.551 1
1.647 -0.22400001 -0.551 1
1.659 -0.22499999 -0.55599999 1
1.649 -0.22400001 -0.55299997 1
1.646 -0.223 -0.55299997 1
1.65 -0.223 -0.55500001 1
1.6440001 -0.222 -0.55299997 1
1.627 -0.219 -0.54799998 1
1.625 -0.21799999 -0.54799998 1
1.636 -0.219 -0.55199999 1
1.627 -0.21799999 -0.55000001 1
1.62 -0.21600001 -0.54799998 1
1.622 -0.21600001 -0.55000001 1
1.626 -0.21600001 -0.551 1
1.618 -0.214 -0.54900002 1
1.624 -0.215 -0.55199999 1
1.624 -0.214 -0.55199999 1
1.607 -0.211 -0.54699999 1
1.605 -0.211 -0.54699999 1
1.618 -0.212 -0.551 1
1.607 -0.20999999 -0.54799998 1
1.6059999 -0.20900001 -0.54799998 1
1.618 -0.20999999 -0.55199999 1
1.618 -0.20999999 -0.55299997 1
1.599 -0.207 -0.54699999 1
1.614 -0.208 -0.55199999 1
1.605 -0.206 -0.54900002 1
1.609 -0.206 -0.551 1
1.61 -0.206 -0.551 1
1.614 -0.205 -0.55299997 1
1.6059999 -0.204 -0.55000001 1
1.61 -0.204 -0.55199999 1
1.609 -0.20299999 -0.55199999 1
1.6109999 -0.20299999 -0.55199999 1
1.604 -0.20100001 -0.55000001 1
1.601 -0.2 -0.54900002 1
1.605 -0.2 -0.55000001 1
1.61 -0.2 -0.55199999 1
1.604 -0.198 -0.55000001 1
1.602 -0.197 -0.54900002 1
1.61 -0.198 -0.55199999 1
1.603 -0.19599999 -0.54900002 1
1.61 -0.19599999 -0.55199999 1
1.61 -0.19599999 -0.55199999 1
1.614 -0.19499999 -0.55299997 1
1.605 -0.193 -0.54900002 1
1.615 -0.19400001 -0.55299997 1
1.612 -0.193 -0.551 1
1.612 -0.192 -0.551 1
1.6160001 -0.192 -0.55199999 1
1.6160001 -0.191 -0.55199999 1
1.6160001 -0.19 -0.55199999 1
1.618 -0.19 -0.55199999 1
1.617 -0.189 -0.551 1
1.6160001 -0.18799999 -0.55000001 1
1.628 -0.18799999 -0.55400002 1
1.623 -0.18700001 -0.55199999 1
1.63 -0.18700001 -0.55400002 1
1.623 -0.185 -0.551 1
1.63 -0.185 -0.55299997 1
1.626 -0.184 -0.551 1
1.626 -0.183 -0.55000001 1
1.633 -0.183 -0.55199999 1
1.633 -0.182 -0.551 1
1.627 -0.18099999 -0.54900002 1
1.6289999 -0.18000001 -0.54900002 1
1.6289999 -0.17900001 -0.54799998 1
1.638 -0.17900001 -0.55000001 1
1.646 -0.17900001 -0.55199999 1
1.655 -0.17900001 -0.55400002 1
1.655 -0.178 -0.55400002 1
1.654 -0.177 -0.55299997 1
1.659 -0.177 -0.55400002 1
1.665 -0.177 -0.55500001 1
1.663 -0.176 -0.55299997 1
1.661 -0.17399999 -0.55199999 1
1.6670001 -0.17399999 -0.55199999 1
1.675 -0.17399999 -0.55400002 1
1.677 -0.17299999 -0.55400002 1
1.681 -0.17299999 -0.55400002 1
1.681 -0.17200001 -0.55299997 1
1.6849999 -0.171 -0.55400002 1
1.692 -0.171 -0.55500001 1
1.701 -0.171 -0.55599999 1
1.683 -0.168 -0.55000001 1
1.704 -0.169 -0.55500001 1
1.7 -0.168 -0.55299997 1
1.698 -0.16599999 -0.551 1
1.706 -0.16599999 -0.55199999 1
1.707 -0.16500001 -0.551 1
1.732 -0.167 -0.55800003 1
1.732 -0.16500001 -0.55699998 1
1.738 -0.16500001 -0.55699998 1
1.737 -0.164 -0.55599999 1
1.742 -0.163 -0.55599999 1
1.756 -0.164 -0.55900002 1
1.755 -0.162 -0.55699998 1
1.766 -0.162 -0.55900002 1
1.766 -0.161 -0.55800003 1
1.773 -0.161 -0.55800003 1
1.778 -0.16 -0.55800003 1
1.784 -0.16 -0.55900002 1
1.796 -0.16 -0.56099999 1
1.801 -0.15899999 -0.56099999 1
1.809 -0.15800001 -0.56099999 1
1.813 -0.15800001 -0.56099999 1
1.824 -0.15700001 -0.56300002 1
1.831 -0.15700001 -0.56300002 1
1.835 -0.156 -0.56300002 1
1.85 -0.156 -0.565 1
1.854 -0.155 -0.565 1
1.857 -0.154 -0.56400001 1
1.858 -0.153 -0.56199998 1
1.873 -0.153 -0.565 1
1.878 -0.153 -0.56400001 1
1.8890001 -0.152 -0.565 1
1.8940001 -0.15099999 -0.565 1
1.897 -0.15000001 -0.56400001 1
1.9220001 -0.15099999 -0.56900001 1
1.9299999 -0.15099999 -0.56999999 1
1.932 -0.15000001 -0.56800002 1
1.948 -0.15000001 -0.56999999 1
1.951 -0.148 -0.56900001 1
1.954 -0.147 -0.56800002 1
1.975 -0.148 -0.57099998 1
1.984 -0.147 -0.57200003 2
2.0039999 -0.147 -0.57499999 2
2.0079999 -0.146 -0.574 3
2.023 -0.146 -0.57499999 3
2.0350001 -0.146 -0.57599998 4
2.0409999 -0.145 -0.57499999 5
2.046 -0.14399999 -0.574 4
2.0480001 -0.14300001 -0.57200003 3
2.0539999 -0.142 -0.57099998 3
2.063 -0.141 -0.57099998 2
2.0810001 -0.141 -0.57300001 1
2.0880001 -0.14 -0.57200003 1
2.1029999 -0.14 -0.574 1
2.1140001 -0.139 -0.574 1
2.1240001 -0.139 -0.574 1
2.1389999 -0.138 -0.57499999 1
2.155 -0.138 -0.57599998 1
2.1689999 -0.13699999 -0.57700002 1
2.174 -0.13600001 -0.57599998 1
2.1930001 -0.13600001 -0.57700002 1
2.2049999 -0.13500001 -0.57700002 1
2.2260001 -0.13500001 -0.57999998 1
2.2379999 -0.13500001 -0.57999998 1
2.253 -0.134 -0.57999998 1
2.266 -0.134 -0.57999998 1
2.286 -0.133 -0.58200002 1
2.3050001 -0.133 -0.58399999 1
2.3150001 -0.132 -0.583 1
2.342 -0.132 -0.58600003 1
2.3710001 -0.132 -0.58999997 2
2.3829999 -0.132 -0.58899999 2
2.392 -0.131 -0.588 2
2.4070001 -0.13 -0.588 2
2.4330001 -0.13 -0.58999997 1
2.4549999 -0.13 -0.59200001 1
2.4749999 -0.12899999 -0.59299999 1
2.4990001 -0.12899999 -0.59500003 2
2.5139999 -0.12800001 -0.59399998 2
2.5220001 -0.127 -0.59200001 2
2.5539999 -0.127 -0.59500003 2
2.572 -0.127 -0.59500003 1
2.5899999 -0.126 -0.59500003 1
2.612 -0.125 -0.59600002 1
2.6429999 -0.125 -0.59899998 2
2.654 -0.124 -0.597 2
2.6830001 -0.124 -0.59899998 2
2.711 -0.124 -0.60100001 2
2.7409999 -0.124 -0.60299999 2
2.76 -0.123 -0.602 2
2.79 -0.123 -0.60399997 2
2.8150001 -0.122 -0.60500002 2
2.845 -0.122 -0.60600001 2
2.8670001 -0.121 -0.60600001 2
2.8929999 -0.121 -0.60699999 2
3.043 -0.125 -0.63300002 2
3.1370001 -0.12800001 -0.64700001 2
3.0009999 -0.12 -0.61400002 2
3.036 -0.12 -0.616 2
3.072 -0.12 -0.61699998 2
3.108 -0.12 -0.61900002 2
3.1329999 -0.119 -0.61799997 2
3.256 -0.122 -0.63700002 2
3.253 -0.12 -0.63099998 2
3.3540001 -0.122 -0.64399999 2
3.303 -0.119 -0.62800002 1
3.4070001 -0.121 -0.64200002 2
3.434 -0.12 -0.64099997 2
3.553 -0.122 -0.65700001 2
3.4990001 -0.119 -0.63999999 2
3.5079999 -0.117 -0.63499999 1
3.599 -0.119 -0.64499998 1
3.602 -0.117 -0.639 3
3.6559999 -0.117 -0.64099997 2
3.724 -0.117 -0.64600003 3
3.7620001 -0.117 -0.64600003 2
3.8529999 -0.118 -0.65399998 2
3.8570001 -0.116 -0.648 2
4.013 -0.119 -0.66600001 2
4.0120001 -0.117 -0.65799999 2
4.0619998 -0.117 -0.65899998 2
4.1440001 -0.117 -0.66399997 2
4.1869998 -0.117 -0.66299999 2
4.3239999 -0.119 -0.676 4
4.323 -0.117 -0.66799998 2
4.4250002 -0.118 -0.67500001 2
4.5139999 -0.118 -0.68000001 2
4.5960002 -0.119 -0.68300003 2
4.6900001 -0.119 -0.68800002 2
4.7639999 -0.119 -0.68900001 3
4.869 -0.12 -0.69499999 3
4.9569998 -0.12 -0.69700003 3
5.0640001 -0.121 -0.70200002 3
5.1700001 -0.121 -0.70700002 3
5.2930002 -0.122 -0.713 3
5.414 -0.123 -0.71799999 3
5.5440001 -0.124 -0.72500002 4
5.6900001 -0.125 -0.73199999 4
5.8070002 -0.126 -0.736 4
5.934 -0.127 -0.74000001 4
6.1079998 -0.12800001 -0.74900001 4
6.2540002 -0.12899999 -0.75400001 5
6.4029999 -0.13 -0.759 6
6.5939999 -0.132 -0.76899999 5
6.802 -0.134 -0.77899998 6
7.0139999 -0.13600001 -0.78899997 5
7.2950001 -0.139 -0.80500001 6
7.5830002 -0.14300001 -0.82200003 13
7.789 -0.14399999 -0.82800001 13
7.994 -0.146 -0.833 14
8.2469997 -0.148 -0.84200001 13
8.5629997 -0.15099999 -0.85699999 5
8.9610004 -0.156 -0.87800002 4
9.342 -0.16 -0.89600003 3
9.75 -0.16500001 -0.91500002 3
10.16 -0.169 -0.93199998 3
10.561 -0.17399999 -0.94700003 5
11.007 -0.178 -0.96399999 3
11.492 -0.184 -0.98199999 3
12.02 -0.189 -1.002 2
12.598 -0.19599999 -1.024 3
13.236 -0.20299999 -1.048 3
13.91 -0.211 -1.072 4
14.634 -0.219 -1.097 3
0 0 0 2
16.415001 -0.23899999 -1.161 3
0 0 0 2
0 0 0 1
0 0 0 1
0 0 0 0
0 0 0 1
0 0 0 0
0 0 0 0
0 0 0 3
46.400002 -0.616 -2.398 117
46.428001 -0.611 -2.302 161
46.452999 -0.60699999 -2.204 174
46.470001 -0.602 -2.105 167
46.43 -0.597 -2.0050001 154
46.453999 -0.59399998 -1.9069999 90
0 0 0 0
0 0 0 36
0 0 0 0
0 0 0 32
117.586 -1.465 -3.5699999 28
0 0 0 25
0 0 0 25
0 0 0 0
0 0 0 0
0 0 0 41
0 0 0 0
0 0 0 47
73.554001 -0.90399998 -0.97399998 77
73.578003 -0.90499997 -0.81599998 92
73.563004 -0.90700001 -0.65799999 57
0 0 0 0
0 0 0 14
0 0 0 9
0 0 0 27
70.351997 -0.88099998 0.122 52
70.337997 -0.88499999 0.273 102
70.435997 -0.89099997 0.42699999 125
70.516998 -0.89700001 0.57800001 82
70.593002 -0.90399998 0.73000002 43
70.666 -0.91100001 0.88200003 104
70.579002 -0.91600001 1.0319999 118
70.278 -0.92000002 1.178 25
73.554001 -0.97000003 1.388 62
73.511002 -0.97799999 1.546 88
73.460999 -0.98699999 1.702 89
73.439003 -0.99599999 1.8559999 85
73.441002 -1.006 2.0139999 87
73.434998 -1.016 2.1700001 89
73.389 -1.026 2.325 88
73.292 -1.0369999 2.4779999 75
73.079002 -1.046 2.6259999 64
72.889999 -1.0549999 2.773 53
72.577003 -1.064 2.915 62
72.367996 -1.074 3.0599999 64
72.200996 -1.085 3.2030001 73
72.167999 -1.099 3.3540001 73
72.147003 -1.113 3.5050001 68
72.120003 -1.128 3.6559999 77
71.966003 -1.141 3.799 62
71.667 -1.153 3.934 55
71.224998 -1.161 4.0570002 58
70.972 -1.174 4.191 67
70.847 -1.189 4.3340001 71
70.848 -1.207 4.4790001 57
70.844002 -1.225 4.6269999 61
70.612999 -1.239 4.757 56
70.114998 -1.25 4.869 42
69.706001 -1.261 4.987 58
69.563004 -1.278 5.1199999 58
69.502998 -1.2970001 5.2600002 41
69.476997 -1.317 5.401 23
68.711998 -1.324 5.4829998 10
68.153999 -1.334 5.5739999 9
67.886002 -1.35 5.6919999 7
0 0 0 34
118.462 -2.4319999 10.42 40
118.515 -2.471 10.662 32
118.567 -2.5120001 10.908 32
118.505 -2.5510001 11.143 33
118.491 -2.5929999 11.381 27
118.792 -2.642 11.65 26
118.91 -2.687 11.901 28
118.929 -2.7320001 12.141 25
118.895 -2.7739999 12.373 40
118.992 -2.8210001 12.621 66
119.016 -2.8659999 12.857 71
119.011 -2.9130001 13.094 54
118.97 -2.9590001 13.325 33
118.985 -3.007 13.562 28
0 0 0 0
0 0 0 0
0 0 0 26
118.631 -3.194 14.45 33
118.646 -3.244 14.677 44
118.685 -3.296 14.916 37
118.612 -3.3469999 15.133 33
118.661 -3.4000001 15.365 33
118.805 -3.457 15.613 25
0 0 0 0
0 0 0 0
0 0 0 0
0 0 0 0
0 0 0 0
0 0 0 0
0 0 0 0
0 0 0 0
0 0 0 0
0 0 0 0
0 0 0 5
0 0 0 0
0 0 0 0
0 0 0 0
0 0 0 0
0 0 0 0
0 0 0 0
0 0 0 0
0 0 0 0
0 0 0 0
0 0 0 0
0 0 0 22
52.557999 -2.1370001 9.1300001 43
52.549 -2.1659999 9.2200003 63
52.532001 -2.194 9.3109999 72
52.549999 -2.2249999 9.4049997 74
52.550999 -2.2539999 9.4960003 41
52.498001 -2.2820001 9.5769997 18
52.229 -2.3010001 9.618 13
51.845001 -2.313 9.6339998 29
51.776001 -2.3399999 9.7089996 41
51.773998 -2.3699999 9.7959995 38
51.471001 -2.385 9.8240004 31
50.909 -2.3889999 9.802 30
50.786999 -2.415 9.8640003 20
50.594002 -2.4360001 9.9099998 16
50.276001 -2.451 9.9309998 14
49.678001 -2.451 9.8950005 19
49.495998 -2.471 9.9379997 19
49.314999 -2.4920001 9.9820004 15
48.988998 -2.506 9.9940004 13
48.681999 -2.52 10.007 12
48.241001 -2.527 9.9940004 16
48.064999 -2.5469999 10.033 14
47.837002 -2.5650001 10.06 13
47.476002 -2.5739999 10.06 13
47.179001 -2.5880001 10.07 12
46.862999 -2.5999999 10.075 14
46.706001 -2.6199999 10.112 12
46.426998 -2.6340001 10.121 12
46.144001 -2.6470001 10.128 12
45.867001 -2.6600001 10.137 11
45.548 -2.6700001 10.135 13
45.355999 -2.688 10.16 14
45.109001 -2.7019999 10.171 12
44.851002 -2.7160001 10.178 12
44.563999 -2.7260001 10.177 13
44.328999 -2.74 10.187 16
44.080002 -2.7539999 10.193 15
43.895 -2.7709999 10.213 14
43.660999 -2.783 10.219 15
43.410999 -2.7969999 10.222 15
43.191002 -2.8099999 10.229 13
42.908001 -2.8199999 10.222 16
42.735001 -2.8369999 10.239 16
42.551998 -2.852 10.253 18
42.355999 -2.8670001 10.262 15
42.115002 -2.8789999 10.26 16
41.884998 -2.8900001 10.261 18
41.515999 -2.892 10.225 19
41.383999 -2.9100001 10.246 22
41.285999 -2.931 10.275 21
41.157001 -2.948 10.295 17
40.98 -2.9630001 10.303 16
40.764999 -2.974 10.3 18
40.397999 -2.973 10.257 20
40.109001 -2.9790001 10.234 20
40.048 -3.0009999 10.267 20
40.004002 -3.0239999 10.304 20
39.919998 -3.0450001 10.33 20
39.780998 -3.0599999 10.342 18
39.577 -3.0699999 10.335 19
39.019001 -3.053 10.234 19
38.723 -3.0550001 10.2 24
38.722 -3.0810001 10.244 25
38.727001 -3.1070001 10.289 22
38.683998 -3.128 10.321 21
38.652 -3.152 10.355 23
38.561001 -3.1700001 10.373 19
37.757 -3.1289999 10.197 18
37.388 -3.122 10.138 21
37.355999 -3.145 10.168 24
37.368999 -3.1700001 10.211 24
37.361 -3.1930001 10.248 21
37.367001 -3.2190001 10.287 19
37.362999 -3.243 10.323 22
37.230999 -3.256 10.324 22
36.369999 -3.2030001 10.12 17
36.030998 -3.197 10.061 22
35.997002 -3.2179999 10.086 21
35.991001 -3.2409999 10.119 21
36.004002 -3.266 10.156 21
36.001999 -3.289 10.189 21
36.016998 -3.313 10.225 22
35.976002 -3.332 10.246 23
35.207001 -3.2839999 10.058 16
34.658001 -3.2539999 9.9320002 21
34.639 -3.2750001 9.9560003 27
34.647999 -3.2980001 9.9879999 22
34.657001 -3.3210001 10.02 23
34.650002 -3.3429999 10.046 22
34.660999 -3.3659999 10.077 23
34.660999 -3.3870001 10.104 20
34.661999 -3.4089999 10.132 24
33.987 -3.3640001 9.96 15
33.346001 -3.322 9.7980003 20
33.27 -3.335 9.8000002 26
33.277 -3.3570001 9.8260002 25
33.286999 -3.378 9.8529997 25
33.294998 -3.4000001 9.8789997 24
33.287998 -3.4189999 9.8999996 24
33.285 -3.4389999 9.9209995 19
33.306 -3.461 9.9490004 20
33.301998 -3.4809999 9.9700003 21
32.728001 -3.4400001 9.8179998 14
32.077999 -3.391 9.6429996 23
31.938 -3.395 9.6210003 23
31.919001 -3.4119999 9.6339998 25
31.924999 -3.4319999 9.6540003 24
31.917999 -3.45 9.6700001 26
31.927999 -3.4690001 9.691 26
31.924999 -3.4879999 9.7069998 26
31.921 -3.506 9.7229996 24
31.943001 -3.527 9.7460003 24
31.934 -3.5439999 9.7589998 22
31.879 -3.556 9.7580004 23
31.165001 -3.494 9.5539999 15
30.639 -3.4530001 9.4069996 18
30.58 -3.4630001 9.4020004 20
30.559999 -3.4779999 9.4099998 25
30.575001 -3.497 9.427 24
30.573999 -3.5139999 9.4390001 25
30.577 -3.5309999 9.4530001 24
30.579 -3.5480001 9.4639997 25
30.573 -3.563 9.474 25
30.589001 -3.5810001 9.4890003 24
30.587999 -3.598 9.4989996 25
30.565001 -3.6110001 9.5019999 22
30.57 -3.628 9.5129995 20
30.098 -3.5869999 9.375 15
29.542999 -3.536 9.2110004 16
29.233999 -3.5150001 9.1219997 20
29.209 -3.527 9.1210003 23
29.221001 -3.543 9.132 23
29.216999 -3.5569999 9.1379995 23
29.216 -3.5710001 9.1440001 23
29.205999 -3.5840001 9.1459999 23
29.219 -3.5999999 9.1560001 22
29.209999 -3.6140001 9.158 23
29.226 -3.6300001 9.1669998 23
29.209999 -3.641 9.1669998 23
29.231001 -3.658 9.177 22
29.221001 -3.6700001 9.177 22
29.209 -3.6819999 9.177 20
29.204 -3.6949999 9.177 21
29.159 -3.7019999 9.165 19
28.607 -3.6440001 8.9940004 11
28.114 -3.5940001 8.8400002 18
27.886999 -3.5780001 8.7700005 17
27.846001 -3.585 8.757 18
27.84 -3.596 8.7550001 22
27.832001 -3.6059999 8.7530003 22
27.839001 -3.619 8.7539997 21
27.84 -3.6300001 8.7539997 21
27.851 -3.6429999 8.7559996 22
27.827999 -3.652 8.7469997 21
27.843 -3.665 8.7489996 22
27.820999 -3.6730001 8.7399998 23
27.844999 -3.687 8.7449999 22
27.837999 -3.697 8.7390003 21
27.848 -3.7090001 8.7390003 22
27.851 -3.7190001 8.7360001 23
27.849001 -3.7290001 8.7299995 22
27.847 -3.7390001 8.7250004 22
27.856001 -3.7509999 8.7229996 20
27.846001 -3.7590001 8.7139997 20
27.841 -3.7690001 8.7060003 20
27.577 -3.7420001 8.618 17
27.122999 -3.6900001 8.4689999 13
26.799999 -3.655 8.3620005 16
26.570999 -3.632 8.283 16
26.507999 -3.632 8.2559996 17
26.489 -3.638 8.2419996 20
26.469999 -3.6440001 8.2279997 21
26.465 -3.651 8.2180004 21
26.483999 -3.661 8.2150002 23
26.462 -3.6659999 8.1990004 23
26.485001 -3.677 8.1969995 23
26.478001 -3.684 8.184 23
26.483 -3.6919999 8.1759996 24
26.469 -3.697 8.1610003 22
26.468 -3.704 8.1499996 23
26.473 -3.711 8.1400003 24
26.473 -3.7179999 8.1280003 24
26.474001 -3.7249999 8.1160002 24
26.482 -3.733 8.1059999 24
26.469999 -3.7379999 8.0900002 23
26.471001 -3.743 8.0769997 23
26.464001 -3.7479999 8.0620003 23
26.465 -3.7539999 8.0480003 23
26.465 -3.76 8.0340004 24
26.486 -3.7679999 8.026 23
26.474001 -3.7720001 8.0080004 22
26.476999 -3.7780001 7.994 22
26.473 -3.7820001 7.9770002 22
26.464001 -3.786 7.9580002 22
26.459999 -3.789 7.941 22
26.469999 -3.7950001 7.928 21
26.461 -3.7980001 7.908 21
26.483 -3.806 7.8969998 20
26.465 -3.8069999 7.875 21
26.459999 -3.8099999 7.8559999 21
26.474001 -3.816 7.8410001 22
26.469 -3.819 7.8210001 21
26.473 -3.823 7.8039999 21
26.466 -3.8239999 7.783 20
26.426001 -3.822 7.7519999 20
26.305 -3.806 7.697 15
26.086 -3.777 7.612 15
25.839001 -3.7449999 7.52 9
25.617001 -3.714 7.4359999 9
25.403999 -3.6860001 7.3540001 11
25.177999 -3.654 7.2680001 11
25.153 -3.652 7.2399998 10
25.131001 -3.651 7.2129998 9
25.136 -3.6530001 7.1939998 10
25.122 -3.651 7.1680002 8
25.091 -3.648 7.138 9
25.105 -3.651 7.1199999 9
25.094 -3.6500001 7.0939999 9
25.084 -3.6489999 7.0689998 9
25.087999 -3.6500001 7.0469999 9
25.072001 -3.648 7.0190001 10
25.072001 -3.648 6.9959998 10
25.073 -3.648 6.973 9
25.069 -3.6470001 6.948 9
25.058001 -3.645 6.9200001 9
25.066 -3.645 6.8979998 10
25.083 -3.6470001 6.8769999 9
25.073 -3.6440001 6.8499999 9
25.077999 -3.6429999 6.8260002 10
25.066999 -3.641 6.7969999 10
25.075001 -3.6400001 6.7729998 10
25.101 -3.642 6.7540002 10
25.094999 -3.6389999 6.7259998 10
25.09 -3.6359999 6.697 10
25.113001 -3.6370001 6.677 9
25.117001 -3.635 6.6500001 9
25.135 -3.635 6.6279998 10
25.141001 -3.6340001 6.6009998 10
25.186001 -3.6370001 6.585 10
25.218 -3.638 6.5650001 11
25.285999 -3.645 6.5539999 14
25.360001 -3.651 6.5440001 16
25.433001 -3.658 6.5339999 20
25.535999 -3.6689999 6.5300002 24
25.625999 -3.677 6.5229998 25
25.725 -3.687 6.5180001 24
25.809999 -3.6949999 6.5079999 25
25.915001 -3.7049999 6.5029998 29
26.030001 -3.717 6.5 25
26.131001 -3.7260001 6.493 24
26.253 -3.7379999 6.4910002 23
26.368 -3.7490001 6.4860001 27
26.493999 -3.76 6.4840002 23
26.605 -3.7690001 6.4780002 27
26.711 -3.7780001 6.4699998 28
26.84 -3.7909999 6.467 28
26.959999 -3.8010001 6.461 27
27.089001 -3.812 6.4569998 25
27.204 -3.8210001 6.448 28
27.325001 -3.829 6.441 24
27.468 -3.8410001 6.4380002 24
27.615 -3.855 6.4359999 24
27.735001 -3.8629999 6.428 27
27.860001 -3.872 6.4190001 25
28.011999 -3.885 6.415 22
28.162001 -3.8959999 6.4109998 27
28.32 -3.9089999 6.408 21
28.447001 -3.9170001 6.3979998 28
28.586 -3.9260001 6.388 28
28.728001 -3.9349999 6.3790002 24
28.871 -3.944 6.3699999 23
29.063 -3.96 6.3720002 25
29.205 -3.9679999 6.362 28
29.367001 -3.9790001 6.355 26
29.495001 -3.9849999 6.3400002 23
29.669001 -3.997 6.3340001 23
29.877001 -4.013 6.336 24
30.035999 -4.0219998 6.3249998 23
30.219999 -4.0339999 6.3200002 23
30.385 -4.0430002 6.309 24
30.562 -4.053 6.3010001 25
30.743999 -4.0630002 6.2930002 22
30.944 -4.0760002 6.2870002 20
31.132999 -4.086 6.2789998 20
31.349001 -4.0999999 6.2750001 20
31.554001 -4.112 6.2680001 22
31.743999 -4.1220002 6.257 22
31.915001 -4.1279998 6.2420001 21
32.139 -4.1409998 6.237 22
32.333 -4.1500001 6.2249999 22
32.563 -4.1630001 6.2179999 23
32.775002 -4.1719999 6.2069998 23
33.008999 -4.1849999 6.2010002 23
33.214001 -4.1929998 6.1880002 24
33.445999 -4.204 6.178 24
33.66 -4.2119999 6.164 24
33.912998 -4.224 6.1570001 25
34.167 -4.2360001 6.1490002 25
34.407001 -4.2470002 6.1389999 25
34.653 -4.257 6.1269999 26
34.883999 -4.2649999 6.1129999 25
35.096001 -4.27 6.0939999 26
35.243999 -4.2670002 6.0619998 19
35.41 -4.2649999 6.033 11
35.612999 -4.2670002 6.0110002 6
35.636002 -4.2480001 5.9559999 4
35.513 -4.21 5.8769999 4
35.425999 -4.177 5.8049998 16
35.409 -4.152 5.744 46
35.41 -4.1279998 5.6869998 50
35.405998 -4.1040001 5.6279998 51
35.402 -4.0799999 5.5679998 51
35.400002 -4.0549998 5.5100002 51
35.389 -4.0310001 5.4499998 48
35.368999 -4.0029998 5.3870001 50
35.374001 -3.9779999 5.329 52
35.386002 -3.954 5.2709999 54
35.360001 -3.925 5.2080002 57
35.370998 -3.901 5.151 56
35.368999 -3.8740001 5.0910001 56
35.360001 -3.8469999 5.0300002 53
35.352001 -3.819 4.9689999 55
35.359001 -3.793 4.9099998 55
35.355 -3.7650001 4.849 55
35.354 -3.7379999 4.7880001 54
35.344002 -3.7090001 4.7270002 53
35.330002 -3.6789999 4.665 52
35.327 -3.651 4.6040001 53
35.335999 -3.6229999 4.5450001 54
35.327 -3.5929999 4.4829998 51
35.318001 -3.563 4.4219999 51
35.316002 -3.533 4.3610001 50
35.324001 -3.5050001 4.302 50
35.294998 -3.4719999 4.2379999 49
35.306999 -3.4430001 4.178 50
35.301998 -3.411 4.1160002 51
35.293999 -3.3789999 4.0539999 45
35.283001 -3.3469999 3.9909999 50
35.292999 -3.3169999 3.9319999 50
35.287998 -3.2850001 3.8699999 52
35.277 -3.2520001 3.8080001 53
35.27 -3.22 3.747 53
35.256001 -3.1849999 3.6830001 52
35.264 -3.154 3.6229999 55
35.259998 -3.1210001 3.562 53
35.244999 -3.0869999 3.5 53
35.247002 -3.0539999 3.438 57
35.263 -3.0209999 3.378 44
35.312 -2.9909999 3.3210001 18
35.646 -2.9849999 3.2909999 10
36.335999 -3.0079999 3.2909999 12
37.074001 -3.0320001 3.293 47
37.070999 -2.9949999 3.2279999 55
37.054001 -2.957 3.1630001 53
37.132999 -2.9260001 3.105 30
38.296001 -2.9779999 3.135 52
38.417999 -2.9489999 3.079 58
38.404999 -2.9089999 3.0120001 54
38.394001 -2.869 2.944 55
39.021999 -2.875 2.924 27
39.745998 -2.8870001 2.9100001 41
39.745998 -2.845 2.8410001 32
0 0 0 2
37.784 -2.6240001 2.569 2
37.898998 -2.5910001 2.5109999 5
38.214001 -2.5710001 2.4649999 5
38.578999 -2.553 2.421 9
38.75 -2.5220001 2.365 15
39.254002 -2.5109999 2.3280001 18
39.424999 -2.4779999 2.2690001 22
39.813 -2.4579999 2.2219999 8
40.763 -2.47 2.2049999 6
40.917999 -2.4330001 2.142 35
40.998001 -2.3900001 2.0739999 70
41.598999 -2.3770001 2.0320001 48
41.848999 -2.3429999 1.972 56
42.358002 -2.323 1.924 50
42.861 -2.3 1.872 21
43.471001 -2.283 1.826 32
43.508999 -2.234 1.753 48
43.566002 -2.1849999 1.6799999 41
43.654999 -2.1370001 1.608 9
0 0 0 89
47.391998 -2.2060001 1.584 15
0 0 0 0
0 0 0 0
0 0 0 0
0 0 0 0
0 0 0 0
0 0 0 7
51.68 -1.96 1.113 4
0 0 0 0
0 0 0 0
0 0 0 0
0 0 0 0
0 0 0 0
0 0 0 0
0 0 0 0
0 0 0 0
0 0 0 0
0 0 0 0
0 0 0 118
68.517998 -1.534 0.096000001 10
68.778 -1.448 -0.017000001 21
67.973 -1.339 -0.13 10
0 0 0 0
0 0 0 0
0 0 0 21
73.577003 -1.052 -0.62400001 47
73.566002 -0.95099998 -0.74400002 66
73.553001 -0.85100001 -0.86299998 68
73.552002 -0.75099999 -0.98100001 60
73.567001 -0.64899999 -1.1 25
0 0 0 110
134.226 -0.81300002 -2.4400001 49
0 0 0 0
0 0 0 0
0 0 0 25
0 0 0 60
0 0 0 25
0 0 0 25
0 0 0 25
0 0 0 0
0 0 0 0
0 0 0 0
0 0 0 23
74.320999 0.81099999 -2.7520001 150
0 0 0 0
0 0 0 0
0 0 0 0
0 0 0 0
0 0 0 6
39.944 0.78500003 -1.845 3
0 0 0 0
0 0 0 0
0 0 0 0
0 0 0 0
0 0 0 0
0 0 0 0
0 0 0 0
0 0 0 0
0 0 0 2
0 0 0 1
0 0 0 0
0 0 0 3
18.898001 0.73699999 -1.234 2
0 0 0 0
0 0 0 2
16.305 0.70999998 -1.135 2
15.507 0.699 -1.1 5
15.096 0.70300001 -1.092 3
14.554 0.69999999 -1.073 2
13.999 0.69499999 -1.052 2
13.523 0.69199997 -1.035 3
13.135 0.69199997 -1.023 3
12.779 0.69300002 -1.013 3
12.337 0.68800002 -0.995 3
11.959 0.685 -0.98000002 3
11.636 0.68400002 -0.96899998 2
11.272 0.68000001 -0.954 2
10.98 0.68000001 -0.94400001 2
10.68 0.67799997 -0.93300003 4
10.424 0.67799997 -0.92400002 4
10.157 0.676 -0.91399997 4
9.8990002 0.67400002 -0.90399998 3
9.6529999 0.67199999 -0.89300001 3
9.4180002 0.67000002 -0.884 4
9.1689997 0.667 -0.87199998 6
8.9779997 0.667 -0.86500001 4
8.7159996 0.66100001 -0.85100001 4
8.5010004 0.65700001 -0.84100002 4
8.3319998 0.65700001 -0.83399999 4
8.1300001 0.65399998 -0.824 3
7.9510002 0.65200001 -0.81599998 4
7.8070002 0.653 -0.81099999 3
7.6139998 0.648 -0.80000001 3
7.4400001 0.64499998 -0.79100001 3
7.302 0.64399999 -0.78500003 4
7.1659999 0.64300001 -0.77899998 4
7.039 0.64300001 -0.773 5
6.9260001 0.64300001 -0.76899999 5
6.803 0.64200002 -0.76300001 4
6.684 0.64099997 -0.75800002 4
6.5809999 0.64200002 -0.75400001 4
6.4640002 0.63999999 -0.74800003 3
6.381 0.64200002 -0.74599999 3
6.2740002 0.64099997 -0.74000001 3
6.1950002 0.64200002 -0.73799998 5
6.1620002 0.648 -0.741 7
6.0419998 0.64499998 -0.73299998 3
5.9310002 0.64200002 -0.72600001 2
5.8530002 0.64300001 -0.72299999 2
5.7719998 0.64300001 -0.71899998 3
5.711 0.64499998 -0.71799999 3
5.658 0.648 -0.71700001 3
5.5929999 0.64899999 -0.71499997 4
5.5359998 0.65100002 -0.713 4
5.441 0.648 -0.70700002 3
5.3909998 0.65100002 -0.70599997 3
5.3239999 0.65100002 -0.70300001 3
5.256 0.64999998 -0.699 3
5.1830001 0.64899999 -0.69499999 4
5.1110001 0.648 -0.69 4
5.0809999 0.65200001 -0.69099998 2
4.9970002 0.64899999 -0.685 4
4.96 0.65200001 -0.685 2
4.9169998 0.653 -0.68300003 2
4.8660002 0.65399998 -0.68099999 3
4.809 0.65399998 -0.67799997 3
4.7810001 0.65700001 -0.67799997 3
4.7140002 0.65499997 -0.67299998 4
4.6760001 0.65700001 -0.67199999 2
4.6399999 0.65899998 -0.671 2
4.5809999 0.65700001 -0.667 4
4.5580001 0.66100001 -0.667 4
4.5349998 0.66399997 -0.66799998 2
4.4899998 0.66399997 -0.66600001 2
4.4439998 0.66399997 -0.66299999 2
4.402 0.66399997 -0.66000003 2
4.369 0.66600001 -0.65899998 2
4.3720002 0.67299998 -0.66299999 2
4.349 0.676 -0.66399997 3
4.2740002 0.67000002 -0.65600002 2
4.2989998 0.68000001 -0.66299999 4
4.2179999 0.67400002 -0.65399998 2
4.1830001 0.67400002 -0.65200001 2
4.1360002 0.67299998 -0.648 2
4.2090001 0.69099998 -0.66299999 2
4.1459999 0.68599999 -0.65600002 2
4.0770001 0.68099999 -0.648 2
4.0619998 0.68400002 -0.64899999 2
4.0380001 0.68599999 -0.648 2
3.977 0.68099999 -0.64099997 2
3.9319999 0.67900002 -0.63700002 2
3.9619999 0.69 -0.64499998 3
3.9530001 0.69400001 -0.64600003 3
3.918 0.69300002 -0.64300001 2
3.868 0.69 -0.63800001 2
3.8670001 0.69499999 -0.63999999 2
3.767 0.68199998 -0.62599999 4
3.747 0.68400002 -0.62599999 9
3.75 0.68900001 -0.62900001 8
3.7349999 0.69199997 -0.62900001 4
3.777 0.70499998 -0.63800001 2
3.786 0.71200001 -0.64200002 3
3.7590001 0.71200001 -0.63999999 2
3.714 0.708 -0.63499999 2
3.6800001 0.70700002 -0.63099998 2
3.6719999 0.70999998 -0.63200003 2
3.7160001 0.72299999 -0.64200002 2
3.727 0.73000002 -0.64600003 3
3.612 0.713 -0.62800002 2
3.5969999 0.71399999 -0.62699997 2
3.625 0.72500002 -0.634 2
3.55 0.71399999 -0.62300003 2
3.5580001 0.72100002 -0.62699997 2
3.5569999 0.72500002 -0.62800002 2
3.4960001 0.71700001 -0.62 2
3.4949999 0.72100002 -0.62099999 1
3.4820001 0.72299999 -0.62099999 2
3.4849999 0.72799999 -0.62300003 1
3.4519999 0.72500002 -0.61900002 1
3.4100001 0.72100002 -0.61299998 1
3.408 0.72500002 -0.61400002 1
3.441 0.736 -0.62199998 2
3.411 0.73400003 -0.61799997 2
3.483 0.75300002 -0.63200003 2
3.4360001 0.74699998 -0.625 2
3.368 0.73699999 -0.61500001 2
3.3640001 0.74000001 -0.61500001 2
3.4749999 0.76800001 -0.63700002 2
3.326 0.73900002 -0.611 2
3.3169999 0.741 -0.611 3
3.3139999 0.74400002 -0.61199999 3
3.3069999 0.74699998 -0.611 2
3.2950001 0.74800003 -0.61000001 2
3.2909999 0.75 -0.611 2
3.28 0.75199997 -0.61000001 2
3.277 0.755 -0.611 3
3.2679999 0.75599998 -0.61000001 3
3.2609999 0.75800002 -0.61000001 3
3.257 0.76099998 -0.61000001 3
3.2490001 0.76200002 -0.61000001 3
3.243 0.76499999 -0.60900003 3
3.2320001 0.76499999 -0.60799998 2
3.227 0.76800001 -0.60799998 2
3.214 0.76800001 -0.60699999 2
3.2090001 0.76999998 -0.60699999 2
3.1960001 0.76999998 -0.60500002 2
3.2019999 0.77499998 -0.60699999 2
3.1860001 0.77399999 -0.60500002 2
3.1889999 0.778 -0.60600001 2
3.1800001 0.77899998 -0.60500002 2
3.1819999 0.78299999 -0.60600001 2
3.168 0.78200001 -0.60399997 2
3.165 0.78500003 -0.60399997 2
3.1619999 0.787 -0.60399997 2
3.164 0.79000002 -0.60500002 2
3.1559999 0.79100001 -0.60399997 2
3.151 0.79299998 -0.60299999 2
3.1500001 0.79500002 -0.60399997 2
3.1440001 0.79699999 -0.60299999 2
3.145 0.80000001 -0.60399997 2
3.1400001 0.801 -0.60299999 2
3.1389999 0.80400002 -0.60299999 2
3.142 0.80699998 -0.60399997 2
3.1389999 0.80900002 -0.60399997 2
3.1329999 0.81 -0.60299999 2
3.1289999 0.81199998 -0.60299999 2
3.1340001 0.81599998 -0.60399997 2
3.132 0.81800002 -0.60399997 2
3.131 0.81999999 -0.60399997 2
3.1289999 0.82200003 -0.60299999 2
3.1210001 0.82200003 -0.602 2
3.1210001 0.82499999 -0.602 2
3.118 0.82599998 -0.602 2
3.1229999 0.82999998 -0.60299999 2
3.1259999 0.833 -0.60299999 2
3.1210001 0.83399999 -0.602 2
3.1199999 0.83600003 -0.602 2
3.122 0.83899999 -0.602 2
3.1210001 0.83999997 -0.602 2
3.1199999 0.84200001 -0.602 2
3.1270001 0.84600002 -0.60299999 2
3.1270001 0.84799999 -0.60299999 2
3.122 0.84899998 -0.602 2
3.1240001 0.85100001 -0.602 2
3.1259999 0.85399997 -0.602 2
3.125 0.85600001 -0.602 2
3.1300001 0.85900003 -0.602 2
3.131 0.861 -0.602 2
3.131 0.86299998 -0.602 2
3.138 0.866 -0.60299999 2
3.1400001 0.86900002 -0.60299999 2
3.145 0.87199998 -0.60299999 2
3.1400001 0.87199998 -0.602 2
3.148 0.87599999 -0.60299999 2
3.151 0.87800002 -0.60299999 2
3.155 0.88099998 -0.60299999 2
3.155 0.88200003 -0.60299999 2
3.155 0.884 -0.602 2
3.1570001 0.88599998 -0.602 2
3.1589999 0.88800001 -0.602 2
3.177 0.89399999 -0.60399997 2
3.177 0.89499998 -0.60399997 2
3.3610001 0.949 -0.63800001 2
3.3610001 0.94999999 -0.63700002 2
3.339 0.94499999 -0.63200003 2
3.3369999 0.94599998 -0.63099998 2
3.3299999 0.94499999 -0.62900001 2
3.3299999 0.94599998 -0.62800002 2
3.3010001 0.93900001 -0.62199998 2
3.326 0.94700003 -0.625 2
3.22 0.91799998 -0.60399997 2
3.224 0.92000002 -0.60399997 2
3.2260001 0.92199999 -0.60399997 2
3.23 0.92400002 -0.60399997 2
3.2460001 0.92900002 -0.60500002 2
3.2539999 0.93199998 -0.60600001 3
3.2609999 0.935 -0.60600001 2
3.2609999 0.93599999 -0.60500002 2
3.27 0.93900001 -0.60600001 2
3.279 0.94199997 -0.60600001 2
3.444 0.99000001 -0.63499999 2
3.421 0.98400003 -0.63 2
3.4089999 0.98100001 -0.62599999 2
3.3710001 0.97100002 -0.61799997 2
3.3280001 0.95899999 -0.60900003 2
3.3050001 0.95200002 -0.60299999 2
3.4690001 1 -0.63200003 3
3.411 0.98400003 -0.62 2
3.369 0.972 -0.611 2
3.3900001 0.97799999 -0.61299998 1
3.4579999 0.99800003 -0.62400001 3
3.3889999 0.97799999 -0.61000001 1
3.4030001 0.98199999 -0.611 2
3.4030001 0.98199999 -0.61000001 2
3.4579999 0.99800003 -0.61799997 2
3.4590001 0.99800003 -0.616 3
3.4460001 0.995 -0.61199999 3
3.48 1.0039999 -0.61699998 3
3.4960001 1.0089999 -0.61799997 2
3.553 1.025 -0.62599999 3
3.5829999 1.034 -0.63 3
3.602 1.039 -0.63099998 3
3.529 1.017 -0.61699998 3
3.562 1.026 -0.62099999 3
3.5669999 1.027 -0.62 3
3.6400001 1.048 -0.63099998 3
3.562 1.025 -0.61500001 3
3.6429999 1.048 -0.62699997 2
3.6459999 1.048 -0.625 2
3.687 1.059 -0.63 3
3.7179999 1.067 -0.634 3
3.677 1.054 -0.625 3
3.7260001 1.068 -0.63099998 2
3.73 1.068 -0.62900001 3
3.7920001 1.085 -0.63700002 3
3.8110001 1.089 -0.63800001 3
3.8039999 1.086 -0.63499999 2
3.8139999 1.0880001 -0.634 3
3.865 1.101 -0.63999999 2
3.839 1.092 -0.634 3
3.812 1.0829999 -0.62699997 2
3.869 1.098 -0.634 3
3.8789999 1.1 -0.63300002 2
3.869 1.096 -0.62900001 2
3.8900001 1.1 -0.63 3
3.9300001 1.11 -0.634 2
3.9419999 1.1109999 -0.63300002 2
4.0120001 1.13 -0.64200002 2
4.0630002 1.142 -0.64700001 2
4.0320001 1.132 -0.63999999 2
4.1799998 1.171 -0.66000003 4
4.0760002 1.14 -0.64099997 2
4.0949998 1.143 -0.64099997 2
4.0929999 1.141 -0.63800001 2
4.1950002 1.1670001 -0.65100002 4
4.184 1.1619999 -0.64600003 3
4.1900001 1.161 -0.64399999 4
4.2199998 1.1670001 -0.64600003 2
4.2480001 1.173 -0.64700001 2
4.2740002 1.177 -0.648 4
4.3080001 1.184 -0.64999998 2
4.3319998 1.188 -0.64999998 4
4.3449998 1.189 -0.64899999 4
4.382 1.196 -0.65100002 4
4.4109998 1.202 -0.65200001 4
