# .PCD v0.7 - Point Cloud Data file format
VERSION 0.7
FIELDS x y z intensity
SIZE 4 4 4 4
TYPE F F F F
COUNT 1 1 1 1
WIDTH 1811
HEIGHT 1
VIEWPOINT 0 0 0 1 0 0 0
POINTS 1811
DATA ascii
2.4189999 0.12 -0.55699998 1
2.4389999 0.121 -0.55800003 1
2.467 0.122 -0.56 2
2.483 0.122 -0.55900002 1
2.4990001 0.123 -0.55900002 1
2.529 0.124 -0.56099999 1
2.5510001 0.124 -0.56099999 1
2.5810001 0.125 -0.56300002 2
2.6040001 0.126 -0.56400001 2
2.631 0.127 -0.565 2
2.652 0.127 -0.565 2
2.6849999 0.12800001 -0.56699997 2
2.707 0.12899999 -0.56699997 2
2.7409999 0.13 -0.56999999 2
2.7720001 0.131 -0.57099998 2
2.802 0.131 -0.57200003 2
2.829 0.132 -0.57300001 2
2.8540001 0.132 -0.57300001 2
2.892 0.133 -0.57499999 2
2.9260001 0.134 -0.57700002 2
2.9519999 0.13500001 -0.57599998 2
2.983 0.13500001 -0.57700002 2
3.0179999 0.13600001 -0.57800001 2
3.053 0.13600001 -0.579 2
3.089 0.13699999 -0.57999998 2
3.1210001 0.138 -0.58099997 2
3.155 0.138 -0.58099997 2
3.2539999 0.142 -0.59299999 2
3.3310001 0.14399999 -0.60100001 2
3.3629999 0.14399999 -0.60100001 1
3.431 0.146 -0.60600001 2
3.4300001 0.145 -0.60000002 2
3.431 0.14300001 -0.59299999 1
3.4679999 0.14399999 -0.59299999 2
3.5480001 0.146 -0.60000002 2
3.598 0.146 -0.602 2
3.697 0.149 -0.61199999 2
3.681 0.147 -0.602 2
3.8 0.15000001 -0.61400002 2
3.812 0.149 -0.60900003 2
3.8540001 0.149 -0.60799998 2
3.9619999 0.152 -0.61799997 2
3.987 0.15099999 -0.61400002 2
4.0799999 0.153 -0.62 2
4.1560001 0.154 -0.62400001 2
4.2069998 0.154 -0.62400001 2
4.2399998 0.153 -0.62 2
4.3590002 0.156 -0.62900001 2
4.3940001 0.155 -0.62599999 3
4.4689999 0.155 -0.62800002 3
4.552 0.156 -0.63099998 3
4.6409998 0.15700001 -0.634 2
4.7319999 0.15800001 -0.63800001 3
4.8260002 0.15800001 -0.64099997 3
4.9159999 0.15899999 -0.64300001 3
5.0100002 0.15899999 -0.64600003 3
5.138 0.161 -0.65200001 3
5.243 0.161 -0.65499997 4
5.3559999 0.162 -0.65899998 4
5.4749999 0.162 -0.66299999 4
5.599 0.163 -0.667 4
5.7519999 0.164 -0.67400002 3
5.8909998 0.16500001 -0.67799997 3
6.0419998 0.16500001 -0.68400002 4
6.2030001 0.16599999 -0.69 5
6.3049998 0.16500001 -0.68800002 8
6.487 0.16599999 -0.69599998 7
6.7389998 0.168 -0.70899999 4
6.9380002 0.169 -0.71600002 5
7.1259999 0.169 -0.722 6
7.3369999 0.17 -0.72899997 5
7.5539999 0.17 -0.73500001 7
7.8010001 0.171 -0.74400002 6
8.0740004 0.171 -0.75400001 4
8.3839998 0.17200001 -0.76599997 4
8.7580004 0.17399999 -0.78299999 3
9.0550003 0.17399999 -0.79100001 4
9.4779997 0.176 -0.81 3
9.8999996 0.177 -0.82599998 3
10.361 0.178 -0.84399998 3
10.814 0.178 -0.85900003 2
11.356 0.17900001 -0.88 2
11.905 0.17900001 -0.89899999 3
12.38 0.178 -0.91000003 4
12.879 0.175 -0.921 3
0 0 0 5
14.351 0.17399999 -0.97000003 6
14.848 0.169 -0.97399998 4
0 0 0 3
0 0 0 2
17.858 0.163 -1.066 2
0 0 0 1
0 0 0 1
0 0 0 1
0 0 0 2
0 0 0 0
0 0 0 0
0 0 0 2
0 0 0 33
94.607002 0.178 -3.9690001 43
94.675003 0.1 -3.7869999 34
0 0 0 13
53.716 -0.034000002 -1.939 127
53.745998 -0.079999998 -1.834 170
53.724998 -0.127 -1.728 201
53.716 -0.17399999 -1.623 157
53.726002 -0.221 -1.518 23
0 0 0 17
94.751999 -0.56099999 -2.3039999 21
94.750999 -0.64600003 -2.119 45
94.723 -0.73100001 -1.937 64
0 0 0 0
0 0 0 0
0 0 0 9
74.958 -0.85399997 -0.95499998 44
74.858002 -0.92199999 -0.81099999 32
73.922997 -0.98100001 -0.65799999 113
73.901001 -1.051 -0.51499999 85
71.703003 -1.087 -0.36399999 45
69.123001 -1.114 -0.22 21
69.204002 -1.182 -0.089000002 28
68.794998 -1.242 0.041999999 28
68.616997 -1.306 0.17299999 62
68.510002 -1.374 0.30700001 18
0 0 0 0
0 0 0 0
0 0 0 0
0 0 0 0
0 0 0 0
0 0 0 0
0 0 0 0
0 0 0 0
0 0 0 0
0 0 0 0
0 0 0 0
0 0 0 9
52.735001 -1.7589999 1.515 17
52.758999 -1.816 1.613 10
0 0 0 0
0 0 0 0
0 0 0 0
0 0 0 0
0 0 0 0
0 0 0 0
0 0 0 70
0 0 0 5
44.93 -1.9859999 2.105 25
44.93 -2.036 2.1860001 42
44.737999 -2.0780001 2.257 43
44.685001 -2.1259999 2.3340001 18
43.828999 -2.135 2.3670001 28
43.525002 -2.168 2.427 38
43.030998 -2.1930001 2.4749999 20
42.557999 -2.2179999 2.523 12
42.292999 -2.2520001 2.5810001 6
44.643002 -2.4289999 2.803 4
0 0 0 3
41.233002 -2.3380001 2.7309999 3
43.658001 -2.527 2.967 28
43.612999 -2.575 3.039 41
42.341 -2.55 3.023 45
42.320999 -2.598 3.0940001 57
42.314999 -2.648 3.1659999 60
41.393002 -2.6389999 3.1670001 35
40.952999 -2.6600001 3.2030001 57
40.951 -2.7079999 3.2709999 57
40.784 -2.7460001 3.326 50
39.637001 -2.7160001 3.3 62
39.625 -2.763 3.365 69
39.632999 -2.8110001 3.431 66
39.165001 -2.825 3.454 30
38.259998 -2.8050001 3.4360001 57
38.271 -2.8529999 3.5 57
38.231998 -2.895 3.5580001 53
37.018002 -2.849 3.5050001 12
36.581001 -2.8599999 3.523 14
36.465 -2.8940001 3.5699999 48
36.452999 -2.938 3.6259999 63
36.459 -2.983 3.684 60
36.460999 -3.0280001 3.7420001 61
36.460999 -3.073 3.799 59
36.472 -3.119 3.858 63
36.487999 -3.1659999 3.918 63
36.481998 -3.21 3.974 58
36.48 -3.256 4.0300002 58
36.490002 -3.302 4.0869999 57
36.502998 -3.348 4.1440001 60
36.499001 -3.3929999 4.1989999 58
36.511002 -3.4400001 4.256 59
36.525002 -3.487 4.3130002 59
36.532001 -3.5320001 4.3670001 59
36.530998 -3.5780001 4.421 61
36.539001 -3.6240001 4.4759998 58
36.530998 -3.6700001 4.5289998 59
36.547001 -3.717 4.5840001 59
36.553001 -3.7639999 4.638 60
36.551998 -3.8099999 4.691 55
36.563 -3.8570001 4.7449999 48
36.556999 -3.9030001 4.7969999 53
36.558998 -3.948 4.849 51
36.566002 -3.9949999 4.902 49
36.660999 -4.0510001 4.9660001 5
36.785 -4.1110001 5.0339999 3
36.785999 -4.158 5.086 3
36.717999 -4.197 5.1269999 3
0 0 0 0
0 0 0 0
0 0 0 0
0 0 0 2
36.764999 -4.4330001 5.382 2
36.848 -4.4910002 5.4439998 2
36.931 -4.5479999 5.5050001 2
36.743999 -4.5710001 5.5250001 2
36.752998 -4.618 5.5739999 2
0 0 0 0
0 0 0 2
36.884998 -4.7740002 5.7360001 2
36.806 -4.8099999 5.77 2
0 0 0 4
28.914 -3.8510001 4.605 14
28.829 -3.8759999 4.6279998 23
28.778999 -3.9059999 4.6550002 29
28.726999 -3.9349999 4.6820002 34
28.702 -3.9690001 4.7140002 38
28.667 -3.9990001 4.7410002 40
28.639 -4.0310001 4.7709999 42
28.620001 -4.0640001 4.8010001 44
28.612 -4.099 4.8340001 48
28.582001 -4.1300001 4.8629999 47
28.569 -4.164 4.8930001 48
28.556999 -4.197 4.9239998 51
28.563 -4.2340002 4.9580002 54
28.552999 -4.2670002 4.9879999 56
28.552999 -4.303 5.0190001 55
28.559 -4.3390002 5.0510001 47
28.556999 -4.3730001 5.0819998 41
28.559999 -4.4089999 5.1149998 48
28.569 -4.4450002 5.1469998 45
28.580999 -4.4819999 5.1799998 43
28.611 -4.5219998 5.2140002 42
28.615999 -4.5570002 5.2459998 39
28.635 -4.5949998 5.2789998 35
28.676001 -4.6370001 5.316 29
28.711 -4.677 5.3520002 27
28.756001 -4.7179999 5.3889999 22
28.865999 -4.7709999 5.4390001 13
28.858 -4.8049998 5.4660001 1
0 0 0 25
33.367001 -5.6339998 6.3839998 23
33.223 -5.6500001 6.388 23
33.055 -5.6599998 6.3860002 24
32.929001 -5.677 6.3930001 24
32.800999 -5.6929998 6.3979998 23
32.678001 -5.71 6.4039998 25
32.548 -5.7249999 6.408 23
32.408001 -5.737 6.4099998 23
32.293999 -5.7550001 6.415 23
32.174999 -5.7709999 6.4190001 24
32.037998 -5.783 6.4200001 27
31.926001 -5.7989998 6.4250002 28
31.819 -5.816 6.4299998 24
31.733 -5.8369999 6.4390001 24
31.613001 -5.8499999 6.441 23
31.500999 -5.8639998 6.4429998 26
31.391001 -5.8790002 6.4460001 25
31.304001 -5.8979998 6.4530001 25
31.184999 -5.9099998 6.4530001 27
31.09 -5.9260001 6.4569998 25
30.990999 -5.9419999 6.46 27
30.889999 -5.9559999 6.4619999 22
30.781 -5.9689999 6.4619999 26
30.714001 -5.9899998 6.4699998 24
30.617001 -6.0040002 6.4720001 23
30.533001 -6.02 6.4759998 25
30.424999 -6.0310001 6.474 23
30.341999 -6.0479999 6.4770002 22
30.246 -6.0599999 6.4780002 25
30.176001 -6.0780001 6.4829998 23
30.068001 -6.0879998 6.4790001 27
30.007999 -6.1069999 6.4860001 24
0 0 0 4
20.871 -4.29 4.5370002 16
20.816999 -4.3000002 4.5380001 18
20.773001 -4.3119998 4.5409999 21
20.733999 -4.3249998 4.5440001 24
20.698999 -4.3379998 4.5489998 27
20.677999 -4.3540001 4.5560002 29
20.646 -4.368 4.5599999 30
20.629999 -4.3850002 4.5679998 34
20.608999 -4.401 4.5739999 34
20.596001 -4.4180002 4.5819998 35
20.575001 -4.4330001 4.5879998 42
20.535999 -4.4439998 4.5900002 41
20.52 -4.46 4.5960002 39
20.518999 -4.4790001 4.6059999 41
20.516001 -4.4980001 4.6149998 42
20.502001 -4.513 4.6209998 44
20.493999 -4.5310001 4.6279998 46
20.479 -4.546 4.6339998 44
20.481001 -4.5650001 4.6430001 47
20.476999 -4.5819998 4.6500001 50
20.473 -4.599 4.658 49
20.457001 -4.6139998 4.6630001 52
20.462999 -4.6329999 4.6719999 52
20.444 -4.6459999 4.6739998 50
20.448999 -4.664 4.6830001 51
20.447001 -4.6820002 4.6900001 49
20.438999 -4.697 4.6950002 49
20.436001 -4.7129998 4.7010002 46
20.433001 -4.73 4.7069998 49
20.441 -4.7480001 4.7150002 48
20.431999 -4.7620001 4.7189999 46
20.433001 -4.7789998 4.7249999 46
20.437 -4.796 4.7309999 43
20.445999 -4.8140001 4.7389998 32
20.437 -4.8270001 4.7420001 45
20.438 -4.8429999 4.7470002 47
20.445 -4.8600001 4.7529998 44
20.448 -4.8759999 4.7579999 42
20.445999 -4.8909998 4.7620001 42
20.451 -4.9070001 4.7680001 41
20.469999 -4.9260001 4.776 46
20.455 -4.9369998 4.7750001 40
20.468 -4.9549999 4.7820001 38
20.483 -4.973 4.789 36
20.5 -4.9910002 4.796 34
20.514999 -5.0089998 4.802 35
20.52 -5.0229998 4.8049998 33
20.521999 -5.0380001 4.8080001 31
20.547001 -5.0570002 4.816 30
20.546 -5.0689998 4.8169999 28
20.554001 -5.0840001 4.8210001 27
20.579 -5.1040001 4.8280001 26
20.598 -5.1209998 4.8330002 25
20.607 -5.1350002 4.8369999 23
20.629999 -5.1529999 4.8429999 21
20.659 -5.1719999 4.8499999 19
20.674 -5.1869998 4.8540001 17
20.722 -5.211 4.8649998 14
20.742001 -5.2280002 4.8699999 7
20.756001 -5.243 4.8730001 2
0 0 0 24
27.781 -7.046 6.52 29
27.798 -7.0640001 6.5229998 24
27.783001 -7.0749998 6.5170002 29
27.802 -7.0939999 6.5190001 24
27.816 -7.1100001 6.5209999 29
27.819 -7.1240001 6.5190001 25
27.819 -7.1370001 6.5159998 29
27.820999 -7.1500001 6.513 26
27.834 -7.1659999 6.5120001 28
27.858 -7.184 6.5139999 25
27.865 -7.198 6.5120001 29
27.891001 -7.2160001 6.513 25
27.903999 -7.23 6.5120001 29
27.906 -7.2420001 6.5079999 29
27.927999 -7.2579999 6.507 25
27.945999 -7.2729998 6.506 27
27.959 -7.2870002 6.5029998 25
27.988001 -7.3039999 6.5029998 24
28.006001 -7.3179998 6.5019999 28
28.031 -7.3340001 6.5009999 24
28.059 -7.3499999 6.5 24
28.063 -7.3600001 6.494 27
28.105 -7.3800001 6.4959998 25
28.128 -7.3940001 6.493 25
28.153999 -7.408 6.4910002 24
28.187 -7.4239998 6.4899998 25
28.216 -7.4390001 6.4879999 24
28.245001 -7.454 6.4850001 28
28.292 -7.473 6.4860001 27
28.32 -7.487 6.4829998 27
28.360001 -7.5029998 6.4819999 23
28.412001 -7.5219998 6.4840002 27
28.445999 -7.5370002 6.4809999 24
28.483999 -7.552 6.4790001 24
28.523001 -7.5669999 6.4770002 27
28.569 -7.5840001 6.4749999 26
28.625999 -7.6040001 6.4759998 24
28.648001 -7.6129999 6.4699998 27
28.691999 -7.6279998 6.467 26
28.754 -7.6479998 6.4679999 23
28.788 -7.6599998 6.4640002 23
28.837999 -7.6760001 6.461 26
28.885 -7.691 6.4580002 23
28.943001 -7.7080002 6.4569998 26
28.989 -7.7220001 6.4530001 27
29.048 -7.7399998 6.4520001 26
29.094999 -7.7529998 6.448 23
29.163 -7.7709999 6.448 26
29.23 -7.79 6.447 27
29.292999 -7.8070002 6.4450002 24
29.351 -7.822 6.4419999 26
29.403999 -7.836 6.4369998 26
29.455 -7.849 6.4310002 25
29.538 -7.8699999 6.4320002 24
29.594 -7.8829999 6.428 21
29.671 -7.901 6.427 23
29.746 -7.9190001 6.4250002 27
29.813 -7.934 6.4219999 23
29.910999 -7.9569998 6.4250002 23
29.973 -7.9710002 6.4190001 23
30.040001 -7.9850001 6.414 22
30.132 -8.0059996 6.415 23
30.190001 -8.0170002 6.4070001 24
30.285999 -8.0380001 6.4070001 23
30.346001 -8.0480003 6.4000001 23
30.444 -8.0690002 6.4000001 22
30.528999 -8.0860004 6.3969998 21
30.597 -8.0979996 6.3889999 24
30.688 -8.1160002 6.3870001 22
30.791 -8.1359997 6.3860002 20
30.882 -8.1529999 6.382 20
30.969999 -8.1689997 6.3790002 22
31.049 -8.1820002 6.3720002 23
31.153999 -8.2010002 6.3699999 22
31.240999 -8.2150002 6.3639998 22
31.361 -8.2379999 6.3639998 22
31.451 -8.2519999 6.3579998 23
31.528 -8.2629995 6.3499999 25
31.6 -8.2720003 6.3400002 26
31.665001 -8.2779999 6.3280001 26
31.731001 -8.2849998 6.3150001 25
31.790001 -8.2889996 6.3010001 26
31.844999 -8.2910004 6.2859998 25
31.9 -8.2939997 6.27 26
31.938 -8.2910004 6.2519999 25
31.962 -8.2840004 6.23 24
32.007 -8.283 6.211 24
32.044998 -8.2790003 6.191 24
32.068001 -8.2720003 6.1680002 23
32.105999 -8.2670002 6.1479998 22
32.076 -8.2449999 6.1139998 23
32.032001 -8.2180004 6.0770001 23
31.973 -8.1879997 6.0370002 23
31.952999 -8.1669998 6.006 19
31.922001 -8.1440001 5.9699998 23
31.917999 -8.1260004 5.941 23
31.919001 -8.1099997 5.9120002 23
31.933001 -8.0959997 5.8850002 23
31.976999 -8.0900002 5.8629999 23
32.043999 -8.0889997 5.8449998 23
32.167999 -8.1020002 5.8369999 23
0 0 0 3
20.691 -5.1869998 3.7149999 9
20.664 -5.1680002 3.691 15
20.618999 -5.1440001 3.6630001 17
20.596001 -5.1259999 3.638 20
20.577 -5.1079998 3.615 22
20.552 -5.0890002 3.5910001 23
20.530001 -5.0700002 3.566 24
20.511 -5.052 3.5420001 25
20.514999 -5.039 3.5220001 28
20.493999 -5.0190001 3.4979999 30
20.483999 -5.0029998 3.4749999 32
20.478001 -4.987 3.4530001 33
20.465 -4.9689999 3.431 35
20.448 -4.9499998 3.4070001 36
20.437 -4.9330001 3.3840001 39
20.43 -4.9159999 3.3610001 38
20.410999 -4.895 3.3369999 41
20.412001 -4.8790002 3.316 42
20.402 -4.862 3.293 43
20.408001 -4.8470001 3.2709999 33
20.393 -4.8260002 3.247 48
20.384001 -4.8080001 3.224 46
20.388 -4.7919998 3.2030001 46
20.378 -4.7719998 3.1789999 43
20.375 -4.7540002 3.1570001 40
20.372 -4.7360001 3.1340001 47
20.365999 -4.717 3.1110001 47
20.371 -4.6999998 3.089 49
20.403 -4.6900001 3.072 39
20.388 -4.6680002 3.0469999 56
20.392 -4.6500001 3.0250001 54
20.393999 -4.6329999 3.003 52
20.396 -4.6139998 2.98 40
20.396999 -4.5949998 2.957 56
20.403999 -4.5770001 2.9360001 38
20.399 -4.5570002 2.9119999 53
20.419001 -4.5419998 2.892 38
20.406 -4.5190001 2.8670001 49
20.422001 -4.5019999 2.846 45
20.448 -4.487 2.8269999 34
20.438999 -4.4640002 2.8010001 45
20.455 -4.447 2.78 43
20.454 -4.4260001 2.756 43
20.466 -4.4070001 2.734 40
20.488001 -4.3899999 2.7130001 43
20.509001 -4.3730001 2.6919999 41
20.507999 -4.3509998 2.668 38
20.547001 -4.3369999 2.6500001 29
20.569 -4.3189998 2.628 37
20.594999 -4.302 2.6070001 35
20.632999 -4.2870002 2.5880001 25
20.656 -4.2690001 2.5669999 28
20.695 -4.2529998 2.5469999 24
20.749001 -4.2410002 2.529 20
20.811001 -4.23 2.5120001 15
20.913 -4.2259998 2.5 2
0 0 0 0
0 0 0 0
0 0 0 0
0 0 0 0
0 0 0 0
0 0 0 0
0 0 0 2
0 0 0 0
0 0 0 0
0 0 0 0
0 0 0 0
0 0 0 0
0 0 0 0
0 0 0 0
0 0 0 0
0 0 0 0
0 0 0 2
36.713001 -6.5939999 3.596 28
36.723999 -6.5469999 3.553 21
36.741001 -6.5009999 3.51 2
0 0 0 0
0 0 0 0
0 0 0 0
0 0 0 0
0 0 0 0
0 0 0 0
0 0 0 0
0 0 0 0
0 0 0 0
0 0 0 6
28.667999 -4.6339998 2.359 17
28.607 -4.5830002 2.3199999 25
28.569 -4.5339999 2.2820001 27
28.532 -4.4860001 2.2449999 33
28.504999 -4.4400001 2.2079999 37
28.49 -4.3959999 2.1730001 40
28.471001 -4.3499999 2.1370001 43
28.451 -4.3049998 2.102 50
28.445999 -4.2610002 2.0669999 46
28.434999 -4.217 2.0320001 55
28.452999 -4.1760001 2 47
28.441 -4.131 1.965 56
28.455999 -4.0900002 1.933 55
28.475 -4.0489998 1.9 49
28.495001 -4.0079999 1.868 44
28.514 -3.9660001 1.836 42
28.547001 -3.9260001 1.803 38
28.57 -3.8840001 1.772 34
28.632 -3.848 1.7410001 31
28.674 -3.8080001 1.71 26
28.747 -3.7720001 1.681 20
28.910999 -3.747 1.6569999 7
0 0 0 48
36.505001 -4.6129999 2.006 36
36.486 -4.552 1.9630001 62
36.466999 -4.4899998 1.919 74
36.458 -4.428 1.876 70
36.450001 -4.3670001 1.834 73
36.437 -4.3070002 1.7920001 72
36.443001 -4.2470002 1.75 73
36.441002 -4.1869998 1.709 81
36.445 -4.1269999 1.6670001 77
36.425999 -4.0640001 1.625 77
36.414001 -4.0019999 1.584 83
36.409 -3.9389999 1.5420001 89
36.407001 -3.8770001 1.501 91
36.407001 -3.8150001 1.46 97
36.404999 -3.753 1.418 94
36.395 -3.6889999 1.377 94
36.390999 -3.6270001 1.337 102
36.390999 -3.5639999 1.2970001 96
36.389999 -3.5009999 1.256 95
36.388 -3.437 1.216 99
36.388 -3.3740001 1.175 100
36.367001 -3.3099999 1.136 95
36.375 -3.247 1.096 103
36.481998 -3.1919999 1.0599999 10
36.974998 -3.171 1.034 7
37.412998 -3.142 1.006 7
37.879002 -3.1140001 0.97899997 8
38.341999 -3.0840001 0.949 7
40.257999 -3.1670001 0.954 82
40.255001 -3.0929999 0.91100001 85
40.25 -3.02 0.86799997 85
40.262001 -2.948 0.82599998 22
40.867001 -2.9189999 0.79500002 5
41.513 -2.8889999 0.764 4
41.876999 -2.839 0.72799999 18
42.148998 -2.7809999 0.68900001 6
44.287998 -2.842 0.67900002 103
44.285999 -2.76 0.63300002 112
44.574001 -2.6960001 0.59200001 5
45.213001 -2.651 0.55400002 4
46.908001 -2.664 0.528 22
47.087002 -2.5880001 0.48300001 30
48.492001 -2.576 0.449 22
48.557999 -2.4890001 0.40099999 73
48.702999 -2.4070001 0.35499999 29
48.800999 -2.319 0.30700001 14
0 0 0 98
52.361 -2.2909999 0.227 95
52.505001 -2.1989999 0.177 28
52.625999 -2.1059999 0.127 23
0 0 0 0
0 0 0 62
60.289001 -2.069 -0.026000001 75
60.455002 -1.961 -0.082000002 117
60.444 -1.844 -0.139 104
60.492001 -1.732 -0.19499999 54
60.700001 -1.6210001 -0.25099999 23
0 0 0 68
68.464996 -1.568 -0.40799999 150
68.497002 -1.437 -0.47 76
68.482002 -1.304 -0.53200001 72
68.665001 -1.175 -0.59500003 60
0 0 0 0
0 0 0 107
74.949997 -0.85000002 -0.84600002 26
0 0 0 0
0 0 0 0
0 0 0 22
94.934998 -0.338 -1.399 27
94.817001 -0.152 -1.477 16
0 0 0 0
0 0 0 0
0 0 0 0
0 0 0 16
94.700996 0.77600002 -1.867 67
94.681999 0.96200001 -1.943 89
94.667999 1.143 -2.016 90
94.668999 1.329 -2.0910001 38
94.675003 1.518 -2.1659999 106
94.629997 1.701 -2.2379999 150
94.639 1.888 -2.3110001 150
94.650002 2.075 -2.3840001 150
94.619003 2.2579999 -2.454 153
94.595001 2.444 -2.5239999 155
94.602997 2.631 -2.595 152
94.596001 2.8180001 -2.664 152
0 0 0 36
0 0 0 118
91.504997 3.267 -2.7750001 28
94.597 3.5639999 -2.9360001 74
94.568001 3.7509999 -3.0020001 76
0 0 0 0
0 0 0 21
0 0 0 63
91.277 4.3439999 -3.148 36
91.238998 4.52 -3.207 45
91.052002 4.6880002 -3.26 47
91.051003 4.8720002 -3.3199999 42
91.276001 5.0640001 -3.388 35
91.027 5.2309999 -3.437 27
90.915001 5.402 -3.49 21
90.966003 5.585 -3.5480001 15
0 0 0 0
0 0 0 0
0 0 0 0
0 0 0 0
0 0 0 0
0 0 0 0
0 0 0 0
0 0 0 0
0 0 0 25
0 0 0 25
0 0 0 25
0 0 0 25
0 0 0 0
0 0 0 25
0 0 0 25
0 0 0 5
27.011999 2.5610001 -1.311 5
0 0 0 0
0 0 0 1
0 0 0 2
0 0 0 0
0 0 0 0
0 0 0 1
0 0 0 0
0 0 0 2
20.575001 2.309 -1.085 1
0 0 0 5
19.099001 2.217 -1.024 1
19.688999 2.3239999 -1.064 2
18.507 2.22 -1.008 4
18.688999 2.277 -1.025 3
18.507 2.29 -1.023 2
17.812 2.2379999 -0.991 2
18.049 2.303 -1.011 5
17.964001 2.326 -1.013 3
17.798 2.339 -1.01 3
17.618 2.348 -1.007 3
17.471001 2.362 -1.0039999 3
17.215 2.359 -0.99599999 3
16.889999 2.346 -0.98299998 3
16.565001 2.332 -0.96899998 4
16.455999 2.348 -0.96799999 3
16.431 2.3740001 -0.972 3
16.285 2.3840001 -0.96899998 2
16.059 2.381 -0.95999998 2
15.887 2.385 -0.95499998 3
15.744 2.392 -0.95099998 2
15.573 2.395 -0.94499999 2
15.461 2.4059999 -0.94199997 2
15.373 2.4200001 -0.94099998 2
15.22 2.425 -0.93599999 2
15.089 2.4319999 -0.93199998 2
14.977 2.441 -0.92900002 2
14.868 2.45 -0.926 2
14.81 2.467 -0.926 2
14.693 2.474 -0.92199999 4
14.679 2.4979999 -0.92400002 3
14.605 2.5120001 -0.92299998 3
14.588 2.5350001 -0.92500001 3
14.516 2.549 -0.92400002 4
14.447 2.562 -0.92199999 4
14.352 2.5710001 -0.91900003 4
14.275 2.582 -0.91600001 4
14.197 2.5929999 -0.91399997 4
14.099 2.5999999 -0.91000003 3
13.932 2.5940001 -0.90200001 3
13.833 2.599 -0.898 2
13.778 2.6129999 -0.89600003 3
13.682 2.618 -0.89200002 3
13.604 2.6270001 -0.889 3
13.506 2.631 -0.88499999 3
13.432 2.6400001 -0.88200003 3
13.322 2.641 -0.87599999 3
13.237 2.6459999 -0.87199998 3
13.278 2.677 -0.87599999 3
13.213 2.6860001 -0.87300003 3
13.193 2.704 -0.87300003 3
13.274 2.7420001 -0.88 3
13.183 2.7460001 -0.875 3
13.162 2.763 -0.875 3
13.171 2.7869999 -0.87699997 3
13.184 2.8110001 -0.87800002 3
13.177 2.8310001 -0.87800002 3
13.13 2.842 -0.87599999 3
13.074 2.8510001 -0.87300003 3
12.975 2.849 -0.86699998 3
12.921 2.858 -0.86400002 3
12.961 2.888 -0.86699998 3
12.973 2.911 -0.86799997 3
12.925 2.9200001 -0.86500001 3
12.909 2.937 -0.86500001 3
12.873 2.948 -0.86299998 3
12.884 2.971 -0.86299998 3
12.84 2.98 -0.86000001 3
12.852 3.003 -0.861 3
12.828 3.016 -0.85900003 3
12.737 3.0139999 -0.85299999 4
12.71 3.026 -0.85100001 3
12.74 3.052 -0.85299999 3
12.738 3.0699999 -0.85299999 3
12.768 3.096 -0.85399997 3
12.796 3.122 -0.85500002 3
12.824 3.148 -0.85600001 3
12.788 3.1570001 -0.85399997 3
12.77 3.171 -0.852 3
12.837 3.2060001 -0.85500002 3
12.859 3.2290001 -0.85600001 3
12.869 3.2490001 -0.85600001 3
12.849 3.2620001 -0.85299999 3
12.769 3.26 -0.847 3
12.88 3.306 -0.85299999 3
12.947 3.3399999 -0.85600001 3
12.979 3.3659999 -0.85699999 3
12.985 3.385 -0.85600001 3
13.004 3.4070001 -0.85600001 3
13.026 3.4300001 -0.85600001 3
13.07 3.4590001 -0.85699999 3
13.085 3.4790001 -0.85699999 3
13.131 3.5079999 -0.85799998 3
13.144 3.529 -0.85699999 3
13.158 3.549 -0.85699999 3
13.226 3.5840001 -0.85900003 3
13.243 3.605 -0.85900003 3
13.298 3.6359999 -0.86000001 3
13.299 3.6530001 -0.85799998 3
13.339 3.6800001 -0.85900003 3
13.38 3.707 -0.85900003 3
13.416 3.733 -0.85900003 3
13.458 3.76 -0.85900003 3
13.529 3.796 -0.86199999 3
13.588 3.8280001 -0.86299998 3
13.602 3.848 -0.861 3
13.617 3.8670001 -0.86000001 3
13.528 3.8570001 -0.852 4
13.364 3.825 -0.83899999 4
13.185 3.7880001 -0.82499999 3
13.026 3.756 -0.81199998 3
12.87 3.7249999 -0.80000001 3
12.711 3.6919999 -0.787 4
12.58 3.6670001 -0.77600002 4
12.422 3.6340001 -0.764 3
12.239 3.5929999 -0.75 3
12.054 3.5510001 -0.736 3
11.94 3.529 -0.72600001 5
11.903 3.53 -0.72100002 5
11.872 3.5320001 -0.71600002 5
11.782 3.517 -0.708 5
11.705 3.5050001 -0.69999999 5
11.688 3.5109999 -0.69599998 5
11.632 3.5050001 -0.69 4
0 0 0 4
10.518 3.188 -0.61799997 3
10.913 3.3169999 -0.639 2
10.506 3.2030001 -0.61199999 6
10.469 3.2 -0.60699999 8
10.452 3.204 -0.60299999 8
10.43 3.2060001 -0.59899998 8
10.471 3.227 -0.59899998 3
10.428 3.2219999 -0.59299999 2
10.438 3.233 -0.59100002 7
10.688 3.319 -0.602 5
10.875 3.385 -0.60900003 4
10.77 3.3610001 -0.60000002 2
11.199 3.503 -0.62099999 2
11.13 3.4890001 -0.61299998 2
10.976 3.4489999 -0.602 2
10.813 3.405 -0.58899999 3
10.656 3.3629999 -0.57700002 2
10.466 3.3099999 -0.56400001 3
10.386 3.2909999 -0.55599999 3
10.362 3.2909999 -0.55199999 3
10.363 3.2969999 -0.54799998 3
10.341 3.2969999 -0.54400003 3
10.343 3.303 -0.54000002 3
10.328 3.3050001 -0.53600001 3
10.336 3.313 -0.53299999 3
10.32 3.3139999 -0.52899998 3
10.344 3.3269999 -0.52700001 3
10.321 3.325 -0.52200001 3
10.33 3.3340001 -0.51899999 3
10.32 3.336 -0.51499999 3
10.323 3.3410001 -0.51099998 3
10.319 3.345 -0.50800002 3
10.317 3.349 -0.50400001 3
10.331 3.358 -0.50099999 3
10.33 3.3629999 -0.49700001 2
10.328 3.3659999 -0.49399999 2
10.325 3.369 -0.49000001 3
10.335 3.3759999 -0.48699999 4
10.315 3.3740001 -0.48100001 12
10.321 3.3789999 -0.47799999 12
10.311 3.3800001 -0.47400001 17
10.299 3.3789999 -0.46900001 17
10.292 3.3800001 -0.465 26
10.304 3.3870001 -0.46200001 25
10.323 3.3970001 -0.45899999 15
10.309 3.395 -0.454 11
10.326 3.4030001 -0.45100001 12
10.306 3.3989999 -0.44600001 12
10.318 3.405 -0.44299999 19
10.314 3.4059999 -0.43900001 22
10.31 3.4070001 -0.435 21
10.316 3.411 -0.43099999 32
10.306 3.4100001 -0.426 38
10.303 3.4100001 -0.42199999 46
10.315 3.4159999 -0.419 53
10.306 3.414 -0.414 57
10.318 3.4189999 -0.41100001 62
10.297 3.4130001 -0.40599999 59
10.305 3.4170001 -0.40200001 60
10.307 3.418 -0.398 59
10.309 3.4200001 -0.39399999 55
10.302 3.418 -0.389 48
10.311 3.421 -0.38600001 40
10.308 3.4200001 -0.38100001 32
10.303 3.4189999 -0.377 26
10.307 3.4200001 -0.373 20
10.321 3.424 -0.36899999 14
10.319 3.4230001 -0.36500001 11
10.314 3.421 -0.36000001 10
10.339 3.4289999 -0.35699999 9
10.324 3.4230001 -0.352 10
10.299 3.4130001 -0.347 10
10.305 3.414 -0.34299999 11
10.324 3.4189999 -0.33899999 13
10.312 3.414 -0.33399999 13
10.318 3.414 -0.33000001 14
10.324 3.415 -0.32600001 14
10.321 3.4119999 -0.322 13
10.312 3.4059999 -0.317 11
10.33 3.4100001 -0.31400001 8
10.34 3.411 -0.30899999 5
10.337 3.408 -0.30500001 4
10.333 3.404 -0.30000001 3
10.327 3.3989999 -0.296 2
10.338 3.3989999 -0.292 2
10.329 3.3940001 -0.287 2
10.33 3.3900001 -0.28299999 3
10.333 3.388 -0.27900001 3
10.328 3.3829999 -0.27399999 3
10.339 3.3829999 -0.27000001 3
10.344 3.3800001 -0.266 3
10.324 3.3699999 -0.26100001 3
10.331 3.368 -0.257 3
10.342 3.368 -0.25299999 3
10.341 3.3629999 -0.248 3
10.358 3.3640001 -0.244 3
10.345 3.355 -0.23999999 3
10.366 3.3570001 -0.236 3
10.376 3.355 -0.23199999 3
10.437 3.369 -0.229 3
10.52 3.391 -0.226 5
10.587 3.4070001 -0.223 8
10.611 3.4089999 -0.219 11
10.655 3.4170001 -0.215 14
10.657 3.411 -0.211 13
10.565 3.3759999 -0.205 28
10.488 3.345 -0.199 27
10.419 3.316 -0.193 37
10.364 3.293 -0.18799999 58
10.33 3.2750001 -0.183 76
10.323 3.266 -0.17900001 87
10.304 3.253 -0.17399999 92
10.312 3.2490001 -0.17 97
10.327 3.2460001 -0.16599999 101
10.325 3.2390001 -0.162 124
10.336 3.234 -0.15800001 146
10.337 3.227 -0.154 150
10.349 3.223 -0.149 150
10.34 3.2119999 -0.145 150
10.352 3.2079999 -0.141 150
10.349 3.1989999 -0.13699999 150
10.362 3.1949999 -0.133 150
10.368 3.188 -0.12899999 150
10.36 3.177 -0.125 150
10.358 3.168 -0.12 146
10.36 3.1600001 -0.116 150
10.364 3.152 -0.112 148
10.372 3.145 -0.108 150
10.359 3.132 -0.104 147
10.367 3.125 -0.1 141
10.377 3.119 -0.096000001 146
10.373 3.1070001 -0.092 141
10.374 3.098 -0.088 134
10.377 3.089 -0.083999999 129
10.378 3.079 -0.079999998 119
10.381 3.0699999 -0.075999998 102
10.382 3.0599999 -0.071999997 98
10.39 3.052 -0.068000004 93
10.386 3.04 -0.064000003 86
10.385 3.029 -0.059999999 74
10.398 3.0220001 -0.057 61
10.401 3.0109999 -0.052999999 43
10.396 2.9990001 -0.048999999 29
10.412 2.9920001 -0.045000002 20
10.455 2.993 -0.041999999 8
10.506 2.9949999 -0.037999999 4
10.504 2.983 -0.034000002 1
10.561 2.987 -0.030999999 1
10.512 2.961 -0.027000001 33
10.52 2.9519999 -0.023 30
10.582 2.9560001 -0.02 150
10.555 2.9360001 -0.016000001 150
10.558 2.925 -0.013 6
10.584 2.9189999 -0.0089999996 143
10.556 2.898 -0.0049999999 95
10.657 2.9130001 -0.0020000001 16
10.666 2.9030001 0 24
10.7 2.898 0.0040000002 3
10.698 2.8840001 0.0070000002 1
10.77 2.8900001 0.011 1
10.821 2.8900001 0.015 1
10.738 2.8529999 0.017999999 1
10.733 2.8380001 0.021 2
10.731 2.8239999 0.025 4
10.738 2.812 0.028000001 3
10.769 2.8050001 0.030999999 3
10.784 2.7939999 0.034000002 3
10.841 2.7939999 0.037 1
10.86 2.7839999 0.041000001 2
10.889 2.776 0.044 2
10.921 2.7690001 0.046999998 3
10.997 2.773 0.050999999 6
11.054 2.7720001 0.054000001 9
11.101 2.7679999 0.057 33
11.131 2.7590001 0.061000001 46
11.15 2.7479999 0.063000001 22
11.199 2.744 0.067000002 50
11.21 2.73 0.07 13
0 0 0 39
0 0 0 0
0 0 0 15
0 0 0 36
68.463997 16.16 0.51300001 34
68.386002 16.037001 0.52899998 30
68.453003 15.947 0.54500002 41
68.987 15.964 0.565 31
0 0 0 31
51.726002 11.809 0.44499999 25
0 0 0 29
69.440002 15.633 0.62699997 28
69.363998 15.505 0.64099997 38
69.664001 15.461 0.65799999 25
69.462997 15.302 0.66799998 11
0 0 0 33
55.521999 12.05 0.55500001 37
0 0 0 12
48.306 10.327 0.5 13
48.183998 10.22 0.50599998 19
48.405998 10.186 0.51599997 8
48.382999 10.1 0.52399999 21
48.391998 10.021 0.53200001 25
48.376999 9.9359999 0.53899997 30
48.396 9.8570004 0.546 35
48.408001 9.7770004 0.55299997 34
0 0 0 15
0 0 0 0
0 0 0 21
0 0 0 15
38.344002 7.4130001 0.461 15
38.209 7.3200002 0.46399999 16
38.229 7.256 0.46799999 25
38.306 7.2030001 0.47299999 21
38.294998 7.1339998 0.47600001 19
38.311001 7.0679998 0.479 8
0 0 0 40
58.272999 10.543 0.73799998 58
58.240002 10.432 0.74199998 55
58.131001 10.309 0.745 52
0 0 0 0
0 0 0 0
0 0 0 0
0 0 0 22
56.620998 9.5249996 0.73799998 24
56.549999 9.408 0.73900002 30
56.168999 9.2399998 0.73500001 36
55.970001 9.1029997 0.73299998 28
55.772999 8.9659996 0.73100001 27
55.958 8.8909998 0.73400003 16
55.985001 8.7889996 0.73400003 23
0 0 0 0
0 0 0 11
48.481998 7.335 0.634 7
0 0 0 23
0 0 0 0
0 0 0 23
69.991997 10.056 0.90499997 14
69.823997 9.8990002 0.89899999 9
69.849998 9.7670002 0.89499998 7
0 0 0 0
0 0 0 15
0 0 0 0
0 0 0 8
0 0 0 0
0 0 0 37
118.052 14.896 1.444 37
0 0 0 0
0 0 0 28
76.931999 9.2530003 0.91399997 28
77.007004 9.1090002 0.90499997 13
0 0 0 24
0 0 0 16
0 0 0 22
0 0 0 15
0 0 0 36
0 0 0 26
78.148003 8.151 0.83200002 13
0 0 0 0
0 0 0 19
78.182999 7.6830001 0.787 23
78.163002 7.5229998 0.77100003 29
0 0 0 0
0 0 0 19
75.528 6.8130002 0.69599998 22
0 0 0 62
151.56 13.05 1.324 39
0 0 0 0
0 0 0 0
0 0 0 0
0 0 0 0
0 0 0 0
0 0 0 0
0 0 0 0
0 0 0 0
0 0 0 12
0 0 0 0
0 0 0 0
0 0 0 0
0 0 0 15
88.707001 5.0999999 0.414 13
88.672997 4.915 0.38299999 14
89.024002 4.75 0.35299999 18
88.848999 4.559 0.32100001 15
88.727997 4.369 0.28799999 16
88.995003 4.197 0.255 14
0 0 0 0
0 0 0 0
0 0 0 14
89.706001 3.4879999 0.117 15
89.835999 3.312 0.081 14
0 0 0 0
0 0 0 12
0 0 0 0
0 0 0 0
0 0 0 0
0 0 0 0
0 0 0 0
0 0 0 0
0 0 0 0
0 0 0 0
0 0 0 0
0 0 0 0
0 0 0 32
135.263 1.057 -0.75099999 36
135.244 0.77600002 -0.82099998 44
135.3 0.5 -0.89099997 46
135.35201 0.219 -0.963 74
135.30299 -0.059999999 -1.035 75
135.33099 -0.34 -1.109 83
0 0 0 38
74.778 -0.49700001 -0.69499999 33
74.780998 -0.65200001 -0.73699999 28
74.917999 -0.81 -0.78200001 38
73.872002 -0.94700003 -0.81300002 97
0 0 0 21
68.678001 -1.164 -0.83600003 76
68.466003 -1.299 -0.87400001 68
68.482002 -1.441 -0.91600001 108
68.456001 -1.581 -0.95700002 124
68.486 -1.72 -0.99900001 27
0 0 0 17
60.414001 -1.765 -0.95700002 112
0 0 0 9
46.291 -1.5420001 -0.792 58
46.229 -1.6339999 -0.82099998 46
45.808998 -1.712 -0.84399998 31
45.358002 -1.788 -0.866 34
45.451 -1.8839999 -0.898 43
45.401001 -1.974 -0.92799997 42
45.123001 -2.0539999 -0.95300001 36
45.074001 -2.1429999 -0.98299998 34
44.797001 -2.22 -1.008 41
44.304001 -2.2850001 -1.028 24
43.956001 -2.355 -1.051 15
43.759998 -2.4330001 -1.0779999 36
43.958 -2.5309999 -1.113 33
44.224998 -2.635 -1.152 64
0 0 0 3
28.091 -1.785 -0.773 2
0 0 0 59
41.563999 -2.8069999 -1.206 7
40.838001 -2.8380001 -1.215 6
0 0 0 1
23.884001 -1.7539999 -0.74699998 5
23.455 -1.7690001 -0.75099999 2
0 0 0 0
0 0 0 1
22.191999 -1.8049999 -0.76300001 1
21.957001 -1.8279999 -0.77200001 1
21.525 -1.834 -0.77399999 1
20.709 -1.8049999 -0.76099998 3
20.677 -1.842 -0.77700001 3
20.660999 -1.881 -0.79299998 3
20.632999 -1.9170001 -0.80900002 3
20.459 -1.941 -0.81900001 1
20.389 -1.973 -0.833 1
20.325001 -2.006 -0.847 1
20.254 -2.0369999 -0.861 1
20.288 -2.079 -0.88 2
20.280001 -2.1170001 -0.89700001 2
20.353001 -2.1630001 -0.917 3
20.407 -2.207 -0.93699998 3
20.416 -2.247 -0.95499998 3
20.507999 -2.296 -0.977 4
20.465 -2.329 -0.99299997 2
20.621 -2.385 -1.0190001 1
20.77 -2.441 -1.044 1
20.691999 -2.47 -1.059 1
0 0 0 1
28.816 -3.5450001 -1.526 1
0 0 0 0
0 0 0 5
28.481001 -3.6600001 -1.585 4
0 0 0 1
22.448 -2.9649999 -1.29 1
0 0 0 0
0 0 0 1
21.027 -2.891 -1.266 1
20.482 -2.8529999 -1.252 1
0 0 0 1
17.799999 -2.543 -1.122 1
17.899 -2.589 -1.145 2
17.679001 -2.5880001 -1.148 2
17.226999 -2.552 -1.1339999 2
16.649 -2.494 -1.112 2
0 0 0 2
14.82 -2.2720001 -1.018 2
15.177 -2.3529999 -1.057 4
14.78 -2.316 -1.044 4
14.487 -2.2950001 -1.0369999 4
14.211 -2.276 -1.031 4
13.958 -2.2579999 -1.026 3
13.699 -2.24 -1.02 3
13.464 -2.224 -1.016 4
13.188 -2.2 -1.008 3
12.783 -2.154 -0.98900002 3
12.478 -2.1229999 -0.97799999 3
12.134 -2.0840001 -0.963 3
11.881 -2.0599999 -0.95499998 2
11.645 -2.0380001 -0.94700003 2
11.4 -2.0139999 -0.93900001 2
11.108 -1.98 -0.926 2
10.862 -1.954 -0.91600001 2
10.624 -1.928 -0.90600002 2
10.416 -1.9069999 -0.89899999 2
10.216 -1.886 -0.89200002 2
10.006 -1.863 -0.88300002 2
9.8219995 -1.844 -0.87699997 3
9.6199999 -1.821 -0.86799997 2
9.4250002 -1.798 -0.86000001 2
9.2480001 -1.779 -0.85399997 2
9.0340004 -1.751 -0.84299999 3
8.9040003 -1.74 -0.83999997 4
8.7399998 -1.721 -0.833 4
8.6029997 -1.707 -0.829 4
8.4359999 -1.686 -0.82099998 3
8.2980003 -1.671 -0.81599998 4
8.125 -1.648 -0.80699998 4
8.0340004 -1.641 -0.80599999 4
7.8940001 -1.624 -0.80000001 4
7.7600002 -1.607 -0.79400003 4
7.6360002 -1.5930001 -0.78899997 4
7.5229998 -1.58 -0.78500003 5
7.4250002 -1.5700001 -0.78299999 4
7.2880001 -1.551 -0.77600002 3
7.1810002 -1.538 -0.77200001 4
7.0819998 -1.527 -0.76800001 4
6.974 -1.513 -0.76300001 4
6.8920002 -1.505 -0.76099998 5
6.7810001 -1.49 -0.75599998 4
6.6900001 -1.479 -0.75199997 4
6.5960002 -1.467 -0.74900001 4
6.4980001 -1.454 -0.74400002 3
6.4089999 -1.442 -0.74000001 3
6.3340001 -1.434 -0.73799998 3
6.2480001 -1.4220001 -0.73400003 3
6.1469998 -1.4069999 -0.72899997 3
6.0760002 -1.399 -0.727 3
6.0029998 -1.39 -0.72399998 3
5.9359999 -1.382 -0.722 3
5.8559999 -1.37 -0.71799999 2
5.7859998 -1.3609999 -0.71499997 3
5.7210002 -1.353 -0.713 4
5.671 -1.348 -0.71200001 3
5.605 -1.339 -0.70999998 3
5.5489998 -1.332 -0.708 3
5.487 -1.324 -0.70599997 3
5.4229999 -1.3150001 -0.70300001 3
5.3520002 -1.304 -0.699 3
5.296 -1.296 -0.69700003 3
5.2459998 -1.29 -0.69499999 3
5.1810002 -1.28 -0.69199997 3
5.1350002 -1.274 -0.69099998 3
5.079 -1.266 -0.68800002 3
5.0320001 -1.26 -0.68699998 3
4.9819999 -1.253 -0.685 3
4.9229999 -1.243 -0.68199998 3
4.8839998 -1.239 -0.68099999 3
4.8260002 -1.229 -0.67799997 3
4.7930002 -1.226 -0.67799997 3
4.756 -1.221 -0.67699999 3
4.711 -1.215 -0.67500001 3
4.671 -1.209 -0.67400002 3
4.618 -1.2 -0.671 3
4.5770001 -1.194 -0.66900003 3
4.5190001 -1.183 -0.66500002 5
4.4959998 -1.181 -0.66600001 3
4.4530001 -1.174 -0.66399997 2
4.4159999 -1.169 -0.662 3
4.3800001 -1.163 -0.66100001 2
4.3499999 -1.159 -0.66000003 3
4.3239999 -1.156 -0.66000003 2
4.2849998 -1.15 -0.65799999 2
4.2509999 -1.145 -0.65700001 2
4.237 -1.145 -0.65899998 3
4.1760001 -1.132 -0.653 2
4.1269999 -1.122 -0.64899999 2
4.086 -1.114 -0.64700001 3
4.0469999 -1.107 -0.64399999 2
4.0500002 -1.1109999 -0.648 3
4.0209999 -1.1059999 -0.64700001 2
3.983 -1.099 -0.64499998 2
3.9400001 -1.09 -0.64099997 2
3.9260001 -1.089 -0.64200002 2
3.8800001 -1.079 -0.63800001 2
3.888 -1.085 -0.64300001 3
3.888 -1.087 -0.64600003 3
3.8329999 -1.075 -0.63999999 2
3.7880001 -1.0650001 -0.63599998 3
3.802 -1.072 -0.64200002 1
3.7820001 -1.069 -0.64200002 2
3.776 -1.0700001 -0.64399999 3
3.6919999 -1.048 -0.63300002 1
3.7349999 -1.063 -0.64300001 2
3.6819999 -1.05 -0.63700002 3
3.6489999 -1.043 -0.634 2
3.651 -1.046 -0.63800001 2
3.651 -1.048 -0.64099997 2
3.6559999 -1.052 -0.64399999 2
3.5699999 -1.029 -0.63200003 2
3.598 -1.039 -0.63999999 2
3.5699999 -1.033 -0.63800001 3
3.595 -1.0420001 -0.64499998 2
3.4920001 -1.0140001 -0.62900001 2
3.483 -1.013 -0.63 2
3.4619999 -1.0089999 -0.62900001 2
3.4119999 -0.99599999 -0.62300003 2
3.4619999 -1.012 -0.634 2
3.4030001 -0.99699998 -0.62599999 2
3.4119999 -1.001 -0.63 2
3.3959999 -0.99800003 -0.63 2
3.3299999 -0.98000002 -0.62 2
3.3150001 -0.977 -0.62 2
3.2909999 -0.97100002 -0.61799997 3
3.2739999 -0.96700001 -0.61699998 3
3.26 -0.96399999 -0.616 3
3.2449999 -0.96100003 -0.616 3
3.237 -0.95999998 -0.616 3
3.2190001 -0.95599997 -0.61500001 3
3.2019999 -0.95200002 -0.61400002 3
3.197 -0.95099998 -0.61500001 3
3.1700001 -0.94400001 -0.61199999 2
3.161 -0.94300002 -0.61299998 2
3.1440001 -0.93800002 -0.611 2
3.1270001 -0.93400002 -0.61000001 2
3.1099999 -0.93000001 -0.60900003 2
3.1029999 -0.92799997 -0.60900003 2
3.0929999 -0.926 -0.60900003 2
3.085 -0.92400002 -0.60900003 2
3.069 -0.92000002 -0.60799998 2
3.063 -0.91900003 -0.60900003 2
3.0450001 -0.91399997 -0.60699999 2
3.04 -0.91299999 -0.60799998 2
3.0320001 -0.91100001 -0.60799998 2
3.174 -0.954 -0.63800001 2
3.141 -0.94499999 -0.63300002 2
3.026 -0.91000003 -0.61199999 2
3.1400001 -0.94499999 -0.63700002 1
3.0339999 -0.91399997 -0.61699998 1
3.052 -0.91900003 -0.62199998 1
3.0680001 -0.92400002 -0.62699997 1
3.0799999 -0.92799997 -0.63099998 1
3.043 -0.917 -0.625 1
3.0320001 -0.91399997 -0.62400001 2
3.043 -0.917 -0.62800002 2
2.911 -0.87699997 -0.602 1
2.8989999 -0.87400001 -0.60100001 2
2.8840001 -0.86900002 -0.59899998 2
2.885 -0.86900002 -0.60100001 2
2.872 -0.86500001 -0.59899998 2
2.865 -0.86299998 -0.59899998 2
2.8629999 -0.86199999 -0.60000002 2
2.848 -0.85799998 -0.59799999 2
2.8510001 -0.85799998 -0.60000002 2
2.8369999 -0.85399997 -0.59799999 2
2.8269999 -0.85000002 -0.597 2
2.8180001 -0.847 -0.59600002 2
2.809 -0.84399998 -0.59500003 2
2.8050001 -0.84200001 -0.59600002 2
2.8010001 -0.84100002 -0.59600002 2
2.7939999 -0.838 -0.59500003 2
2.7920001 -0.83700001 -0.59600002 2
2.786 -0.83399999 -0.59500003 2
2.789 -0.83499998 -0.597 2
2.777 -0.83099997 -0.59500003 2
2.783 -0.83200002 -0.597 2
2.7690001 -0.82700002 -0.59500003 2
2.7639999 -0.82499999 -0.59500003 2
2.7609999 -0.82300001 -0.59500003 2
2.7550001 -0.81999999 -0.59500003 2
2.756 -0.81999999 -0.59600002 2
2.747 -0.81599998 -0.59399998 2
2.7409999 -0.81400001 -0.59399998 2
2.743 -0.81300002 -0.59500003 2
2.734 -0.81 -0.59399998 2
2.727 -0.80699998 -0.59299999 2
2.7360001 -0.80800003 -0.59500003 2
2.7179999 -0.80199999 -0.59200001 2
2.7190001 -0.801 -0.59299999 2
2.7179999 -0.80000001 -0.59299999 2
2.714 -0.79699999 -0.59299999 2
2.707 -0.79400003 -0.59200001 2
2.71 -0.79400003 -0.59299999 2
2.6989999 -0.78899997 -0.59100002 2
2.698 -0.78799999 -0.59100002 2
2.6889999 -0.78399998 -0.58899999 2
2.684 -0.78100002 -0.588 1
2.707 -0.787 -0.59399998 1
2.822 -0.81800002 -0.62 1
2.7739999 -0.80299997 -0.60900003 1
2.717 -0.78500003 -0.597 1
2.7909999 -0.80500001 -0.61299998 1
2.7750001 -0.79900002 -0.61000001 1
2.691 -0.773 -0.59200001 1
2.7590001 -0.79100001 -0.60699999 1
2.793 -0.79900002 -0.61400002 1
2.6919999 -0.76800001 -0.59200001 1
2.7409999 -0.78100002 -0.60299999 1
2.773 -0.78799999 -0.61000001 1
2.6700001 -0.75700003 -0.58700001 1
2.665 -0.75400001 -0.58600003 1
2.671 -0.75400001 -0.588 1
2.6819999 -0.755 -0.58999997 2
2.6730001 -0.75099999 -0.588 2
2.678 -0.75 -0.58899999 2
2.675 -0.74800003 -0.588 2
2.6800001 -0.74699998 -0.58899999 2
2.6819999 -0.74599999 -0.58899999 2
2.6789999 -0.74299997 -0.588 2
2.687 -0.74299997 -0.58999997 2
2.6860001 -0.741 -0.58999997 2
2.681 -0.73699999 -0.588 2
2.6889999 -0.73799998 -0.58999997 2
2.6889999 -0.73500001 -0.58899999 2
2.6919999 -0.73400003 -0.58999997 2
2.687 -0.73100001 -0.588 2
2.6960001 -0.73100001 -0.58999997 2
2.6949999 -0.72799999 -0.58899999 2
2.8340001 -0.76300001 -0.61900002 2
2.8340001 -0.76099998 -0.61799997 1
2.79 -0.74699998 -0.60799998 1
2.773 -0.74000001 -0.60399997 1
2.8800001 -0.76599997 -0.62599999 1
2.717 -0.72000003 -0.58999997 2
2.727 -0.72000003 -0.59200001 2
2.7279999 -0.71799999 -0.59100002 2
2.7309999 -0.71600002 -0.59100002 2
2.73 -0.71399999 -0.59100002 2
2.7420001 -0.71399999 -0.59200001 2
2.7409999 -0.71100003 -0.59100002 2
2.7520001 -0.71100003 -0.59299999 2
2.753 -0.70899999 -0.59200001 2
2.7650001 -0.70899999 -0.59399998 2
2.766 -0.70700002 -0.59299999 2
2.7750001 -0.70599997 -0.59399998 2
2.7750001 -0.704 -0.59299999 2
2.78 -0.70200002 -0.59399998 2
2.7869999 -0.70099998 -0.59399998 2
2.796 -0.70099998 -0.59500003 2
2.802 -0.699 -0.59500003 2
2.803 -0.69599998 -0.59399998 2
2.809 -0.69499999 -0.59399998 2
2.812 -0.69300002 -0.59399998 2
2.8069999 -0.68900001 -0.59200001 2
2.8199999 -0.68900001 -0.59299999 2
2.8199999 -0.68599999 -0.59200001 2
2.8329999 -0.68599999 -0.59299999 2
2.8369999 -0.68400002 -0.59299999 2
2.849 -0.68300003 -0.59399998 2
2.859 -0.68300003 -0.59500003 2
2.9660001 -0.70499998 -0.616 2
2.881 -0.68099999 -0.597 2
3.0020001 -0.70599997 -0.62 2
2.925 -0.685 -0.60299999 2
2.98 -0.69400001 -0.61199999 2
3.03 -0.70200002 -0.62099999 2
2.9760001 -0.68699998 -0.60900003 2
2.9590001 -0.67900002 -0.60299999 1
2.9749999 -0.67900002 -0.60500002 1
2.9790001 -0.67699999 -0.60399997 1
3.0710001 -0.69400001 -0.62099999 2
3.0869999 -0.69400001 -0.62199998 2
3.1400001 -0.70200002 -0.63099998 2
3.1029999 -0.69 -0.62199998 1
3.059 -0.676 -0.611 1
3.0209999 -0.66399997 -0.602 2
3.0339999 -0.66299999 -0.602 2
3.0420001 -0.66100001 -0.602 2
3.059 -0.66100001 -0.60299999 2
3.0669999 -0.65899998 -0.60299999 2
3.082 -0.65799999 -0.60399997 2
3.1040001 -0.65899998 -0.60600001 2
3.109 -0.65600002 -0.60500002 2
3.1329999 -0.65700001 -0.60699999 2
3.138 -0.65399998 -0.60600001 2
3.155 -0.653 -0.60699999 2
3.1730001 -0.653 -0.60799998 3
3.2030001 -0.65499997 -0.611 3
3.2179999 -0.65399998 -0.61199999 3
3.227 -0.65100002 -0.611 3
3.247 -0.65100002 -0.61199999 3
3.2579999 -0.64899999 -0.61199999 4
3.2650001 -0.64600003 -0.61000001 4
3.2750001 -0.64399999 -0.61000001 4
3.2939999 -0.64300001 -0.611 3
3.3080001 -0.64099997 -0.61000001 3
3.3310001 -0.64099997 -0.61199999 2
3.3469999 -0.63999999 -0.61199999 2
3.4389999 -0.653 -0.62599999 2
3.4790001 -0.65600002 -0.63 2
3.4879999 -0.65200001 -0.62900001 2
3.4170001 -0.63499999 -0.61299998 2
3.46 -0.63800001 -0.61799997 1
3.4849999 -0.63700002 -0.61900002 2
3.506 -0.63599998 -0.62 1
3.5409999 -0.63800001 -0.62300003 1
3.543 -0.63300002 -0.62 1
3.589 -0.63599998 -0.62400001 2
3.6300001 -0.639 -0.62800002 2
3.664 -0.639 -0.63099998 3
3.7060001 -0.64200002 -0.634 3
3.747 -0.64300001 -0.63800001 3
3.7379999 -0.63700002 -0.63300002 3
3.76 -0.63499999 -0.63300002 3
3.7739999 -0.63200003 -0.63099998 2
3.7939999 -0.63 -0.63099998 3
3.796 -0.625 -0.62699997 1
3.878 -0.63300002 -0.63700002 2
3.9100001 -0.63200003 -0.63800001 3
3.8970001 -0.625 -0.63200003 2
4.006 -0.63599998 -0.64499998 3
3.9820001 -0.62699997 -0.63700002 3
3.973 -0.62 -0.63200003 2
4.027 -0.62199998 -0.63599998 2
4.0479999 -0.62 -0.63499999 2
4.1199999 -0.625 -0.64200002 3
4.145 -0.62199998 -0.64099997 2
4.1550002 -0.61799997 -0.63800001 2
4.2670002 -0.62800002 -0.64999998 2
4.2979999 -0.62699997 -0.64999998 4
4.3169999 -0.62300003 -0.648 2
4.3309999 -0.61900002 -0.64600003 2
4.3720002 -0.61799997 -0.64700001 4
4.4260001 -0.61900002 -0.64999998 4
4.474 -0.62 -0.65100002 4
4.5149999 -0.61900002 -0.65200001 4
4.5780001 -0.62099999 -0.65600002 2
4.6170001 -0.61900002 -0.65600002 4
4.671 -0.61900002 -0.65799999 3
4.7350001 -0.62099999 -0.66100001 3
4.789 -0.62099999 -0.66299999 2
4.8460002 -0.62199998 -0.66500002 2
4.9039998 -0.62199998 -0.667 2
4.9689999 -0.62300003 -0.67000002 2
5.0310001 -0.62300003 -0.67199999 2
5.0830002 -0.62199998 -0.67199999 2
5.158 -0.62400001 -0.676 3
5.2249999 -0.62400001 -0.67799997 2
5.3070002 -0.62599999 -0.68199998 4
5.3860002 -0.62699997 -0.685 2
5.46 -0.62800002 -0.68699998 3
5.546 -0.63 -0.69099998 3
5.6360002 -0.63099998 -0.69499999 2
5.7270002 -0.63300002 -0.69800001 2
5.8060002 -0.634 -0.69999999 2
5.9000001 -0.63499999 -0.704 3
5.994 -0.63599998 -0.70700002 2
6.0879998 -0.63700002 -0.70999998 2
6.1859999 -0.639 -0.713 2
6.3200002 -0.64300001 -0.72000003 2
6.414 -0.64300001 -0.72100002 2
6.5149999 -0.64399999 -0.72399998 2
6.6430001 -0.64700001 -0.72899997 3
6.7810001 -0.65100002 -0.73500001 3
6.9219999 -0.65399998 -0.74000001 3
7.0560002 -0.65700001 -0.745 3
7.2399998 -0.66299999 -0.75400001 4
7.4190001 -0.66900003 -0.76200002 4
7.5700002 -0.671 -0.76700002 5
7.7319999 -0.67500001 -0.77200001 6
7.9289999 -0.68000001 -0.77999997 11
8.066 -0.68000001 -0.78200001 11
8.2519999 -0.68400002 -0.78799999 7
8.5039997 -0.69300002 -0.80000001 3
8.7469997 -0.69999999 -0.81 3
8.9980001 -0.70700002 -0.81999999 4
9.2589998 -0.71499997 -0.82999998 3
9.5609999 -0.72399998 -0.84200001 2
9.8540001 -0.73199999 -0.85399997 2
10.191 -0.74199998 -0.86699998 3
10.538 -0.75300002 -0.88 3
10.87 -0.76099998 -0.89200002 2
11.243 -0.77100003 -0.90499997 2
11.638 -0.78100002 -0.91900003 2
12.028 -0.79100001 -0.93099999 3
12.449 -0.801 -0.94400001 3
12.915 -0.81300002 -0.95999998 2
13.441 -0.82700002 -0.97799999 3
13.956 -0.83899999 -0.99299997 3
14.497 -0.85100001 -1.0089999 3
15.109 -0.866 -1.028 4
15.573 -0.87099999 -1.035 3
16.504 -0.90100002 -1.071 3
17.267 -0.91799998 -1.0930001 2
18.097 -0.93800002 -1.117 2
18.136 -0.91500002 -1.09 1
0 0 0 1
21.496 -1.026 -1.224 1
22.257999 -1.0319999 -1.2309999 1
0 0 0 5
0 0 0 0
0 0 0 3
0 0 0 0
0 0 0 16
44.293999 -1.696 -2.0120001 33
44.066002 -1.63 -1.9299999 45
44.152 -1.575 -1.8609999 38
44.348 -1.523 -1.795 44
44.490002 -1.47 -1.727 51
44.459 -1.411 -1.651 40
44.790001 -1.362 -1.587 40
45.243999 -1.317 -1.527 42
45.715 -1.272 -1.466 42
45.714001 -1.214 -1.3890001 35
45.744999 -1.156 -1.312 29
45.722 -1.097 -1.234 30
45.751999 -1.04 -1.1569999 18
0 0 0 60
68.450996 -1.382 -1.4960001 77
68.455002 -1.294 -1.374 93
68.473 -1.2079999 -1.256 19
71.644997 -1.174 -1.1900001 24
71.670998 -1.085 -1.0650001 61
73.862999 -1.028 -0.97100002 95
74.474998 -0.94700003 -0.852 40
74.894997 -0.85900003 -0.72399998 62
74.779999 -0.76800001 -0.59299999 68
74.769997 -0.67799997 -0.463 85
74.780998 -0.58700001 -0.331 85
74.776001 -0.49700001 -0.199 52
74.783997 -0.40700001 -0.066 28
0 0 0 15
0 0 0 0
0 0 0 14
87.508003 -0.064000003 0.542 28
85.911003 0.039999999 0.69 14
85.856003 0.138 0.84100002 28
85.609001 0.237 0.99199998 35
85.760002 0.33500001 1.145 24
0 0 0 0
0 0 0 0
0 0 0 0
0 0 0 26
0 0 0 0
0 0 0 0
0 0 0 37
0 0 0 0
0 0 0 0
0 0 0 0
0 0 0 0
0 0 0 0
0 0 0 51
122.026 2.348 4.7160001 87
121.763 2.4719999 4.9320002 115
121.694 2.596 5.1490002 114
121.72 2.723 5.3730001 102
121.718 2.848 5.5960002 89
121.74 2.971 5.8169999 86
121.74 3.096 6.0440001 78
121.698 3.217 6.2649999 55
121.811 3.3440001 6.4970002 40
121.908 3.4679999 6.7270002 36
121.898 3.586 6.947 41
0 0 0 0
0 0 0 32
0 0 0 0
0 0 0 0
0 0 0 33
121.865 4.2859998 8.2910004 41
121.799 4.3959999 8.5080004 41
121.713 4.506 8.7259998 48
121.655 4.6149998 8.9460001 36
0 0 0 0
0 0 0 0
0 0 0 0
0 0 0 0
0 0 0 51
121.753 5.2659998 10.289 42
0 0 0 0
0 0 0 0
0 0 0 27
119.178 5.5570002 10.935 53
119.174 5.6570001 11.154 95
119.141 5.7540002 11.369 97
119.141 5.8520002 11.588 92
119.178 5.9530001 11.812 82
119.14 6.0469999 12.027 87
119.136 6.1420002 12.244 87
119.237 6.2410002 12.473 53
119.37 6.3410001 12.705 36
119.311 6.4299998 12.916 32
119.318 6.5219998 13.134 29
119.339 6.6139998 13.354 34
119.327 6.7049999 13.572 34
0 0 0 0
0 0 0 0
0 0 0 0
0 0 0 0
0 0 0 0
0 0 0 29
119.277 7.3000002 15.072 30
119.167 7.3759999 15.269 51
119.135 7.4549999 15.476 62
119.165 7.5370002 15.694 76
119.184 7.6170001 15.91 78
119.162 7.691 16.118 75
119.181 7.7729998 16.334999 73
119.147 7.8470001 16.539 48
119.311 7.934 16.774 31
119.362 8.0120001 16.993 33
119.297 8.0810003 17.195 34
119.426 8.1630001 17.424999 27
119.357 8.2309999 17.622 30
119.402 8.3050003 17.837999 31
119.431 8.3769999 18.052 28
119.322 8.4390001 18.245001 30
119.37 8.5109997 18.457001 36
119.326 8.5749998 18.658001 32
119.383 8.6459999 18.875 27
119.364 8.7069998 19.073 32
119.196 8.7600002 19.253 47
119.183 8.823 19.452999 67
119.165 8.8809996 19.653 79
119.172 8.9449997 19.851999 66
119.159 9.0039997 20.056999 76
119.155 9.0640001 20.259001 71
119.127 9.1210003 20.454 60
119.241 9.1879997 20.674999 46
119.297 9.25 20.886999 38
119.267 9.3050003 21.079 36
119.346 9.3660002 21.297001 38
119.41 9.4259996 21.504999 33
119.405 9.4799995 21.702999 37
119.354 9.5290003 21.889 28
119.26 9.5740004 22.069 25
119.459 9.6409998 22.302999 25
119.403 9.6859999 22.489 24
119.474 9.7410002 22.698 27
119.415 9.7849998 22.882 30
119.385 9.8299999 23.07 39
119.225 9.8640003 23.229 35
119.206 9.908 23.417 55
119.172 9.9499998 23.601999 58
119.125 9.9899998 23.783001 78
119.193 10.039 23.987 68
119.155 10.078 24.167999 67
119.173 10.122 24.357 58
119.25 10.168 24.559999 47
0 0 0 0
0 0 0 0
0 0 0 0
0 0 0 0
0 0 0 0
0 0 0 0
0 0 0 0
0 0 0 0
0 0 0 0
0 0 0 0
0 0 0 0
0 0 0 0
0 0 0 0
0 0 0 26
119.534 10.7 27.319 30
119.344 10.709 27.448 39
119.243 10.726 27.597 39
119.282 10.754 27.775999 47
119.223 10.773 27.931999 61
119.242 10.798 28.105 59
119.245 10.821 28.273001 74
119.223 10.842 28.431 52
119.216 10.864 28.591999 37
0 0 0 0
0 0 0 0
0 0 0 0
0 0 0 0
0 0 0 23
0 0 0 0
0 0 0 0
0 0 0 24
0 0 0 0
0 0 0 0
0 0 0 0
0 0 0 0
0 0 0 0
0 0 0 0
0 0 0 0
0 0 0 0
0 0 0 25
119.426 11.125 31.417 33
119.375 11.128 31.544001 37
119.357 11.132 31.681999 44
119.3 11.133 31.804001 57
119.315 11.138 31.948 60
119.325 11.141 32.089001 55
119.29 11.14 32.216999 56
119.338 11.148 32.362999 55
119.315 11.143 32.491001 49
119.409 11.151 32.648998 46
119.351 11.145 32.764999 34
119.367 11.147 32.897999 24
0 0 0 0
0 0 0 0
0 0 0 0
0 0 0 0
0 0 0 0
0 0 0 0
0 0 0 0
0 0 0 0
0 0 0 0
0 0 0 0
0 0 0 0
0 0 0 0
0 0 0 0
0 0 0 0
0 0 0 0
0 0 0 0
