# .PCD v0.7 - Point Cloud Data file format
VERSION 0.7
FIELDS x y z intensity
SIZE 4 4 4 4
TYPE F F F F
COUNT 1 1 1 1
WIDTH 1807
HEIGHT 1
VIEWPOINT 0 0 0 1 0 0 0
POINTS 1807
DATA ascii
25.475 7.4169998 3.174 34
25.43 7.3860002 3.1719999 43
25.341999 7.3429999 3.164 42
25.334 7.322 3.1659999 42
25.337 7.3049998 3.1689999 30
25.333 7.2849998 3.171 27
25.349001 7.27 3.1760001 23
25.357 7.2529998 3.1789999 23
25.360001 7.2340002 3.1819999 28
25.365999 7.2160001 3.184 23
25.358999 7.1939998 3.1849999 7
25.343 7.1690001 3.1849999 3
25.351999 7.1500001 3.188 1
0 0 0 31
31.584999 8.8549995 3.974 23
31.490999 8.8009996 3.9630001 30
31.521999 8.7819996 3.9679999 28
31.549 8.7620001 3.973 26
31.485001 8.7159996 3.9649999 26
31.451 8.6780005 3.961 29
31.424 8.6409998 3.957 24
0 0 0 0
0 0 0 0
0 0 0 18
31.337999 8.4989996 3.9449999 18
0 0 0 0
0 0 0 0
0 0 0 0
0 0 0 16
30.278 8.0620003 3.8039999 20
30.431999 8.0719995 3.8210001 20
30.052 7.9400001 3.7709999 10
30.070999 7.9130001 3.7709999 17
30.226999 7.9229999 3.7880001 17
30.434 7.9439998 3.8110001 19
30.351 7.8899999 3.7969999 20
30.326 7.8509998 3.79 20
30.606001 7.8889999 3.822 20
30.979 7.9510002 3.865 21
30.903999 7.8969998 3.8510001 21
31.062 7.902 3.8670001 21
30.962 7.8410001 3.8499999 21
30.393999 7.6630001 3.7739999 20
31.059 7.7950001 3.852 27
30.584 7.6389999 3.7869999 19
30.622 7.6129999 3.7869999 19
30.479 7.5409999 3.763 15
30.601 7.5339999 3.773 16
30.996 7.5949998 3.8150001 21
30.778 7.5029998 3.7820001 20
30.700001 7.447 3.7650001 20
30.694 7.4070001 3.7579999 19
30.909 7.421 3.777 20
30.826 7.362 3.7590001 20
31.111 7.3909998 3.7869999 20
31.379 7.415 3.8110001 20
31.246 7.3429999 3.7869999 20
31.607 7.3870001 3.822 21
31.341 7.2849998 3.7809999 20
31.684 7.323 3.8139999 21
31.708 7.2859998 3.8069999 21
31.488001 7.1939998 3.7709999 20
31.457001 7.1459999 3.7579999 21
31.521 7.118 3.756 32
31.511999 7.073 3.744 23
31.599001 7.0500002 3.744 26
31.549999 6.9959998 3.727 31
31.528 6.948 3.714 20
31.589001 6.9180002 3.71 23
31.549 6.8649998 3.694 27
31.562 6.8239999 3.6830001 22
31.524 6.7719998 3.6670001 17
31.702 6.7649999 3.6760001 9
0 0 0 39
34.073002 7.1750002 3.924 48
34.131001 7.1389999 3.9170001 36
34.300999 7.125 3.9219999 46
34.394001 7.0929999 3.9170001 31
34.401001 7.0450001 3.9030001 37
34.419998 6.9970002 3.8900001 42
34.414001 6.9450002 3.8740001 40
34.502998 6.9130001 3.868 47
34.498001 6.8610001 3.852 49
34.527 6.8150001 3.839 32
34.519001 6.7620001 3.8210001 32
34.903999 6.7849998 3.8469999 19
34.764 6.7049999 3.8139999 20
34.720001 6.6440001 3.7920001 15
0 0 0 0
0 0 0 9
32.658001 6.099 3.5150001 9
32.549 6.0289998 3.4860001 13
32.548 5.9780002 3.4679999 18
32.683998 5.9530001 3.4649999 22
32.759998 5.9159999 3.454 37
32.865002 5.8839998 3.447 37
32.993999 5.8559999 3.4419999 39
33.134998 5.829 3.437 37
33.098 5.77 3.4130001 35
33.122002 5.7210002 3.395 49
33.150002 5.6729999 3.378 45
33.155998 5.6209998 3.358 45
33.205002 5.5760002 3.342 36
33.091999 5.5050001 3.3099999 36
33.144001 5.46 3.2939999 31
33.112999 5.401 3.2690001 36
33.238998 5.369 3.2609999 36
33.515999 5.3579998 3.2650001 19
33.506001 5.302 3.2409999 16
33.534 5.2519999 3.221 24
33.575001 5.204 3.2019999 37
33.542999 5.1440001 3.175 35
33.508999 5.0830002 3.148 39
33.574001 5.039 3.1300001 46
33.556 4.98 3.1040001 48
33.591999 4.9299998 3.0829999 43
33.553001 4.868 3.0550001 52
33.522999 4.809 3.027 50
33.529999 4.7540002 3.0020001 48
33.515999 4.6960001 2.9760001 43
33.574001 4.6479998 2.9549999 51
33.716999 4.6110001 2.941 41
33.903999 4.579 2.931 23
34.282001 4.573 2.9360001 24
34.407001 4.5320001 2.9189999 25
33.710999 4.3829999 2.8329999 13
33.692001 4.3239999 2.803 9
0 0 0 0
0 0 0 0
0 0 0 0
0 0 0 23
43.905998 5.2610002 3.4679999 27
44.028 5.1999998 3.4389999 21
44.016998 5.125 3.4000001 23
43.967999 5.0430002 3.3559999 32
43.944 4.9640002 3.3150001 31
43.905998 4.8860002 3.273 40
43.890999 4.8080001 3.2320001 42
43.995998 4.744 3.1989999 39
44.104 4.6810002 3.1670001 39
44.064999 4.6009998 3.1229999 35
44.118 4.5310001 3.085 29
44.115002 4.4559999 3.0439999 31
44.091999 4.3779998 3.0009999 31
44.076 4.3010001 2.957 30
44.159 4.2329998 2.9200001 25
44.238998 4.164 2.882 15
44.308998 4.0939999 2.8429999 8
0 0 0 0
0 0 0 58
116.274 10.144 7.112 76
116.286 9.9440002 6.994 79
116.262 9.7399998 6.8730001 80
116.279 9.54 6.7540002 82
116.303 9.3409996 6.6350002 83
116.324 9.1409998 6.5139999 85
116.323 8.9390001 6.3909998 74
116.325 8.7360001 6.2639999 83
116.36 8.5419998 6.145 42
0 0 0 15
88.569 6.198 4.487 14
90.901001 6.204 4.5050001 14
91.054001 6.0560002 4.4130001 18
91.445999 5.9239998 4.3299999 21
91.793999 5.7880001 4.244 18
91.792 5.6290002 4.1409998 26
91.818001 5.4710002 4.0359998 18
0 0 0 23
0 0 0 0
0 0 0 17
87.114998 4.5939999 3.4319999 30
87.125 4.4439998 3.3310001 25
87.043999 4.289 3.223 12
0 0 0 0
0 0 0 24
89.473 3.95 2.9960001 21
89.316002 3.7920001 2.885 19
89.301003 3.641 2.7780001 22
89.112999 3.4809999 2.6630001 26
0 0 0 0
0 0 0 0
0 0 0 18
87.414001 2.8169999 2.1789999 31
87.412003 2.6689999 2.0699999 24
87.646004 2.53 1.967 22
0 0 0 0
0 0 0 0
0 0 0 0
0 0 0 0
0 0 0 0
0 0 0 0
0 0 0 0
0 0 0 0
0 0 0 0
0 0 0 0
0 0 0 0
0 0 0 25
0 0 0 0
0 0 0 0
0 0 0 0
0 0 0 38
132.994 0.081 0.025 79
133.02 -0.13 -0.15099999 87
133.039 -0.34400001 -0.33199999 97
133.041 -0.56099999 -0.51499999 100
133.19901 -0.78200001 -0.70300001 33
0 0 0 0
0 0 0 0
0 0 0 64
0 0 0 36
71.563004 -0.99699998 -0.87900001 102
69.390999 -1.0779999 -0.95099998 50
69.347 -1.186 -1.048 15
66.138 -1.237 -1.094 36
66.123001 -1.342 -1.189 40
0 0 0 0
0 0 0 20
43.453999 -1.086 -0.96799999 25
43.422001 -1.153 -1.031 18
43.48 -1.221 -1.094 27
43.311001 -1.284 -1.153 39
42.752998 -1.3329999 -1.2 36
42.324001 -1.385 -1.25 37
42.112999 -1.443 -1.306 43
42.226002 -1.511 -1.3710001 48
41.902 -1.564 -1.423 36
41.827999 -1.625 -1.483 40
41.898998 -1.6900001 -1.5470001 45
41.657001 -1.744 -1.601 30
41.617001 -1.8049999 -1.6619999 27
0 0 0 5
29.400999 -1.363 -1.262 7
0 0 0 0
0 0 0 3
25.424999 -1.291 -1.206 3
25.261999 -1.3200001 -1.237 2
0 0 0 0
0 0 0 1
18.891001 -1.0700001 -1.012 1
17.830999 -1.035 -0.98199999 1
16.983999 -1.011 -0.96100003 2
16.177999 -0.986 -0.94099998 2
15.434 -0.963 -0.921 2
14.79 -0.94300002 -0.90499997 2
14.261 -0.93000001 -0.89499998 3
13.571 -0.90399998 -0.87300003 3
13.147 -0.89399999 -0.866 3
12.732 -0.884 -0.85900003 2
12.293 -0.87099999 -0.84899998 3
11.913 -0.861 -0.84100002 2
11.509 -0.847 -0.82999998 2
11.125 -0.83399999 -0.81999999 2
10.768 -0.82200003 -0.81099999 2
10.426 -0.81 -0.80199999 3
10.112 -0.79900002 -0.79299998 2
9.823 -0.79000002 -0.78600001 3
9.5649996 -0.78200001 -0.78100002 3
9.2959995 -0.77200001 -0.773 3
9.0360003 -0.76300001 -0.76599997 3
8.7950001 -0.75300002 -0.759 3
8.566 -0.745 -0.75300002 3
8.3299999 -0.736 -0.74599999 3
8.132 -0.72899997 -0.741 3
7.8920002 -0.71799999 -0.73199999 3
7.6680002 -0.70700002 -0.72299999 4
7.4910002 -0.69999999 -0.71799999 4
7.316 -0.69300002 -0.713 3
7.1230001 -0.68400002 -0.70599997 3
6.973 -0.67799997 -0.70200002 4
6.8429999 -0.67400002 -0.69999999 4
6.6849999 -0.667 -0.69499999 4
6.507 -0.65700001 -0.68699998 3
6.355 -0.64899999 -0.68099999 3
6.211 -0.64200002 -0.67500001 3
6.0970001 -0.63800001 -0.67299998 4
5.9899998 -0.634 -0.67000002 4
5.8649998 -0.62800002 -0.66600001 4
5.75 -0.62199998 -0.662 3
5.6170001 -0.61400002 -0.65600002 4
5.5139999 -0.61000001 -0.65200001 4
5.4050002 -0.60399997 -0.648 4
5.3400002 -0.60299999 -0.64899999 4
5.2529998 -0.59899998 -0.64700001 3
5.1729999 -0.59600002 -0.64499998 4
5.085 -0.59100002 -0.64300001 4
5.0120001 -0.58899999 -0.64099997 3
4.9239998 -0.58399999 -0.63800001 2
4.8470001 -0.57999998 -0.63599998 2
4.7719998 -0.57599998 -0.634 2
4.6890001 -0.57099998 -0.63 2
4.6329999 -0.56999999 -0.63 2
4.5689998 -0.56699997 -0.62900001 2
4.48 -0.56 -0.62400001 3
4.4200001 -0.55800003 -0.62199998 3
4.368 -0.55599999 -0.62199998 2
4.2800002 -0.54900002 -0.616 3
4.2119999 -0.54500002 -0.61299998 2
4.1810002 -0.54500002 -0.61500001 2
4.1020002 -0.53899997 -0.61000001 3
4.0380001 -0.53399998 -0.60699999 1
3.974 -0.52999997 -0.60399997 1
3.934 -0.528 -0.60399997 3
3.8800001 -0.52499998 -0.602 1
3.862 -0.52600002 -0.60500002 2
3.7809999 -0.51899999 -0.59799999 2
3.773 -0.52100003 -0.60299999 2
3.7349999 -0.51999998 -0.602 2
3.652 -0.51200002 -0.59500003 1
3.6140001 -0.50999999 -0.59399998 2
3.599 -0.51099998 -0.597 2
3.533 -0.505 -0.59200001 2
3.5280001 -0.50700003 -0.597 2
3.474 -0.50300002 -0.59299999 2
3.4059999 -0.49599999 -0.58600003 1
3.4779999 -0.509 -0.60399997 2
3.368 -0.49599999 -0.58999997 1
3.3280001 -0.493 -0.588 2
3.3859999 -0.505 -0.60399997 2
3.2969999 -0.49399999 -0.59299999 1
3.2880001 -0.49599999 -0.59600002 2
3.1719999 -0.48100001 -0.57999998 1
3.312 -0.505 -0.611 2
3.1989999 -0.49000001 -0.59500003 1
3.161 -0.48699999 -0.59200001 1
3.217 -0.498 -0.60799998 2
3.086 -0.47999999 -0.588 1
3.102 -0.48500001 -0.59500003 2
3.036 -0.477 -0.58700001 2
3.01 -0.47600001 -0.58700001 2
2.997 -0.47600001 -0.58899999 2
2.8959999 -0.46200001 -0.57300001 1
2.901 -0.465 -0.57800001 1
2.8770001 -0.463 -0.57800001 1
2.816 -0.45500001 -0.56999999 1
2.8410001 -0.461 -0.579 1
2.8970001 -0.472 -0.59399998 1
2.767 -0.45300001 -0.57200003 1
2.7490001 -0.45199999 -0.57200003 1
2.7079999 -0.447 -0.56699997 1
2.687 -0.44600001 -0.56699997 1
2.6719999 -0.44499999 -0.56699997 1
2.6489999 -0.44299999 -0.56599998 1
2.7179999 -0.456 -0.58499998 1
2.6760001 -0.45100001 -0.57999998 1
2.585 -0.43700001 -0.56300002 1
2.609 -0.44299999 -0.57200003 1
2.609 -0.44400001 -0.57599998 1
2.5929999 -0.44299999 -0.57599998 1
2.494 -0.428 -0.55699998 1
2.4849999 -0.428 -0.55900002 1
2.4679999 -0.426 -0.55800003 1
2.45 -0.42399999 -0.55699998 1
2.431 -0.42199999 -0.55599999 1
2.4219999 -0.42199999 -0.55800003 1
2.3970001 -0.419 -0.55500001 1
2.3900001 -0.419 -0.55699998 1
2.375 -0.41800001 -0.55599999 1
2.355 -0.41499999 -0.55400002 1
2.3399999 -0.414 -0.55400002 1
2.326 -0.41299999 -0.55400002 1
2.312 -0.41100001 -0.55299997 1
2.2950001 -0.40900001 -0.55199999 1
2.2839999 -0.40900001 -0.55299997 1
2.267 -0.40599999 -0.551 1
2.257 -0.40599999 -0.55199999 1
2.2379999 -0.403 -0.55000001 1
2.2279999 -0.40200001 -0.55000001 1
2.2160001 -0.40099999 -0.55000001 1
2.2030001 -0.40000001 -0.54900002 1
2.177 -0.396 -0.546 1
2.175 -0.396 -0.54799998 1
2.165 -0.396 -0.54799998 1
2.1570001 -0.39500001 -0.54799998 1
2.1400001 -0.39300001 -0.546 1
2.1359999 -0.39199999 -0.54799998 1
2.1210001 -0.38999999 -0.546 1
2.112 -0.38999999 -0.54699999 1
2.1040001 -0.389 -0.54699999 1
2.0940001 -0.38800001 -0.54699999 1
2.089 -0.38800001 -0.54799998 1
2.0739999 -0.38499999 -0.546 1
2.0569999 -0.38299999 -0.54400003 1
2.05 -0.382 -0.54400003 1
2.049 -0.382 -0.546 1
2.0320001 -0.38 -0.54400003 1
2.027 -0.38 -0.54500002 1
2.02 -0.37900001 -0.54500002 1
2.0139999 -0.37799999 -0.546 1
2.0020001 -0.37599999 -0.54400003 1
1.994 -0.375 -0.54500002 1
1.979 -0.373 -0.542 1
1.975 -0.373 -0.54299998 1
1.969 -0.37200001 -0.54400003 2
1.959 -0.37 -0.54299998 3
1.948 -0.36899999 -0.542 4
1.941 -0.368 -0.542 5
1.941 -0.368 -0.54400003 5
1.933 -0.36700001 -0.54299998 6
1.932 -0.36700001 -0.54500002 6
1.921 -0.36500001 -0.54299998 6
1.914 -0.36399999 -0.54299998 6
1.908 -0.36300001 -0.54299998 6
1.9 -0.36199999 -0.54299998 6
1.8940001 -0.361 -0.54299998 6
1.883 -0.359 -0.54100001 6
1.8789999 -0.359 -0.542 6
1.872 -0.35699999 -0.54100001 6
1.8660001 -0.35600001 -0.54100001 6
1.862 -0.35600001 -0.54100001 6
1.859 -0.35499999 -0.542 6
1.849 -0.35299999 -0.54100001 6
1.848 -0.35299999 -0.542 6
1.8380001 -0.352 -0.54100001 6
1.827 -0.34900001 -0.53799999 6
1.825 -0.34900001 -0.54000002 6
1.819 -0.34799999 -0.53899997 6
1.811 -0.34599999 -0.53799999 6
1.809 -0.34599999 -0.53899997 5
1.804 -0.345 -0.53899997 5
1.803 -0.345 -0.53899997 5
1.7970001 -0.34400001 -0.53899997 5
1.7920001 -0.34299999 -0.53899997 5
1.79 -0.34200001 -0.53899997 5
1.784 -0.34099999 -0.53899997 4
1.776 -0.33899999 -0.537 4
1.773 -0.33899999 -0.53799999 4
1.768 -0.33700001 -0.537 4
1.767 -0.33700001 -0.53799999 4
1.7640001 -0.336 -0.53799999 4
1.753 -0.33399999 -0.53600001 4
1.757 -0.33500001 -0.53799999 4
1.747 -0.333 -0.53600001 3
1.75 -0.333 -0.53799999 3
1.74 -0.331 -0.53600001 4
1.7309999 -0.329 -0.53399998 3
1.742 -0.331 -0.53799999 3
1.73 -0.32800001 -0.53500003 3
1.733 -0.32800001 -0.537 3
1.724 -0.32600001 -0.53500003 3
1.721 -0.32499999 -0.53500003 3
1.73 -0.32699999 -0.53899997 4
1.722 -0.32499999 -0.537 1
1.722 -0.32499999 -0.53799999 1
1.722 -0.324 -0.53799999 2
1.716 -0.32300001 -0.537 1
1.714 -0.322 -0.537 1
1.709 -0.32100001 -0.53600001 1
1.709 -0.31999999 -0.537 2
1.712 -0.31999999 -0.53899997 1
1.704 -0.31799999 -0.53600001 1
1.704 -0.31799999 -0.537 1
1.701 -0.317 -0.537 1
1.699 -0.31600001 -0.53600001 1
1.694 -0.315 -0.53500003 1
1.701 -0.315 -0.53799999 1
1.694 -0.31299999 -0.53600001 1
1.694 -0.31299999 -0.537 1
1.7 -0.31299999 -0.53899997 1
1.697 -0.31200001 -0.53799999 1
1.691 -0.31099999 -0.537 1
1.691 -0.31 -0.537 1
1.693 -0.31 -0.53799999 1
1.687 -0.308 -0.537 1
1.687 -0.308 -0.537 1
1.687 -0.30700001 -0.537 1
1.687 -0.30599999 -0.53799999 1
1.689 -0.30599999 -0.53799999 1
1.681 -0.30399999 -0.53600001 1
1.688 -0.30399999 -0.53799999 1
1.681 -0.303 -0.53600001 1
1.683 -0.30199999 -0.537 1
1.688 -0.30199999 -0.53899997 1
1.6849999 -0.301 -0.53799999 1
1.688 -0.301 -0.53899997 1
1.688 -0.30000001 -0.53899997 1
1.682 -0.29800001 -0.537 1
1.6799999 -0.29699999 -0.53600001 1
1.689 -0.29800001 -0.53899997 1
1.682 -0.296 -0.537 1
1.6849999 -0.296 -0.537 1
1.6900001 -0.296 -0.53899997 1
1.686 -0.294 -0.53799999 1
1.689 -0.294 -0.53799999 1
1.683 -0.292 -0.53600001 1
1.686 -0.292 -0.537 1
1.6900001 -0.292 -0.53799999 1
1.6900001 -0.29100001 -0.53799999 1
1.6900001 -0.28999999 -0.53799999 1
1.694 -0.28999999 -0.53899997 1
1.684 -0.287 -0.53500003 1
1.689 -0.287 -0.53600001 1
1.6950001 -0.287 -0.53799999 1
1.692 -0.285 -0.53600001 1
1.689 -0.28400001 -0.53500003 2
1.6950001 -0.28400001 -0.537 2
1.692 -0.28299999 -0.53500003 2
1.698 -0.28299999 -0.537 2
1.701 -0.28200001 -0.537 2
1.702 -0.28099999 -0.537 2
1.705 -0.28099999 -0.537 2
1.704 -0.28 -0.53600001 2
1.7 -0.278 -0.53399998 2
1.707 -0.278 -0.53600001 2
1.707 -0.27700001 -0.53500003 2
1.714 -0.27700001 -0.537 2
1.711 -0.27500001 -0.53500003 2
1.714 -0.27500001 -0.53600001 1
1.722 -0.27500001 -0.537 1
1.728 -0.27500001 -0.53799999 1
1.726 -0.273 -0.537 1
1.729 -0.273 -0.537 1
1.72 -0.27000001 -0.53399998 1
1.734 -0.271 -0.537 1
1.732 -0.27000001 -0.53600001 1
1.738 -0.26899999 -0.53600001 1
1.744 -0.26899999 -0.537 1
1.748 -0.26800001 -0.53799999 1
1.75 -0.26800001 -0.537 1
1.7460001 -0.266 -0.53500003 1
1.758 -0.266 -0.53799999 1
1.766 -0.266 -0.53899997 1
1.767 -0.26499999 -0.53899997 1
1.77 -0.264 -0.53799999 1
1.774 -0.264 -0.53799999 1
1.7819999 -0.26300001 -0.54000002 1
1.784 -0.26300001 -0.53899997 1
1.784 -0.26100001 -0.53799999 1
1.786 -0.25999999 -0.537 1
1.789 -0.259 -0.537 1
1.8 -0.259 -0.53899997 1
1.8049999 -0.259 -0.53899997 1
1.808 -0.25799999 -0.53899997 1
1.816 -0.25799999 -0.54000002 1
1.8200001 -0.257 -0.53899997 1
1.824 -0.25600001 -0.53899997 1
1.8279999 -0.255 -0.53899997 1
1.831 -0.25400001 -0.53799999 1
1.8430001 -0.25400001 -0.54100001 1
1.853 -0.25400001 -0.542 1
1.855 -0.25299999 -0.54100001 1
1.855 -0.252 -0.53899997 1
1.87 -0.252 -0.542 1
1.874 -0.25099999 -0.542 1
1.8710001 -0.249 -0.53899997 1
1.881 -0.249 -0.54000002 1
1.893 -0.249 -0.542 1
1.901 -0.249 -0.54299998 1
1.902 -0.24699999 -0.54100001 1
1.919 -0.248 -0.54400003 1
1.923 -0.24699999 -0.54299998 1
1.938 -0.24699999 -0.546 1
1.938 -0.24600001 -0.54400003 1
1.9529999 -0.24600001 -0.546 1
1.957 -0.245 -0.54500002 1
1.9579999 -0.243 -0.54400003 1
1.976 -0.244 -0.54699999 1
1.974 -0.242 -0.54400003 1
1.9859999 -0.242 -0.54500002 1
1.994 -0.241 -0.54500002 1
2.0020001 -0.241 -0.546 1
2.0079999 -0.23999999 -0.54500002 1
2.0139999 -0.23899999 -0.54400003 1
2.0309999 -0.23899999 -0.546 1
2.04 -0.23800001 -0.54699999 1
2.0420001 -0.237 -0.54500002 1
2.063 -0.237 -0.54799998 1
2.069 -0.236 -0.54799998 1
2.079 -0.236 -0.54799998 1
2.0840001 -0.235 -0.54699999 1
2.098 -0.234 -0.54799998 1
2.1159999 -0.234 -0.55000001 1
2.119 -0.233 -0.54799998 1
2.135 -0.233 -0.55000001 1
2.141 -0.23199999 -0.54900002 1
2.152 -0.23100001 -0.54900002 1
2.168 -0.23100001 -0.55000001 1
2.171 -0.229 -0.54799998 1
2.184 -0.229 -0.54900002 1
2.1930001 -0.228 -0.54799998 1
2.2179999 -0.229 -0.55199999 1
2.234 -0.228 -0.55199999 1
2.2460001 -0.228 -0.55299997 1
2.257 -0.227 -0.55199999 1
2.2690001 -0.226 -0.55199999 1
2.293 -0.226 -0.55500001 1
2.296 -0.22499999 -0.55299997 1
2.316 -0.22499999 -0.55400002 1
2.329 -0.22400001 -0.55400002 1
2.3399999 -0.223 -0.55299997 1
2.3659999 -0.223 -0.55599999 1
2.381 -0.223 -0.55599999 1
2.398 -0.222 -0.55699998 1
2.405 -0.221 -0.55500001 1
2.428 -0.221 -0.55699998 1
2.4460001 -0.22 -0.55699998 1
2.461 -0.22 -0.55699998 1
2.4790001 -0.219 -0.55800003 1
2.5090001 -0.22 -0.56099999 1
2.5239999 -0.219 -0.56 1
2.55 -0.219 -0.56199998 1
2.559 -0.21699999 -0.56 1
2.5780001 -0.21699999 -0.56099999 1
2.5969999 -0.21600001 -0.56099999 1
2.6199999 -0.21600001 -0.56199998 1
2.638 -0.215 -0.56199998 1
2.661 -0.215 -0.56199998 1
2.6889999 -0.215 -0.56400001 1
2.707 -0.214 -0.56400001 1
2.7320001 -0.213 -0.56400001 2
2.76 -0.213 -0.56599998 1
2.779 -0.212 -0.565 1
2.803 -0.212 -0.56599998 2
2.829 -0.211 -0.56699997 2
2.8640001 -0.212 -0.56900001 2
2.898 -0.212 -0.57099998 2
2.934 -0.212 -0.57300001 2
2.9590001 -0.211 -0.57300001 2
2.9890001 -0.211 -0.574 2
3.029 -0.211 -0.57700002 2
3.1459999 -0.21699999 -0.59399998 2
3.2030001 -0.21799999 -0.59899998 1
3.1340001 -0.211 -0.58099997 2
0 0 0 2
3.201 -0.20999999 -0.58200002 1
3.3529999 -0.21799999 -0.60399997 2
3.2969999 -0.211 -0.58899999 2
3.3380001 -0.211 -0.58999997 2
3.437 -0.215 -0.602 2
3.405 -0.20999999 -0.58999997 2
3.4530001 -0.20999999 -0.59200001 2
3.5039999 -0.20999999 -0.59500003 1
3.539 -0.20999999 -0.59500003 2
3.6259999 -0.212 -0.60299999 3
3.6129999 -0.20900001 -0.59399998 3
3.6900001 -0.20999999 -0.60000002 5
3.7279999 -0.20900001 -0.60000002 9
3.7679999 -0.20900001 -0.60000002 10
3.816 -0.20900001 -0.60000002 10
3.8840001 -0.20900001 -0.60399997 11
3.931 -0.20900001 -0.60399997 11
3.9890001 -0.20900001 -0.60600001 11
4.052 -0.20900001 -0.60799998 11
4.1129999 -0.20900001 -0.60900003 11
4.1830001 -0.20999999 -0.61199999 12
4.2470002 -0.20999999 -0.61299998 12
4.3140001 -0.20999999 -0.61500001 12
4.3940001 -0.211 -0.61799997 11
4.473 -0.211 -0.62099999 11
4.5349998 -0.211 -0.62099999 11
4.6170001 -0.211 -0.62300003 9
4.697 -0.212 -0.62599999 5
4.7940001 -0.212 -0.62900001 3
4.9070001 -0.214 -0.63499999 3
5.0019999 -0.215 -0.63800001 3
5.1240001 -0.21600001 -0.64300001 2
5.2319999 -0.21699999 -0.64700001 3
5.3119998 -0.21699999 -0.64600003 4
5.4299998 -0.21799999 -0.64999998 5
5.5580001 -0.22 -0.65399998 5
5.6939998 -0.221 -0.65899998 5
5.8379998 -0.223 -0.66500002 4
5.9840002 -0.22400001 -0.67000002 4
6.132 -0.226 -0.67400002 4
6.3010001 -0.228 -0.68000001 4
6.48 -0.23 -0.68699998 4
6.671 -0.233 -0.69400001 4
6.855 -0.235 -0.699 4
7.0359998 -0.237 -0.704 3
7.2789998 -0.23999999 -0.71399999 4
7.4819999 -0.242 -0.71899998 4
7.711 -0.245 -0.72500002 5
7.9980001 -0.25 -0.736 4
8.2770004 -0.25299999 -0.745 4
8.5430002 -0.25600001 -0.75199997 4
8.8599997 -0.26100001 -0.76200002 4
9.1949997 -0.26499999 -0.77200001 4
9.5279999 -0.26899999 -0.78100002 4
9.8330002 -0.27200001 -0.78600001 4
10.247 -0.278 -0.79799998 3
10.665 -0.28299999 -0.80900002 3
11.154 -0.28999999 -0.824 3
11.634 -0.296 -0.83499998 3
12.108 -0.30199999 -0.84399998 2
12.705 -0.31 -0.86000001 3
13.252 -0.31600001 -0.87 3
13.929 -0.32499999 -0.88599998 3
14.76 -0.33700001 -0.90899998 3
15.486 -0.34599999 -0.92199999 2
0 0 0 2
0 0 0 2
18.077 -0.377 -0.963 1
0 0 0 0
0 0 0 0
0 0 0 1
0 0 0 1
0 0 0 0
0 0 0 0
0 0 0 0
0 0 0 0
0 0 0 69
56.891998 -0.926 -1.8430001 43
0 0 0 0
0 0 0 4
45.396 -0.68300003 -1.187 3
0 0 0 51
71.531998 -1.02 -1.5700001 127
71.612 -0.99299997 -1.419 106
72.358002 -0.97600001 -1.281 54
72.571999 -0.95200002 -1.131 49
72.612999 -0.92500001 -0.97600001 44
72.644997 -0.89999998 -0.82499999 34
74.834 -0.89999998 -0.68699998 17
0 0 0 31
133.168 -1.511 -0.65899998 79
0 0 0 32
72.445999 -0.77499998 -0.052999999 65
72.473 -0.75199997 0.1 85
72.492996 -0.73000002 0.25299999 79
72.473 -0.70700002 0.40700001 32
0 0 0 25
0 0 0 8
0 0 0 0
0 0 0 31
69.489998 -0.57999998 1.125 43
69.855003 -0.565 1.28 45
70.150002 -0.55000001 1.434 56
70.282997 -0.53399998 1.586 60
70.389999 -0.51700002 1.739 60
70.658997 -0.50300002 1.896 45
0 0 0 0
0 0 0 0
0 0 0 29
0 0 0 0
0 0 0 18
85.808998 -0.50300002 3.395 29
0 0 0 0
0 0 0 0
0 0 0 34
83.494003 -0.43200001 4.0079999 39
83.858002 -0.41999999 4.2030001 30
84.386002 -0.41100001 4.4070001 35
0 0 0 0
0 0 0 47
0 0 0 0
0 0 0 0
0 0 0 21
0 0 0 25
0 0 0 25
0 0 0 25
0 0 0 32
119.968 -0.45199999 8.7679996 39
119.941 -0.442 9.0120001 43
119.83 -0.43399999 9.2530003 51
119.832 -0.42699999 9.5019999 47
119.982 -0.42199999 9.7629995 27
0 0 0 0
0 0 0 0
0 0 0 0
0 0 0 0
0 0 0 42
0 0 0 0
0 0 0 70
119.799 -0.40000001 11.714 86
119.805 -0.40099999 11.96 92
119.847 -0.403 12.208 84
119.852 -0.40599999 12.453 83
119.872 -0.40900001 12.698 76
119.777 -0.41299999 12.931 51
0 0 0 0
0 0 0 0
0 0 0 0
0 0 0 0
0 0 0 0
0 0 0 0
0 0 0 0
0 0 0 0
0 0 0 0
0 0 0 27
120.209 -0.509 15.613 37
119.994 -0.52200001 15.822 54
119.977 -0.53500003 16.062 73
119.925 -0.55000001 16.290001 78
119.966 -0.56400001 16.527 82
119.995 -0.58200002 16.768 66
120.051 -0.59799999 17.006001 51
120.129 -0.616 17.256001 44
120.139 -0.634 17.483999 36
120.215 -0.65399998 17.726 40
120.224 -0.67400002 17.959 35
120.18 -0.69400001 18.181999 36
120.136 -0.713 18.408001 32
120.191 -0.736 18.639 33
120.228 -0.75800002 18.872999 34
120.315 -0.78200001 19.114 30
120.281 -0.80599999 19.334999 30
120.183 -0.82800001 19.548 31
120.079 -0.85100001 19.752001 45
120.094 -0.87800002 19.982 49
120.076 -0.903 20.198 79
120.128 -0.93199998 20.431999 82
120.126 -0.958 20.65 73
120.14 -0.98699999 20.872999 77
120.118 -1.015 21.089001 86
120.067 -1.045 21.299 88
120.129 -1.073 21.525 96
120.141 -1.104 21.743999 97
120.132 -1.136 21.959 95
120.167 -1.166 22.177 83
120.112 -1.198 22.382 62
119.997 -1.23 22.573 28
0 0 0 49
160.16499 -1.733 30.687 70
159.895 -1.773 30.92 58
0 0 0 0
0 0 0 49
157.418 -1.887 31.261 44
0 0 0 0
0 0 0 42
151.729 -1.959 30.907 88
151.735 -2.007 31.165001 92
151.72099 -2.0569999 31.417999 77
149.14999 -2.0710001 31.136 45
149.05299 -2.1170001 31.361 69
148.95 -2.1659999 31.587 48
146.24001 -2.1760001 31.254 49
146.179 -2.2260001 31.481001 63
0 0 0 0
0 0 0 59
143.256 -2.3340001 31.549 67
143.214 -2.385 31.77 48
140.66901 -2.3940001 31.43 60
140.593 -2.4419999 31.632999 68
140.502 -2.493 31.834 46
137.89999 -2.4979999 31.461 33
137.808 -2.546 31.652 35
134.83299 -2.543 31.177 55
134.88499 -2.596 31.396999 77
134.91499 -2.6459999 31.607 97
134.83099 -2.698 31.792 79
134.785 -2.75 31.985001 57
132.67999 -2.7609999 31.684 47
132.554 -2.8110001 31.851999 61
132.40199 -2.862 32.011002 74
0 0 0 0
0 0 0 31
129.418 -2.9549999 31.858 32
126.66 -2.9449999 31.361 46
126.66 -2.9949999 31.540001 79
126.628 -3.0480001 31.711 102
126.633 -3.102 31.889999 103
126.559 -3.155 32.048 88
126.442 -3.2030001 32.191002 64
126.22 -3.253 32.307999 31
0 0 0 0
0 0 0 32
120.663 -3.2650001 31.372 57
120.607 -3.3199999 31.52 87
120.608 -3.3710001 31.677 81
120.616 -3.425 31.837 71
120.586 -3.4790001 31.985001 64
120.618 -3.5339999 32.147999 70
120.649 -3.5869999 32.307999 62
120.704 -3.6440001 32.473999 74
120.655 -3.698 32.612 61
120.739 -3.756 32.784 52
120.793 -3.813 32.946999 39
120.89 -3.872 33.119999 32
120.887 -3.9289999 33.264 29
0 0 0 0
0 0 0 0
0 0 0 0
0 0 0 0
0 0 0 0
0 0 0 0
0 0 0 0
0 0 0 0
0 0 0 0
0 0 0 0
0 0 0 0
0 0 0 0
0 0 0 0
0 0 0 0
0 0 0 28
121.204 -4.855 35.48 26
121.164 -4.9120002 35.589001 32
121.04 -4.9660001 35.671001 40
120.893 -5.0159998 35.745998 46
120.868 -5.0739999 35.854 40
120.946 -5.1329999 35.988998 58
120.911 -5.1939998 36.089001 54
120.893 -5.2519999 36.194 69
120.888 -5.3080001 36.300999 60
120.932 -5.369 36.421001 64
120.911 -5.428 36.521 65
120.937 -5.4879999 36.632999 65
120.957 -5.5450001 36.741001 74
120.945 -5.6040001 36.838001 68
120.953 -5.664 36.939999 76
120.976 -5.7210002 37.047001 79
120.965 -5.7800002 37.139999 80
120.958 -5.8390002 37.231998 84
120.951 -5.8979998 37.323002 72
120.973 -5.9590001 37.421001 87
120.991 -6.0190001 37.515999 81
120.999 -6.079 37.606998 85
121.01 -6.1389999 37.696999 78
120.999 -6.197 37.778 75
120.994 -6.257 37.860001 84
121.014 -6.3130002 37.949001 81
120.962 -6.3699999 38.013 71
120.997 -6.4310002 38.102001 71
121.005 -6.4899998 38.181 54
121 -6.5489998 38.254002 42
120.93 -6.5999999 38.304001 38
121.073 -6.671 38.422001 31
120.992 -6.7210002 38.465 25
0 0 0 0
0 0 0 0
0 0 0 0
0 0 0 0
0 0 0 0
0 0 0 0
0 0 0 0
0 0 0 0
0 0 0 0
0 0 0 0
0 0 0 0
0 0 0 0
0 0 0 0
0 0 0 0
0 0 0 0
0 0 0 0
0 0 0 0
0 0 0 0
0 0 0 0
0 0 0 0
0 0 0 0
0 0 0 0
0 0 0 0
0 0 0 0
0 0 0 0
0 0 0 0
0 0 0 0
0 0 0 0
0 0 0 0
0 0 0 0
0 0 0 0
0 0 0 0
0 0 0 0
0 0 0 0
0 0 0 0
0 0 0 0
0 0 0 0
0 0 0 0
0 0 0 0
0 0 0 0
0 0 0 0
0 0 0 0
0 0 0 0
0 0 0 0
0 0 0 0
0 0 0 0
0 0 0 0
0 0 0 0
0 0 0 0
0 0 0 0
0 0 0 0
0 0 0 0
0 0 0 0
0 0 0 0
0 0 0 0
0 0 0 0
0 0 0 0
0 0 0 0
0 0 0 0
0 0 0 0
0 0 0 0
0 0 0 2
35.999001 -2.961 11.719 5
35.936001 -2.967 11.687 5
35.867001 -2.9749999 11.651 8
35.806 -2.9820001 11.618 8
35.675999 -2.9820001 11.563 8
35.611 -2.9879999 11.528 10
35.526001 -2.993 11.486 8
35.41 -2.994 11.434 9
35.339001 -3 11.395 9
35.237 -3.0009999 11.347 9
35.169998 -3.007 11.309 8
35.09 -3.0109999 11.267 8
35.034 -3.017 11.231 9
34.926998 -3.0179999 11.179 9
34.870998 -3.0239999 11.144 9
34.799 -3.027 11.102 9
34.707001 -3.029 11.054 10
34.713001 -3.04 11.037 12
34.716 -3.05 11.018 15
34.736 -3.0599999 11.004 15
34.751999 -3.072 10.988 19
34.773998 -3.0829999 10.974 17
34.792 -3.0940001 10.957 18
34.806 -3.1040001 10.94 19
34.808998 -3.1129999 10.918 19
34.812 -3.122 10.896 20
34.792 -3.128 10.866 21
34.764999 -3.1340001 10.833 19
34.792999 -3.145 10.818 19
34.768002 -3.1500001 10.785 19
34.769001 -3.1589999 10.76 20
34.768002 -3.1670001 10.734 21
34.764999 -3.174 10.707 20
34.619999 -3.1689999 10.636 20
34.282001 -3.1440001 10.505 15
34.026001 -3.128 10.399 15
33.627998 -3.098 10.25 19
33.477001 -3.0910001 10.177 21
33.441002 -3.0940001 10.137 19
33.438999 -3.0999999 10.108 24
33.404999 -3.1040001 10.069 26
33.408001 -3.109 10.042 26
33.403999 -3.115 10.011 26
33.403 -3.1210001 9.9799995 27
33.397999 -3.1259999 9.9490004 26
33.400002 -3.131 9.9180002 25
33.403999 -3.1359999 9.8879995 27
33.421001 -3.1429999 9.8610001 28
33.400002 -3.1459999 9.823 28
33.398998 -3.151 9.79 28
33.389999 -3.154 9.7550001 28
33.396999 -3.1600001 9.7229996 27
33.396999 -3.164 9.6899996 28
33.403 -3.168 9.6569996 28
33.404999 -3.1719999 9.6239996 28
33.398998 -3.175 9.5869999 29
33.394001 -3.178 9.5509996 28
33.401001 -3.1830001 9.5170002 28
33.398998 -3.1849999 9.4809999 29
33.390999 -3.187 9.4420004 29
33.398998 -3.191 9.4069996 29
33.390999 -3.1930001 9.368 29
33.410999 -3.197 9.3369999 28
33.394001 -3.198 9.2939997 29
33.389 -3.1989999 9.2539997 28
33.383999 -3.2 9.2150002 28
33.387001 -3.2019999 9.1759996 26
33.396 -3.2049999 9.1389999 28
33.382 -3.204 9.0959997 29
33.387001 -3.2060001 9.0579996 30
33.387001 -3.207 9.0170002 29
33.390999 -3.2090001 8.9770002 28
33.388 -3.2079999 8.9359999 28
33.379002 -3.2079999 8.8920002 29
33.369999 -3.2079999 8.8479996 28
33.376999 -3.2090001 8.8079996 29
33.387001 -3.2090001 8.7670002 28
33.372002 -3.207 8.7209997 28
33.359001 -3.2060001 8.6739998 27
33.354 -3.204 8.6289997 27
33.355 -3.204 8.585 28
33.363998 -3.204 8.5430002 28
33.366001 -3.2030001 8.4989996 29
33.351002 -3.2 8.4499998 28
33.372002 -3.1989999 8.4099998 30
33.375 -3.198 8.3649998 27
33.355 -3.194 8.3149996 32
33.356998 -3.191 8.2690001 32
33.372002 -3.1900001 8.2259998 31
33.359001 -3.187 8.1759996 34
33.356998 -3.1849999 8.1280003 33
33.360001 -3.1800001 8.0819998 34
33.356998 -3.177 8.033 34
33.359001 -3.174 7.9860001 34
33.353001 -3.1689999 7.9359999 32
33.355999 -3.1659999 7.8870001 35
33.331001 -3.1600001 7.8330002 32
33.301998 -3.1530001 7.777 30
33.207001 -3.1389999 7.7049999 24
33.050999 -3.1199999 7.619 16
32.792999 -3.0899999 7.5110002 13
32.500999 -3.0580001 7.395 12
32.476002 -3.05 7.3400002 9
32.470001 -3.0439999 7.289 9
32.521999 -3.043 7.2509999 9
32.534 -3.039 7.2030001 9
32.584999 -3.0369999 7.1630001 9
32.613998 -3.033 7.119 8
32.660999 -3.0309999 7.0770001 9
32.673 -3.0250001 7.0289998 9
32.737999 -3.0239999 6.9910002 9
32.778 -3.02 6.948 8
32.830002 -3.0179999 6.9060001 8
32.862 -3.013 6.8600001 8
32.914001 -3.01 6.8179998 9
32.948002 -3.0050001 6.7709999 9
33.053001 -3.006 6.7399998 9
33.144001 -3.006 6.704 11
33.312 -3.0120001 6.684 14
33.533001 -3.023 6.6729999 19
33.738998 -3.0320001 6.658 24
33.939999 -3.0409999 6.6430001 25
34.091 -3.0439999 6.6149998 39
34.165001 -3.04 6.573 46
34.195 -3.0320001 6.5219998 43
34.185001 -3.0209999 6.4619999 49
34.176998 -3.0090001 6.402 47
34.18 -2.9979999 6.3449998 48
34.174 -2.9860001 6.2859998 46
34.183998 -2.9749999 6.2290001 47
34.162998 -2.961 6.1669998 40
34.167999 -2.95 6.1079998 35
34.176998 -2.938 6.0510001 34
34.167 -2.925 5.9899998 37
34.181 -2.9130001 5.934 29
34.207001 -2.902 5.8779998 15
34.375 -2.902 5.848 8
34.450001 -2.895 5.8000002 8
34.558998 -2.8900001 5.757 8
34.696999 -2.8870001 5.7189999 8
34.778 -2.8800001 5.6700001 9
35.479 -2.9230001 5.7220001 12
35.855999 -2.937 5.7179999 27
35.960999 -2.931 5.6719999 39
35.987 -2.9170001 5.6110001 41
35.973 -2.8989999 5.5450001 40
35.970001 -2.882 5.4790001 43
35.973999 -2.8659999 5.4159999 41
35.963001 -2.848 5.349 43
35.950001 -2.829 5.2820001 40
35.984001 -2.8139999 5.2210002 37
36.325001 -2.823 5.2049999 28
36.910999 -2.849 5.2220001 29
37.319 -2.8610001 5.21 48
37.326 -2.842 5.1430001 47
37.310001 -2.8210001 5.073 47
37.313999 -2.8010001 5.0040002 48
37.318001 -2.7820001 4.9380002 48
37.312 -2.7609999 4.868 49
37.312 -2.7409999 4.7989998 52
37.400002 -2.7260001 4.7420001 28
38.074001 -2.753 4.757 26
38.644001 -2.7720001 4.756 38
38.643002 -2.7490001 4.6849999 45
38.632 -2.7260001 4.612 43
38.640999 -2.7030001 4.54 45
38.619999 -2.678 4.4660001 45
38.626999 -2.655 4.395 44
38.720001 -2.6370001 4.3330002 30
39.564999 -2.6700001 4.3530002 33
39.999001 -2.674 4.3270001 48
39.991001 -2.6470001 4.2509999 51
40.006001 -2.622 4.177 51
39.994999 -2.595 4.0999999 48
39.988998 -2.5680001 4.0240002 55
40.303001 -2.5610001 3.9809999 32
41.146 -2.5869999 3.9849999 49
41.304001 -2.5680001 3.9230001 55
41.308998 -2.54 3.846 58
41.313999 -2.5109999 3.7679999 57
41.324001 -2.4820001 3.6900001 53
41.757999 -2.4779999 3.6500001 36
42.282001 -2.4790001 3.615 53
42.278 -2.448 3.536 53
42.278 -2.4170001 3.4549999 49
42.310001 -2.3870001 3.3789999 22
42.583 -2.3710001 3.3199999 8
42.904999 -2.3570001 3.2650001 9
43.084999 -2.3340001 3.197 4
0 0 0 21
46.339001 -2.438 3.2609999 10
0 0 0 7
42.233002 -2.154 2.812 8
42.345001 -2.1259999 2.7379999 21
42.363998 -2.092 2.6589999 38
42.521 -2.066 2.5899999 35
42.623001 -2.036 2.5150001 37
42.580002 -1.999 2.4330001 25
42.591 -1.964 2.352 12
0 0 0 77
46.269001 -2.0550001 2.3789999 77
46.291 -2.016 2.2920001 8
0 0 0 0
0 0 0 0
0 0 0 0
0 0 0 0
0 0 0 0
0 0 0 0
0 0 0 0
0 0 0 0
0 0 0 0
0 0 0 3
0 0 0 0
0 0 0 4
0 0 0 0
0 0 0 112
58.212002 -1.738 1.233 21
0 0 0 0
0 0 0 0
0 0 0 23
58.808998 -1.527 0.80500001 29
0 0 0 0
0 0 0 21
66.199997 -1.521 0.537 65
66.181999 -1.454 0.41299999 89
66.181 -1.387 0.292 90
66.166 -1.319 0.169 59
66.362 -1.2539999 0.046 76
66.407997 -1.186 -0.075999998 28
66.903 -1.124 -0.20200001 22
0 0 0 12
71.557999 -1.052 -0.48100001 113
72.330002 -0.98699999 -0.61900002 37
72.617996 -0.91299999 -0.755 34
0 0 0 0
0 0 0 0
0 0 0 21
116.446 -0.96600002 -2.0550001 31
116.472 -0.83999997 -2.2639999 25
0 0 0 0
0 0 0 150
51.446999 -0.2 -1.28 166
51.424999 -0.14300001 -1.3710001 179
51.409 -0.085000001 -1.4630001 81
0 0 0 0
0 0 0 24
0 0 0 0
0 0 0 0
0 0 0 0
0 0 0 0
0 0 0 0
0 0 0 0
0 0 0 1
0 0 0 1
0 0 0 0
0 0 0 0
0 0 0 1
18.417999 0.26699999 -0.977 1
0 0 0 2
16.316999 0.27500001 -0.92199999 2
15.535 0.28099999 -0.90499997 2
14.833 0.28600001 -0.889 2
14.211 0.29100001 -0.87599999 2
13.539 0.29300001 -0.85699999 3
12.855 0.294 -0.83600003 3
12.474 0.301 -0.83200002 9
11.976 0.30399999 -0.81900001 14
11.787 0.31400001 -0.82599998 7
11.308 0.315 -0.81099999 2
10.871 0.31600001 -0.79799998 3
10.517 0.31900001 -0.79000002 3
10.214 0.322 -0.78399998 3
9.8950005 0.324 -0.77499998 4
9.5900002 0.32699999 -0.76700002 4
9.3030005 0.329 -0.75999999 4
9.1009998 0.333 -0.75800002 4
8.8450003 0.33500001 -0.75099999 3
8.5679998 0.33500001 -0.74199998 3
8.335 0.33700001 -0.73500001 3
8.0880003 0.33700001 -0.72600001 3
7.8790002 0.33899999 -0.72000003 3
7.6630001 0.33899999 -0.713 3
7.4499998 0.33899999 -0.70499998 3
7.257 0.34 -0.69800001 3
7.0770001 0.34099999 -0.69199997 3
6.928 0.34200001 -0.68800002 3
6.7750001 0.34400001 -0.68400002 3
6.632 0.345 -0.67900002 3
6.4770002 0.345 -0.67400002 2
6.3189998 0.345 -0.667 2
6.1989999 0.347 -0.66399997 3
6.0799999 0.34799999 -0.66000003 3
5.9640002 0.34900001 -0.65700001 3
5.8390002 0.34999999 -0.65200001 5
5.744 0.352 -0.64999998 3
5.638 0.35299999 -0.64700001 4
5.5250001 0.35299999 -0.64200002 3
5.4099998 0.35299999 -0.63700002 3
5.3319998 0.35499999 -0.63499999 3
5.2350001 0.35499999 -0.63099998 3
5.151 0.35600001 -0.62900001 4
5.0679998 0.35699999 -0.62599999 3
5.0050001 0.359 -0.62599999 3
4.9330001 0.361 -0.62400001 3
4.8649998 0.36199999 -0.62199998 4
4.7909999 0.36300001 -0.61900002 3
4.7150002 0.36399999 -0.616 3
4.6560001 0.36500001 -0.61500001 3
4.598 0.36700001 -0.61400002 4
4.553 0.37 -0.61400002 3
4.5110002 0.37200001 -0.61500001 3
4.4320002 0.37099999 -0.61000001 4
4.3790002 0.373 -0.60900003 3
4.3200002 0.37400001 -0.60699999 2
4.25 0.373 -0.602 3
4.1999998 0.375 -0.60100001 2
4.1269999 0.37400001 -0.59600002 1
4.0840001 0.375 -0.59500003 2
4.0700002 0.37900001 -0.59899998 3
4.0339999 0.38100001 -0.59899998 2
3.9820001 0.382 -0.59600002 2
3.9389999 0.38299999 -0.59500003 2
3.928 0.38699999 -0.59799999 2
3.9489999 0.39399999 -0.60600001 3
3.8410001 0.389 -0.59500003 2
3.7550001 0.38499999 -0.58600003 1
3.7920001 0.39399999 -0.597 3
3.7709999 0.39700001 -0.59799999 3
3.661 0.38999999 -0.58499998 1
3.6500001 0.39399999 -0.588 2
3.576 0.391 -0.57999998 1
3.5829999 0.396 -0.58600003 3
3.5739999 0.40000001 -0.58899999 3
3.517 0.398 -0.583 2
3.553 0.40700001 -0.59399998 2
3.5239999 0.40799999 -0.59299999 2
3.437 0.403 -0.58200002 2
3.415 0.405 -0.583 2
3.4330001 0.412 -0.58999997 2
3.4000001 0.412 -0.588 2
3.382 0.414 -0.588 2
3.3699999 0.417 -0.58999997 2
3.243 0.40599999 -0.57200003 2
3.214 0.40599999 -0.56999999 2
3.197 0.40900001 -0.57099998 2
3.1730001 0.41 -0.56999999 2
3.1530001 0.41100001 -0.56900001 2
3.125 0.41100001 -0.56800002 2
3.1140001 0.414 -0.56900001 2
3.0910001 0.41499999 -0.56800002 2
3.066 0.41600001 -0.56699997 2
3.0480001 0.417 -0.56699997 2
3.0280001 0.41800001 -0.56599998 2
3.0090001 0.41999999 -0.565 2
2.9890001 0.421 -0.565 2
2.9719999 0.42199999 -0.56400001 2
2.957 0.42399999 -0.56400001 2
2.9389999 0.42500001 -0.56400001 2
2.9170001 0.426 -0.56300002 2
2.8970001 0.426 -0.56099999 2
2.882 0.428 -0.56099999 2
2.865 0.42899999 -0.56099999 2
2.8499999 0.43000001 -0.56 2
2.829 0.43099999 -0.55900002 2
2.8139999 0.43200001 -0.55800003 2
2.8039999 0.43399999 -0.55900002 2
2.7920001 0.435 -0.55900002 2
2.7709999 0.435 -0.55699998 2
2.7609999 0.43700001 -0.55800003 2
2.7390001 0.43700001 -0.55500001 2
2.73 0.43900001 -0.55599999 2
2.714 0.44 -0.55500001 2
2.707 0.442 -0.55599999 2
2.6860001 0.442 -0.55400002 2
2.671 0.44299999 -0.55299997 2
2.6619999 0.44499999 -0.55299997 2
2.6459999 0.44499999 -0.55199999 2
2.632 0.44600001 -0.551 2
2.6289999 0.44800001 -0.55199999 2
2.6129999 0.449 -0.551 2
2.6099999 0.45100001 -0.55199999 2
2.592 0.45100001 -0.551 2
2.589 0.454 -0.55199999 2
2.5699999 0.454 -0.55000001 2
2.5639999 0.45500001 -0.55000001 2
2.5569999 0.45699999 -0.551 2
2.546 0.458 -0.55000001 2
2.5339999 0.45899999 -0.54900002 1
2.5320001 0.461 -0.55000001 1
2.5179999 0.461 -0.54900002 1
2.51 0.463 -0.54900002 1
2.5090001 0.465 -0.55000001 1
2.49 0.465 -0.54799998 1
2.4790001 0.465 -0.54699999 1
2.4760001 0.46700001 -0.54799998 1
2.4649999 0.46799999 -0.54699999 1
2.4549999 0.46900001 -0.546 1
2.4519999 0.47099999 -0.54699999 1
2.447 0.47299999 -0.54699999 1
2.441 0.47400001 -0.54699999 1
2.4319999 0.47499999 -0.546 1
2.4300001 0.477 -0.54699999 1
2.4170001 0.477 -0.546 1
2.4119999 0.47799999 -0.546 1
2.4100001 0.48100001 -0.546 1
2.392 0.479 -0.54400003 1
2.391 0.48199999 -0.54500002 1
2.3829999 0.48199999 -0.54400003 1
2.3759999 0.48300001 -0.54299998 1
2.375 0.486 -0.54400003 1
2.3599999 0.48500001 -0.542 1
2.359 0.48699999 -0.54299998 1
2.3510001 0.48699999 -0.542 1
2.355 0.491 -0.54400003 1
2.3469999 0.491 -0.54299998 1
2.3399999 0.49200001 -0.542 1
2.3340001 0.493 -0.542 1
2.329 0.49399999 -0.54100001 1
2.326 0.49599999 -0.542 1
2.322 0.49700001 -0.54100001 1
2.322 0.49900001 -0.542 1
2.313 0.49900001 -0.54100001 2
2.312 0.50099999 -0.54100001 2
2.306 0.50199997 -0.54100001 2
2.3050001 0.50300002 -0.54100001 2
2.302 0.505 -0.54100001 2
2.3 0.50599998 -0.54100001 1
2.2950001 0.50700003 -0.54100001 2
2.2950001 0.509 -0.54100001 1
2.2939999 0.51099998 -0.542 1
2.2839999 0.50999999 -0.54000002 1
2.2869999 0.51300001 -0.54100001 1
2.28 0.51300001 -0.54000002 2
2.267 0.51200002 -0.537 2
2.273 0.51499999 -0.53899997 2
2.2820001 0.51899999 -0.542 2
2.2750001 0.51899999 -0.54100001 2
2.2709999 0.51999998 -0.54000002 2
2.273 0.52200001 -0.54100001 2
2.2679999 0.523 -0.54000002 2
2.267 0.52399999 -0.54000002 2
2.266 0.52499998 -0.54000002 2
2.253 0.52399999 -0.537 1
2.2590001 0.52700001 -0.53899997 2
2.2509999 0.52700001 -0.537 2
2.256 0.52899998 -0.53899997 2
2.25 0.52899998 -0.53799999 2
2.25 0.53100002 -0.53799999 1
2.2490001 0.53200001 -0.53799999 1
2.25 0.53399998 -0.53799999 1
2.247 0.53399998 -0.537 1
2.2449999 0.53500003 -0.537 1
2.25 0.53799999 -0.53799999 1
2.2490001 0.53899997 -0.53799999 1
2.2460001 0.54000002 -0.537 1
2.2449999 0.54100001 -0.537 1
2.25 0.54299998 -0.53799999 1
2.2479999 0.54400003 -0.537 1
2.2509999 0.546 -0.53799999 1
2.25 0.54699999 -0.53799999 1
2.2509999 0.54799998 -0.53799999 1
2.2539999 0.55000001 -0.53799999 1
2.257 0.55199999 -0.53899997 1
2.2520001 0.55199999 -0.537 1
2.2579999 0.55500001 -0.53899997 2
2.2550001 0.55500001 -0.53799999 1
2.2609999 0.55800003 -0.53899997 1
2.256 0.55699998 -0.537 2
2.2650001 0.56 -0.53899997 2
2.2679999 0.56199998 -0.54000002 2
2.266 0.56300002 -0.53899997 2
2.267 0.56400001 -0.53899997 2
2.2750001 0.56699997 -0.54000002 2
2.2739999 0.56800002 -0.53899997 2
2.2739999 0.56800002 -0.53899997 2
2.277 0.56999999 -0.53899997 2
2.2780001 0.57099998 -0.53899997 2
2.283 0.57300001 -0.54000002 2
2.286 0.57499999 -0.54000002 2
2.29 0.57599998 -0.54000002 1
2.2869999 0.57599998 -0.53899997 2
2.2909999 0.57800001 -0.53899997 1
2.296 0.57999998 -0.54000002 1
2.2909999 0.579 -0.53799999 1
2.3010001 0.58200002 -0.53899997 1
2.303 0.58399999 -0.53899997 1
2.3099999 0.58600003 -0.54000002 2
2.3150001 0.58700001 -0.54000002 1
2.3139999 0.588 -0.53899997 1
2.3139999 0.588 -0.53899997 1
2.3280001 0.59200001 -0.54100001 1
2.3239999 0.59200001 -0.53899997 2
2.3280001 0.59299999 -0.53899997 1
2.336 0.59600002 -0.54000002 2
2.3429999 0.59799999 -0.54100001 1
2.3469999 0.59899998 -0.54100001 2
2.355 0.602 -0.542 2
2.352 0.60100001 -0.54000002 1
2.362 0.60399997 -0.54100001 1
2.3629999 0.60399997 -0.54100001 1
2.3740001 0.60699999 -0.542 2
2.3800001 0.60900003 -0.542 2
2.382 0.61000001 -0.542 2
2.3900001 0.61199999 -0.54299998 1
2.3900001 0.61199999 -0.54100001 1
2.398 0.61400002 -0.542 2
2.4070001 0.61699998 -0.54299998 1
2.404 0.616 -0.54100001 2
2.425 0.62099999 -0.54400003 2
2.4260001 0.62099999 -0.54299998 2
2.4400001 0.625 -0.54500002 2
2.441 0.625 -0.54400003 2
2.448 0.62699997 -0.54400003 2
2.4519999 0.62800002 -0.54400003 1
2.454 0.62800002 -0.54299998 1
2.4649999 0.63099998 -0.54400003 1
2.4719999 0.63200003 -0.54400003 1
2.4779999 0.63300002 -0.54400003 1
2.4890001 0.63599998 -0.54500002 1
2.4949999 0.63700002 -0.54400003 1
2.503 0.639 -0.54500002 1
2.507 0.639 -0.54400003 1
2.52 0.64200002 -0.54500002 1
2.523 0.64300001 -0.54400003 1
2.529 0.64300001 -0.54400003 1
2.536 0.64499998 -0.54400003 1
2.5539999 0.64899999 -0.546 1
2.559 0.64999998 -0.54500002 1
2.5710001 0.65200001 -0.546 1
2.5769999 0.653 -0.54500002 1
2.5799999 0.653 -0.54400003 1
2.6040001 0.65799999 -0.54799998 1
2.608 0.65799999 -0.546 1
2.619 0.66000003 -0.54699999 1
2.628 0.662 -0.54699999 1
2.6400001 0.66399997 -0.54699999 2
2.654 0.667 -0.54799998 1
2.674 0.671 -0.55000001 2
2.6670001 0.66799998 -0.54699999 1
2.688 0.67199999 -0.54900002 1
2.6989999 0.67400002 -0.54900002 1
2.7179999 0.67799997 -0.551 1
2.7279999 0.67900002 -0.551 2
2.7390001 0.68099999 -0.551 2
2.75 0.68199998 -0.551 2
2.757 0.68300003 -0.55000001 2
2.773 0.68599999 -0.551 1
2.9030001 0.71700001 -0.57499999 2
2.9300001 0.722 -0.57800001 1
2.9679999 0.73000002 -0.583 1
2.8329999 0.69499999 -0.55400002 2
2.8540001 0.699 -0.55500001 2
2.869 0.70099998 -0.55599999 2
2.892 0.70499998 -0.55800003 2
2.895 0.704 -0.55599999 2
2.9159999 0.708 -0.55699998 2
2.937 0.71100003 -0.55900002 2
2.951 0.713 -0.55900002 2
2.973 0.71600002 -0.56 2
2.983 0.71700001 -0.56 2
3.0020001 0.72000003 -0.56099999 2
3.013 0.72100002 -0.56 2
3.0380001 0.72500002 -0.56199998 2
3.0550001 0.727 -0.56199998 2
3.0669999 0.727 -0.56099999 2
3.0840001 0.72899997 -0.56199998 2
3.1099999 0.73299998 -0.56300002 2
3.125 0.73500001 -0.56300002 2
3.1470001 0.73799998 -0.56400001 2
3.1570001 0.73799998 -0.56300002 2
3.1930001 0.74400002 -0.56699997 2
3.198 0.74299997 -0.56400001 2
3.2249999 0.74699998 -0.56599998 2
0 0 0 2
3.2720001 0.75300002 -0.56800002 2
3.415 0.78299999 -0.58899999 2
3.5209999 0.80400002 -0.60399997 2
3.4949999 0.796 -0.59600002 2
3.46 0.78500003 -0.58700001 2
3.4679999 0.78399998 -0.58499998 2
3.398 0.76499999 -0.56900001 2
3.4960001 0.78399998 -0.58200002 3
3.5599999 0.796 -0.58899999 2
3.549 0.79000002 -0.58399999 3
3.566 0.79100001 -0.583 2
3.579 0.79000002 -0.58200002 2
3.609 0.79400003 -0.583 3
3.598 0.78799999 -0.57700002 2
3.6670001 0.80000001 -0.58499998 2
3.747 0.81400001 -0.59399998 3
3.7119999 0.80199999 -0.58399999 3
3.733 0.80400002 -0.58399999 3
3.7969999 0.81300002 -0.58999997 3
3.882 0.82800001 -0.59899998 3
3.8699999 0.82200003 -0.59299999 2
3.9879999 0.84299999 -0.60699999 3
3.921 0.82499999 -0.59200001 2
3.9389999 0.824 -0.59100002 2
4.0370002 0.84100002 -0.60100001 3
4.0450001 0.838 -0.59799999 2
4.052 0.83499998 -0.59500003 2
4.1020002 0.84100002 -0.59799999 2
4.1220002 0.84100002 -0.59600002 4
4.1240001 0.83700001 -0.59200001 2
4.191 0.84600002 -0.597 2
4.2540002 0.85399997 -0.60100001 2
4.277 0.85399997 -0.60000002 2
4.3179998 0.85699999 -0.60100001 2
4.3740001 0.86299998 -0.60399997 3
4.4200001 0.86699998 -0.60600001 4
4.46 0.87 -0.60600001 6
4.4689999 0.866 -0.60299999 8
4.5089998 0.86900002 -0.60299999 8
4.546 0.87 -0.60299999 4
4.6230001 0.88 -0.60799998 3
4.6719999 0.88300002 -0.60900003 2
4.7410002 0.89099997 -0.61299998 2
4.7849998 0.89300001 -0.61400002 3
4.8400002 0.898 -0.61500001 2
4.8969998 0.90200001 -0.61699998 2
4.9400001 0.90399998 -0.61699998 3
4.9910002 0.90700001 -0.61799997 3
5.0549998 0.912 -0.62 4
5.112 0.91600001 -0.62199998 2
5.1789999 0.921 -0.62400001 5
5.2540002 0.92799997 -0.62699997 3
5.3119998 0.93099999 -0.62800002 3
5.375 0.935 -0.63 3
5.4460001 0.94 -0.63200003 3
5.5349998 0.94800001 -0.63599998 4
5.6069999 0.95300001 -0.63800001 4
5.6630001 0.954 -0.63800001 4
5.737 0.95899999 -0.63999999 3
5.8369999 0.96799999 -0.64499998 4
5.9250002 0.97399998 -0.648 5
5.9899998 0.97600001 -0.648 4
6.0830002 0.98299998 -0.65100002 4
6.178 0.98900002 -0.65399998 4
6.2589998 0.99299997 -0.65600002 4
6.362 1.001 -0.66000003 3
6.506 1.0140001 -0.66799998 4
6.6139998 1.021 -0.671 4
6.7059999 1.026 -0.67299998 5
6.8189998 1.033 -0.67699999 5
6.9260001 1.039 -0.68000001 7
7.0409999 1.046 -0.68400002 7
7.1820002 1.056 -0.68900001 5
7.302 1.062 -0.69300002 6
7.4460001 1.072 -0.69800001 6
7.5910001 1.081 -0.70300001 6
7.757 1.0930001 -0.70999998 5
7.921 1.104 -0.71600002 6
8.1169996 1.119 -0.72500002 10
8.2740002 1.128 -0.73000002 13
8.4049997 1.132 -0.73199999 11
8.5220003 1.135 -0.73299998 13
8.6590004 1.1390001 -0.736 8
8.7980003 1.143 -0.73699999 7
8.9530001 1.149 -0.741 7
9.1099997 1.155 -0.74400002 5
9.3079996 1.165 -0.75 4
9.5039997 1.174 -0.75599998 3
9.7119999 1.184 -0.76200002 3
9.9049997 1.192 -0.76599997 4
10.132 1.2029999 -0.773 4
10.307 1.206 -0.77499998 3
10.52 1.2130001 -0.77999997 4
10.74 1.221 -0.78500003 4
10.96 1.228 -0.78899997 2
11.231 1.239 -0.79699999 2
11.473 1.247 -0.80199999 2
11.747 1.256 -0.80800003 2
12.034 1.267 -0.815 3
12.277 1.271 -0.81900001 3
12.546 1.277 -0.824 3
12.832 1.285 -0.829 3
13.201 1.299 -0.83899999 3
13.517 1.306 -0.84500003 3
13.855 1.3150001 -0.85299999 3
14.295 1.332 -0.86500001 3
14.681 1.342 -0.87300003 3
15.051 1.349 -0.88 2
15.458 1.358 -0.88800001 2
15.925 1.3710001 -0.89899999 3
16.417 1.3839999 -0.91000003 2
16.01 1.321 -0.87099999 2
0 0 0 2
17.304001 1.3660001 -0.90700001 1
17.797001 1.373 -0.91500002 1
18.222 1.373 -0.91900003 2
0 0 0 2
0 0 0 0
0 0 0 0
0 0 0 1
24.745001 1.637 -1.127 1
0 0 0 0
0 0 0 0
0 0 0 0
0 0 0 0
0 0 0 0
0 0 0 0
0 0 0 4
37.862 1.939 -1.437 3
37.846001 1.865 -1.401 4
37.868999 1.795 -1.367 4
37.919998 1.725 -1.334 3
38.063 1.659 -1.3049999 17
38.047001 1.585 -1.27 24
38.012001 1.511 -1.234 30
37.762001 1.429 -1.193 28
37.667 1.353 -1.156 45
37.666 1.28 -1.123 63
37.672001 1.207 -1.09 62
37.75 1.136 -1.059 150
37.735001 1.062 -1.026 99
37.814999 0.991 -0.99599999 36
37.893002 0.92000002 -0.96600002 33
37.984001 0.84799999 -0.93599999 32
38.098 0.77499998 -0.90700001 33
38.242001 0.704 -0.87900001 37
38.362 0.63099998 -0.84899998 23
38.516998 0.55699998 -0.82099998 18
38.689999 0.48300001 -0.79299998 8
0 0 0 0
0 0 0 0
0 0 0 0
0 0 0 0
0 0 0 0
0 0 0 0
0 0 0 0
0 0 0 79
0 0 0 0
0 0 0 0
0 0 0 0
0 0 0 12
71.957001 -0.96600002 -0.75199997 59
69.539001 -1.074 -0.676 12
0 0 0 0
0 0 0 68
66.155998 -1.424 -0.5 75
66.153 -1.5599999 -0.45300001 150
66.18 -1.693 -0.40799999 129
0 0 0 10
58.157001 -1.725 -0.278 55
58.119999 -1.842 -0.23899999 104
58.129002 -1.961 -0.2 112
57.097 -2.046 -0.15700001 64
55.153999 -2.089 -0.116 6
0 0 0 4
0 0 0 19
43.358002 -1.904 -0.0080000004 7
0 0 0 101
47.081001 -2.2609999 0.048999999 5
46.616001 -2.3329999 0.077 22
46.278999 -2.411 0.104 35
46.181 -2.5 0.132 54
46.054001 -2.5880001 0.15899999 17
0 0 0 36
42.206001 -2.5450001 0.19499999 9
42.153999 -2.6289999 0.219 37
41.901001 -2.7 0.242 79
41.896999 -2.786 0.26499999 73
39.681999 -2.72 0.273 44
39.438 -2.7839999 0.29300001 54
39.500999 -2.8699999 0.31400001 29
38.706001 -2.892 0.32800001 2
38.089001 -2.925 0.34400001 3
37.887001 -2.9849999 0.361 35
37.908001 -3.0650001 0.38 37
37.901001 -3.142 0.39899999 37
35.991001 -3.0569999 0.39700001 9
35.451 -3.085 0.40799999 9
35.007999 -3.119 0.41999999 9
34.577999 -3.151 0.43099999 3
0 0 0 1
20.969 -1.9960001 0.28099999 1
0 0 0 25
0 0 0 1
0 0 0 25
0 0 0 25
0 0 0 25
0 0 0 25
0 0 0 1
0 0 0 25
0 0 0 25
0 0 0 25
0 0 0 25
0 0 0 25
0 0 0 25
0 0 0 0
0 0 0 0
0 0 0 0
0 0 0 0
0 0 0 0
0 0 0 0
0 0 0 0
0 0 0 0
0 0 0 0
0 0 0 0
0 0 0 0
0 0 0 0
0 0 0 0
0 0 0 0
0 0 0 0
0 0 0 0
0 0 0 0
0 0 0 1
0 0 0 0
0 0 0 0
0 0 0 0
0 0 0 5
26.120001 -4.369 0.65799999 9
26.145 -4.4229999 0.66399997 21
26.181 -4.48 0.67000002 31
26.257 -4.5430002 0.67699999 23
26.354 -4.6110001 0.68400002 7
0 0 0 16
34.484001 -6.165 0.90700001 16
34.478001 -6.2280002 0.912 13
34.504002 -6.2979999 0.91799998 13
34.521999 -6.3670001 0.92400002 12
34.528 -6.4330001 0.92900002 11
34.507 -6.494 0.93300003 16
34.487999 -6.5560002 0.93699998 38
34.491001 -6.619 0.94099998 20
0 0 0 0
0 0 0 0
0 0 0 0
0 0 0 7
