# .PCD v0.7 - Point Cloud Data file format
VERSION 0.7
FIELDS x y z intensity
SIZE 4 4 4 4
TYPE F F F F
COUNT 1 1 1 1
WIDTH 1752
HEIGHT 1
VIEWPOINT 0 0 0 1 0 0 0
POINTS 1752
DATA ascii
9.5290003 -0.033 -0.83399999 5
9.9390001 -0.035999998 -0.84899998 3
10.358 -0.037999999 -0.86199999 3
10.806 -0.041999999 -0.87699997 4
11.281 -0.045000002 -0.89200002 3
11.766 -0.048999999 -0.90600002 3
12.31 -0.052999999 -0.92199999 3
12.867 -0.057 -0.93599999 3
13.551 -0.063000001 -0.95700002 3
14.3 -0.068999998 -0.98000002 3
15.101 -0.075000003 -1.003 2
0 0 0 2
0 0 0 2
0 0 0 1
0 0 0 1
0 0 0 0
0 0 0 1
0 0 0 0
0 0 0 1
0 0 0 4
42.848 -0.30899999 -1.939 27
42.889999 -0.32100001 -1.849 49
42.931999 -0.333 -1.76 45
42.918999 -0.34400001 -1.668 62
42.842999 -0.35600001 -1.573 72
42.883999 -0.36899999 -1.483 55
42.998001 -0.382 -1.395 49
43.02 -0.396 -1.3049999 48
42.938 -0.40799999 -1.211 51
42.911999 -0.421 -1.119 45
42.98 -0.43599999 -1.0319999 40
43.040001 -0.45100001 -0.94099998 27
43.077999 -0.46599999 -0.84899998 7
0 0 0 125
57.737 -0.66399997 -0.89499998 143
57.741001 -0.685 -0.773 150
57.751999 -0.70599997 -0.65100002 133
57.75 -0.72799999 -0.528 150
57.744999 -0.75 -0.40599999 146
57.728001 -0.77200001 -0.28600001 105
57.675999 -0.79400003 -0.164 109
57.571999 -0.815 -0.039999999 150
57.717999 -0.84100002 0.079000004 150
57.733002 -0.86500001 0.2 88
57.535 -0.88599998 0.32100001 78
57.001999 -0.90200001 0.43599999 66
56.799999 -0.92400002 0.55500001 21
0 0 0 0
0 0 0 0
0 0 0 12
0 0 0 5
0 0 0 0
0 0 0 4
0 0 0 13
42.544998 -0.84899998 1.126 28
42.542999 -0.87 1.214 56
42.532001 -0.89099997 1.301 101
42.542 -0.91299999 1.39 99
42.43 -0.93199998 1.474 2
0 0 0 30
45.904999 -1.056 1.783 84
45.911999 -1.081 1.878 96
45.904999 -1.105 1.972 98
45.918999 -1.13 2.066 91
0 0 0 14
42.173 -1.085 2.0699999 27
42.146999 -1.107 2.1530001 40
42.182999 -1.132 2.2409999 38
42.139 -1.155 2.3239999 36
42.021 -1.177 2.404 45
41.974998 -1.2 2.4860001 40
41.966 -1.225 2.5699999 16
41.907001 -1.248 2.6500001 5
0 0 0 27
45.988998 -1.425 3.0929999 55
45.993999 -1.454 3.1849999 69
45.999001 -1.482 3.2780001 64
0 0 0 4
42.674 -1.429 3.21 9
42.498001 -1.45 3.28 11
42.242001 -1.4680001 3.3440001 10
41.992001 -1.4859999 3.4059999 23
41.958 -1.512 3.4860001 55
41.969002 -1.54 3.569 65
41.965 -1.568 3.651 63
41.790001 -1.59 3.717 54
41.169998 -1.594 3.7420001 33
41.007999 -1.6160001 3.8069999 64
40.990002 -1.643 3.8840001 64
41.009998 -1.6720001 3.9660001 62
40.995998 -1.7 4.0430002 60
40.648998 -1.714 4.0869999 40
39.777 -1.705 4.0739999 31
39.675999 -1.729 4.1399999 57
39.686001 -1.758 4.2160001 60
39.689999 -1.786 4.29 59
39.696999 -1.816 4.3670001 57
39.474998 -1.834 4.4169998 44
38.564999 -1.819 4.3860002 29
38.311001 -1.836 4.4289999 48
38.319 -1.865 4.5 46
38.320999 -1.8940001 4.5710001 49
38.320999 -1.9220001 4.6420002 47
38.297001 -1.95 4.711 43
37.472 -1.936 4.678 29
37.012001 -1.941 4.6880002 46
37.005001 -1.9680001 4.7540002 55
36.997002 -1.9960001 4.8200002 54
37.004002 -2.026 4.888 55
37.002998 -2.0539999 4.954 53
36.639999 -2.063 4.9710002 32
35.733002 -2.04 4.9120002 27
35.640999 -2.062 4.9619999 49
35.650002 -2.0910001 5.026 51
35.660999 -2.1199999 5.0910001 50
35.66 -2.1489999 5.1529999 51
35.409 -2.1619999 5.1789999 26
34.423 -2.1300001 5.0949998 10
34.161999 -2.141 5.1149998 9
33.955002 -2.1559999 5.1430001 13
33.827999 -2.175 5.1810002 44
33.844002 -2.2030001 5.2410002 49
33.841 -2.2309999 5.2979999 57
33.861 -2.26 5.3579998 56
33.855 -2.2869999 5.414 54
33.858002 -2.3169999 5.4720001 54
33.863998 -2.3440001 5.5289998 56
33.869999 -2.3729999 5.586 58
33.866001 -2.401 5.6389999 54
33.875999 -2.4300001 5.697 53
33.875999 -2.4579999 5.7529998 52
33.887001 -2.4879999 5.8099999 54
33.896 -2.517 5.8660002 54
33.891998 -2.546 5.9200001 54
33.896 -2.575 5.9749999 55
33.896999 -2.6040001 6.0289998 55
33.904999 -2.6340001 6.0840001 58
33.911999 -2.6630001 6.138 57
33.905998 -2.6919999 6.1900001 55
33.918999 -2.723 6.2449999 56
33.93 -2.7520001 6.2989998 55
33.926998 -2.7809999 6.3509998 53
33.855999 -2.8050001 6.3889999 45
33.737999 -2.8239999 6.4180002 32
33.530998 -2.835 6.4289999 25
33.325001 -2.8469999 6.4380002 23
33.130001 -2.859 6.4499998 22
32.917 -2.869 6.4580002 23
32.700001 -2.8789999 6.4629998 22
32.493 -2.8900001 6.4699998 22
32.306 -2.901 6.48 25
32.097 -2.9100001 6.4840002 21
31.929001 -2.9219999 6.4949999 21
31.725 -2.931 6.4990001 21
31.528 -2.941 6.5029998 20
31.341999 -2.951 6.5079999 22
31.160999 -2.9619999 6.5139999 20
30.992001 -2.973 6.5219998 24
30.83 -2.984 6.5300002 22
30.646999 -2.994 6.533 26
30.481001 -3.0039999 6.5380001 25
30.326 -3.016 6.546 26
30.18 -3.027 6.5539999 25
30.004 -3.036 6.5549998 27
29.879999 -3.049 6.5669999 24
29.724001 -3.0599999 6.5710001 23
29.570999 -3.069 6.5749998 23
29.403999 -3.0780001 6.5760002 27
29.266001 -3.089 6.5819998 27
29.111 -3.099 6.5840001 28
28.982 -3.1110001 6.5910001 24
28.837999 -3.1210001 6.5929999 23
28.702999 -3.131 6.598 27
28.589001 -3.1429999 6.6059999 28
28.469 -3.155 6.612 24
28.327999 -3.164 6.6129999 25
28.194 -3.1730001 6.6149998 30
28.065001 -3.1830001 6.6170001 25
27.941999 -3.1930001 6.6199999 30
27.853001 -3.207 6.631 31
27.747 -3.2190001 6.6370001 27
27.627001 -3.2290001 6.6389999 27
27.493999 -3.237 6.638 29
27.389999 -3.2479999 6.6420002 29
27.271 -3.257 6.6440001 26
27.190001 -3.27 6.6529999 27
27.09 -3.2820001 6.658 30
27.003 -3.2939999 6.665 29
26.898001 -3.3039999 6.6669998 27
26.767 -3.3110001 6.6620002 24
26.459999 -3.296 6.6129999 20
26.326 -3.3010001 6.6059999 20
26.275 -3.3169999 6.619 24
26.232 -3.3340001 6.6339998 27
26.193001 -3.3510001 6.6490002 29
26.146999 -3.3659999 6.664 31
26.106001 -3.3829999 6.678 31
26.027 -3.3940001 6.6820002 27
25.955999 -3.4059999 6.6880002 27
25.884001 -3.418 6.6929998 28
25.802 -3.4289999 6.6950002 33
25.750999 -3.4430001 6.7049999 30
25.663 -3.451 6.704 33
25.591999 -3.464 6.7080002 27
25.521 -3.474 6.711 26
25.421 -3.4809999 6.7059999 28
25.368999 -3.494 6.7129998 31
25.302999 -3.5050001 6.7150002 28
25.231001 -3.5150001 6.717 27
25.167999 -3.526 6.7199998 26
25.104 -3.5369999 6.7220001 31
25.027 -3.546 6.7210002 29
24.976 -3.5580001 6.7259998 25
24.893999 -3.566 6.7220001 27
24.830999 -3.576 6.723 29
24.780001 -3.5880001 6.7280002 27
24.721001 -3.5969999 6.7290001 27
24.672001 -3.609 6.7329998 24
24.605 -3.618 6.7309999 32
24.555 -3.6289999 6.7340002 27
24.488001 -3.638 6.7319999 34
24.448999 -3.6500001 6.737 34
24.402 -3.661 6.7379999 32
24.368999 -3.674 6.744 27
24.313 -3.684 6.743 32
24.268999 -3.6949999 6.7459998 30
24.208 -3.7019999 6.743 25
24.171 -3.714 6.7459998 26
24.118999 -3.723 6.7449999 25
24.073999 -3.733 6.7459998 31
24.021999 -3.743 6.744 30
23.990999 -3.7550001 6.7470002 26
23.952 -3.7650001 6.7480001 26
23.908001 -3.7739999 6.7480001 28
23.871 -3.7850001 6.7490001 33
23.833 -3.7950001 6.7490001 33
23.815001 -3.8080001 6.7550001 28
23.788 -3.8199999 6.757 30
23.747999 -3.829 6.756 35
23.73 -3.8410001 6.7610002 28
23.697001 -3.852 6.7600002 29
23.667 -3.862 6.7610002 35
23.646999 -3.8740001 6.7639999 29
23.620001 -3.8840001 6.7649999 29
23.589001 -3.8940001 6.7639999 28
23.559999 -3.904 6.7639999 33
23.533001 -3.915 6.763 33
23.509001 -3.925 6.7639999 32
23.479 -3.934 6.7620001 32
23.469999 -3.947 6.7659998 32
23.457001 -3.9579999 6.7690001 30
23.412001 -3.9649999 6.7620001 30
23.4 -3.9760001 6.7639999 30
23.389 -3.9879999 6.7659998 30
23.374001 -3.9990001 6.7670002 32
23.353001 -4.0089998 6.7659998 30
23.333 -4.0180001 6.7639999 31
23.315001 -4.0279999 6.7639999 32
23.306999 -4.039 6.7649999 34
23.290001 -4.0479999 6.7639999 31
23.292 -4.0619998 6.7680001 30
23.281 -4.072 6.7670002 30
23.268 -4.0809999 6.7659998 31
23.247 -4.0900002 6.7620001 34
23.253 -4.1030002 6.7659998 32
23.240999 -4.112 6.7649999 32
23.239 -4.1230001 6.7659998 31
23.239 -4.1350002 6.7659998 34
23.24 -4.1469998 6.7680001 31
23.224001 -4.1539998 6.7639999 32
23.232 -4.1659999 6.7659998 32
23.229 -4.177 6.7649999 33
23.223 -4.1859999 6.763 32
23.235001 -4.1989999 6.7659998 32
23.243999 -4.21 6.7680001 32
23.242001 -4.2199998 6.7659998 27
23.245001 -4.2309999 6.7649999 26
23.257999 -4.243 6.7670002 32
23.256001 -4.2519999 6.7639999 31
23.268 -4.2639999 6.7649999 26
23.274 -4.2740002 6.7639999 26
23.277 -4.2839999 6.7620001 32
23.278 -4.2930002 6.7589998 30
23.297001 -4.3049998 6.7610002 32
23.299999 -4.3150001 6.757 31
23.325001 -4.3270001 6.7610002 26
23.34 -4.3390002 6.7600002 30
23.337 -4.3460002 6.7550001 32
23.372999 -4.3610001 6.7600002 31
23.381001 -4.3699999 6.757 30
23.389 -4.3790002 6.7540002 26
23.422001 -4.3920002 6.757 32
23.436001 -4.402 6.7550001 30
23.452999 -4.4130001 6.7529998 32
23.476 -4.4239998 6.7529998 31
23.497999 -4.4349999 6.7509999 32
23.535999 -4.4489999 6.7550001 32
23.561001 -4.4590001 6.7540002 32
23.584 -4.4699998 6.7529998 27
23.601999 -4.48 6.7490001 30
23.625 -4.4899998 6.7470002 32
23.657 -4.5019999 6.7470002 26
23.698999 -4.5149999 6.75 27
23.719999 -4.5240002 6.7470002 28
23.743 -4.5339999 6.743 30
23.768999 -4.5440001 6.7399998 32
23.819 -4.5580001 6.744 27
23.837 -4.5669999 6.7379999 31
23.874001 -4.5780001 6.737 30
23.893999 -4.586 6.7319999 32
23.937 -4.598 6.7319999 28
23.959999 -4.6069999 6.7259998 32
23.997999 -4.6170001 6.7249999 28
24.031 -4.6269999 6.7210002 31
24.084 -4.6399999 6.723 26
24.132999 -4.6529999 6.724 26
24.173 -4.664 6.7210002 31
24.212 -4.6739998 6.7179999 30
24.266001 -4.6869998 6.7189999 26
24.320999 -4.6999998 6.7189999 31
24.362 -4.71 6.7160001 32
24.416 -4.723 6.7150002 31
24.462999 -4.7340002 6.7129998 31
24.521 -4.7459998 6.7129998 31
24.562 -4.7550001 6.7080002 30
24.606001 -4.7649999 6.704 30
24.669001 -4.7779999 6.704 30
24.711 -4.7859998 6.698 30
24.768999 -4.7979999 6.697 28
24.830999 -4.8109999 6.6950002 28
24.902 -4.8249998 6.697 29
24.973 -4.8379998 6.697 26
25.025999 -4.848 6.6929998 27
25.09 -4.8600001 6.691 31
25.158001 -4.8730001 6.6900001 30
25.207001 -4.881 6.684 26
25.280001 -4.8940001 6.6830001 29
25.332001 -4.9029999 6.6760001 26
25.398001 -4.914 6.6729999 28
25.48 -4.928 6.6739998 28
25.554001 -4.9400001 6.6719999 28
25.635 -4.9530001 6.671 24
25.702 -4.9640002 6.6659999 26
25.768 -4.973 6.6609998 31
25.84 -4.9840002 6.6570001 30
25.931999 -4.9990001 6.658 30
26.016001 -5.0120001 6.6560001 25
26.062 -5.0170002 6.6440001 28
26.143 -5.0279999 6.6420002 26
26.253 -5.0450001 6.645 27
26.323 -5.0549998 6.638 27
26.417 -5.0679998 6.6370001 28
26.497999 -5.079 6.632 27
26.59 -5.092 6.6290002 23
26.67 -5.1009998 6.6230001 23
26.785999 -5.118 6.6259999 23
26.878 -5.1300001 6.6209998 25
27.003 -5.1469998 6.6259999 26
27.099001 -5.1589999 6.6220002 27
27.190001 -5.1690001 6.6170001 25
27.280001 -5.1799998 6.6090002 27
27.382 -5.1919999 6.6059999 26
27.48 -5.2030001 6.6009998 30
27.587 -5.2160001 6.5960002 23
27.712999 -5.2309999 6.5970001 24
27.818001 -5.243 6.592 27
27.906 -5.2509999 6.5840001 27
28.042 -5.2670002 6.585 26
28.152 -5.2789998 6.579 28
28.275 -5.2919998 6.5770001 28
28.419001 -5.3099999 6.5780001 23
28.517 -5.3179998 6.5689998 26
28.618999 -5.3270001 6.5599999 24
28.752001 -5.3410001 6.5580001 25
28.872999 -5.3530002 6.552 30
29.007 -5.3660002 6.5489998 28
29.150999 -5.382 6.5469999 29
29.247 -5.3870001 6.5339999 29
29.384001 -5.4000001 6.5300002 25
29.502001 -5.4099998 6.5209999 28
29.643 -5.4229999 6.5159998 27
29.794001 -5.4369998 6.5139999 24
29.948 -5.4520001 6.5110002 26
30.077999 -5.4619999 6.5019999 25
30.212 -5.4720001 6.494 25
30.379999 -5.4879999 6.493 25
30.528999 -5.5 6.4860001 25
30.691999 -5.5149999 6.4819999 27
30.834999 -5.5250001 6.473 26
31.009001 -5.54 6.4710002 24
31.173 -5.553 6.4650002 27
31.351 -5.5679998 6.461 24
31.49 -5.5770001 6.4499998 27
31.660999 -5.5900002 6.4439998 25
31.823 -5.6009998 6.4349999 27
32.008999 -5.6160002 6.4310002 23
32.171001 -5.6240001 6.421 26
32.334 -5.6339998 6.4099998 24
32.534 -5.6500001 6.4070001 22
32.738998 -5.6659999 6.402 23
32.929001 -5.6789999 6.3959999 24
33.126999 -5.6929998 6.3889999 23
33.306 -5.7030001 6.3790002 23
33.499001 -5.7150002 6.3709998 24
33.661999 -5.7210002 6.3559999 25
33.839001 -5.7290001 6.342 25
34.029999 -5.7389998 6.3319998 25
34.145 -5.7350001 6.3060002 23
34.209999 -5.723 6.27 25
34.226002 -5.7020001 6.2259998 24
34.237999 -5.6799998 6.1789999 20
34.234001 -5.6550002 6.131 24
34.231998 -5.631 6.0819998 24
34.222 -5.6040001 6.0310001 20
34.220001 -5.579 5.9819999 21
34.191002 -5.5489998 5.928 21
34.221001 -5.5279999 5.8850002 15
34.224998 -5.5029998 5.836 9
34.262001 -5.4819999 5.7940001 4
0 0 0 0
0 0 0 6
26.16 -4.125 4.309 15
26.099001 -4.0949998 4.2610002 19
26.083 -4.0710001 4.2199998 20
26.035999 -4.0419998 4.1739998 26
26.016001 -4.0180001 4.132 25
25.985001 -3.9909999 4.0890002 30
25.955 -3.9649999 4.046 32
25.945999 -3.9400001 4.0050001 35
25.934 -3.9159999 3.9649999 37
25.913 -3.8900001 3.9230001 41
25.914 -3.868 3.885 42
25.900999 -3.8429999 3.8440001 44
25.884001 -3.8169999 3.8010001 46
25.874001 -3.7920001 3.7620001 49
25.868999 -3.7679999 3.7219999 50
25.863001 -3.743 3.6819999 54
25.858999 -3.7190001 3.6429999 50
25.843 -3.6919999 3.5999999 52
25.862 -3.6700001 3.563 58
25.854 -3.6440001 3.5239999 56
25.856001 -3.6199999 3.484 57
25.864 -3.595 3.4449999 55
25.858999 -3.5699999 3.405 58
25.862 -3.5450001 3.3659999 57
25.878 -3.52 3.3280001 53
25.877001 -3.4949999 3.2880001 55
25.9 -3.4719999 3.2509999 50
25.896999 -3.4449999 3.211 47
25.917 -3.421 3.174 48
25.931999 -3.3959999 3.1359999 47
25.955 -3.372 3.098 45
25.966999 -3.346 3.0599999 40
25.990999 -3.3210001 3.0220001 38
26.006001 -3.2950001 2.983 37
26.056 -3.273 2.948 31
26.091 -3.25 2.9119999 29
26.125999 -3.2249999 2.875 25
26.190001 -3.204 2.842 17
26.284 -3.187 2.8110001 5
0 0 0 4
50.380001 -5.9949999 5.2309999 4
0 0 0 0
0 0 0 4
51.528 -5.9549999 5.1100001 5
0 0 0 0
0 0 0 0
0 0 0 0
0 0 0 7
33.918999 -3.721 3.098 18
33.915001 -3.6800001 3.0439999 41
33.887001 -3.6359999 2.9890001 58
33.860001 -3.592 2.934 70
33.842999 -3.5480001 2.8789999 76
33.831001 -3.506 2.825 91
33.833 -3.464 2.7720001 97
33.820999 -3.421 2.7190001 97
33.794998 -3.3759999 2.664 99
33.812 -3.335 2.6129999 94
33.799 -3.2909999 2.559 99
33.792 -3.2479999 2.507 75
33.771999 -3.2019999 2.4530001 101
33.789001 -3.1600001 2.401 96
33.791 -3.1170001 2.349 94
33.765999 -3.0699999 2.2939999 94
33.706001 -3.0209999 2.2379999 82
33.687 -2.9749999 2.1849999 62
33.762001 -2.937 2.138 70
33.772999 -2.8929999 2.086 66
33.637001 -2.836 2.026 79
32.990002 -2.737 1.9349999 82
32.963001 -2.691 1.883 96
33.001999 -2.6489999 1.835 52
33.263 -2.6240001 1.798 6
33.710999 -2.6140001 1.771 29
33.727001 -2.5680001 1.72 71
33.702999 -2.52 1.6670001 110
33.799999 -2.48 1.62 17
33.922001 -2.4419999 1.575 6
33.902 -2.3929999 1.522 10
33.803001 -2.3380001 1.466 38
33.863998 -2.2939999 1.4170001 22
35.394001 -2.3469999 1.427 8
35.765999 -2.3210001 1.388 7
37.597 -2.385 1.402 82
37.605 -2.332 1.347 92
37.599998 -2.277 1.29 93
37.582001 -2.221 1.233 89
37.594002 -2.1670001 1.177 79
37.929001 -2.131 1.13 5
38.299999 -2.095 1.084 5
38.901001 -2.0699999 1.043 8
39.158001 -2.0250001 0.99199998 48
39.306999 -1.974 0.93699998 15
41.637001 -2.0280001 0.93099999 101
41.640999 -1.965 0.86900002 98
41.611 -1.901 0.80699998 99
41.616001 -1.839 0.74699998 94
41.874001 -1.788 0.69099998 5
42.469002 -1.747 0.63800001 5
44.132999 -1.748 0.59899998 11
42.603001 -1.622 0.51599997 4
42.639999 -1.557 0.45500001 9
0 0 0 17
45.841999 -1.534 0.359 44
45.882999 -1.462 0.292 62
45.958 -1.393 0.227 86
46.023998 -1.322 0.162 23
46.681999 -1.268 0.097999997 28
0 0 0 99
49.655998 -1.191 -0.035999998 96
49.828999 -1.1160001 -0.106 56
0 0 0 15
0 0 0 0
0 0 0 13
56.667999 -0.90600002 -0.43700001 134
56.654999 -0.81599998 -0.514 75
57.734001 -0.73900002 -0.602 107
57.735001 -0.64499998 -0.68199998 130
57.735001 -0.55000001 -0.76200002 118
57.763 -0.456 -0.84100002 19
0 0 0 0
0 0 0 121
65.741997 -0.2 -1.22 53
65.762001 -0.093000002 -1.307 103
65.75 0.014 -1.395 72
65.726997 0.123 -1.482 57
0 0 0 0
0 0 0 73
71.116997 0.48500001 -1.882 62
0 0 0 15
44.973999 0.456 -1.307 153
45.016998 0.53100002 -1.3660001 65
0 0 0 167
47.969002 0.72799999 -1.579 186
47.918999 0.80800003 -1.6390001 17
0 0 0 243
50.973 1.033 -1.874 114
0 0 0 26
0 0 0 0
0 0 0 150
59.801998 1.618 -2.497 35
0 0 0 0
0 0 0 0
0 0 0 0
0 0 0 0
0 0 0 0
0 0 0 0
0 0 0 2
0 0 0 1
0 0 0 0
0 0 0 0
0 0 0 0
0 0 0 1
19.052999 0.94099998 -1.091 1
0 0 0 3
16.989 0.89700001 -1.011 6
17.224001 0.94 -1.045 6
16.881001 0.95099998 -1.043 5
16.337 0.94800001 -1.027 3
15.496 0.926 -0.99199998 2
14.959 0.92000002 -0.97399998 2
14.556 0.92000002 -0.963 3
14.166 0.92000002 -0.95300001 3
13.788 0.92000002 -0.94300002 3
13.4 0.917 -0.93099999 3
13.039 0.91500002 -0.91900003 2
12.705 0.91399997 -0.90899998 2
12.383 0.912 -0.89899999 3
12.101 0.912 -0.89099997 3
11.843 0.91399997 -0.88499999 2
11.648 0.91900003 -0.88200003 3
11.438 0.92199999 -0.87800002 2
11.22 0.92400002 -0.87199998 2
10.943 0.92000002 -0.86199999 2
10.712 0.92000002 -0.85500002 2
10.497 0.92000002 -0.84799999 3
10.292 0.91900003 -0.84100002 3
10.117 0.921 -0.83700001 3
9.9289999 0.921 -0.83099997 3
9.7449999 0.921 -0.82499999 3
9.5790005 0.92199999 -0.81999999 3
9.4099998 0.92199999 -0.815 4
9.2659998 0.92400002 -0.81099999 3
9.1219997 0.926 -0.80699998 4
8.9919996 0.92799997 -0.80400002 4
8.8240004 0.926 -0.79699999 4
8.6859999 0.92699999 -0.792 4
8.5570002 0.92799997 -0.78799999 4
8.441 0.93000001 -0.78500003 4
8.3129997 0.93000001 -0.77999997 4
8.2040005 0.93199998 -0.77700001 4
8.1090002 0.935 -0.77499998 3
7.9619999 0.93199998 -0.76800001 4
7.869 0.93400002 -0.76599997 4
7.7509999 0.93300003 -0.76099998 4
7.6490002 0.93400002 -0.75800002 4
7.5489998 0.935 -0.75400001 4
7.4359999 0.93400002 -0.74900001 4
7.3509998 0.93599999 -0.74599999 4
7.2690001 0.93800002 -0.74400002 4
7.1690001 0.93699998 -0.73900002 4
7.0879998 0.93900001 -0.73699999 4
7.013 0.94 -0.73400003 4
6.9169998 0.93900001 -0.73000002 4
6.822 0.93800002 -0.72500002 4
6.7319999 0.93699998 -0.72100002 3
6.6659999 0.93900001 -0.71899998 3
6.6240001 0.94400001 -0.71899998 5
6.5419998 0.94400001 -0.71499997 4
6.4499998 0.94099998 -0.70999998 4
6.368 0.94 -0.70499998 5
6.3039999 0.94099998 -0.70300001 5
6.2680001 0.94599998 -0.70300001 4
6.2080002 0.94700003 -0.70099998 4
6.1550002 0.949 -0.699 3
6.1230001 0.954 -0.699 3
6.0760002 0.95700002 -0.69800001 3
6.0120001 0.95700002 -0.69499999 3
5.9369998 0.95499998 -0.69 3
5.881 0.95499998 -0.68699998 3
5.8239999 0.95599997 -0.685 3
5.7779999 0.95700002 -0.68300003 3
5.7319999 0.95899999 -0.68099999 3
5.6939998 0.96200001 -0.68000001 3
5.6479998 0.963 -0.67799997 4
5.6009998 0.96399999 -0.676 4
5.5669999 0.96700001 -0.67500001 4
5.527 0.96899998 -0.67299998 4
5.4840002 0.97000003 -0.671 4
5.448 0.97299999 -0.67000002 4
5.4229999 0.977 -0.67000002 4
5.3850002 0.97799999 -0.66799998 4
5.3470001 0.98000002 -0.667 4
5.316 0.98299998 -0.66600001 4
5.283 0.98500001 -0.66399997 3
5.244 0.986 -0.662 3
5.2220001 0.99000001 -0.662 4
5.1849999 0.991 -0.66000003 3
5.165 0.995 -0.66000003 3
5.1220002 0.995 -0.65700001 3
5.0890002 0.99599999 -0.65499997 3
5.079 1.002 -0.65700001 3
5.0430002 1.002 -0.65399998 3
5.013 1.0039999 -0.653 3
4.9899998 1.007 -0.65200001 3
4.973 1.011 -0.65200001 3
4.9450002 1.012 -0.65100002 2
4.9180002 1.0140001 -0.64899999 2
4.9000001 1.018 -0.64899999 3
4.8740001 1.0190001 -0.648 5
4.8649998 1.024 -0.648 3
4.8340001 1.025 -0.64600003 4
4.823 1.03 -0.64700001 4
4.8039999 1.0319999 -0.64600003 4
4.7779999 1.034 -0.64399999 2
4.7680001 1.038 -0.64499998 2
4.737 1.038 -0.64200002 2
4.723 1.0420001 -0.64200002 2
4.7059999 1.045 -0.64099997 2
4.6890001 1.048 -0.64099997 4
4.6680002 1.049 -0.639 3
4.6659999 1.0549999 -0.63999999 2
4.651 1.058 -0.63999999 3
4.6339998 1.061 -0.639 2
4.619 1.063 -0.63800001 2
4.6030002 1.066 -0.63800001 3
4.592 1.069 -0.63700002 3
4.5879998 1.075 -0.63800001 3
4.572 1.077 -0.63700002 2
4.552 1.0779999 -0.63599998 3
4.5539999 1.085 -0.63700002 2
4.5339999 1.086 -0.63499999 3
4.5219998 1.089 -0.63499999 3
4.513 1.092 -0.634 3
4.5040002 1.096 -0.634 3
4.4879999 1.097 -0.63300002 3
4.4959998 1.105 -0.63499999 2
4.4850001 1.108 -0.634 2
4.4660001 1.109 -0.63300002 3
4.4549999 1.1109999 -0.63200003 3
4.4530001 1.1160001 -0.63300002 3
4.4450002 1.119 -0.63200003 3
4.4419999 1.124 -0.63200003 3
4.4359999 1.127 -0.63200003 3
4.4239998 1.13 -0.63099998 4
4.4229999 1.1339999 -0.63200003 2
4.4190001 1.1390001 -0.63200003 4
4.4159999 1.143 -0.63200003 2
4.4099998 1.146 -0.63200003 2
4.3930001 1.146 -0.63 3
4.3899999 1.15 -0.63 3
4.381 1.153 -0.62900001 3
4.3740001 1.156 -0.62800002 3
4.3779998 1.1619999 -0.62900001 3
4.3790002 1.166 -0.63 3
4.369 1.168 -0.62900001 3
4.3639998 1.1720001 -0.62800002 3
4.3579998 1.174 -0.62800002 3
4.375 1.184 -0.63 2
4.3709998 1.187 -0.63 2
4.3559999 1.187 -0.62800002 3
4.3569999 1.192 -0.62800002 3
4.3610001 1.197 -0.62900001 2
4.3590002 1.201 -0.62900001 3
4.355 1.2029999 -0.62800002 3
4.3590002 1.209 -0.62900001 3
4.3569999 1.212 -0.62900001 2
4.3540001 1.216 -0.62800002 3
4.3509998 1.219 -0.62800002 3
4.3600001 1.225 -0.62900001 3
4.3559999 1.228 -0.62800002 3
4.3499999 1.23 -0.62699997 3
4.3460002 1.232 -0.62599999 3
4.3800001 1.2460001 -0.63099998 2
4.362 1.244 -0.62800002 2
4.381 1.253 -0.63099998 2
4.369 1.2539999 -0.62900001 2
4.3600001 1.255 -0.62699997 3
4.3610001 1.258 -0.62699997 3
4.3709998 1.265 -0.62800002 3
4.375 1.2690001 -0.62800002 3
4.3629999 1.2690001 -0.62599999 3
4.375 1.276 -0.62699997 2
4.3839998 1.281 -0.62800002 3
4.3969998 1.289 -0.62900001 3
4.3930001 1.29 -0.62800002 3
4.3959999 1.294 -0.62800002 3
4.408 1.301 -0.62900001 3
4.4099998 1.304 -0.62800002 3
4.4190001 1.3099999 -0.62900001 2
4.427 1.3150001 -0.63 2
4.4239998 1.317 -0.62800002 3
4.4419999 1.325 -0.63 3
4.4369998 1.326 -0.62900001 3
4.4629998 1.337 -0.63099998 2
4.4580002 1.3380001 -0.63 3
4.4699998 1.344 -0.63099998 3
4.4759998 1.348 -0.63099998 3
4.4770002 1.351 -0.63 3
4.4920001 1.358 -0.63099998 2
4.5009999 1.363 -0.63099998 2
4.5040002 1.3660001 -0.63099998 4
4.5120001 1.3710001 -0.63099998 4
4.5180001 1.375 -0.63 4
4.5310001 1.381 -0.63099998 4
4.5409999 1.386 -0.63099998 2
4.546 1.3890001 -0.63099998 4
4.5479999 1.392 -0.63 4
4.5650001 1.399 -0.63099998 4
4.5840001 1.406 -0.63200003 2
4.5999999 1.413 -0.63300002 2
4.5939999 1.413 -0.63099998 4
4.619 1.4220001 -0.63300002 2
4.6240001 1.426 -0.63300002 2
4.6430001 1.433 -0.634 3
4.651 1.437 -0.634 2
4.6630001 1.442 -0.634 2
4.6900001 1.452 -0.63599998 3
4.6960001 1.455 -0.63499999 4
4.7179999 1.4630001 -0.63700002 2
4.7329998 1.469 -0.63700002 3
4.7389998 1.472 -0.63599998 3
4.7709999 1.483 -0.639 2
4.783 1.487 -0.639 3
4.79 1.4910001 -0.63800001 5
4.809 1.497 -0.639 5
4.823 1.503 -0.639 4
4.8470001 1.511 -0.63999999 3
4.868 1.518 -0.64099997 3
4.8969998 1.528 -0.64300001 3
4.9039998 1.53 -0.64200002 3
4.9169998 1.535 -0.64200002 5
4.9310002 1.54 -0.64200002 3
4.941 1.543 -0.64099997 5
4.9819999 1.556 -0.64399999 3
4.9959998 1.561 -0.64399999 5
5.0370002 1.574 -0.64700001 3
5.0489998 1.5779999 -0.64700001 3
5.066 1.5829999 -0.64600003 4
5.0910001 1.591 -0.648 2
5.1170001 1.599 -0.64899999 2
5.1539998 1.61 -0.65100002 3
5.1719999 1.615 -0.65100002 3
5.2010002 1.624 -0.65200001 3
5.2420001 1.637 -0.65499997 3
5.257 1.641 -0.65399998 3
5.283 1.648 -0.65499997 3
5.3080001 1.655 -0.65600002 3
5.342 1.665 -0.65799999 3
5.3720002 1.674 -0.65899998 3
5.3959999 1.681 -0.65899998 3
5.4219999 1.687 -0.65899998 3
5.4520001 1.696 -0.66000003 3
5.4959998 1.7079999 -0.66299999 3
5.5279999 1.717 -0.66399997 3
5.5599999 1.726 -0.66500002 3
5.586 1.733 -0.66500002 3
5.619 1.7410001 -0.66600001 3
5.6539998 1.751 -0.667 3
5.7129998 1.767 -0.67199999 3
5.7389998 1.774 -0.67199999 3
5.7740002 1.783 -0.67299998 3
5.816 1.794 -0.67400002 3
5.8559999 1.804 -0.676 3
5.9070001 1.817 -0.67900002 3
5.9320002 1.823 -0.67799997 3
5.9689999 1.832 -0.67900002 3
6.0079999 1.842 -0.68000001 4
6.0560002 1.854 -0.68199998 4
6.0939999 1.863 -0.68300003 3
6.152 1.878 -0.68599999 4
6.1739998 1.882 -0.685 3
6.2249999 1.895 -0.68699998 3
6.27 1.905 -0.68900001 3
6.3109999 1.915 -0.69 3
6.3439999 1.921 -0.68900001 3
6.3920002 1.933 -0.69099998 3
6.4450002 1.9450001 -0.69300002 3
6.5040002 1.959 -0.69599998 3
6.572 1.976 -0.699 3
6.6100001 1.984 -0.699 3
6.6739998 1.999 -0.70200002 4
6.7280002 2.0109999 -0.704 4
6.7979999 2.0280001 -0.70700002 4
6.8800001 2.0480001 -0.71100003 4
6.9359999 2.0599999 -0.713 4
6.9920001 2.072 -0.71399999 4
7.0539999 2.086 -0.71700001 4
7.1259999 2.1029999 -0.71899998 5
7.1929998 2.1170001 -0.722 6
7.2490001 2.1289999 -0.72299999 6
7.3179998 2.1440001 -0.72500002 7
7.4060001 2.164 -0.72899997 5
7.4850001 2.181 -0.73199999 5
7.5840001 2.2049999 -0.73699999 4
7.6869998 2.2290001 -0.74299997 3
7.7729998 2.247 -0.74599999 5
7.849 2.263 -0.74800003 5
7.9239998 2.279 -0.75 4
8.0279999 2.302 -0.755 5
8.0979996 2.3150001 -0.75700003 5
8.1549997 2.3239999 -0.75700003 4
8.224 2.3369999 -0.75800002 5
8.323 2.358 -0.76200002 3
8.4219999 2.3789999 -0.76499999 4
8.5019999 2.3929999 -0.76700002 4
8.5839996 2.4089999 -0.76899999 5
8.7410002 2.4449999 -0.77700001 6
8.8620005 2.471 -0.78200001 9
8.9189997 2.4779999 -0.78100002 8
8.9899998 2.4890001 -0.78200001 6
9.1079998 2.513 -0.78600001 4
9.2150002 2.533 -0.78899997 5
9.3240004 2.553 -0.79299998 4
9.4770002 2.586 -0.79900002 5
9.5679998 2.6010001 -0.801 6
9.6590004 2.6159999 -0.80199999 6
9.7220001 2.6229999 -0.801 4
9.8000002 2.6329999 -0.801 4
9.908 2.652 -0.80299997 3
10.039 2.6760001 -0.80699998 3
10.155 2.6960001 -0.81 3
10.284 2.7179999 -0.81300002 3
10.421 2.743 -0.81699997 3
10.548 2.7650001 -0.81999999 2
10.7 2.7920001 -0.82499999 2
10.829 2.813 -0.82800001 2
10.96 2.8340001 -0.82999998 2
11.104 2.858 -0.83399999 2
11.275 2.8889999 -0.83899999 2
11.453 2.921 -0.84500003 2
11.607 2.9460001 -0.84899998 2
11.759 2.97 -0.852 3
11.891 2.9890001 -0.85399997 4
11.996 3 -0.85299999 3
12.131 3.0190001 -0.85500002 3
12.274 3.039 -0.85699999 3
12.455 3.0680001 -0.861 3
12.603 3.0880001 -0.86299998 3
12.829 3.1259999 -0.87 3
13.004 3.152 -0.87300003 3
13.235 3.191 -0.88099998 3
13.488 3.234 -0.889 3
13.764 3.2809999 -0.898 3
13.999 3.3180001 -0.90399998 3
14.278 3.365 -0.91299999 2
14.601 3.421 -0.92400002 2
14.801 3.447 -0.92699999 2
15.145 3.506 -0.93800002 2
14.614 3.362 -0.89600003 2
14.936 3.415 -0.90600002 4
15.411 3.5020001 -0.92500001 5
15.66 3.536 -0.93000001 5
15.801 3.5450001 -0.92799997 5
16.253 3.622 -0.94400001 5
16.483 3.6489999 -0.94700003 5
16.684999 3.6700001 -0.94800001 3
17.086 3.7320001 -0.95999998 5
17.097 3.7090001 -0.94999999 2
0 0 0 0
0 0 0 3
18.927 4.0190001 -1.016 4
19.091999 4.0240002 -1.013 3
0 0 0 0
0 0 0 2
21.695999 4.473 -1.1109999 2
21.879 4.4759998 -1.107 2
0 0 0 0
0 0 0 0
0 0 0 0
0 0 0 0
0 0 0 1
0 0 0 4
27.309 5.277 -1.266 1
0 0 0 8
30.115999 5.7199998 -1.3609999 15
30.156 5.678 -1.345 6
30.212 5.638 -1.33 4
30.061001 5.559 -1.306 2
31.496 5.7719998 -1.35 6
30.955 5.619 -1.309 6
30.455 5.4759998 -1.27 4
30.218 5.381 -1.243 2
30.296 5.3429999 -1.229 2
30.278999 5.2870002 -1.212 1
0 0 0 0
0 0 0 13
35.130001 5.9489999 -1.348 10
0 0 0 1
0 0 0 3
0 0 0 1
30.983999 5.026 -1.122 7
31.181999 5.0009999 -1.113 32
0 0 0 20
35.417999 5.552 -1.227 5
35.511002 5.5019999 -1.212 11
35.598999 5.4510002 -1.197 46
35.787998 5.414 -1.1849999 18
35.882999 5.362 -1.17 7
0 0 0 150
47.779999 6.9629998 -1.51 102
47.803001 6.8790002 -1.488 39
47.839001 6.7930002 -1.466 42
47.895 6.7119999 -1.4450001 30
0 0 0 6
39.43 5.3779998 -1.152 17
39.356998 5.2940001 -1.132 19
39.310001 5.2129998 -1.113 13
39.266998 5.1329999 -1.094 13
39.191002 5.0479999 -1.075 14
39.122002 4.9629998 -1.0549999 21
39.026001 4.8759999 -1.035 35
38.966999 4.7930002 -1.017 35
38.919998 4.711 -0.99900001 35
38.854 4.6279998 -0.98000002 31
38.799999 4.546 -0.963 33
38.735001 4.4619999 -0.94499999 35
38.674 4.3790002 -0.92799997 34
38.632999 4.2989998 -0.912 34
38.567001 4.2150002 -0.89499998 33
38.499001 4.131 -0.87800002 31
38.452999 4.0510001 -0.86199999 31
38.393002 3.967 -0.84600002 29
38.337002 3.885 -0.82999998 24
38.299 3.8050001 -0.81599998 23
38.227001 3.721 -0.80000001 23
38.173 3.6389999 -0.78500003 22
38.126999 3.5569999 -0.77100003 20
38.09 3.4779999 -0.75800002 19
38.029999 3.3970001 -0.74400002 19
37.966999 3.3150001 -0.73000002 16
37.910999 3.233 -0.71600002 15
37.869999 3.151 -0.70300001 15
37.841999 3.0710001 -0.69099998 15
37.801998 2.99 -0.67799997 11
37.736 2.9070001 -0.66600001 11
37.714001 2.8280001 -0.65399998 23
37.689999 2.7490001 -0.64300001 41
37.644001 2.6670001 -0.63099998 42
37.625 2.589 -0.62099999 38
37.576 2.5090001 -0.61000001 23
37.537998 2.4300001 -0.59899998 15
37.518002 2.349 -0.58899999 11
37.492001 2.27 -0.579 9
37.470001 2.1900001 -0.56999999 7
37.480999 2.112 -0.56099999 5
37.591 2.04 -0.55400002 5
37.926998 1.98 -0.55000001 3
38.064999 1.908 -0.54400003 3
38.368999 1.842 -0.54000002 4
0 0 0 0
0 0 0 0
0 0 0 27
0 0 0 0
0 0 0 0
0 0 0 0
0 0 0 0
0 0 0 0
0 0 0 0
0 0 0 0
0 0 0 0
0 0 0 0
0 0 0 35
132.608 2.4300001 -1.564 115
132.95799 2.152 -1.554 34
132.89 1.8710001 -1.539 32
132.804 1.59 -1.525 56
0 0 0 32
71.170998 0.54699999 -0.80500001 86
0 0 0 21
65.848 0.22400001 -0.73500001 52
65.766998 0.082999997 -0.73000002 79
65.775002 -0.057 -0.72600001 142
65.778 -0.198 -0.72299999 108
0 0 0 0
0 0 0 38
57.738998 -0.54400003 -0.62800002 117
57.737 -0.667 -0.62699997 124
0 0 0 11
0 0 0 0
0 0 0 50
0 0 0 13
43.012001 -0.95499998 -0.46700001 37
42.911999 -1.044 -0.46700001 17
0 0 0 0
0 0 0 65
36.455002 -1.1210001 -0.40000001 35
36.511002 -1.201 -0.40200001 14
36.619999 -1.283 -0.40599999 42
0 0 0 50
41.812 -1.642 -0.46900001 39
41.723999 -1.729 -0.47099999 42
41.575001 -1.812 -0.47299999 103
41.581001 -1.901 -0.47600001 88
39.285 -1.88 -0.454 6
39.294998 -1.964 -0.458 16
38.492001 -2.0050001 -0.45300001 10
37.869999 -2.053 -0.44999999 4
37.200001 -2.095 -0.44600001 22
36.973999 -2.161 -0.449 54
37.497002 -2.273 -0.46000001 3
0 0 0 0
0 0 0 0
0 0 0 0
0 0 0 0
0 0 0 1
0 0 0 0
0 0 0 0
0 0 0 1
18.237 -1.452 -0.252 1
0 0 0 0
0 0 0 0
0 0 0 0
0 0 0 0
0 0 0 0
0 0 0 0
0 0 0 1
17.704 -1.706 -0.27599999 1
0 0 0 0
0 0 0 25
0 0 0 25
0 0 0 25
0 0 0 25
0 0 0 25
0 0 0 1
17.443001 -1.9680001 -0.31099999 1
17.472 -2.0079999 -0.317 1
17.357 -2.03 -0.31999999 1
17.417999 -2.072 -0.32600001 1
17.493 -2.1170001 -0.33399999 10
17.49 -2.152 -0.33899999 12
17.452 -2.1830001 -0.34400001 7
17.473 -2.221 -0.35100001 10
17.493999 -2.2590001 -0.35699999 8
17.479 -2.2920001 -0.36300001 8
17.465 -2.325 -0.36899999 7
17.471001 -2.3610001 -0.375 8
17.485001 -2.398 -0.382 8
17.445999 -2.4260001 -0.38800001 6
17.433001 -2.4590001 -0.39399999 6
17.473 -2.4990001 -0.40200001 6
17.485001 -2.5350001 -0.40799999 11
17.433001 -2.562 -0.414 18
17.386999 -2.5899999 -0.41999999 46
17.363001 -2.6199999 -0.42699999 86
17.368999 -2.655 -0.43399999 150
17.559 -2.7179999 -0.44600001 21
17.544001 -2.75 -0.45300001 9
17.504999 -2.7780001 -0.46000001 3
17.436001 -2.8010001 -0.465 1
17.459 -2.8380001 -0.47299999 1
17.450001 -2.8699999 -0.48100001 1
17.466999 -2.9059999 -0.48899999 1
17.482 -2.9419999 -0.49700001 1
17.503 -2.9790001 -0.50599998 1
17.563 -3.023 -0.51599997 1
17.612 -3.0639999 -0.52600002 1
17.612 -3.098 -0.53399998 1
17.844 -3.1719999 -0.54900002 26
17.85 -3.2060001 -0.55800003 30
17.834 -3.2360001 -0.56699997 60
17.815001 -3.2650001 -0.574 1
0 0 0 41
20.225 -3.7820001 -0.67199999 35
20.208 -3.8150001 -0.68199998 67
20.225 -3.8559999 -0.69199997 39
20.228001 -3.8929999 -0.70300001 12
0 0 0 58
33.437 -6.5570002 -1.197 50
33.812 -6.6919999 -1.228 17
33.928001 -6.776 -1.25 25
33.905998 -6.8319998 -1.267 31
33.973999 -6.9060001 -1.288 42
0 0 0 1
18.051001 -3.733 -0.704 15
17.985001 -3.75 -0.71100003 17
17.909 -3.766 -0.71799999 25
17.844999 -3.7839999 -0.72500002 31
17.834999 -3.812 -0.73500001 26
17.792 -3.8340001 -0.74299997 34
17.775 -3.8599999 -0.75199997 39
17.75 -3.885 -0.76099998 30
17.729 -3.9100001 -0.76999998 30
17.701 -3.934 -0.77899998 45
17.686001 -3.96 -0.78899997 52
17.676001 -3.987 -0.79799998 33
17.653999 -4.0120001 -0.80800003 52
17.648001 -4.0409999 -0.81800002 56
17.639 -4.0669999 -0.82800001 37
17.627001 -4.0929999 -0.83700001 66
17.624001 -4.1199999 -0.84799999 59
17.612 -4.1459999 -0.85799998 59
0 0 0 22
16.117001 -3.845 -0.80400002 10
16.018999 -3.8469999 -0.80900002 9
15.941 -3.8540001 -0.81400001 7
15.833 -3.852 -0.81800002 8
15.795 -3.868 -0.82599998 9
15.701 -3.869 -0.83099997 9
15.624 -3.8740001 -0.83600003 10
15.544 -3.878 -0.84100002 9
15.506 -3.892 -0.84899998 9
15.418 -3.8929999 -0.85399997 10
15.353 -3.8989999 -0.86000001 11
15.276 -3.9030001 -0.86500001 8
15.226 -3.9119999 -0.87199998 31
15.208 -3.9300001 -0.88 43
15.215 -3.954 -0.88999999 44
15.212 -3.9749999 -0.89899999 41
15.218 -3.9979999 -0.90899998 42
15.224 -4.0209999 -0.91900003 27
15.22 -4.0419998 -0.92799997 37
15.23 -4.066 -0.93900001 32
15.216 -4.0830002 -0.94700003 39
15.224 -4.1059999 -0.95700002 49
15.228 -4.1279998 -0.96799999 38
15.23 -4.1490002 -0.977 40
15.232 -4.1700001 -0.98699999 42
15.235 -4.191 -0.99699998 41
15.242 -4.2129998 -1.007 34
15.235 -4.2319999 -1.016 32
15.245 -4.2540002 -1.027 24
15.236 -4.2709999 -1.036 26
15.237 -4.2909999 -1.046 23
15.252 -4.3150001 -1.057 15
14.475 -4.1129999 -1.013 4
14.192 -4.0510001 -1.002 3
14.015 -4.0170002 -0.99900001 3
13.648 -3.9289999 -0.98100001 3
14.217 -4.1100001 -1.031 3
13.93 -4.0430002 -1.0190001 3
13.679 -3.987 -1.0089999 3
13.417 -3.9260001 -0.99900001 4
13.215 -3.8829999 -0.99199998 3
13.028 -3.8429999 -0.98699999 3
12.832 -3.799 -0.98000002 3
12.651 -3.76 -0.97500002 3
12.479 -3.723 -0.96899998 3
12.321 -3.6889999 -0.96499997 3
12.129 -3.645 -0.958 3
11.978 -3.612 -0.95300001 3
11.8 -3.5710001 -0.94700003 3
11.611 -3.526 -0.93900001 2
11.442 -3.487 -0.93199998 2
11.257 -3.4419999 -0.92500001 2
11.096 -3.404 -0.91799998 2
10.944 -3.368 -0.91299999 2
10.797 -3.3340001 -0.90700001 2
10.659 -3.302 -0.90200001 2
10.548 -3.277 -0.89899999 3
10.4 -3.2409999 -0.89300001 3
10.271 -3.211 -0.889 3
10.152 -3.1830001 -0.88499999 2
10.009 -3.1470001 -0.87900001 3
9.9180002 -3.128 -0.87699997 3
9.7980003 -3.098 -0.87300003 4
9.7060003 -3.0780001 -0.87 4
9.6079998 -3.0550001 -0.86799997 3
9.507 -3.0309999 -0.86400002 3
9.3789997 -2.9979999 -0.85900003 5
9.2869997 -2.9760001 -0.85600001 4
9.1560001 -2.9419999 -0.84899998 3
9.0539999 -2.9159999 -0.84500003 4
8.9519997 -2.8900001 -0.84100002 4
8.8380003 -2.8599999 -0.83600003 3
8.743 -2.836 -0.83200002 3
8.632 -2.8069999 -0.82700002 4
8.5489998 -2.786 -0.824 4
8.4659996 -2.7650001 -0.82099998 5
8.3889999 -2.7449999 -0.81900001 5
8.323 -2.73 -0.81699997 4
8.2539997 -2.7130001 -0.815 4
8.177 -2.6930001 -0.81300002 5
8.1040001 -2.674 -0.81 5
8.04 -2.658 -0.80800003 5
7.96 -2.6370001 -0.80500001 6
7.8860002 -2.6170001 -0.80199999 5
7.8460002 -2.608 -0.80299997 4
7.7779999 -2.5899999 -0.80000001 5
7.6939998 -2.566 -0.796 6
7.6350002 -2.5510001 -0.79400003 5
7.5609999 -2.53 -0.79100001 7
7.5079999 -2.516 -0.78899997 5
7.4419999 -2.4979999 -0.787 6
7.3730001 -2.4790001 -0.78299999 8
7.303 -2.4590001 -0.77999997 8
7.2449999 -2.4430001 -0.778 9
7.1690001 -2.4200001 -0.77399999 13
7.118 -2.4059999 -0.77200001 12
7.0549998 -2.388 -0.76899999 12
7.0170002 -2.378 -0.76800001 12
6.9879999 -2.3710001 -0.76899999 12
6.9499998 -2.3610001 -0.76800001 12
6.921 -2.3529999 -0.76899999 12
6.8940001 -2.3469999 -0.76999998 10
6.8400002 -2.3299999 -0.76700002 10
6.8049998 -2.3210001 -0.76700002 10
6.7579999 -2.3069999 -0.76499999 9
6.711 -2.293 -0.76300001 8
6.664 -2.279 -0.76099998 8
6.6170001 -2.2650001 -0.759 7
6.5749998 -2.2520001 -0.75700003 7
6.5289998 -2.2379999 -0.755 6
6.4720001 -2.22 -0.75199997 5
6.4260001 -2.2049999 -0.75 5
6.3920002 -2.1949999 -0.74900001 5
6.3460002 -2.1800001 -0.74599999 5
6.323 -2.1730001 -0.74699998 5
6.27 -2.1559999 -0.74299997 5
6.244 -2.148 -0.74299997 5
6.2140002 -2.1389999 -0.74199998 5
6.1739998 -2.1259999 -0.741 5
6.1440001 -2.1159999 -0.74000001 6
6.1040001 -2.1029999 -0.73799998 5
6.0780001 -2.0940001 -0.73699999 6
6.0339999 -2.079 -0.73400003 5
5.9970002 -2.0669999 -0.73299998 5
5.961 -2.0550001 -0.73100001 6
5.9369998 -2.0469999 -0.73000002 5
5.9109998 -2.0369999 -0.73000002 6
5.8649998 -2.0220001 -0.72600001 5
5.8429999 -2.0139999 -0.72600001 5
5.802 -1.999 -0.72299999 4
5.79 -1.995 -0.72399998 5
5.7550001 -1.983 -0.722 5
5.7179999 -1.969 -0.72000003 4
5.7140002 -1.9680001 -0.72100002 4
5.6630001 -1.949 -0.71700001 5
5.6459999 -1.943 -0.71700001 4
5.6199999 -1.933 -0.71600002 4
5.599 -1.925 -0.71499997 4
5.572 -1.915 -0.71399999 4
5.559 -1.909 -0.71399999 4
5.5339999 -1.9 -0.713 4
5.513 -1.891 -0.71200001 4
5.4840002 -1.88 -0.70999998 4
5.4499998 -1.867 -0.708 4
5.441 -1.862 -0.708 3
5.4260001 -1.8559999 -0.708 4
5.395 -1.844 -0.70599997 3
5.3829999 -1.8380001 -0.70599997 4
5.3670001 -1.831 -0.70499998 4
5.3340001 -1.818 -0.70300001 4
5.3200002 -1.811 -0.70300001 4
5.309 -1.806 -0.70300001 3
5.289 -1.7970001 -0.70099998 4
5.2589998 -1.785 -0.699 3
5.27 -1.786 -0.70200002 4
5.2410002 -1.775 -0.69999999 3
5.2189999 -1.765 -0.69800001 3
5.2059999 -1.758 -0.69800001 3
5.1989999 -1.7539999 -0.69800001 3
5.1739998 -1.743 -0.69599998 4
5.158 -1.735 -0.69499999 3
5.145 -1.728 -0.69400001 3
5.131 -1.721 -0.69400001 3
5.119 -1.714 -0.69300002 5
5.118 -1.711 -0.69400001 3
5.099 -1.702 -0.69300002 3
5.0780001 -1.692 -0.69099998 3
5.072 -1.687 -0.69099998 3
5.0770001 -1.686 -0.69300002 3
5.0500002 -1.674 -0.69 3
5.0489998 -1.671 -0.69099998 3
5.04 -1.665 -0.69 3
5.0250001 -1.656 -0.68900001 3
5.0149999 -1.65 -0.68900001 3
5.013 -1.646 -0.68900001 3
5.0100002 -1.642 -0.69 3
4.9889998 -1.631 -0.68699998 3
4.9889998 -1.628 -0.68800002 3
4.98 -1.6210001 -0.68800002 3
4.9660001 -1.613 -0.68599999 6
4.9759998 -1.613 -0.68800002 3
4.961 -1.604 -0.68699998 3
4.954 -1.598 -0.68599999 4
4.9460001 -1.592 -0.68599999 3
4.947 -1.5880001 -0.68599999 4
4.941 -1.582 -0.68599999 3
4.9450002 -1.58 -0.68699998 3
4.9320002 -1.571 -0.68599999 3
4.9310002 -1.567 -0.68599999 3
4.9289999 -1.562 -0.68599999 3
4.9180002 -1.5549999 -0.685 5
4.914 -1.549 -0.68400002 3
4.9159999 -1.545 -0.685 3
4.9099998 -1.539 -0.68400002 3
4.915 -1.536 -0.685 3
4.9190001 -1.533 -0.68599999 3
4.9050002 -1.524 -0.68400002 3
4.9039998 -1.5190001 -0.68400002 3
4.9109998 -1.516 -0.685 3
4.9060001 -1.51 -0.68400002 5
4.9099998 -1.506 -0.68400002 3
4.915 -1.503 -0.685 3
4.9169998 -1.499 -0.685 3
4.9099998 -1.492 -0.68400002 3
4.915 -1.488 -0.685 3
4.9070001 -1.4809999 -0.68400002 3
4.9109998 -1.476 -0.68400002 3
4.914 -1.472 -0.68400002 3
4.9219999 -1.469 -0.685 3
4.908 -1.46 -0.68199998 4
4.9289999 -1.461 -0.685 3
4.921 -1.4529999 -0.68300003 5
4.9260001 -1.449 -0.68400002 5
4.9239998 -1.443 -0.68300003 5
4.948 -1.444 -0.68599999 3
4.9190001 -1.4299999 -0.68099999 5
4.9429998 -1.431 -0.68400002 3
4.9590001 -1.4299999 -0.68599999 3
4.9590001 -1.424 -0.685 3
4.9549999 -1.4170001 -0.68400002 5
4.961 -1.413 -0.68400002 6
4.98 -1.4119999 -0.68599999 3
4.9770002 -1.405 -0.68400002 5
4.9829998 -1.401 -0.685 5
4.9990001 -1.399 -0.68599999 3
5.02 -1.399 -0.68800002 3
5.0050001 -1.3890001 -0.685 4
5.0209999 -1.387 -0.68599999 3
5.0370002 -1.385 -0.68699998 3
5.0279999 -1.376 -0.685 5
5.0450001 -1.374 -0.68599999 3
5.0669999 -1.373 -0.68800002 3
5.0640001 -1.3660001 -0.68599999 3
5.0879998 -1.365 -0.68800002 3
5.098 -1.3609999 -0.68900001 3
5.1020002 -1.3559999 -0.68800002 3
5.1100001 -1.351 -0.68800002 5
5.1269999 -1.349 -0.68800002 3
5.1440001 -1.346 -0.68900001 3
5.1539998 -1.342 -0.68900001 3
5.1659999 -1.337 -0.68900001 5
5.1919999 -1.337 -0.69099998 3
5.2059999 -1.3329999 -0.69099998 3
5.2280002 -1.331 -0.69300002 3
5.2319999 -1.325 -0.69199997 3
5.2529998 -1.323 -0.69300002 3
5.2719998 -1.3200001 -0.69300002 3
5.2800002 -1.314 -0.69300002 3
5.3010001 -1.311 -0.69300002 3
5.323 -1.309 -0.69400001 3
5.3429999 -1.306 -0.69499999 3
5.3649998 -1.304 -0.69599998 4
5.3829999 -1.3 -0.69599998 4
5.4089999 -1.298 -0.69800001 4
5.434 -1.296 -0.699 4
5.448 -1.291 -0.69800001 4
5.4780002 -1.29 -0.69999999 4
5.5009999 -1.2869999 -0.69999999 4
5.5359998 -1.2869999 -0.70300001 4
5.5419998 -1.28 -0.70099998 4
5.5799999 -1.28 -0.70300001 4
5.6030002 -1.276 -0.704 3
5.6370001 -1.275 -0.70499998 3
5.6669998 -1.273 -0.70700002 4
5.6960001 -1.271 -0.70700002 4
5.7220001 -1.268 -0.708 4
5.7470002 -1.2640001 -0.708 4
5.7930002 -1.265 -0.71100003 5
5.822 -1.262 -0.71100003 4
5.8579998 -1.26 -0.713 4
5.8899999 -1.258 -0.71399999 4
5.927 -1.256 -0.71499997 4
5.948 -1.251 -0.71499997 4
6.0149999 -1.255 -0.71899998 4
6.0409999 -1.251 -0.71899998 4
6.0960002 -1.252 -0.722 4
6.1350002 -1.25 -0.72399998 4
6.1789999 -1.249 -0.72500002 3
6.2259998 -1.248 -0.727 4
6.2719998 -1.247 -0.72899997 3
6.303 -1.243 -0.72899997 3
6.3590002 -1.243 -0.73100001 3
6.414 -1.243 -0.73400003 3
6.4660001 -1.243 -0.736 3
6.5120001 -1.2410001 -0.73699999 3
6.5650001 -1.24 -0.73900002 3
6.6199999 -1.239 -0.741 3
6.684 -1.239 -0.74400002 3
6.7340002 -1.237 -0.745 3
6.7940001 -1.237 -0.74699998 4
6.8660002 -1.238 -0.75 3
6.9359999 -1.239 -0.75300002 3
6.9889998 -1.2359999 -0.75400001 3
7.0700002 -1.239 -0.75800002 4
7.1430001 -1.239 -0.76099998 4
7.2140002 -1.239 -0.76300001 4
7.3169999 -1.244 -0.76899999 4
7.3759999 -1.2410001 -0.76999998 4
7.4559999 -1.242 -0.773 4
7.5440001 -1.243 -0.77600002 5
7.625 -1.243 -0.77899998 5
7.698 -1.242 -0.77999997 5
7.7839999 -1.242 -0.78299999 5
7.8660002 -1.242 -0.78500003 5
7.9640002 -1.243 -0.78899997 4
8.0509996 -1.243 -0.79100001 4
8.1730003 -1.247 -0.79699999 4
8.2460003 -1.244 -0.79699999 4
8.3660002 -1.247 -0.80199999 3
8.4790001 -1.249 -0.80599999 4
8.6000004 -1.252 -0.81 4
8.71 -1.252 -0.81400001 4
8.8400002 -1.255 -0.81800002 3
8.9779997 -1.2589999 -0.82300001 3
9.1199999 -1.263 -0.829 4
9.283 -1.2690001 -0.83499998 3
9.4490004 -1.274 -0.84200001 3
9.5790005 -1.275 -0.84500003 4
9.7460003 -1.28 -0.85100001 3
9.8769999 -1.28 -0.85399997 3
10.044 -1.284 -0.86000001 3
10.215 -1.2869999 -0.86500001 3
10.364 -1.288 -0.86799997 3
10.567 -1.294 -0.875 3
10.757 -1.298 -0.88099998 3
10.967 -1.304 -0.88800001 2
11.184 -1.3099999 -0.89499998 3
11.381 -1.312 -0.89999998 3
11.619 -1.319 -0.90799999 2
11.854 -1.325 -0.91500002 2
12.131 -1.334 -0.92400002 2
12.372 -1.3380001 -0.93000001 3
12.621 -1.342 -0.93599999 3
12.878 -1.347 -0.94300002 3
13.232 -1.36 -0.95499998 3
13.536 -1.367 -0.963 3
13.916 -1.38 -0.97600001 3
14.283 -1.391 -0.98699999 3
14.571 -1.393 -0.99199998 3
15.144 -1.421 -1.015 2
15.803 -1.454 -1.043 3
15.521 -1.401 -1.008 3
15.693 -1.3890001 -1.003 4
0 0 0 6
17.589001 -1.494 -1.087 8
17.841999 -1.484 -1.0829999 8
18.002001 -1.465 -1.073 6
18.597 -1.48 -1.0880001 4
19.315001 -1.503 -1.109 1
20.334 -1.546 -1.1440001 1
0 0 0 0
0 0 0 3
20.714001 -1.466 -1.096 3
20.715 -1.429 -1.073 3
20.691999 -1.391 -1.048 3
20.655001 -1.352 -1.022 3
20.677999 -1.317 -0.99900001 5
21.006001 -1.3 -0.991 5
21.219999 -1.276 -0.97600001 4
0 0 0 15
37.384998 -2.118 -1.632 29
37.103001 -2.0369999 -1.575 19
0 0 0 6
25.393 -1.306 -1.017 158
25.389 -1.261 -0.986 160
25.336 -1.214 -0.95300001 166
25.334 -1.17 -0.92199999 176
25.396999 -1.1289999 -0.89300001 152
25.559 -1.092 -0.86799997 1
0 0 0 0
0 0 0 51
0 0 0 0
0 0 0 14
36.550999 -1.247 -1.012 12
36.577 -1.186 -0.96700001 10
36.441002 -1.119 -0.917 29
0 0 0 1
0 0 0 41
36.381001 -0.93099999 -0.77399999 5
0 0 0 37
42.613998 -0.94599998 -0.796 35
42.691002 -0.87699997 -0.74199998 37
43.007999 -0.81099999 -0.69099998 30
43.549 -0.74800003 -0.64200002 39
43.627998 -0.67699999 -0.58600003 49
43.611 -0.60299999 -0.52700001 30
43.577 -0.53100002 -0.46900001 3
0 0 0 134
57.736 -0.51200002 -0.46599999 128
57.922001 -0.41800001 -0.389 58
58.061001 -0.32499999 -0.31200001 29
58.832001 -0.23199999 -0.236 9
0 0 0 115
65.789001 -0.044 -0.082999997 113
65.791 0.061999999 0.0070000002 110
65.876999 0.169 0.097999997 52
66.545998 0.278 0.191 30
66.473 0.38499999 0.28400001 39
0 0 0 25
0 0 0 25
0 0 0 0
0 0 0 8
68.829002 0.94700003 0.77600002 57
70.267998 1.0779999 0.89200002 56
71.732002 1.2130001 1.013 46
0 0 0 0
0 0 0 29
82.862 1.7869999 1.523 12
85.939003 1.987 1.7029999 22
85.639 2.112 1.821 31
84.347 2.21 1.916 17
82.021004 2.2750001 1.982 26
82.25 2.4070001 2.1070001 27
0 0 0 0
0 0 0 0
0 0 0 25
0 0 0 0
0 0 0 0
0 0 0 0
0 0 0 0
0 0 0 0
0 0 0 27
119.253 5.2649999 4.803 61
119.136 5.4330001 4.9759998 75
0 0 0 12
0 0 0 0
0 0 0 0
0 0 0 58
0 0 0 12
0 0 0 54
118.819 6.6059999 6.2080002 53
0 0 0 37
0 0 0 49
119.015 7.1129999 6.7540002 44
119.012 7.277 6.9349999 28
0 0 0 0
0 0 0 0
0 0 0 0
0 0 0 45
88.667 6.0240002 5.8410001 40
88.633003 6.1399999 5.974 23
0 0 0 0
0 0 0 0
0 0 0 41
116.546 8.6870003 8.5649996 48
116.579 8.8409996 8.7460003 32
116.478 8.9840002 8.9169998 39
116.356 9.1269999 9.0869999 41
116.247 9.2659998 9.257 24
0 0 0 0
0 0 0 0
0 0 0 0
0 0 0 0
0 0 0 0
0 0 0 25
116.633 10.312 10.538 27
116.64 10.454 10.718 37
116.436 10.576 10.879 24
116.04 10.679 11.02 43
116.028 10.814 11.194 67
115.975 10.946 11.367 88
115.95 11.08 11.543 97
115.968 11.216 11.722 81
115.943 11.347 11.895 87
115.916 11.477 12.07 80
115.927 11.61 12.249 87
115.905 11.739 12.424 67
115.938 11.873 12.605 56
115.938 12.002 12.783 31
116.036 12.14 12.971 28
0 0 0 0
0 0 0 0
0 0 0 0
0 0 0 23
0 0 0 0
0 0 0 35
116.235 13.032 14.227 31
0 0 0 0
0 0 0 0
0 0 0 0
0 0 0 0
0 0 0 28
116.266 13.744 15.279 24
115.943 13.82 15.411 44
115.915 13.93 15.581 54
115.822 14.031 15.743 57
115.816 14.141 15.915 76
115.787 14.248 16.084 75
115.799 14.362 16.259001 71
115.773 14.467 16.427999 69
115.752 14.571 16.597 62
115.791 14.682 16.774 45
115.724 14.779 16.936001 34
0 0 0 0
0 0 0 29
115.864 15.106 17.465 23
115.998 15.224 17.655001 26
115.909 15.313 17.811001 33
115.839 15.403 17.969 29
115.958 15.516 18.156 33
115.881 15.603 18.312 28
115.853 15.695 18.472 29
115.835 15.784 18.636 34
115.874 15.886 18.809 32
115.817 15.971 18.966 35
115.85 16.068001 19.136999 31
115.841 16.157 19.297001 27
115.814 16.243 19.457001 31
115.701 16.316 19.601999 47
115.734 16.408001 19.771 53
115.687 16.488001 19.924999 64
115.638 16.566 20.079 68
115.652 16.652 20.239 74
115.633 16.73 20.396999 79
115.66 16.816 20.558001 61
115.676 16.899 20.721001 52
115.588 16.966999 20.864 45
115.782 17.075001 21.054001 46
115.783 17.153 21.212 41
115.901 17.247999 21.392 30
115.772 17.304001 21.524 29
115.75 17.375999 21.673 27
115.729 17.447001 21.827 23
115.828 17.535 21.997 23
115.687 17.584999 22.125 30
115.787 17.671 22.297001 32
115.669 17.723 22.426001 27
115.72 17.799999 22.584999 27
115.77 17.875 22.745001 25
115.717 17.934 22.885 25
115.867 18.023001 23.065001 26
115.771 18.072001 23.194 24
115.763 18.135 23.337 30
115.736 18.193001 23.479 31
115.74 18.256001 23.622999 32
115.585 18.288 23.736 37
115.576 18.344999 23.879 41
115.565 18.403 24.017 58
115.619 18.468 24.171 64
115.537 18.511999 24.292999 63
115.563 18.570999 24.440001 66
115.573 18.627001 24.582001 62
115.544 18.674999 24.715 56
115.554 18.728001 24.856001 36
115.543 18.778 24.988001 26
0 0 0 0
0 0 0 0
0 0 0 0
0 0 0 0
0 0 0 0
0 0 0 0
0 0 0 0
0 0 0 0
0 0 0 0
0 0 0 0
0 0 0 0
0 0 0 0
0 0 0 0
0 0 0 0
0 0 0 0
0 0 0 0
0 0 0 0
0 0 0 0
0 0 0 33
115.577 19.579 27.531 45
115.533 19.601 27.638 60
115.485 19.620001 27.743 70
115.494 19.648001 27.860001 60
115.521 19.68 27.976999 52
115.52 19.705 28.089001 48
115.511 19.726999 28.198999 46
115.529 19.753 28.313999 51
115.546 19.777 28.427 49
115.59 19.806999 28.542999 47
115.534 19.816999 28.636999 50
115.558 19.841 28.746 48
115.525 19.853001 28.841999 43
115.56 19.874001 28.952999 47
115.555 19.889 29.054001 47
115.55 19.903999 29.156 43
115.599 19.926001 29.268999 44
115.509 19.924 29.341999 46
115.546 19.941999 29.450001 48
115.514 19.947001 29.538 41
115.546 19.962 29.642 46
115.533 19.966999 29.731001 42
115.554 19.979 29.830999 44
115.523 19.979 29.914 49
115.509 19.983999 29.997999 48
115.563 19.996 30.104 40
115.586 20.006001 30.197001 50
115.57 20.007999 30.277 44
115.583 20.011999 30.365999 46
115.565 20.009001 30.445999 49
115.569 20.009001 30.530001 44
115.617 20.018 30.622 44
115.592 20.011 30.695999 44
115.62 20.011999 30.783001 44
