# .PCD v0.7 - Point Cloud Data file format
VERSION 0.7
FIELDS x y z intensity
SIZE 4 4 4 4
TYPE F F F F
COUNT 1 1 1 1
WIDTH 1782
HEIGHT 1
VIEWPOINT 0 0 0 1 0 0 0
POINTS 1782
DATA ascii
38.451 2.2639999 -1.137 36
38.393002 2.1830001 -1.1109999 5
38.310001 2.1010001 -1.084 9
38.261002 2.0220001 -1.058 5
38.234001 1.943 -1.033 12
38.215 1.865 -1.0089999 6
38.073002 1.781 -0.98199999 7
38 1.701 -0.95700002 12
37.952999 1.622 -0.93300003 46
37.918999 1.544 -0.90899998 51
37.897999 1.466 -0.88599998 47
37.858002 1.388 -0.86400002 61
37.847 1.3099999 -0.84100002 84
37.841 1.232 -0.81900001 86
37.882 1.156 -0.79900002 55
37.929001 1.079 -0.778 61
37.988998 1.003 -0.759 62
38.102001 0.92699999 -0.74000001 34
38.202 0.852 -0.722 150
38.308998 0.77499998 -0.70300001 152
38.419998 0.69800001 -0.685 152
38.5 0.61900002 -0.66600001 152
38.641998 0.54100001 -0.648 25
38.839001 0.463 -0.63200003 9
0 0 0 0
0 0 0 0
0 0 0 0
0 0 0 0
0 0 0 0
0 0 0 0
0 0 0 0
0 0 0 75
133.39799 -0.90600002 -1.602 41
0 0 0 0
0 0 0 0
0 0 0 29
0 0 0 48
69.642998 -1.201 -0.68699998 15
0 0 0 0
0 0 0 69
66.319 -1.564 -0.574 72
66.313004 -1.7 -0.54900002 146
66.337997 -1.8430001 -0.52399999 140
0 0 0 0
0 0 0 90
58.285999 -1.987 -0.396 114
0 0 0 26
44.166 -1.6900001 -0.26899999 46
44.223 -1.786 -0.255 18
43.535 -1.849 -0.236 4
43.692001 -1.948 -0.223 12
43.542999 -2.0339999 -0.208 37
43.490002 -2.1229999 -0.19499999 9
43.470001 -2.214 -0.18099999 16
43.689999 -2.3180001 -0.169 23
42.855999 -2.3629999 -0.153 38
42.666 -2.4460001 -0.14 38
42.348999 -2.516 -0.12800001 47
42.436001 -2.6099999 -0.117 37
42.319 -2.691 -0.105 51
42.118 -2.767 -0.093999997 79
42.094002 -2.855 -0.083999999 87
42.082001 -2.9419999 -0.072999999 102
39.726002 -2.8610001 -0.059999999 10
37.682999 -2.793 -0.048 10
37.766998 -2.8789999 -0.039999999 19
37.474998 -2.9349999 -0.032000002 35
37.294998 -3.0020001 -0.023 54
37.276001 -3.079 -0.016000001 10
0 0 0 0
0 0 0 1
0 0 0 0
0 0 0 0
0 0 0 1
0 0 0 0
0 0 0 1
19.459999 -1.934 0.017000001 1
19.165001 -1.9450001 0.02 1
0 0 0 25
0 0 0 25
0 0 0 25
0 0 0 25
0 0 0 1
18.332001 -2.089 0.030999999 1
18.382 -2.132 0.033 104
18.384001 -2.1700001 0.035 5
0 0 0 25
0 0 0 25
0 0 0 25
0 0 0 0
0 0 0 0
0 0 0 0
0 0 0 0
0 0 0 0
0 0 0 0
0 0 0 0
0 0 0 0
0 0 0 0
0 0 0 0
0 0 0 0
0 0 0 0
0 0 0 0
0 0 0 0
0 0 0 0
0 0 0 0
0 0 0 0
0 0 0 0
0 0 0 0
0 0 0 0
0 0 0 0
0 0 0 0
0 0 0 0
0 0 0 0
0 0 0 0
0 0 0 0
0 0 0 0
0 0 0 1
0 0 0 0
0 0 0 0
0 0 0 0
0 0 0 0
0 0 0 0
0 0 0 1
18.400999 -3.559 0.0070000002 104
18.447001 -3.6029999 0.0040000002 5
0 0 0 0
0 0 0 0
0 0 0 0
0 0 0 0
0 0 0 0
0 0 0 17
34.644001 -7.2140002 -0.034000002 39
34.421001 -7.2319999 -0.041000001 49
34.402 -7.289 -0.046999998 59
34.375 -7.3460002 -0.055 106
34.389999 -7.4109998 -0.061999999 114
34.391998 -7.473 -0.07 113
34.391998 -7.5339999 -0.077 111
34.386002 -7.5939999 -0.085000001 110
34.41 -7.6599998 -0.093000002 113
0 0 0 13
18.493999 -4.1820002 -0.057999998 20
18.436001 -4.2010002 -0.063000001 26
18.371 -4.2179999 -0.067000002 24
18.33 -4.2399998 -0.071999997 34
18.305 -4.2649999 -0.075999998 36
18.261 -4.2849998 -0.081 39
18.238001 -4.3119998 -0.086000003 38
18.211 -4.336 -0.090999998 40
18.193001 -4.3629999 -0.094999999 48
18.184 -4.3909998 -0.1 52
18.162001 -4.415 -0.105 54
18.167 -4.447 -0.111 36
18.155001 -4.474 -0.116 40
18.127001 -4.4970002 -0.121 57
18.096001 -4.5180001 -0.126 43
0 0 0 66
16.548 -4.1849999 -0.126 25
16.452999 -4.1880002 -0.13 5
16.275999 -4.1690001 -0.134 5
16.323 -4.2069998 -0.14 58
16.233999 -4.2090001 -0.14399999 46
16.205999 -4.2270002 -0.149 55
16.134001 -4.2340002 -0.153 47
16.108999 -4.2519999 -0.15899999 46
16.108999 -4.277 -0.164 61
16.038 -4.283 -0.169 52
15.998 -4.2969999 -0.17399999 54
15.905 -4.296 -0.17900001 61
15.817 -4.296 -0.183 53
15.812 -4.3179998 -0.189 53
15.795 -4.336 -0.19400001 42
15.796 -4.3600001 -0.2 50
15.809 -4.3860002 -0.206 51
15.804 -4.4070001 -0.211 50
15.81 -4.4310002 -0.21699999 59
15.786 -4.448 -0.223 51
15.843 -4.4860001 -0.229 61
15.799 -4.4959998 -0.235 55
15.81 -4.5209999 -0.241 52
15.856 -4.5560002 -0.248 60
15.913 -4.5939999 -0.255 62
15.863 -4.6009998 -0.26100001 62
15.783 -4.599 -0.26499999 43
15.814 -4.6290002 -0.27200001 50
15.802 -4.6469998 -0.278 51
15.771 -4.658 -0.28400001 42
15.766 -4.677 -0.28999999 39
15.76 -4.6960001 -0.296 41
15.749 -4.7119999 -0.30199999 41
15.751 -4.7329998 -0.30899999 25
15.765 -4.757 -0.315 5
0 0 0 8
34.889999 -10.614 -0.727 17
34.869999 -10.65 -0.741 11
34.872002 -10.692 -0.755 8
0 0 0 0
0 0 0 0
0 0 0 1
13.986 -4.3540001 -0.32600001 3
13.954 -4.3600001 -0.331 6
13.909 -4.362 -0.336 8
13.866 -4.3639998 -0.34099999 19
13.854 -4.375 -0.347 12
13.794 -4.3709998 -0.35100001 12
13.731 -4.3660002 -0.35600001 14
13.685 -4.3660002 -0.36000001 14
13.648 -4.369 -0.36500001 13
13.594 -4.3660002 -0.37 9
13.528 -4.3579998 -0.37400001 11
13.477 -4.3559999 -0.37799999 14
13.479 -4.3699999 -0.38499999 9
13.457 -4.3759999 -0.38999999 9
13.42 -4.3779998 -0.39500001 9
13.381 -4.3779998 -0.39899999 14
13.313 -4.368 -0.40400001 16
13.313 -4.381 -0.40900001 10
13.275 -4.3800001 -0.414 12
13.249 -4.3839998 -0.419 12
13.202 -4.3800001 -0.42399999 10
13.186 -4.3870001 -0.42899999 12
13.151 -4.3870001 -0.433 11
13.125 -4.3889999 -0.43900001 9
13.074 -4.3829999 -0.44299999 14
13.054 -4.3870001 -0.44800001 21
13.045 -4.395 -0.454 41
13.065 -4.4120002 -0.46000001 26
13.04 -4.414 -0.46599999 43
13.041 -4.4250002 -0.47099999 27
13.052 -4.4380002 -0.47799999 28
13.039 -4.4439998 -0.48300001 43
13.053 -4.4580002 -0.48899999 28
13.041 -4.4629998 -0.495 43
13.039 -4.4720001 -0.50099999 43
13.054 -4.4860001 -0.50700003 26
13.053 -4.4949999 -0.51300001 25
13.055 -4.5040002 -0.51899999 27
13.052 -4.5110002 -0.52499998 30
13.049 -4.5190001 -0.52999997 30
13.055 -4.5289998 -0.537 30
13.04 -4.5320001 -0.542 43
13.055 -4.5450001 -0.54799998 26
13.049 -4.5500002 -0.55400002 25
13.053 -4.559 -0.56 26
13.061 -4.5689998 -0.56599998 27
13.053 -4.573 -0.57200003 25
13.053 -4.5799999 -0.57700002 24
13.046 -4.5840001 -0.583 41
0 0 0 1
7.6560001 -2.697 -0.34900001 3
7.618 -2.688 -0.34999999 7
7.5970001 -2.684 -0.35299999 22
7.598 -2.687 -0.35600001 44
7.5900002 -2.688 -0.359 72
7.6069999 -2.697 -0.36300001 110
7.6220002 -2.7049999 -0.36700001 150
7.599 -2.7 -0.37 153
7.6090002 -2.7060001 -0.373 158
7.5949998 -2.704 -0.37599999 158
7.5999999 -2.7079999 -0.38 158
7.5929999 -2.7079999 -0.38299999 158
7.5749998 -2.704 -0.38499999 158
7.6079998 -2.7179999 -0.38999999 158
7.5650001 -2.7049999 -0.391 158
7.5500002 -2.701 -0.39399999 158
7.5760002 -2.7130001 -0.398 158
7.5450001 -2.7030001 -0.40000001 158
7.5780001 -2.717 -0.405 158
7.5739999 -2.717 -0.40799999 158
7.5739999 -2.7179999 -0.41100001 158
7.5679998 -2.717 -0.414 158
7.5450001 -2.71 -0.41600001 158
7.5560002 -2.7160001 -0.419 158
7.5349998 -2.7090001 -0.421 158
7.5760002 -2.7249999 -0.42699999 158
7.5580001 -2.7190001 -0.42899999 158
7.5770001 -2.7260001 -0.433 158
7.5689998 -2.724 -0.43599999 158
7.5409999 -2.714 -0.43700001 158
7.5650001 -2.723 -0.442 158
7.5419998 -2.7149999 -0.44299999 158
7.5500002 -2.7179999 -0.447 158
7.5739999 -2.727 -0.45100001 158
7.5770001 -2.727 -0.454 158
7.5760002 -2.727 -0.45699999 159
7.552 -2.7179999 -0.45899999 160
7.552 -2.7179999 -0.46200001 162
7.5640001 -2.721 -0.465 163
7.566 -2.721 -0.46900001 164
7.5780001 -2.7249999 -0.472 165
7.5510001 -2.714 -0.47400001 165
7.5549998 -2.7149999 -0.477 165
7.5650001 -2.717 -0.47999999 164
7.5289998 -2.7030001 -0.48100001 163
7.5619998 -2.7130001 -0.486 163
7.5539999 -2.7090001 -0.48800001 163
7.5549998 -2.7079999 -0.491 161
7.5570002 -2.707 -0.49399999 160
7.526 -2.694 -0.495 160
7.5479999 -2.7 -0.498 159
7.527 -2.6900001 -0.5 158
7.5419998 -2.6930001 -0.50400001 158
7.5710001 -2.701 -0.50800002 158
7.5190001 -2.6800001 -0.50700003 158
7.5549998 -2.691 -0.51200002 158
7.5609999 -2.691 -0.51499999 158
7.566 -2.6889999 -0.51800001 158
7.552 -2.6819999 -0.51999998 158
7.5599999 -2.6819999 -0.523 158
7.5770001 -2.6849999 -0.52700001 153
7.5640001 -2.677 -0.528 152
7.5679998 -2.675 -0.53100002 151
7.5669999 -2.671 -0.53299999 83
7.5840001 -2.674 -0.537 32
7.5770001 -2.668 -0.53899997 19
7.5879998 -2.668 -0.542 9
7.6170001 -2.674 -0.546 9
7.6430001 -2.6800001 -0.551 10
7.6469998 -2.677 -0.55299997 9
7.6620002 -2.678 -0.55699998 8
7.6690001 -2.6760001 -0.56 8
7.7010002 -2.6830001 -0.56400001 4
7.7049999 -2.6800001 -0.56699997 1
0 0 0 3
11.713 -4.0599999 -0.86799997 3
11.621 -4.0209999 -0.86500001 3
11.524 -3.98 -0.861 3
11.433 -3.941 -0.85699999 3
11.348 -3.904 -0.85399997 3
11.293 -3.8770001 -0.85299999 2
11.208 -3.8399999 -0.84899998 2
11.151 -3.813 -0.84799999 2
11.087 -3.783 -0.84600002 2
11.015 -3.75 -0.84299999 2
10.978 -3.7290001 -0.84299999 2
10.903 -3.6949999 -0.83899999 2
10.849 -3.6689999 -0.838 2
10.795 -3.642 -0.83600003 2
10.76 -3.6210001 -0.83600003 2
10.691 -3.589 -0.833 2
10.658 -3.569 -0.833 3
10.588 -3.5369999 -0.82999998 3
10.554 -3.516 -0.829 3
10.5 -3.4890001 -0.82800001 3
10.479 -3.473 -0.82800001 3
10.418 -3.4430001 -0.82499999 3
10.366 -3.4170001 -0.82300001 2
10.314 -3.3900001 -0.82099998 3
10.257 -3.362 -0.81900001 3
10.208 -3.336 -0.81699997 3
10.199 -3.323 -0.81800002 3
10.176 -3.306 -0.81800002 4
10.14 -3.2839999 -0.81599998 4
10.104 -3.2620001 -0.815 5
10.07 -3.2409999 -0.81400001 4
10.027 -3.217 -0.81199998 4
10.022 -3.2049999 -0.81300002 2
9.9759998 -3.1800001 -0.81099999 2
9.9359999 -3.1559999 -0.80900002 3
9.9029999 -3.135 -0.80800003 3
9.8660002 -3.1129999 -0.80599999 3
9.8540001 -3.098 -0.80699998 3
9.8339996 -3.0810001 -0.80599999 3
9.8030005 -3.0599999 -0.80500001 3
9.7810001 -3.043 -0.80400002 3
9.7229996 -3.013 -0.801 3
9.717 -3.0009999 -0.801 3
9.71 -2.987 -0.801 3
9.6619997 -2.961 -0.79900002 3
9.6440001 -2.944 -0.79799998 3
9.6450005 -2.9330001 -0.79900002 3
9.6020002 -2.908 -0.796 3
9.6070004 -2.898 -0.79699999 2
9.5629997 -2.872 -0.79400003 3
9.5600004 -2.8599999 -0.79500002 3
9.5389996 -2.8410001 -0.79299998 3
9.5270004 -2.826 -0.79299998 3
9.4960003 -2.8039999 -0.79100001 4
9.5080004 -2.796 -0.792 4
9.5050001 -2.7820001 -0.79299998 3
9.4910002 -2.766 -0.792 4
9.474 -2.7479999 -0.79000002 3
9.4709997 -2.7349999 -0.79100001 3
9.4490004 -2.7160001 -0.78899997 4
9.4639997 -2.7079999 -0.79000002 3
9.4530001 -2.691 -0.79000002 4
9.4259996 -2.671 -0.787 3
9.4289999 -2.658 -0.78799999 3
9.4180002 -2.642 -0.787 3
9.4239998 -2.631 -0.787 3
9.4219999 -2.6170001 -0.787 3
9.4110003 -2.5999999 -0.78600001 4
9.4180002 -2.589 -0.78600001 3
9.4020004 -2.5710001 -0.78399998 4
9.3979998 -2.556 -0.78299999 4
9.3850002 -2.539 -0.78200001 6
9.3789997 -2.523 -0.78100002 6
9.427 -2.5220001 -0.78399998 5
9.4359999 -2.51 -0.78500003 5
9.4390001 -2.497 -0.78399998 7
9.4580002 -2.4879999 -0.78500003 7
9.474 -2.477 -0.78600001 6
9.474 -2.4630001 -0.78500003 7
9.4849997 -2.451 -0.78500003 8
9.5100002 -2.4430001 -0.78600001 9
9.54 -2.4360001 -0.787 7
9.5579996 -2.425 -0.78799999 10
9.6090002 -2.4230001 -0.79100001 8
9.6429996 -2.4170001 -0.792 8
9.6719999 -2.408 -0.79400003 8
9.698 -2.3989999 -0.79400003 8
9.7209997 -2.3889999 -0.79500002 7
9.7650003 -2.3840001 -0.79699999 6
9.7819996 -2.3729999 -0.79699999 4
9.8059998 -2.3629999 -0.79799998 6
9.8330002 -2.3529999 -0.79799998 6
9.8789997 -2.348 -0.80000001 8
9.927 -2.3429999 -0.80199999 7
9.9779997 -2.3380001 -0.80400002 6
10.013 -2.3299999 -0.80599999 6
10.06 -2.3239999 -0.80699998 5
10.064 -2.3080001 -0.80500001 8
10.116 -2.303 -0.80800003 9
10.173 -2.2980001 -0.81 8
10.208 -2.289 -0.81 6
10.244 -2.28 -0.81099999 7
10.289 -2.2720001 -0.81199998 6
10.299 -2.256 -0.81 7
10.372 -2.2550001 -0.81300002 8
10.404 -2.243 -0.81300002 5
10.467 -2.2390001 -0.815 5
10.527 -2.233 -0.81699997 4
10.554 -2.22 -0.81599998 5
10.599 -2.211 -0.81699997 4
10.66 -2.2049999 -0.81900001 4
10.728 -2.2 -0.82099998 4
10.773 -2.191 -0.82099998 4
10.825 -2.1819999 -0.82200003 4
10.891 -2.175 -0.82300001 4
11.005 -2.1789999 -0.82800001 5
11.048 -2.1670001 -0.82800001 4
11.141 -2.165 -0.83099997 4
11.188 -2.154 -0.82999998 3
11.253 -2.1459999 -0.83099997 4
11.325 -2.1389999 -0.833 3
11.427 -2.138 -0.83600003 3
11.499 -2.1300001 -0.83700001 3
11.556 -2.119 -0.83700001 3
11.671 -2.119 -0.84100002 3
11.776 -2.1170001 -0.84399998 3
11.901 -2.1170001 -0.84799999 3
11.98 -2.109 -0.84899998 3
12.102 -2.108 -0.852 3
12.23 -2.1070001 -0.85600001 3
12.31 -2.098 -0.85699999 3
12.399 -2.0899999 -0.85799998 3
12.492 -2.0829999 -0.85799998 3
12.615 -2.079 -0.861 4
12.842 -2.092 -0.87099999 5
12.913 -2.0799999 -0.87 4
13.064 -2.079 -0.87400001 6
13.127 -2.0639999 -0.87199998 3
13.283 -2.0639999 -0.87599999 3
13.475 -2.0680001 -0.88200003 3
13.641 -2.0680001 -0.88599998 3
13.863 -2.075 -0.89300001 4
13.957 -2.062 -0.89200002 3
14.117 -2.059 -0.89499998 4
14.32 -2.0610001 -0.90100002 4
14.532 -2.063 -0.90600002 4
14.695 -2.0580001 -0.90799999 4
14.898 -2.0569999 -0.91299999 4
15.109 -2.0580001 -0.917 4
15.305 -2.0550001 -0.921 4
15.536 -2.056 -0.926 4
15.69 -2.046 -0.926 4
15.895 -2.0420001 -0.92900002 5
16.129 -2.0409999 -0.93300003 5
16.363001 -2.039 -0.93699998 4
16.621 -2.0380001 -0.94099998 4
16.323 -1.97 -0.91399997 4
16.531 -1.9630001 -0.91600001 4
16.761999 -1.957 -0.91799998 3
17.032 -1.956 -0.92199999 3
0 0 0 5
18.281 -2.029 -0.96700001 5
18.459999 -2.013 -0.96399999 5
18.552 -1.987 -0.95700002 5
18.598 -1.955 -0.94700003 5
18.620001 -1.9220001 -0.935 4
18.677999 -1.891 -0.92500001 4
0 0 0 0
0 0 0 1
0 0 0 0
0 0 0 3
21.305 -1.949 -0.98100001 3
21.264999 -1.904 -0.96399999 3
21.26 -1.862 -0.94800001 3
21.26 -1.821 -0.93199998 3
21.518999 -1.802 -0.92799997 6
21.743 -1.779 -0.921 2
0 0 0 1
0 0 0 0
0 0 0 8
25.871 -1.913 -1.016 150
25.881001 -1.863 -0.99599999 154
25.868999 -1.812 -0.97500002 154
25.867001 -1.761 -0.95499998 153
25.971001 -1.717 -0.93699998 153
0 0 0 0
0 0 0 5
38.396 -2.3150001 -1.2920001 4
37.917999 -2.2130001 -1.244 7
37.804001 -2.1329999 -1.209 10
0 0 0 114
30.521999 -1.604 -0.92400002 179
30.52 -1.545 -0.898 255
30.518 -1.487 -0.87199998 187
30.547001 -1.429 -0.84600002 9
0 0 0 48
42.113998 -1.806 -1.091 50
42.283001 -1.733 -1.058 38
42.429001 -1.6569999 -1.024 37
42.681999 -1.584 -0.991 37
43.070999 -1.515 -0.95999998 38
43.444 -1.4450001 -0.92900002 37
43.523998 -1.365 -0.89099997 44
43.606998 -1.284 -0.852 30
43.609001 -1.201 -0.81099999 33
43.613998 -1.119 -0.76999998 15
0 0 0 32
66.320999 -1.45 -1.046 54
0 0 0 0
0 0 0 37
71.848 -1.16 -0.92400002 107
0 0 0 0
0 0 0 0
0 0 0 0
0 0 0 0
0 0 0 119
133.435 -0.65100002 -0.921 68
0 0 0 0
0 0 0 0
0 0 0 52
133.153 0.34200001 -0.37400001 45
133.09599 0.58899999 -0.235 76
133.09599 0.83600003 -0.096000001 100
133.047 1.079 0.041000001 108
132.99899 1.324 0.182 79
132.99899 1.569 0.32300001 63
132.93401 1.813 0.465 40
0 0 0 0
0 0 0 0
0 0 0 0
0 0 0 0
0 0 0 0
0 0 0 18
88.382004 2.329 0.98199999 19
87.932999 2.4760001 1.074 28
87.997002 2.635 1.173 18
88.063004 2.793 1.271 14
89.372002 2.994 1.39 15
0 0 0 0
0 0 0 16
91.611 3.5569999 1.737 13
0 0 0 0
0 0 0 0
0 0 0 0
0 0 0 30
88.200996 4.1929998 2.177 19
89.143997 4.3930001 2.3039999 33
0 0 0 0
0 0 0 12
92.735001 5.0469999 2.721 20
92.759003 5.2080002 2.8310001 15
92.507004 5.3509998 2.9330001 19
92.523003 5.507 3.0409999 15
0 0 0 0
0 0 0 18
88.474998 5.717 3.227 30
88.521004 5.868 3.335 19
88.269997 5.9990001 3.4319999 24
87.720001 6.105 3.5150001 23
87.551003 6.2379999 3.6140001 23
87.195 6.3569999 3.7060001 19
0 0 0 0
0 0 0 0
0 0 0 0
0 0 0 0
0 0 0 13
89.984001 7.4349999 4.4850001 15
90.101997 7.5890002 4.6020002 13
0 0 0 150
116.362 10.171 6.2329998 150
116.341 10.348 6.3730001 117
0 0 0 8
69.825996 6.4289999 3.9990001 15
0 0 0 13
44.923 4.277 2.6860001 17
45.166 4.369 2.756 25
45.157001 4.4369998 2.812 32
44.497002 4.4400001 2.8269999 33
44.437 4.5009999 2.8789999 43
44.537998 4.579 2.941 43
44.368 4.6279998 2.9860001 40
44.424999 4.6999998 3.0469999 40
44.460999 4.77 3.1059999 39
44.285999 4.8169999 3.1500001 40
44.348999 4.8889999 3.211 39
44.398998 4.96 3.2709999 39
44.219002 5.0040002 3.313 49
44.138 5.0580001 3.3629999 53
44.141998 5.1220002 3.4200001 47
44.025002 5.1719999 3.467 45
43.966999 5.2270002 3.5179999 32
43.959 5.2880001 3.573 18
0 0 0 0
0 0 0 0
0 0 0 17
33.877998 4.2649999 2.928 24
33.858002 4.309 2.9690001 25
34.050999 4.3800001 3.029 23
33.915001 4.4089999 3.0610001 23
33.827 4.4429998 3.096 28
33.797001 4.4829998 3.1359999 27
33.778 4.526 3.178 16
33.792 4.573 3.223 7
33.874001 4.6290002 3.2739999 1
0 0 0 29
47.671001 6.6360002 4.7290001 28
48.158001 6.7659998 4.8390002 29
47.970001 6.8010001 4.882 28
45.134998 6.454 4.6500001 14
45.250999 6.5289998 4.7199998 22
45.278999 6.5900002 4.7810001 33
45.217999 6.6370001 4.8309999 36
45.169998 6.684 4.8839998 36
45.224998 6.7470002 4.9460001 43
45.384998 6.8270001 5.0219998 34
45.333 6.8730001 5.073 24
45.251999 6.915 5.1209998 9
47.349998 7.2919998 5.4180002 36
47.469002 7.3660002 5.4920001 36
47.874001 7.4850001 5.5999999 29
48.311001 7.6090002 5.7119999 40
48.216 7.6500001 5.7620001 42
48.344002 7.7249999 5.8369999 42
48.469002 7.8000002 5.914 35
48.453999 7.8520002 5.973 24
48.439999 7.9029999 6.0320001 14
0 0 0 16
57.151001 9.4530001 7.263 29
0 0 0 20
46.903 7.8590002 6.0760002 26
46.674 7.8699999 6.105 27
46.577999 7.9029999 6.151 37
46.549 7.947 6.2049999 37
46.386002 7.967 6.2389998 46
46.249001 7.9910002 6.2779999 46
46.175999 8.0249996 6.3249998 41
43.974998 7.6869998 6.0780001 4
43.901001 7.7179999 6.1220002 14
43.890999 7.7600002 6.1739998 24
43.799 7.7880001 6.2150002 29
43.801998 7.829 6.2690001 35
43.773998 7.8660002 6.3169999 39
0 0 0 4
41.070999 7.4580002 6.0279999 13
41.202999 7.52 6.0949998 28
41.175999 7.553 6.1409998 37
41.049 7.5669999 6.1700001 35
40.955002 7.586 6.2049999 43
40.888 7.6100001 6.243 44
40.877998 7.6440001 6.29 40
40.84 7.6739998 6.3330002 34
40.807999 7.7020001 6.375 36
40.68 7.7119999 6.4029999 34
40.608002 7.7329998 6.4390001 36
40.536999 7.7529998 6.4749999 36
40.514999 7.7820001 6.5170002 36
40.803001 7.8699999 6.6110001 28
41.181 7.9770002 6.7189999 22
41.214001 8.0159998 6.7719998 25
41.188999 8.0430002 6.8150001 29
41.199001 8.0769997 6.862 25
41.314999 8.1289997 6.928 22
41.436001 8.184 6.9949999 21
41.449001 8.2189999 7.0440001 25
41.390999 8.2360001 7.079 24
41.346001 8.2559996 7.1170001 20
41.397999 8.2959995 7.1719999 16
41.389999 8.323 7.2150002 17
41.391998 8.3520002 7.2610002 12
0 0 0 5
44.77 9.0950003 7.9499998 14
44.759998 9.1210003 7.9959998 23
44.542 9.1049995 8.0039997 24
44.299999 9.085 8.0080004 23
44.214001 9.0950003 8.0389996 24
44.391998 9.158 8.1169996 25
44.217999 9.1479998 8.132 25
43.874001 9.1020002 8.1129999 25
43.588001 9.0679998 8.1059999 24
43.345001 9.0439997 8.1049995 32
43.231998 9.0439997 8.1269999 39
43.178001 9.0570002 8.1610003 35
43.165001 9.0760002 8.2019997 37
43.120998 9.0900002 8.2360001 39
43.085999 9.1049995 8.2709999 36
43.041 9.118 8.3039999 32
42.995998 9.1289997 8.3369999 32
42.932999 9.1370001 8.3669996 35
42.891998 9.1490002 8.401 35
42.872002 9.165 8.4370003 36
42.826 9.1739998 8.4680004 37
42.758999 9.1789999 8.4960003 38
42.709 9.1870003 8.526 34
42.653999 9.1929998 8.5530005 36
42.578999 9.1949997 8.5780001 35
42.449001 9.184 8.5900002 32
42.319 9.1719999 8.6020002 33
42.195 9.1610003 8.6149998 32
42.145 9.1669998 8.6420002 40
42.105 9.1730003 8.6719999 33
42.080002 9.1829996 8.7040005 31
42.055 9.191 8.7360001 25
42 9.1940002 8.7600002 21
41.955002 9.1969995 8.7860003 16
41.951 9.21 8.8199997 14
41.956001 9.2229996 8.8559999 15
41.948002 9.2340002 8.8889999 18
40.523998 8.9309998 8.6199999 5
40.841999 9.0120001 8.7209997 12
40.535 8.9540005 8.6879997 20
40.551998 8.9680004 8.7229996 21
40.658001 9.0010004 8.7770004 26
40.778999 9.0369997 8.835 29
40.882999 9.0679998 8.8889999 31
40.969002 9.0959997 8.9379997 31
41.137001 9.1409998 9.0059996 29
41.308998 9.1859999 9.0749998 31
41.390999 9.2119999 9.1230001 31
41.473999 9.2379999 9.1700001 31
41.442001 9.2370005 9.1920004 39
41.396 9.2320004 9.2110004 38
41.396999 9.2379999 9.2410002 38
41.404999 9.2440004 9.2709999 31
41.368999 9.2399998 9.2910004 31
41.382999 9.2480001 9.3219995 30
41.328999 9.2399998 9.3360004 31
41.318001 9.2399998 9.3610001 29
41.299999 9.2390003 9.3830004 29
41.223999 9.2250004 9.3909998 30
41.191002 9.2189999 9.4090004 31
41.104 9.2010002 9.415 38
41.070999 9.1940002 9.4320002 38
41.064999 9.1929998 9.4549999 38
41.035999 9.1879997 9.4720001 38
41.041 9.1890001 9.4960003 38
41.132 9.2080002 9.5410004 38
41.231998 9.2299995 9.5860004 39
40.931999 9.1599998 9.54 22
40.965 9.1660004 9.5679998 16
40.993999 9.1709995 9.5959997 14
40.911999 9.1490002 9.599 10
42.120998 9.4169998 9.9029999 23
42.306999 9.4549999 9.9680004 30
42.324001 9.4540005 9.9919996 30
42.299 9.4449997 10.006 31
42.242001 9.427 10.012 32
42.188 9.4090004 10.019 31
42.161999 9.3959999 10.032 32
42.056 9.3660002 10.025 32
42.040001 9.3559999 10.038 33
41.963001 9.3319998 10.037 38
41.915001 9.3140001 10.043 40
41.897999 9.302 10.056 37
41.852001 9.2840004 10.06 38
41.839001 9.2720003 10.072 36
41.865002 9.2690001 10.093 33
41.861 9.2589998 10.107 31
41.966999 9.2720003 10.147 28
42.154999 9.3030005 10.206 24
42.327999 9.3299999 10.262 24
42.476002 9.3520002 10.31 24
42.573002 9.3599997 10.347 23
42.667 9.3690004 10.382 20
42.796001 9.3850002 10.425 18
42.952 9.4049997 10.475 19
42.960999 9.3940001 10.487 17
43.057999 9.401 10.522 17
43.165001 9.4099998 10.558 17
43.287998 9.4230003 10.597 12
43.362999 9.4230003 10.625 10
43.287998 9.3909998 10.615 6
43.307999 9.3789997 10.628 3
0 0 0 0
0 0 0 0
0 0 0 0
0 0 0 0
0 0 0 0
0 0 0 0
0 0 0 0
0 0 0 0
0 0 0 0
0 0 0 0
0 0 0 0
0 0 0 0
0 0 0 25
115.877 24.377001 28.610001 24
115.976 24.337 28.638 25
115.871 24.252001 28.615999 26
0 0 0 0
0 0 0 0
0 0 0 25
115.995 24.028 28.636999 24
0 0 0 0
0 0 0 0
0 0 0 27
0 0 0 0
0 0 0 0
0 0 0 26
116.036 23.558001 28.584999 27
116.088 23.495001 28.584 29
116.18 23.440001 28.591999 25
116.128 23.354 28.562 28
116.103 23.273001 28.539 25
0 0 0 0
0 0 0 27
116.257 23.069 28.514999 25
116.067 22.955 28.444 28
116.245 22.908001 28.462 23
0 0 0 0
0 0 0 0
0 0 0 24
116.238 22.573999 28.35 30
116.231 22.49 28.316 31
116.122 22.379 28.259001 31
116.224 22.313999 28.247 23
116.247 22.23 28.216999 27
116.264 22.146999 28.184 31
116.276 22.059999 28.15 29
116.292 21.973 28.117001 30
116.272 21.878 28.072001 29
0 0 0 0
0 0 0 0
0 0 0 0
0 0 0 0
0 0 0 0
0 0 0 0
0 0 0 0
0 0 0 0
0 0 0 0
0 0 0 0
0 0 0 27
0 0 0 0
0 0 0 0
0 0 0 0
0 0 0 0
0 0 0 0
0 0 0 0
0 0 0 0
0 0 0 0
0 0 0 0
0 0 0 0
0 0 0 0
0 0 0 25
116.103 19.427999 26.67 67
116.11 19.319 26.599001 50
116.145 19.216999 26.532 41
116.136 19.104 26.455 49
116.168 18.999001 26.389 38
116.153 18.882999 26.306999 49
116.165 18.773001 26.228001 41
116.098 18.648001 26.132 51
116.182 18.546 26.069 49
116.19 18.431999 25.988001 41
116.157 18.311001 25.896 52
116.232 18.205999 25.827 43
116.226 18.087999 25.739 53
116.245 17.973 25.655001 47
116.259 17.856001 25.569 51
116.181 17.729 25.461 44
116.232 17.617001 25.381001 50
116.233 17.497 25.288 50
116.252 17.379999 25.197001 54
116.239 17.257999 25.094999 50
116.257 17.139 25.002001 45
116.278 17.02 24.908001 56
116.278 16.896999 24.809 52
116.252 16.771 24.702999 61
116.345 16.664 24.621 38
116.352 16.541 24.518999 38
116.43 16.427 24.431 30
116.596 16.325001 24.360001 28
116.531 16.191 24.239 25
116.515 16.063 24.127001 31
116.583 15.945 24.032 24
116.532 15.812 23.91 25
116.486 15.683 23.785999 24
116.535 15.562 23.683001 30
116.637 15.447 23.589001 25
116.561 15.309 23.458 28
116.587 15.183 23.346001 26
116.632 15.063 23.237 25
116.719 14.945 23.135 25
116.642 14.805 22.999001 26
116.495 14.657 22.849001 26
116.704 14.553 22.767 24
116.656 14.419 22.634001 28
116.71 14.295 22.518999 29
116.679 14.16 22.386 35
116.691 14.029 22.261 24
116.935 13.93 22.179001 32
116.77 13.778 22.021 31
116.637 13.629 21.864 41
116.566 13.489 21.719 37
116.51 13.35 21.575001 42
116.546 13.224 21.448 58
116.551 13.092 21.313 63
116.524 12.955 21.172001 69
116.541 12.827 21.038 62
116.527 12.695 20.896999 72
116.561 12.562 20.761999 69
116.559 12.428 20.620001 50
116.604 12.302 20.487 50
116.673 12.171 20.354 46
116.718 12.042 20.216999 41
116.833 11.922 20.091999 30
116.782 11.785 19.937 27
116.769 11.649 19.785999 29
116.803 11.521 19.643999 29
116.88 11.393 19.506001 29
116.701 11.24 19.325001 30
116.796 11.114 19.188 33
116.847 10.984 19.042 31
116.87 10.851 18.891001 26
116.852 10.717 18.733999 27
116.913 10.587 18.586 26
116.83 10.444 18.415001 27
116.944 10.318 18.274 23
116.824 10.176 18.096001 26
116.849 10.042 17.938999 28
116.815 9.9040003 17.771 30
116.773 9.7650003 17.601999 37
116.808 9.6359997 17.444 48
116.742 9.4919996 17.268 69
116.719 9.3559999 17.094 74
116.747 9.2229996 16.931 78
116.705 9.085 16.76 71
116.738 8.9549999 16.597 86
116.829 8.8280001 16.440001 69
116.881 8.6969995 16.275999 60
116.969 8.5690002 16.115999 31
116.973 8.434 15.939 36
0 0 0 0
0 0 0 0
0 0 0 0
0 0 0 22
0 0 0 0
0 0 0 0
0 0 0 0
0 0 0 26
117.1 7.2379999 14.346 26
116.971 7.1009998 14.152 38
117.084 6.9749999 13.981 24
0 0 0 0
0 0 0 32
116.861 6.572 13.402 47
116.885 6.4419999 13.217 61
116.895 6.3109999 13.03 78
116.908 6.1810002 12.842 67
116.913 6.0469999 12.647 83
116.916 5.9200001 12.459 76
116.905 5.79 12.266 86
116.932 5.6609998 12.076 87
117.034 5.5370002 11.892 73
117.134 5.415 11.71 30
0 0 0 0
0 0 0 0
0 0 0 0
0 0 0 47
119.615 4.8790002 10.957 41
0 0 0 0
0 0 0 0
0 0 0 0
0 0 0 0
0 0 0 36
119.538 4.1090002 9.7209997 45
119.673 3.987 9.5229998 40
119.766 3.8629999 9.3210001 34
119.705 3.7379999 9.1120005 28
119.751 3.6129999 8.901 36
0 0 0 0
0 0 0 33
119.685 3.2390001 8.2609997 31
119.705 3.115 8.0489998 34
119.723 2.99 7.8319998 34
119.923 2.8740001 7.6329999 35
119.661 2.7460001 7.4000001 41
119.537 2.618 7.1700001 53
119.546 2.4990001 6.9559999 77
119.566 2.3789999 6.7389998 104
119.541 2.2590001 6.5190001 86
119.6 2.1400001 6.3039999 78
119.572 2.0209999 6.0819998 93
119.638 1.904 5.8649998 105
119.875 1.791 5.658 72
120.393 1.679 5.4569998 35
0 0 0 0
0 0 0 0
0 0 0 0
0 0 0 13
84.459 0.76999998 3.036 30
0 0 0 0
0 0 0 20
85.759003 0.54100001 2.602 19
0 0 0 0
0 0 0 0
0 0 0 0
0 0 0 19
83.630997 0.142 1.74 41
83.404999 0.066 1.576 27
0 0 0 0
0 0 0 11
85.406998 -0.161 1.12 30
85.461998 -0.236 0.95499998 21
0 0 0 25
0 0 0 0
0 0 0 0
0 0 0 9
72.636002 -0.514 0.108 54
72.646004 -0.57499999 -0.030999999 28
0 0 0 55
133.487 -1.28 -0.58099997 36
0 0 0 0
0 0 0 0
0 0 0 0
0 0 0 49
0 0 0 0
0 0 0 50
71.816002 -1.095 -1.3 75
71.706001 -1.149 -1.439 113
71.739998 -1.205 -1.582 9
0 0 0 0
0 0 0 0
0 0 0 6
57.046001 -1.132 -1.712 6
57.162998 -1.177 -1.8279999 6
57.409 -1.224 -1.951 5
0 0 0 0
0 0 0 0
0 0 0 0
0 0 0 1
0 0 0 0
0 0 0 1
0 0 0 0
0 0 0 1
18.750999 -0.51899999 -0.97399998 1
0 0 0 1
0 0 0 2
0 0 0 4
14.509 -0.44 -0.87099999 4
13.848 -0.428 -0.85900003 3
13.231 -0.41800001 -0.847 3
12.66 -0.40799999 -0.83600003 3
12.097 -0.39700001 -0.824 3
11.573 -0.38699999 -0.81199998 2
11.068 -0.377 -0.79799998 2
10.622 -0.368 -0.78799999 3
10.225 -0.361 -0.77899998 3
9.8529997 -0.354 -0.77100003 4
9.5249996 -0.347 -0.764 3
9.177 -0.34 -0.755 4
8.8389997 -0.33199999 -0.745 3
8.5509996 -0.32600001 -0.73799998 3
8.2559996 -0.31999999 -0.72899997 3
7.927 -0.31099999 -0.71600002 4
7.6810002 -0.30599999 -0.70899999 4
7.4650002 -0.301 -0.704 3
7.243 -0.296 -0.69700003 3
7.006 -0.28999999 -0.68900001 3
6.8189998 -0.28600001 -0.68400002 3
6.6329999 -0.28099999 -0.67900002 4
6.4320002 -0.27599999 -0.671 4
6.2579999 -0.27200001 -0.66500002 4
6.1110001 -0.26800001 -0.662 4
5.9559999 -0.264 -0.65700001 4
5.7979999 -0.25999999 -0.65100002 4
5.6500001 -0.25600001 -0.64600003 4
5.5229998 -0.25299999 -0.64200002 5
5.408 -0.25 -0.63999999 6
5.323 -0.248 -0.63999999 3
5.1700001 -0.243 -0.63200003 3
5.0580001 -0.23999999 -0.62900001 4
4.9159999 -0.235 -0.62099999 5
4.8369999 -0.234 -0.62 8
4.7540002 -0.23199999 -0.61900002 11
4.6690001 -0.229 -0.61699998 11
4.5819998 -0.227 -0.61500001 10
4.4809999 -0.22400001 -0.61000001 11
4.4060001 -0.222 -0.60799998 11
4.335 -0.22 -0.60699999 11
4.2579999 -0.21699999 -0.60500002 10
4.1789999 -0.215 -0.602 11
4.1129999 -0.213 -0.60000002 11
4.0479999 -0.211 -0.59899998 11
3.9860001 -0.20900001 -0.597 11
3.931 -0.207 -0.59600002 10
3.885 -0.206 -0.597 7
3.8239999 -0.204 -0.59500003 4
3.796 -0.204 -0.59799999 2
3.7290001 -0.20100001 -0.59399998 3
3.697 -0.20100001 -0.597 3
3.628 -0.198 -0.59200001 3
3.589 -0.197 -0.59299999 3
3.5710001 -0.197 -0.59600002 2
3.4809999 -0.193 -0.588 2
3.4330001 -0.191 -0.58700001 2
3.3759999 -0.189 -0.583 2
3.3629999 -0.189 -0.58700001 1
3.4170001 -0.193 -0.60299999 2
3.283 -0.186 -0.58600003 2
3.323 -0.189 -0.59899998 2
3.2290001 -0.185 -0.588 1
3.2060001 -0.184 -0.58999997 1
3.108 -0.17900001 -0.57800001 1
3.0639999 -0.177 -0.57499999 1
3.1440001 -0.182 -0.59600002 2
3.0079999 -0.175 -0.57599998 2
2.9549999 -0.17200001 -0.57099998 2
3.029 -0.177 -0.59100002 2
2.848 -0.167 -0.56099999 1
2.823 -0.16599999 -0.56099999 1
2.7869999 -0.16500001 -0.55900002 2
2.767 -0.164 -0.56 2
2.7290001 -0.162 -0.55800003 1
2.7060001 -0.161 -0.55800003 1
2.6830001 -0.16 -0.55800003 1
2.648 -0.15800001 -0.55500001 1
2.6270001 -0.15700001 -0.55500001 1
2.6040001 -0.156 -0.55500001 1
2.5840001 -0.155 -0.55599999 1
2.5450001 -0.153 -0.55199999 1
2.529 -0.153 -0.55299997 1
2.5150001 -0.152 -0.55400002 1
2.4879999 -0.15099999 -0.55199999 1
2.4649999 -0.149 -0.551 1
2.45 -0.149 -0.55199999 1
2.427 -0.147 -0.551 1
2.4089999 -0.146 -0.551 1
2.3829999 -0.145 -0.54900002 1
2.3629999 -0.14399999 -0.54900002 1
2.345 -0.14300001 -0.54900002 1
2.3280001 -0.142 -0.54900002 1
2.3099999 -0.141 -0.54799998 1
2.2880001 -0.14 -0.54699999 1
2.273 -0.139 -0.54699999 1
2.256 -0.138 -0.54699999 1
2.2390001 -0.13699999 -0.546 1
2.2249999 -0.13600001 -0.54699999 1
2.2119999 -0.13500001 -0.54699999 1
2.1930001 -0.134 -0.546 1
2.177 -0.133 -0.54500002 1
2.158 -0.132 -0.54400003 1
2.1459999 -0.131 -0.54500002 1
2.132 -0.13 -0.54400003 1
2.119 -0.12899999 -0.54400003 1
2.1099999 -0.12899999 -0.54500002 1
2.0910001 -0.127 -0.54400003 1
2.0739999 -0.126 -0.542 1
2.0599999 -0.125 -0.542 1
2.0480001 -0.125 -0.542 1
2.0309999 -0.123 -0.54100001 1
2.023 -0.123 -0.54100001 1
2.0050001 -0.122 -0.54000002 1
1.997 -0.121 -0.54000002 1
1.985 -0.12 -0.54000002 1
1.971 -0.119 -0.53899997 1
1.9630001 -0.118 -0.54000002 1
1.957 -0.118 -0.54100001 1
1.938 -0.116 -0.53899997 1
1.92 -0.115 -0.53600001 1
1.9170001 -0.115 -0.53799999 1
1.9 -0.114 -0.53600001 1
1.892 -0.113 -0.537 1
1.886 -0.112 -0.537 1
1.8789999 -0.112 -0.53799999 1
1.8660001 -0.111 -0.537 1
1.857 -0.11 -0.537 1
1.847 -0.109 -0.53600001 1
1.8329999 -0.108 -0.53500003 1
1.824 -0.107 -0.53399998 1
1.822 -0.107 -0.53600001 1
1.8099999 -0.106 -0.53500003 1
1.803 -0.105 -0.53500003 1
1.799 -0.104 -0.537 1
1.78 -0.103 -0.53299999 1
1.77 -0.102 -0.53200001 1
1.761 -0.101 -0.53200001 1
1.755 -0.101 -0.53200001 1
1.749 -0.1 -0.53299999 1
1.747 -0.1 -0.53399998 1
1.738 -0.098999999 -0.53299999 1
1.726 -0.097999997 -0.53200001 1
1.719 -0.097000003 -0.53200001 1
1.715 -0.096000001 -0.53200001 1
1.7079999 -0.096000001 -0.53200001 1
1.704 -0.094999999 -0.53299999 1
1.698 -0.093999997 -0.53299999 1
1.691 -0.093999997 -0.53299999 1
1.67 -0.092 -0.528 1
1.6720001 -0.092 -0.52999997 1
1.663 -0.090999998 -0.52899998 1
1.66 -0.090000004 -0.52999997 1
1.6440001 -0.089000002 -0.52700001 1
1.637 -0.088 -0.52600002 1
1.636 -0.088 -0.528 1
1.635 -0.086999997 -0.52899998 1
1.626 -0.086000003 -0.528 1
1.6210001 -0.086000003 -0.52700001 1
1.6160001 -0.085000001 -0.528 1
1.603 -0.083999999 -0.52499998 1
1.597 -0.082999997 -0.52499998 1
1.596 -0.082999997 -0.52600002 1
1.59 -0.082000002 -0.52499998 1
1.589 -0.082000002 -0.52600002 1
1.592 -0.081 -0.52899998 1
1.582 -0.079999998 -0.52700001 1
1.5829999 -0.079999998 -0.528 1
1.576 -0.079000004 -0.52700001 1
1.5650001 -0.078000002 -0.52499998 1
1.557 -0.077 -0.52399999 1
1.5549999 -0.077 -0.52499998 1
1.554 -0.075999998 -0.52499998 1
1.546 -0.075000003 -0.52399999 1
1.541 -0.075000003 -0.523 1
1.536 -0.074000001 -0.523 1
1.536 -0.072999999 -0.52399999 1
1.531 -0.072999999 -0.523 1
1.529 -0.071999997 -0.52399999 1
1.528 -0.071999997 -0.52499998 1
1.527 -0.071000002 -0.52499998 1
1.527 -0.07 -0.52600002 1
1.5140001 -0.068999998 -0.523 1
1.505 -0.068000004 -0.52100003 1
1.5140001 -0.068000004 -0.52499998 1
1.505 -0.067000002 -0.523 1
1.5039999 -0.067000002 -0.523 1
1.505 -0.066 -0.52499998 1
1.4960001 -0.066 -0.52200001 1
1.49 -0.064999998 -0.52100003 1
1.487 -0.064000003 -0.52100003 1
1.493 -0.064000003 -0.52399999 1
1.487 -0.063000001 -0.52200001 1
1.49 -0.063000001 -0.52399999 1
1.487 -0.061999999 -0.52399999 1
1.488 -0.061999999 -0.52499998 1
1.487 -0.061000001 -0.52499998 1
1.488 -0.061000001 -0.52600002 1
1.469 -0.059 -0.51999998 1
1.471 -0.059 -0.52200001 1
1.4680001 -0.057999998 -0.52100003 1
1.464 -0.057 -0.51999998 1
1.466 -0.057 -0.52200001 1
1.469 -0.057 -0.523 1
1.46 -0.056000002 -0.52100003 1
1.454 -0.055 -0.51899999 1
1.457 -0.055 -0.52100003 1
1.454 -0.054000001 -0.51999998 1
1.46 -0.052999999 -0.52200001 1
1.454 -0.052999999 -0.52100003 1
1.457 -0.052000001 -0.52200001 1
1.4450001 -0.050999999 -0.51800001 1
1.451 -0.050999999 -0.52100003 1
1.454 -0.050999999 -0.52200001 1
1.4529999 -0.050000001 -0.52200001 1
1.4529999 -0.048999999 -0.523 1
1.4529999 -0.048999999 -0.523 1
1.462 -0.048999999 -0.52600002 1
1.45 -0.048 -0.52200001 1
1.45 -0.046999998 -0.523 1
1.462 -0.046999998 -0.52700001 1
1.462 -0.046 -0.52700001 1
1.459 -0.046 -0.52600002 1
1.4529999 -0.045000002 -0.52399999 1
1.456 -0.044 -0.52499998 1
1.45 -0.044 -0.523 1
1.456 -0.043000001 -0.52499998 1
1.459 -0.043000001 -0.52600002 1
1.4529999 -0.041999999 -0.52399999 1
1.462 -0.041999999 -0.52700001 1
1.4529999 -0.041000001 -0.52399999 1
1.4529999 -0.039999999 -0.52399999 1
1.456 -0.039999999 -0.52499998 1
1.459 -0.039000001 -0.52600002 1
1.4400001 -0.037999999 -0.51899999 1
1.448 -0.037999999 -0.52200001 1
1.459 -0.037 -0.52600002 1
1.448 -0.037 -0.52200001 1
1.448 -0.035999998 -0.52100003 1
1.451 -0.035999998 -0.52200001 1
1.451 -0.035 -0.52200001 1
1.448 -0.034000002 -0.52100003 1
1.465 -0.034000002 -0.52700001 1
1.448 -0.033 -0.51999998 1
1.449 -0.033 -0.51999998 1
1.446 -0.032000002 -0.51899999 1
1.452 -0.030999999 -0.51999998 1
1.455 -0.030999999 -0.52100003 1
1.46 -0.029999999 -0.523 1
1.461 -0.029999999 -0.52200001 1
1.466 -0.028999999 -0.52399999 1
1.461 -0.028999999 -0.52100003 1
1.461 -0.028000001 -0.52100003 1
1.461 -0.027000001 -0.51999998 1
1.466 -0.027000001 -0.52200001 1
1.472 -0.026000001 -0.523 1
1.466 -0.026000001 -0.52100003 1
1.474 -0.025 -0.523 1
1.488 -0.025 -0.52700001 1
1.477 -0.024 -0.52200001 1
1.487 -0.024 -0.52499998 1
1.4859999 -0.023 -0.52399999 1
1.4809999 -0.023 -0.52200001 1
1.4910001 -0.022 -0.52399999 1
1.4910001 -0.021 -0.52399999 1
1.495 -0.021 -0.52399999 1
1.493 -0.02 -0.523 1
1.495 -0.02 -0.52200001 1
1.501 -0.018999999 -0.52399999 1
1.506 -0.018999999 -0.52399999 1
1.506 -0.017999999 -0.52399999 1
1.5140001 -0.017999999 -0.52499998 1
1.513 -0.017000001 -0.52399999 1
1.516 -0.016000001 -0.52399999 1
1.5140001 -0.016000001 -0.52200001 1
1.5190001 -0.015 -0.523 1
1.529 -0.015 -0.52499998 1
1.53 -0.014 -0.52499998 1
1.53 -0.014 -0.52399999 1
1.535 -0.013 -0.52399999 1
1.54 -0.012 -0.52499998 1
1.541 -0.012 -0.52399999 1
1.545 -0.011 -0.52399999 1
1.5549999 -0.011 -0.52600002 1
1.5549999 -0.0099999998 -0.52499998 1
1.556 -0.0099999998 -0.52399999 1
1.563 -0.0089999996 -0.52499998 1
1.567 -0.0089999996 -0.52499998 1
1.5700001 -0.0080000004 -0.52499998 1
1.573 -0.0070000002 -0.52499998 1
1.573 -0.0070000002 -0.523 1
1.589 -0.0060000001 -0.52700001 1
1.599 -0.0060000001 -0.52899998 1
1.594 -0.0049999999 -0.52600002 1
1.6 -0.0049999999 -0.52600002 1
1.61 -0.0040000002 -0.528 1
1.604 -0.003 -0.52399999 1
1.6160001 -0.003 -0.52700001 1
1.625 -0.0020000001 -0.528 1
1.623 -0.0020000001 -0.52600002 1
1.625 -0.001 -0.52499998 1
1.6339999 -0.001 -0.52600002 1
1.6440001 0 -0.52700001 1
1.653 0 -0.52899998 1
1.6619999 0 -0.52999997 1
1.663 0.001 -0.528 1
1.674 0.001 -0.52999997 1
1.679 0.0020000001 -0.52899998 1
1.686 0.0020000001 -0.52999997 1
1.6900001 0.003 -0.52899998 1
1.692 0.003 -0.528 1
1.711 0.0040000002 -0.53200001 1
1.723 0.0049999999 -0.53299999 1
1.727 0.0049999999 -0.53299999 1
1.732 0.0060000001 -0.53200001 1
1.74 0.0060000001 -0.53200001 1
1.745 0.0070000002 -0.53200001 1
1.755 0.0070000002 -0.53299999 1
1.757 0.0080000004 -0.53100002 1
1.771 0.0089999996 -0.53299999 1
1.781 0.0089999996 -0.53399998 1
1.785 0.0099999998 -0.53299999 1
1.7920001 0.0099999998 -0.53299999 1
1.808 0.011 -0.53500003 1
1.8150001 0.011 -0.53500003 1
1.8200001 0.012 -0.53399998 1
1.836 0.013 -0.53600001 1
1.839 0.013 -0.53500003 1
1.847 0.014 -0.53399998 1
1.858 0.014 -0.53500003 1
1.867 0.015 -0.53500003 1
1.885 0.015 -0.53799999 1
1.8839999 0.016000001 -0.53500003 1
1.898 0.016000001 -0.53600001 1
1.914 0.017000001 -0.53799999 1
1.928 0.017999999 -0.53899997 1
1.936 0.017999999 -0.53799999 1
1.9400001 0.018999999 -0.537 1
1.959 0.018999999 -0.53899997 1
1.961 0.02 -0.537 1
1.982 0.021 -0.54000002 1
2.0009999 0.021 -0.542 1
2.007 0.022 -0.54000002 1
2.0150001 0.022 -0.54000002 1
2.03 0.023 -0.54000002 1
2.039 0.023 -0.54000002 1
2.0610001 0.024 -0.542 1
2.075 0.025 -0.54299998 1
2.0869999 0.025 -0.54299998 1
2.102 0.026000001 -0.54299998 1
2.1210001 0.026000001 -0.54500002 1
2.1240001 0.027000001 -0.542 1
2.1440001 0.027000001 -0.54400003 1
2.154 0.028000001 -0.54299998 1
2.174 0.028000001 -0.54500002 1
2.184 0.028999999 -0.54299998 1
2.1960001 0.029999999 -0.54299998 1
2.2160001 0.029999999 -0.54400003 1
2.2409999 0.030999999 -0.54699999 1
2.2479999 0.030999999 -0.54500002 1
2.273 0.032000002 -0.54699999 1
2.2850001 0.032000002 -0.546 1
2.3039999 0.033 -0.54699999 1
2.3239999 0.033 -0.54699999 1
2.336 0.034000002 -0.546 1
2.3670001 0.035 -0.54900002 1
2.381 0.035 -0.54799998 1
2.402 0.035999998 -0.54900002 1
2.4219999 0.035999998 -0.55000001 1
2.448 0.037 -0.551 1
2.4649999 0.037 -0.551 1
2.507 0.037999999 -0.55599999 1
2.5150001 0.037999999 -0.55299997 1
2.5969999 0.039999999 -0.56699997 1
2.5769999 0.039999999 -0.55800003 1
2.6570001 0.041000001 -0.56999999 1
2.6389999 0.041000001 -0.56199998 1
2.6489999 0.041000001 -0.55900002 1
2.757 0.043000001 -0.57700002 1
2.7479999 0.043000001 -0.56999999 1
2.721 0.043000001 -0.55900002 1
2.7360001 0.043000001 -0.55699998 2
2.7690001 0.044 -0.55900002 2
2.8 0.044 -0.56 2
2.835 0.045000002 -0.56199998 1
2.8970001 0.046 -0.56800002 1
2.994 0.046999998 -0.58200002 1
3.0899999 0.048999999 -0.59500003 2
3.029 0.048 -0.57700002 2
3.062 0.048 -0.57800001 2
3.2030001 0.050000001 -0.59799999 2
3.0880001 0.048 -0.57099998 2
3.1229999 0.048999999 -0.57200003 2
3.164 0.048999999 -0.57300001 2
3.1919999 0.048999999 -0.57200003 2
3.237 0.050000001 -0.574 2
3.2780001 0.050000001 -0.57499999 2
3.4130001 0.052000001 -0.59200001 2
3.4089999 0.052000001 -0.58499998 2
3.47 0.052999999 -0.58899999 2
3.4820001 0.052000001 -0.58399999 2
3.494 0.052000001 -0.579 2
3.5910001 0.052999999 -0.588 2
3.72 0.055 -0.602 2
3.6919999 0.054000001 -0.58999997 2
3.7539999 0.054000001 -0.59299999 2
3.8310001 0.055 -0.597 3
3.9260001 0.056000002 -0.60399997 2
3.9319999 0.055 -0.597 2
4.0009999 0.056000002 -0.60000002 2
4.0469999 0.056000002 -0.59899998 2
4.1199999 0.056000002 -0.60100001 2
4.151 0.056000002 -0.597 2
4.2389998 0.056000002 -0.602 2
4.3670001 0.057 -0.611 3
4.4299998 0.057 -0.611 4
4.513 0.057 -0.61299998 2
4.6240001 0.057999998 -0.61900002 2
4.7030001 0.057999998 -0.62 3
4.796 0.057999998 -0.62300003 3
4.875 0.057999998 -0.62300003 3
4.9920001 0.057999998 -0.62800002 4
5.0929999 0.057999998 -0.63099998 3
5.1999998 0.057999998 -0.63300002 5
5.3109999 0.057999998 -0.63599998 4
5.4320002 0.057999998 -0.639 5
5.5700002 0.057999998 -0.64399999 5
5.7199998 0.057999998 -0.64999998 5
5.8540001 0.057 -0.653 4
6.0320001 0.057999998 -0.66100001 4
6.1950002 0.057 -0.66600001 5
6.3569999 0.057 -0.67000002 5
6.5440001 0.056000002 -0.676 5
6.7540002 0.056000002 -0.68400002 4
6.9860001 0.056000002 -0.69300002 4
7.177 0.055 -0.69700003 4
7.388 0.054000001 -0.70300001 4
7.6620002 0.054000001 -0.713 4
7.948 0.052999999 -0.72299999 4
8.2469997 0.052000001 -0.73299998 5
8.5450001 0.050999999 -0.74199998 4
8.9969997 0.050000001 -0.76300001 6
9.3409996 0.048 -0.773 18
9.5719995 0.046 -0.77200001 21
9.8640003 0.043000001 -0.77499998 15
10.268 0.041000001 -0.78500003 7
10.696 0.037999999 -0.796 4
11.201 0.035999998 -0.81 3
11.686 0.032000002 -0.82099998 3
12.209 0.028000001 -0.833 2
12.788 0.024 -0.84500003 3
13.383 0.018999999 -0.85699999 3
14.129 0.014 -0.87599999 3
14.886 0.0080000004 -0.89200002 2
0 0 0 3
0 0 0 2
0 0 0 2
18.311001 -0.024 -0.94499999 1
0 0 0 1
0 0 0 1
25.233999 -0.07 -1.146 2
0 0 0 0
0 0 0 2
0 0 0 7
51.52 -0.25099999 -1.916 130
51.562 -0.28 -1.8099999 174
51.563999 -0.308 -1.705 230
48.504002 -0.31600001 -1.503 14
0 0 0 0
0 0 0 154
48.501999 -0.39899999 -1.202 158
48.473 -0.42699999 -1.101 150
48.518002 -0.456 -1.003 4
0 0 0 34
116.692 -1.235 -1.938 34
0 0 0 0
0 0 0 0
0 0 0 0
0 0 0 66
0 0 0 11
72.793999 -1.045 -0.31099999 42
72.724998 -1.091 -0.162 44
72.594002 -1.137 -0.013 64
71.856003 -1.173 0.133 107
71.735001 -1.219 0.28099999 107
0 0 0 29
66.989998 -1.229 0.53299999 47
67.114998 -1.278 0.671 39
67.740997 -1.3380001 0.81599998 19
67.785004 -1.385 0.94999999 19
66.420998 -1.405 1.067 91
66.324997 -1.45 1.2 69
0 0 0 0
0 0 0 0
0 0 0 0
0 0 0 10
56.228001 -1.4349999 1.58 16
55.786999 -1.465 1.679 25
55.486 -1.498 1.777 45
55.094002 -1.53 1.875 43
54.397999 -1.553 1.959 29
53.879002 -1.58 2.0469999 25
53.361 -1.605 2.131 36
53.097 -1.6390001 2.2260001 34
52.571999 -1.665 2.3069999 13
52.033001 -1.689 2.3859999 7
0 0 0 0
0 0 0 7
53.720001 -1.875 2.78 23
53.591999 -1.913 2.8740001 38
53.512001 -1.955 2.9749999 59
52.380001 -1.957 3.0120001 57
52.250999 -1.9960001 3.1070001 75
52.185001 -2.036 3.201 66
51.076 -2.036 3.2309999 51
50.900002 -2.072 3.316 79
50.848 -2.1140001 3.4100001 69
49.775002 -2.1110001 3.4319999 51
49.575001 -2.1459999 3.5120001 66
49.557999 -2.188 3.605 65
48.659 -2.191 3.631 49
48.210999 -2.2130001 3.6889999 69
48.048 -2.2479999 3.7650001 28
46.928001 -2.237 3.7650001 10
46.516998 -2.2590001 3.819 27
46.487999 -2.3 3.9030001 56
46.486 -2.342 3.9890001 65
46.5 -2.3840001 4.0760002 65
46.5 -2.427 4.1609998 64
46.506001 -2.47 4.2470002 63
46.515999 -2.513 4.3330002 64
46.516998 -2.556 4.4180002 67
46.52 -2.5999999 4.5029998 59
0 0 0 10
42.868 -2.4760001 4.3039999 11
42.505001 -2.4949999 4.3429999 24
42.490002 -2.5339999 4.4180002 55
42.483002 -2.5739999 4.493 61
42.118999 -2.592 4.5289998 37
41.502998 -2.5940001 4.5359998 54
41.495998 -2.6329999 4.6079998 49
41.516998 -2.674 4.6830001 56
41.028999 -2.6830001 4.6999998 35
40.182999 -2.6670001 4.6750002 46
40.181999 -2.7060001 4.7449999 56
40.181 -2.7449999 4.8130002 55
40.119999 -2.78 4.875 44
38.912998 -2.7349999 4.7950001 30
38.794998 -2.7650001 4.8460002 46
38.799 -2.803 4.9120002 45
38.804001 -2.842 4.9780002 44
38.353001 -2.846 4.9829998 31
37.480999 -2.819 4.9330001 49
37.479 -2.8559999 4.994 54
37.480999 -2.8929999 5.0570002 53
37.477001 -2.931 5.118 50
36.796001 -2.914 5.085 28
36.120998 -2.8970001 5.0510001 44
36.118999 -2.934 5.1090002 49
36.122002 -2.971 5.1680002 49
36.056 -3.0020001 5.217 38
34.963001 -2.947 5.1149998 11
34.619999 -2.9530001 5.1199999 8
34.325001 -2.9630001 5.131 25
34.305 -2.9960001 5.1810002 49
34.313 -3.0309999 5.2360001 55
34.312 -3.0669999 5.2880001 57
34.321999 -3.1029999 5.3429999 59
34.326 -3.1389999 5.3969998 54
34.323002 -3.174 5.4499998 56
34.334 -3.211 5.5040002 57
34.319 -3.244 5.553 57
34.338001 -3.2820001 5.6079998 60
34.333 -3.316 5.658 56
34.331001 -3.3510001 5.7090001 59
34.323002 -3.3870001 5.7589998 62
34.341999 -3.424 5.8119998 57
34.348999 -3.461 5.8639998 53
34.356998 -3.497 5.915 53
34.367001 -3.5339999 5.9660001 54
34.355 -3.5680001 6.013 55
34.360001 -3.6040001 6.0619998 55
34.368 -3.641 6.112 57
34.355999 -3.6760001 6.158 55
34.383999 -3.714 6.211 54
34.387001 -3.75 6.2589998 55
34.376999 -3.7850001 6.3060002 52
34.395 -3.823 6.3559999 54
34.379002 -3.8570001 6.4000001 53
34.397999 -3.895 6.4499998 47
34.397999 -3.931 6.4959998 54
34.381001 -3.964 6.539 50
34.321999 -3.994 6.572 44
34.244999 -4.0209999 6.6020002 33
34.046001 -4.0320001 6.6090002 25
33.874001 -4.0469999 6.619 25
33.696999 -4.0609999 6.6269999 24
33.507999 -4.073 6.6329999 23
33.32 -4.085 6.638 24
33.133999 -4.0949998 6.6420002 22
32.972 -4.1100001 6.6500001 23
32.785 -4.1209998 6.6529999 22
32.594002 -4.1300001 6.6539998 23
32.424 -4.1420002 6.6589999 23
32.258999 -4.1550002 6.664 27
32.098999 -4.1659999 6.6680002 24
31.927999 -4.178 6.671 24
31.771 -4.1890001 6.6750002 24
31.622 -4.2020001 6.6799998 27
31.479 -4.2150002 6.6849999 24
31.327999 -4.2270002 6.6890001 24
31.184 -4.2389998 6.6929998 27
31.066 -4.2540002 6.7020001 26
30.922001 -4.2659998 6.7049999 25
30.798 -4.2800002 6.7129998 26
30.643999 -4.289 6.7129998 25
30.518 -4.303 6.7179999 24
30.382 -4.3140001 6.7199998 24
30.275 -4.329 6.7280002 23
30.125999 -4.3369999 6.7270002 23
0 0 0 6
26.780001 -3.9089999 6.033 18
26.698 -3.9230001 6.0419998 20
26.666 -3.944 6.0609999 24
26.625 -3.9649999 6.0780001 26
26.593 -3.9860001 6.0970001 32
26.547001 -4.0050001 6.112 33
26.534 -4.0289998 6.1339998 35
26.517 -4.053 6.1550002 36
26.482 -4.073 6.1719999 38
26.468 -4.0949998 6.1929998 40
26.464001 -4.1199999 6.2160001 40
26.452999 -4.1440001 6.237 43
26.43 -4.1659999 6.2550001 43
26.421 -4.1900001 6.276 43
26.41 -4.2129998 6.2969999 46
26.403999 -4.2360001 6.3169999 46
26.409 -4.2620001 6.3400002 50
26.4 -4.2859998 6.3600001 52
26.392 -4.309 6.3800001 49
26.385 -4.3319998 6.3990002 49
26.391001 -4.3569999 6.421 49
26.388 -4.381 6.441 50
26.388 -4.4050002 6.4619999 42
26.381001 -4.428 6.4809999 45
26.406 -4.4559999 6.506 46
26.385 -4.4749999 6.5209999 45
26.391001 -4.5 6.5409999 43
26.41 -4.5279999 6.5650001 41
26.424999 -4.553 6.5869999 40
26.434999 -4.5780001 6.6079998 38
26.447001 -4.6040001 6.6290002 37
26.450001 -4.6269999 6.6469998 35
26.469999 -4.6539998 6.6690001 33
26.493999 -4.6799998 6.6929998 33
26.52 -4.7080002 6.7160001 31
26.531 -4.7319999 6.7350001 27
26.566999 -4.7610002 6.7610002 25
26.577999 -4.7849998 6.7789998 23
26.577999 -4.8070002 6.7940001 22
26.566999 -4.8270001 6.8060002 24
26.535999 -4.8429999 6.8130002 24
26.486 -4.8559999 6.8150001 25
26.416 -4.8639998 6.8109999 28
26.375999 -4.8779998 6.8140001 30
26.323999 -4.888 6.8140001 28
26.27 -4.8990002 6.8140001 24
26.237 -4.914 6.8179998 24
26.188999 -4.9250002 6.8179998 28
26.156 -4.9390001 6.8210001 29
26.107 -4.9499998 6.8200002 28
26.065001 -4.961 6.8210001 27
26.014999 -4.9720001 6.8189998 28
25.997999 -4.9879999 6.8239999 24
25.951 -4.9980001 6.822 28
25.913 -5.0100002 6.822 28
25.878 -5.0219998 6.823 29
25.832001 -5.0320001 6.8200002 29
25.813 -5.046 6.8249998 28
25.780001 -5.0570002 6.8249998 26
25.746 -5.0689998 6.8249998 29
25.725 -5.0830002 6.8270001 32
25.695 -5.0939999 6.8270001 30
25.660999 -5.105 6.8249998 27
25.65 -5.1199999 6.829 26
25.612 -5.1290002 6.8260002 30
25.603001 -5.1440001 6.8299999 27
25.587 -5.158 6.8330002 30
25.561001 -5.1690001 6.8319998 30
25.541 -5.1810002 6.8319998 26
25.516001 -5.1919999 6.8309999 29
25.511 -5.2069998 6.8340001 25
25.481001 -5.217 6.8309999 29
25.469 -5.23 6.8319998 26
25.462999 -5.243 6.835 29
25.443001 -5.2540002 6.8330002 30
25.445 -5.27 6.8369999 30
25.423 -5.2800002 6.8340001 25
25.41 -5.2919998 6.8330002 29
25.386 -5.3010001 6.829 30
25.388 -5.3150001 6.8319998 29
25.367001 -5.3249998 6.8280001 27
25.367001 -5.3379998 6.8299999 25
25.355 -5.349 6.8280001 29
25.361 -5.3629999 6.8309999 29
25.356001 -5.375 6.8299999 26
25.355 -5.388 6.8299999 29
25.361 -5.402 6.8319998 28
25.357 -5.414 6.8299999 24
25.357 -5.4260001 6.8299999 24
25.367001 -5.4400001 6.8309999 29
25.353001 -5.4489999 6.8260002 28
25.368999 -5.4640002 6.829 24
25.381001 -5.4780002 6.8309999 25
25.375999 -5.4879999 6.8270001 29
25.392 -5.5019999 6.829 29
25.389 -5.5120001 6.8260002 29
25.406 -5.526 6.8270001 29
25.427 -5.5409999 6.829 25
25.431 -5.552 6.8270001 30
