# .PCD v0.7 - Point Cloud Data file format
VERSION 0.7
FIELDS x y z intensity
SIZE 4 4 4 4
TYPE F F F F
COUNT 1 1 1 1
WIDTH 1811
HEIGHT 1
VIEWPOINT 0 0 0 1 0 0 0
POINTS 1811
DATA ascii
19.139 -0.33199999 0.48500001 1
0 0 0 0
0 0 0 42
33.606998 -0.62099999 1.063 89
33.608002 -0.634 1.133 114
33.612999 -0.64700001 1.2029999 116
33.626999 -0.66000003 1.274 116
33.630001 -0.67400002 1.344 116
33.633999 -0.68699998 1.415 117
33.631001 -0.70099998 1.485 117
33.646 -0.71499997 1.5549999 106
33.632 -0.72899997 1.623 116
33.658001 -0.74400002 1.6950001 121
33.659 -0.759 1.766 115
33.667 -0.77399999 1.835 78
33.657001 -0.78899997 1.904 95
33.676998 -0.80500001 1.974 100
33.667 -0.81999999 2.043 71
33.679001 -0.83600003 2.112 82
33.686001 -0.852 2.181 81
33.696999 -0.86900002 2.2509999 88
33.698002 -0.88499999 2.319 92
33.720001 -0.90200001 2.3889999 87
33.73 -0.91900003 2.4590001 64
33.743 -0.93699998 2.5280001 56
33.743999 -0.954 2.5969999 63
33.75 -0.97100002 2.664 61
33.758999 -0.98900002 2.7320001 65
33.771 -1.007 2.802 64
33.766998 -1.025 2.8699999 66
33.769001 -1.043 2.937 62
33.782001 -1.062 3.0050001 57
33.807999 -1.081 3.073 56
33.832001 -1.101 3.142 55
33.84 -1.119 3.2090001 34
33.849998 -1.1390001 3.277 12
0 0 0 0
0 0 0 5
0 0 0 2
26.089001 -0.93800002 2.7290001 9
26.075001 -0.95300001 2.7780001 17
26.025 -0.96600002 2.822 22
25.985001 -0.98000002 2.868 25
25.966 -0.995 2.915 28
25.958 -1.011 2.964 30
25.919001 -1.025 3.0079999 33
25.910999 -1.041 3.0569999 35
25.891001 -1.056 3.1029999 37
25.875 -1.071 3.1500001 38
25.860001 -1.087 3.197 40
25.837999 -1.103 3.243 43
25.822001 -1.119 3.289 44
25.816999 -1.135 3.3369999 44
25.816 -1.152 3.385 47
25.792 -1.168 3.4300001 47
25.792999 -1.1849999 3.4779999 47
25.792 -1.202 3.5250001 45
25.768 -1.2180001 3.569 43
25.766001 -1.2359999 3.6159999 43
25.759001 -1.253 3.6619999 48
25.767 -1.271 3.71 49
25.761 -1.288 3.7550001 50
25.761999 -1.306 3.8010001 50
25.750999 -1.323 3.846 52
25.726 -1.34 3.888 55
25.753 -1.359 3.9389999 53
25.73 -1.376 3.9809999 53
25.73 -1.395 4.027 57
25.733999 -1.413 4.072 57
25.722 -1.431 4.1149998 56
25.718 -1.449 4.1589999 57
25.726999 -1.4680001 4.2049999 54
25.743999 -1.487 4.2509999 54
25.756001 -1.506 4.2969999 51
25.761 -1.525 4.3410001 42
25.764 -1.545 4.3860002 42
25.764 -1.563 4.4289999 46
25.767 -1.582 4.4720001 46
25.780001 -1.602 4.5180001 46
25.781 -1.622 4.5609999 45
25.806 -1.642 4.6069999 43
25.804001 -1.661 4.6500001 42
25.823 -1.683 4.6960001 42
25.826 -1.702 4.7379999 43
25.851 -1.723 4.7839999 41
25.867001 -1.744 4.829 32
25.886 -1.765 4.8740001 36
25.896999 -1.785 4.9169998 33
25.919001 -1.807 4.961 32
25.947001 -1.8279999 5.0079999 28
25.969 -1.849 5.052 27
25.990999 -1.8710001 5.0970001 23
26.041 -1.895 5.1469998 21
26.086 -1.918 5.1960001 18
26.139999 -1.942 5.2449999 8
26.209 -1.9680001 5.2989998 1
0 0 0 26
32.046001 -2.4560001 6.5749998 22
31.865999 -2.467 6.5840001 26
31.674999 -2.477 6.592 25
31.490999 -2.487 6.5999999 28
31.282 -2.4949999 6.6020002 29
31.122999 -2.507 6.6139998 26
30.951 -2.517 6.6209998 27
30.749001 -2.5250001 6.6220002 30
30.58 -2.5350001 6.6290002 27
30.426001 -2.546 6.638 25
30.233999 -2.5539999 6.6389999 26
30.062 -2.563 6.6420002 28
29.910999 -2.5739999 6.6500001 27
29.747 -2.5829999 6.6539998 26
29.587 -2.5929999 6.6589999 27
29.434999 -2.6029999 6.665 27
29.288 -2.6129999 6.671 27
29.155001 -2.625 6.6789999 27
28.993 -2.6329999 6.6799998 30
28.854 -2.6440001 6.6859999 27
28.709999 -2.6530001 6.6890001 30
28.576 -2.664 6.6950002 30
28.457001 -2.675 6.7030001 32
28.299999 -2.6830001 6.7020001 30
28.174 -2.694 6.7069998 24
28.034 -2.7019999 6.7090001 24
27.93 -2.714 6.7179999 26
27.802999 -2.724 6.7220001 26
27.671 -2.733 6.723 26
27.555 -2.743 6.7270002 22
27.423 -2.7509999 6.7259998 26
27.318001 -2.7620001 6.7329998 23
27.190001 -2.7709999 6.7329998 23
27.084 -2.7809999 6.737 28
26.966999 -2.79 6.7389998 22
26.849001 -2.799 6.7399998 25
26.719999 -2.806 6.737 28
26.639999 -2.819 6.7459998 24
26.523001 -2.8269999 6.7449999 29
26.438999 -2.839 6.7519999 28
26.34 -2.848 6.7550001 27
26.235001 -2.858 6.7550001 22
26.132999 -2.8659999 6.7550001 27
26.037001 -2.8759999 6.7579999 29
25.948 -2.8859999 6.7610002 28
25.879 -2.898 6.77 24
25.792999 -2.908 6.7729998 24
25.702 -2.918 6.7740002 26
25.622999 -2.9289999 6.7779999 29
25.533001 -2.937 6.7789998 25
25.458 -2.948 6.783 25
25.365 -2.957 6.7820001 33
25.296 -2.967 6.7870002 28
25.218 -2.977 6.789 28
25.16 -2.9890001 6.796 27
25.087 -2.9990001 6.7969999 32
25.003 -3.007 6.796 30
24.924999 -3.017 6.7969999 31
24.855 -3.027 6.7989998 26
24.774 -3.0350001 6.7969999 29
24.702999 -3.0450001 6.7979999 32
24.639999 -3.0550001 6.8010001 32
24.577 -3.066 6.8039999 28
24.524 -3.0769999 6.8080001 33
24.450001 -3.085 6.8060002 32
24.417 -3.098 6.816 28
0 0 0 4
18.204 -2.336 5.1079998 13
18.157 -2.3429999 5.1079998 17
18.117001 -2.3499999 5.1100001 19
18.112 -2.362 5.1209998 23
18.077 -2.3710001 5.1240001 25
18.056 -2.3800001 5.1300001 25
18.046 -2.391 5.1389999 21
17.999001 -2.3970001 5.1370001 29
17.982 -2.4070001 5.1430001 22
17.966 -2.4170001 5.1500001 32
17.962999 -2.4289999 5.1599998 31
17.945999 -2.4389999 5.1659999 34
17.924 -2.448 5.1700001 34
17.924 -2.46 5.1799998 35
17.92 -2.471 5.1890001 36
17.921 -2.483 5.1989999 38
17.879999 -2.4890001 5.1960001 35
17.893 -2.503 5.2090001 39
17.889 -2.5139999 5.217 38
17.858999 -2.5209999 5.217 36
17.875999 -2.5350001 5.2309999 42
17.864 -2.5439999 5.2350001 43
17.860001 -2.5550001 5.2420001 41
17.851999 -2.5650001 5.2480001 40
17.841 -2.5739999 5.2519999 41
17.832001 -2.5840001 5.257 43
17.829 -2.5940001 5.263 43
17.826 -2.6040001 5.2690001 42
17.827999 -2.6159999 5.276 43
17.818001 -2.625 5.2800002 47
17.806999 -2.6340001 5.283 48
17.82 -2.6459999 5.2919998 50
17.809999 -2.655 5.2950001 48
17.804001 -2.665 5.2989998 45
17.799999 -2.674 5.303 45
17.801001 -2.684 5.3080001 46
17.792 -2.6930001 5.3099999 47
17.785999 -2.7019999 5.3130002 47
17.806999 -2.7149999 5.3239999 33
17.789 -2.7219999 5.322 47
17.788 -2.7309999 5.3260002 46
17.778999 -2.74 5.3260002 48
17.785999 -2.75 5.3309999 50
17.777 -2.7579999 5.3319998 49
17.791 -2.77 5.3390002 34
17.771999 -2.7750001 5.336 46
17.778999 -2.7850001 5.3400002 52
17.773001 -2.7939999 5.3410001 47
17.777 -2.803 5.3439999 46
17.768 -2.8099999 5.3429999 46
17.796 -2.823 5.3520002 48
17.778 -2.829 5.348 48
17.780001 -2.8369999 5.3499999 45
17.788 -2.846 5.3530002 45
17.782 -2.8540001 5.3509998 46
17.785 -2.862 5.3520002 42
17.787001 -2.8710001 5.3530002 43
17.794001 -2.8800001 5.355 43
17.795 -2.888 5.355 40
17.792999 -2.895 5.3530002 37
17.796 -2.9030001 5.3530002 39
17.792 -2.9100001 5.3509998 39
17.790001 -2.9159999 5.349 41
17.790001 -2.9230001 5.3470001 42
17.790001 -2.931 5.3449998 41
17.798 -2.9389999 5.3449998 44
17.802999 -2.947 5.3439999 44
17.812 -2.9549999 5.3449998 41
17.799999 -2.96 5.3379998 42
17.806 -2.967 5.3369999 39
17.82 -2.9749999 5.3369999 42
17.816999 -2.9809999 5.3330002 42
17.82 -2.987 5.3299999 41
17.818001 -2.994 5.3249998 41
17.815001 -2.9990001 5.3210001 39
17.825001 -3.006 5.3189998 38
17.815001 -3.01 5.3109999 38
17.834999 -3.0190001 5.3119998 39
17.816 -3.0209999 5.302 38
17.825001 -3.0280001 5.2989998 40
17.818001 -3.0320001 5.2909999 38
17.844999 -3.0420001 5.2930002 40
17.836 -3.0450001 5.2839999 40
17.836 -3.05 5.2779999 37
17.836 -3.0550001 5.2709999 35
17.836 -3.059 5.2639999 37
17.844 -3.0650001 5.2600002 36
17.85 -3.0699999 5.2540002 34
17.846001 -3.073 5.2459998 35
17.858999 -3.0799999 5.2420001 35
17.853001 -3.0829999 5.2319999 34
17.851999 -3.0869999 5.224 34
17.855 -3.0910001 5.2160001 33
17.860001 -3.095 5.2090001 33
17.879 -3.102 5.2059999 25
17.864 -3.102 5.1919999 32
17.879999 -3.108 5.1880002 33
17.875999 -3.1110001 5.177 32
17.868999 -3.112 5.165 32
17.872999 -3.1159999 5.1560001 32
17.879 -3.119 5.1479998 31
17.886999 -3.1229999 5.1399999 31
17.893999 -3.1270001 5.131 23
17.906 -3.131 5.1240001 30
17.907 -3.1329999 5.1129999 30
17.915001 -3.1359999 5.1040001 31
17.906 -3.1370001 5.0900002 32
17.914 -3.1400001 5.0809999 29
17.924999 -3.1440001 5.072 23
17.906 -3.141 5.0549998 29
17.905001 -3.1429999 5.0419998 29
17.92 -3.1459999 5.0339999 28
17.917 -3.1459999 5.02 29
17.924999 -3.1489999 5.0089998 29
17.93 -3.1500001 4.9980001 22
17.926001 -3.1500001 4.9829998 22
17.927 -3.151 4.9699998 28
17.931 -3.152 4.9569998 30
17.931999 -3.152 4.9429998 28
17.924999 -3.151 4.927 27
17.917 -3.1500001 4.9109998 27
17.926001 -3.151 4.8979998 28
17.916 -3.1489999 4.881 27
17.933001 -3.151 4.8709998 28
17.921 -3.148 4.8520002 27
17.916 -3.1459999 4.836 27
17.923 -3.1470001 4.822 27
17.913 -3.1440001 4.803 27
17.921 -3.1440001 4.789 28
17.914 -3.141 4.7709999 25
17.912001 -3.1400001 4.7540002 25
17.902 -3.1359999 4.7350001 25
17.906 -3.135 4.7199998 26
17.906 -3.1329999 4.7020001 27
17.910999 -3.132 4.6869998 27
17.912001 -3.1289999 4.6700001 27
17.889999 -3.1229999 4.6459999 27
17.870001 -3.1170001 4.6240001 28
17.875999 -3.115 4.6069999 27
17.896 -3.1159999 4.5939999 26
17.868 -3.108 4.5689998 26
17.861 -3.1040001 4.5489998 30
17.851 -3.099 4.5279999 27
17.851999 -3.096 4.5089998 29
17.851999 -3.092 4.4899998 32
17.858 -3.089 4.473 32
17.843 -3.0829999 4.4499998 30
17.847 -3.0799999 4.4310002 32
17.849001 -3.076 4.4120002 32
17.836 -3.069 4.3889999 31
17.837 -3.0650001 4.369 36
17.834999 -3.0599999 4.349 34
17.83 -3.0539999 4.3270001 34
17.815001 -3.0469999 4.303 34
17.816999 -3.0420001 4.283 35
17.819 -3.0380001 4.263 34
17.819 -3.0320001 4.2420001 36
17.816 -3.026 4.2199998 35
17.809 -3.0190001 4.198 37
17.812 -3.0139999 4.178 38
17.808001 -3.007 4.1550002 36
17.802999 -3 4.132 39
17.790001 -2.9920001 4.1069999 37
17.789 -2.9860001 4.085 37
17.782 -2.9779999 4.0619998 40
17.797001 -2.974 4.0430002 29
17.798 -2.967 4.0209999 29
17.773001 -2.9560001 3.993 42
17.774 -2.95 3.971 46
17.768 -2.941 3.9460001 42
17.774 -2.9349999 3.925 29
17.763 -2.925 3.9000001 43
17.764 -2.9170001 3.8770001 45
17.754999 -2.908 3.8510001 39
17.757 -2.901 3.8280001 49
17.735001 -2.8889999 3.8 41
17.733999 -2.881 3.776 39
17.739 -2.8729999 3.753 41
17.75 -2.8659999 3.7320001 27
17.743999 -2.8570001 3.7060001 37
17.757999 -2.8499999 3.6849999 29
17.746 -2.839 3.658 29
17.739 -2.829 3.632 49
17.724001 -2.8169999 3.605 51
17.723 -2.8069999 3.5799999 47
17.719 -2.7969999 3.5539999 45
17.724001 -2.7880001 3.53 48
17.729 -2.779 3.506 51
17.726999 -2.7679999 3.4809999 51
17.721001 -2.757 3.454 34
17.718 -2.747 3.428 55
17.721001 -2.737 3.4030001 55
17.715 -2.724 3.3770001 51
17.712999 -2.7130001 3.3510001 54
17.705999 -2.701 3.3239999 52
17.721001 -2.6919999 3.3010001 52
17.722 -2.681 3.2750001 52
17.728001 -2.671 3.25 58
17.73 -2.6600001 3.224 36
17.721001 -2.6470001 3.1960001 55
17.721001 -2.635 3.1700001 52
17.726 -2.6240001 3.145 51
17.732 -2.612 3.119 50
17.743 -2.602 3.095 33
17.75 -2.5899999 3.069 34
17.752001 -2.5780001 3.043 33
17.742001 -2.5639999 3.0139999 46
17.733 -2.55 2.9849999 43
17.756001 -2.54 2.9619999 48
17.761999 -2.527 2.9360001 48
17.77 -2.5150001 2.9100001 47
17.764999 -2.5009999 2.882 44
17.771999 -2.4879999 2.855 44
17.787001 -2.4760001 2.8299999 51
17.780001 -2.4619999 2.802 44
17.792 -2.4489999 2.776 44
17.794001 -2.4349999 2.7490001 42
17.819 -2.424 2.724 41
17.816999 -2.4089999 2.6960001 41
17.826 -2.3959999 2.6689999 40
17.853001 -2.385 2.6459999 27
17.862 -2.3710001 2.619 33
17.857 -2.355 2.5910001 31
17.889 -2.3440001 2.5669999 32
17.898001 -2.3299999 2.54 30
17.909 -2.316 2.5139999 29
17.959 -2.306 2.493 29
17.973 -2.2920001 2.4660001 23
18.014999 -2.2809999 2.4430001 22
18.044001 -2.2690001 2.418 19
18.09 -2.2579999 2.3959999 15
18.142 -2.2479999 2.3740001 5
0 0 0 15
34.396999 -4.198 4.3899999 16
34.431 -4.1690001 4.3379998 7
34.469002 -4.1409998 4.2880001 2
0 0 0 0
0 0 0 0
0 0 0 0
0 0 0 0
0 0 0 0
0 0 0 0
0 0 0 0
0 0 0 0
0 0 0 0
0 0 0 0
0 0 0 4
50.220001 -5.4260001 5.2709999 4
50.221001 -5.3730001 5.1890001 5
50.251999 -5.322 5.1100001 7
50.296001 -5.2729998 5.0320001 5
50.429001 -5.2309999 4.9619999 4
0 0 0 0
0 0 0 3
34.243 -3.4389999 3.201 14
34.220001 -3.3989999 3.1440001 34
34.223 -3.3610001 3.0880001 46
34.195999 -3.319 3.0280001 47
34.158001 -3.277 2.9690001 48
34.138 -3.2360001 2.9119999 50
34.145 -3.197 2.8570001 53
34.120998 -3.1570001 2.8 49
34.113998 -3.1159999 2.744 51
34.102001 -3.0739999 2.687 52
34.103001 -3.0339999 2.631 52
34.09 -2.9920001 2.5739999 52
34.080002 -2.95 2.5179999 53
34.076 -2.9089999 2.4630001 51
34.07 -2.868 2.4059999 51
34.063999 -2.826 2.3499999 42
34.040001 -2.7820001 2.293 44
34.040001 -2.74 2.2379999 32
34.088001 -2.7019999 2.1860001 16
34.238998 -2.671 2.1400001 10
34.176998 -2.6240001 2.0810001 12
34.202 -2.5829999 2.0280001 24
34.250999 -2.5439999 1.975 24
34.175999 -2.4949999 1.9170001 19
34.219002 -2.454 1.864 17
0 0 0 1
25.966999 -1.795 1.33 15
25.886 -1.756 1.284 21
25.833 -1.719 1.24 27
25.791 -1.683 1.198 28
25.757 -1.646 1.155 31
25.729 -1.61 1.112 35
25.704 -1.575 1.0700001 40
25.683001 -1.539 1.028 45
25.672001 -1.503 0.986 47
25.650999 -1.4680001 0.94499999 50
25.643 -1.432 0.903 49
25.629999 -1.397 0.86299998 43
25.634001 -1.362 0.82200003 58
25.641001 -1.327 0.78200001 39
25.649 -1.2920001 0.74199998 20
25.677 -1.258 0.70300001 5
0 0 0 0
0 0 0 0
0 0 0 0
0 0 0 0
0 0 0 0
0 0 0 0
0 0 0 0
0 0 0 0
0 0 0 0
0 0 0 0
0 0 0 0
0 0 0 1
18.275 -0.55500001 0.132 1
17.98 -0.51999998 0.102 1
17.719999 -0.486 0.074000001 1
17.58 -0.456 0.046 1
0 0 0 0
0 0 0 1
17.409 -0.373 -0.032000002 1
17.447001 -0.34799999 -0.057999998 3
17.445999 -0.322 -0.083999999 6
17.478001 -0.296 -0.11 2
17.444 -0.26899999 -0.13600001 1
0 0 0 0
0 0 0 0
0 0 0 1
17.393999 -0.162 -0.23800001 1
17.409 -0.13500001 -0.264 1
17.409 -0.108 -0.289 1
0 0 0 0
0 0 0 0
0 0 0 0
0 0 0 1
17.75 0.027000001 -0.42300001 2
17.757999 0.055 -0.44800001 3
17.757999 0.082999997 -0.47299999 3
17.771 0.111 -0.49900001 2
17.868999 0.14 -0.52700001 4
18.653 0.176 -0.57599998 1
18.837999 0.207 -0.60799998 2
19.021999 0.23999999 -0.64099997 2
19.235001 0.273 -0.67400002 2
19.688999 0.31099999 -0.71700001 2
20.148001 0.35100001 -0.76200002 3
20.306 0.38600001 -0.796 4
20.334999 0.41999999 -0.82499999 4
20.368 0.45300001 -0.85299999 4
20.607 0.49200001 -0.89099997 6
20.799999 0.52999997 -0.92799997 5
0 0 0 1
0 0 0 1
0 0 0 2
21.516001 0.68900001 -1.074 5
21.374001 0.72000003 -1.095 2
0 0 0 1
18.966999 0.69999999 -1.021 1
18.077999 0.69700003 -0.99699998 2
17.323 0.69700003 -0.977 2
16.667999 0.69800001 -0.96200001 2
16.014999 0.69599998 -0.94400001 2
15.356 0.69300002 -0.92500001 2
14.836 0.69400001 -0.912 2
14.354 0.69499999 -0.89999998 3
13.893 0.69599998 -0.889 3
13.488 0.69800001 -0.88 3
13.047 0.69700003 -0.86699998 3
12.671 0.69800001 -0.85699999 3
12.321 0.699 -0.84899998 2
11.953 0.69800001 -0.838 2
11.621 0.69800001 -0.829 2
11.355 0.70099998 -0.82300001 2
11.095 0.70300001 -0.81699997 3
10.852 0.70599997 -0.81199998 2
10.57 0.70499998 -0.80299997 2
10.318 0.70599997 -0.796 2
10.085 0.70700002 -0.79000002 2
9.8800001 0.70899999 -0.78600001 3
9.6689997 0.70999998 -0.77999997 4
9.4630003 0.70999998 -0.77399999 3
9.2620001 0.71100003 -0.76800001 3
9.0710001 0.71100003 -0.76200002 4
8.9219999 0.71499997 -0.75999999 4
8.757 0.71600002 -0.755 4
8.5930004 0.71700001 -0.75099999 4
8.4350004 0.71799999 -0.74599999 4
8.3219995 0.722 -0.745 3
8.1660004 0.722 -0.74000001 3
8.0299997 0.72399998 -0.736 3
7.8639998 0.722 -0.73000002 3
7.7420001 0.72399998 -0.72600001 3
7.5840001 0.722 -0.72000003 3
7.4640002 0.72299999 -0.71600002 3
7.342 0.72299999 -0.71200001 3
7.2309999 0.72399998 -0.708 3
7.1100001 0.72399998 -0.704 3
6.9759998 0.722 -0.69800001 5
6.8660002 0.722 -0.69400001 5
6.7140002 0.71799999 -0.685 9
6.619 0.71799999 -0.68199998 10
6.5570002 0.72299999 -0.68199998 10
6.4879999 0.72600001 -0.68099999 11
6.46 0.73400003 -0.68400002 9
6.3899999 0.736 -0.68300003 4
6.2579999 0.73100001 -0.67500001 4
6.2010002 0.73500001 -0.67400002 3
6.1269999 0.736 -0.67199999 3
6.053 0.73799998 -0.67000002 3
5.9949999 0.74000001 -0.66900003 3
5.9229999 0.741 -0.66600001 4
5.8559999 0.74299997 -0.66399997 2
5.7930002 0.74400002 -0.662 2
5.7179999 0.74400002 -0.65799999 3
5.6430001 0.74299997 -0.65499997 3
5.599 0.74699998 -0.65399998 3
5.52 0.745 -0.64999998 3
5.467 0.74699998 -0.648 3
5.421 0.74900001 -0.64700001 2
5.349 0.74800003 -0.64300001 2
5.2880001 0.74800003 -0.63999999 3
5.2420001 0.75 -0.639 4
5.2059999 0.75300002 -0.639 2
5.152 0.75400001 -0.63599998 4
5.125 0.75800002 -0.63700002 3
5.0599999 0.75700003 -0.63300002 3
5.0250001 0.759 -0.63300002 2
4.9790001 0.76099998 -0.63099998 3
4.9419999 0.76300001 -0.63 2
4.8969998 0.76300001 -0.62699997 2
4.8569999 0.76499999 -0.62599999 4
4.8309999 0.76800001 -0.62599999 3
4.7849998 0.76899999 -0.62400001 2
4.7540002 0.77100003 -0.62300003 3
4.6950002 0.76899999 -0.61900002 4
4.671 0.77200001 -0.61900002 4
4.6420002 0.77499998 -0.61799997 3
4.6020002 0.77600002 -0.616 5
4.566 0.77700001 -0.61500001 4
4.5359998 0.77899998 -0.61400002 3
4.4860001 0.77700001 -0.61000001 4
4.4559999 0.77899998 -0.60900003 5
4.4320002 0.78100002 -0.60799998 4
4.4050002 0.78299999 -0.60699999 3
4.395 0.78799999 -0.60900003 3
4.3850002 0.79299998 -0.61000001 3
4.3429999 0.792 -0.60699999 3
4.395 0.80800003 -0.61699998 3
4.382 0.81199998 -0.61799997 4
4.3080001 0.80500001 -0.61000001 3
4.349 0.81900001 -0.61799997 3
4.3119998 0.81800002 -0.616 3
4.2820001 0.81900001 -0.61400002 3
4.2069998 0.81099999 -0.60500002 3
4.1609998 0.80800003 -0.60100001 2
4.1789999 0.81800002 -0.60600001 3
4.1269999 0.81400001 -0.60000002 2
4.1009998 0.81400001 -0.59899998 2
4.1300001 0.82599998 -0.60500002 2
4.1259999 0.83099997 -0.60699999 2
4.1170001 0.83499998 -0.60699999 2
4.0570002 0.829 -0.60100001 3
4.0510001 0.833 -0.602 2
4.0180001 0.83200002 -0.59899998 2
4.02 0.838 -0.60100001 2
3.9749999 0.83499998 -0.59600002 3
4.0029998 0.84600002 -0.602 2
4.0580001 0.86299998 -0.61199999 3
4.0100002 0.85799998 -0.60699999 3
3.9719999 0.85600001 -0.602 3
3.97 0.861 -0.60399997 3
3.934 0.85799998 -0.60000002 3
3.9070001 0.85799998 -0.59799999 3
3.8889999 0.85900003 -0.59600002 3
3.832 0.85100001 -0.58899999 3
3.823 0.85399997 -0.58899999 4
3.823 0.85900003 -0.58999997 4
3.8050001 0.86000001 -0.58899999 4
3.8010001 0.86400002 -0.58999997 4
3.7909999 0.86699998 -0.58999997 4
3.786 0.87 -0.58999997 4
3.7809999 0.87400001 -0.59100002 4
3.77 0.87599999 -0.58999997 4
3.7679999 0.88099998 -0.59100002 4
3.7579999 0.88300002 -0.59100002 4
3.7460001 0.88499999 -0.58999997 4
3.74 0.88800001 -0.58999997 4
3.733 0.89099997 -0.58999997 3
3.7620001 0.90200001 -0.59500003 2
3.8210001 0.921 -0.60600001 2
3.7609999 0.91100001 -0.597 2
3.7219999 0.90600002 -0.59200001 2
3.78 0.92400002 -0.602 2
3.6889999 0.90600002 -0.58899999 2
3.747 0.92500001 -0.59899998 3
3.687 0.91399997 -0.58999997 2
3.707 0.92400002 -0.59399998 3
3.7060001 0.92699999 -0.59399998 2
3.6719999 0.92299998 -0.58999997 2
3.658 0.92400002 -0.588 2
3.6800001 0.93300003 -0.59200001 2
3.688 0.93900001 -0.59399998 3
3.7750001 0.96499997 -0.60900003 2
3.6689999 0.94199997 -0.59299999 2
3.6849999 0.94999999 -0.59600002 2
3.618 0.93699998 -0.58499998 2
3.665 0.95300001 -0.59299999 2
3.648 0.95200002 -0.59100002 3
3.6289999 0.95099998 -0.588 2
3.628 0.954 -0.58899999 2
3.589 0.94700003 -0.583 2
3.7149999 0.98400003 -0.60299999 3
3.612 0.95999998 -0.58700001 2
3.6210001 0.96600002 -0.58899999 2
3.6619999 0.98000002 -0.59600002 2
3.6730001 0.98699999 -0.59799999 2
3.652 0.98500001 -0.59500003 2
3.652 0.98799998 -0.59500003 2
3.6010001 0.977 -0.58700001 2
3.6700001 0.99900001 -0.59799999 2
3.5999999 0.98299998 -0.58700001 2
3.631 0.995 -0.59200001 3
3.628 0.99699998 -0.59100002 2
3.6470001 1.006 -0.59399998 2
3.6170001 1 -0.58899999 2
3.631 1.007 -0.59200001 2
3.6300001 1.01 -0.59100002 2
3.6029999 1.005 -0.58700001 2
3.652 1.022 -0.59500003 2
3.5739999 1.003 -0.58200002 2
3.615 1.017 -0.58899999 2
3.6070001 1.018 -0.58700001 2
3.6199999 1.024 -0.58899999 2
3.6059999 1.022 -0.58600003 3
3.73 1.061 -0.60600001 3
3.664 1.044 -0.59500003 3
3.648 1.0420001 -0.59200001 3
3.596 1.03 -0.58399999 2
3.6559999 1.049 -0.59299999 3
3.6830001 1.0599999 -0.597 2
3.6819999 1.062 -0.59600002 2
3.674 1.062 -0.59399998 2
3.7190001 1.077 -0.60100001 2
3.6819999 1.069 -0.59500003 2
3.6919999 1.074 -0.59600002 2
3.651 1.064 -0.58899999 2
3.7049999 1.082 -0.597 2
3.6670001 1.073 -0.58999997 2
3.6670001 1.075 -0.58899999 3
3.694 1.085 -0.59299999 2
3.6630001 1.0779999 -0.58700001 2
3.7160001 1.095 -0.59500003 2
3.733 1.102 -0.597 2
3.753 1.11 -0.59899998 2
3.78 1.119 -0.60299999 3
3.825 1.135 -0.60900003 2
3.7249999 1.1059999 -0.59200001 2
3.825 1.138 -0.60699999 3
3.721 1.108 -0.58999997 2
3.8239999 1.141 -0.60500002 3
3.803 1.136 -0.60100001 2
3.9159999 1.171 -0.61799997 3
3.71 1.1109999 -0.58399999 2
3.7509999 1.125 -0.58999997 2
3.8429999 1.153 -0.60299999 3
3.7509999 1.127 -0.588 3
3.8150001 1.148 -0.597 2
3.852 1.16 -0.60100001 3
3.822 1.152 -0.59500003 3
3.8570001 1.164 -0.60000002 2
3.823 1.154 -0.59299999 3
3.8870001 1.175 -0.602 3
3.8010001 1.15 -0.58700001 2
3.8269999 1.158 -0.58999997 3
3.812 1.155 -0.58600003 2
3.855 1.168 -0.59100002 3
3.859 1.17 -0.59100002 3
3.8710001 1.175 -0.59100002 3
3.8469999 1.168 -0.58600003 2
3.822 1.161 -0.58099997 1
3.902 1.186 -0.59100002 3
3.8659999 1.175 -0.58399999 3
3.8959999 1.1849999 -0.58700001 3
3.878 1.1799999 -0.583 3
3.9219999 1.193 -0.588 2
3.9690001 1.2079999 -0.59399998 3
3.934 1.197 -0.58700001 3
4.02 1.224 -0.59799999 3
4.059 1.2359999 -0.602 3
4.0310001 1.227 -0.59600002 3
3.9660001 1.207 -0.58399999 1
3.993 1.216 -0.58700001 2
4.007 1.22 -0.58700001 2
4.0180001 1.223 -0.58700001 3
4.0229998 1.224 -0.58600003 2
4.0890002 1.244 -0.59299999 3
4.1040001 1.248 -0.59399998 3
4.132 1.256 -0.59600002 3
4.1420002 1.2589999 -0.59500003 2
4.138 1.257 -0.59299999 3
4.1690001 1.266 -0.59500003 4
4.1880002 1.271 -0.59600002 2
4.1849999 1.27 -0.59299999 3
4.2030001 1.274 -0.59299999 3
4.2249999 1.28 -0.59399998 3
4.256 1.289 -0.59600002 3
4.2880001 1.298 -0.59899998 2
4.2989998 1.3 -0.59799999 2
4.3130002 1.303 -0.59799999 4
4.336 1.309 -0.59899998 3
4.362 1.316 -0.60000002 3
4.3829999 1.3200001 -0.60000002 4
4.3979998 1.324 -0.60000002 4
4.4169998 1.3279999 -0.60000002 4
4.441 1.334 -0.60100001 4
4.4660001 1.34 -0.602 4
4.494 1.347 -0.60299999 5
4.5089998 1.35 -0.602 5
4.5500002 1.36 -0.60500002 2
4.5580001 1.3609999 -0.60399997 4
4.5949998 1.37 -0.60600001 3
4.618 1.375 -0.60600001 3
4.6539998 1.3839999 -0.60799998 3
4.671 1.387 -0.60699999 3
4.704 1.3940001 -0.60900003 3
4.737 1.402 -0.61000001 3
4.7800002 1.4119999 -0.61299998 3
4.802 1.4170001 -0.61299998 3
4.8340001 1.423 -0.61400002 3
4.8520002 1.426 -0.61299998 5
4.8850002 1.433 -0.61400002 5
4.9289999 1.444 -0.61699998 3
4.9530001 1.448 -0.616 3
4.9910002 1.456 -0.61799997 4
5.0229998 1.462 -0.61900002 4
5.0630002 1.471 -0.62 4
5.0960002 1.477 -0.62099999 4
5.1290002 1.484 -0.62199998 4
5.1630001 1.49 -0.62199998 3
5.197 1.497 -0.62300003 3
5.2340002 1.5039999 -0.62400001 4
5.2779999 1.513 -0.62599999 3
5.3249998 1.523 -0.62800002 4
5.3590002 1.528 -0.62800002 3
5.4050002 1.5369999 -0.63 3
5.4720001 1.553 -0.634 3
5.5180001 1.561 -0.63599998 3
5.5710001 1.572 -0.63800001 3
5.6199999 1.582 -0.63999999 3
5.684 1.595 -0.64300001 3
5.71 1.598 -0.64200002 3
5.7649999 1.609 -0.64399999 4
5.802 1.615 -0.64499998 4
5.8559999 1.625 -0.64600003 4
5.9039998 1.633 -0.64700001 4
5.954 1.642 -0.64899999 4
6.006 1.651 -0.64999998 5
6.0539999 1.659 -0.65100002 5
6.1110001 1.669 -0.653 5
6.1589999 1.676 -0.65399998 4
6.223 1.688 -0.65600002 4
6.3039999 1.704 -0.66000003 4
6.3530002 1.711 -0.66100001 4
6.4450002 1.73 -0.66600001 6
6.5229998 1.745 -0.66900003 6
6.5960002 1.758 -0.67199999 5
6.6589999 1.768 -0.67299998 5
6.7179999 1.777 -0.67400002 5
6.7800002 1.786 -0.676 5
6.8540001 1.798 -0.67799997 5
6.9429998 1.8150001 -0.68199998 7
7.033 1.831 -0.685 6
7.1529999 1.854 -0.69199997 7
7.2410002 1.869 -0.69499999 8
7.336 1.886 -0.699 8
7.4180002 1.899 -0.70099998 8
7.4840002 1.9069999 -0.70200002 9
7.572 1.921 -0.70499998 12
7.6339998 1.928 -0.70499998 12
7.7150002 1.9400001 -0.70700002 12
7.7919998 1.95 -0.708 9
7.8509998 1.956 -0.708 7
7.9310002 1.967 -0.70899999 8
8.0109997 1.977 -0.70999998 7
8.0889997 1.9859999 -0.71100003 6
8.1990004 2.003 -0.71499997 4
8.3059998 2.0190001 -0.71799999 4
8.4040003 2.033 -0.72000003 3
8.5319996 2.053 -0.72500002 3
8.651 2.0710001 -0.72799999 3
8.7539997 2.0840001 -0.73100001 3
8.8769999 2.102 -0.73400003 3
9.0050001 2.1199999 -0.73799998 3
9.1140003 2.1340001 -0.74000001 4
9.224 2.148 -0.74299997 3
9.3360004 2.161 -0.74400002 4
9.4490004 2.175 -0.74599999 3
9.5699997 2.1900001 -0.74900001 4
9.7060003 2.2079999 -0.75199997 4
9.7930002 2.214 -0.75199997 4
9.9460001 2.2349999 -0.75599998 3
10.096 2.2539999 -0.75999999 2
10.278 2.2809999 -0.76599997 2
10.432 2.3 -0.76999998 2
10.583 2.3180001 -0.773 2
10.774 2.345 -0.77899998 2
10.917 2.3599999 -0.78200001 2
11.07 2.3770001 -0.78500003 2
11.206 2.3900001 -0.78600001 2
11.369 2.4070001 -0.78899997 2
11.539 2.4260001 -0.79299998 2
11.693 2.441 -0.79500002 2
11.896 2.4660001 -0.80000001 3
12.098 2.49 -0.80500001 3
12.296 2.5120001 -0.80900002 3
12.534 2.5409999 -0.81599998 3
12.734 2.562 -0.81999999 3
12.951 2.585 -0.824 3
13.206 2.6159999 -0.83200002 3
13.403 2.6340001 -0.83399999 3
13.624 2.6559999 -0.838 2
13.867 2.681 -0.84399998 2
14.196 2.7219999 -0.85399997 4
14.465 2.7509999 -0.86000001 8
14.69 2.7690001 -0.86299998 2
15.006 2.8039999 -0.87099999 2
15.468 2.8659999 -0.88700002 3
15.878 2.915 -0.89899999 5
15.992 2.9089999 -0.89499998 3
16.285 2.9360001 -0.89999998 2
16.663 2.9760001 -0.90899998 2
16.113001 2.8510001 -0.86900002 2
16.57 2.904 -0.88200003 1
16.856001 2.925 -0.88599998 2
0 0 0 1
18.450001 3.1389999 -0.94499999 1
18.406 3.0999999 -0.93000001 3
19.035999 3.174 -0.94999999 1
19.495001 3.217 -0.95999998 1
0 0 0 0
0 0 0 0
0 0 0 0
0 0 0 0
0 0 0 4
24.247999 3.744 -1.1 3
24.864 3.7950001 -1.113 3
26.135 3.9419999 -1.153 2
0 0 0 0
0 0 0 0
0 0 0 0
0 0 0 0
0 0 0 1
0 0 0 3
0 0 0 0
0 0 0 0
0 0 0 0
0 0 0 0
0 0 0 0
0 0 0 0
0 0 0 14
69.036003 8.6210003 -2.4690001 123
0 0 0 150
63.737999 7.717 -2.2079999 152
0 0 0 150
59.054001 6.9229999 -1.98 155
59.103001 6.8150001 -1.95 70
0 0 0 28
0 0 0 8
50.370998 5.5159998 -1.581 185
0 0 0 6
47.301998 4.9959998 -1.436 187
0 0 0 8
44.452999 4.52 -1.304 181
44.470001 4.434 -1.2819999 239
44.412998 4.3410001 -1.2589999 152
0 0 0 0
0 0 0 0
0 0 0 50
65.150002 5.8499999 -1.721 38
65.147003 5.7189999 -1.691 44
0 0 0 9
42.573002 3.566 -1.0650001 14
42.534 3.4779999 -1.046 39
0 0 0 36
36.189999 2.8110001 -0.85699999 38
36.353001 2.75 -0.84600002 11
36.474998 2.6849999 -0.833 11
36.479 2.6110001 -0.81699997 8
0 0 0 34
0 0 0 24
38.839001 2.5409999 -0.82300001 36
38.761002 2.4579999 -0.80599999 25
0 0 0 6
29.679001 1.7589999 -0.59399998 3
0 0 0 27
0 0 0 6
0 0 0 0
0 0 0 4
0 0 0 33
41.202 1.932 -0.73500001 14
41.234001 1.848 -0.722 109
41.238998 1.762 -0.708 105
41.254002 1.677 -0.69499999 56
39.098 1.507 -0.64600003 11
0 0 0 40
36.139999 1.239 -0.574 32
36.325001 1.17 -0.56699997 26
36.396999 1.097 -0.55699998 29
0 0 0 1
20.924999 0.542 -0.308 7
0 0 0 0
0 0 0 0
0 0 0 1
19.507 0.34099999 -0.26699999 1
19.167 0.294 -0.257 1
18.931999 0.25 -0.25 1
18.511 0.205 -0.23999999 1
18.261999 0.163 -0.23199999 1
18.186001 0.124 -0.227 3
17.971001 0.083999999 -0.221 1
0 0 0 0
0 0 0 0
0 0 0 0
0 0 0 0
0 0 0 1
17.35 -0.14 -0.19400001 1
17.343 -0.177 -0.191 1
0 0 0 0
0 0 0 0
0 0 0 0
0 0 0 0
0 0 0 0
0 0 0 1
17.27 -0.435 -0.17299999 1
17.235001 -0.47099999 -0.171 1
17.267 -0.50800002 -0.17 1
17.226 -0.54400003 -0.168 1
17.343 -0.58499998 -0.167 11
17.357 -0.62199998 -0.16599999 6
17.319 -0.65799999 -0.164 8
17.372 -0.69599998 -0.164 4
17.325001 -0.73100001 -0.162 4
17.347 -0.76899999 -0.161 4
17.372999 -0.80800003 -0.161 4
17.337 -0.84299999 -0.16 4
17.282 -0.87699997 -0.15899999 2
17.223 -0.912 -0.15800001 1
17.240999 -0.94999999 -0.15800001 1
17.233 -0.986 -0.15700001 4
17.361 -1.03 -0.15800001 3
17.398001 -1.069 -0.15899999 3
17.417 -1.107 -0.15899999 4
17.433001 -1.146 -0.15899999 4
17.434999 -1.183 -0.16 4
17.344999 -1.214 -0.16 2
17.344 -1.251 -0.16 3
17.416 -1.294 -0.162 2
17.344999 -1.325 -0.162 1
17.424999 -1.368 -0.164 1
17.503 -1.411 -0.16500001 1
17.556 -1.4529999 -0.167 1
17.628 -1.497 -0.169 3
17.649 -1.536 -0.171 2
17.812 -1.587 -0.17399999 46
17.667 -1.6109999 -0.17399999 1
17.740999 -1.655 -0.177 1
0 0 0 0
0 0 0 12
34.09 -3.3940001 -0.352 47
34.104 -3.4660001 -0.35699999 49
34.120998 -3.539 -0.36199999 55
34.143002 -3.6140001 -0.36700001 52
34.133999 -3.6830001 -0.37200001 53
34.141998 -3.7539999 -0.377 53
34.159 -3.8269999 -0.38299999 52
34.176998 -3.8989999 -0.389 51
34.202 -3.9719999 -0.39500001 53
34.195999 -4.0419998 -0.40099999 52
0 0 0 17
17.914 -2.1900001 -0.21699999 22
17.809999 -2.2149999 -0.219 27
17.77 -2.2460001 -0.222 32
17.752001 -2.28 -0.226 35
17.725 -2.312 -0.229 36
17.712999 -2.3469999 -0.233 28
17.679001 -2.378 -0.237 48
17.657 -2.411 -0.241 43
17.65 -2.4460001 -0.245 46
17.627001 -2.4790001 -0.249 47
17.622 -2.513 -0.25299999 36
17.622999 -2.549 -0.25799999 39
0 0 0 0
0 0 0 20
16.033001 -2.415 -0.248 26
15.921 -2.4289999 -0.25 51
15.832 -2.447 -0.25299999 54
15.708 -2.4590001 -0.25600001 57
15.671 -2.484 -0.25999999 57
15.572 -2.4990001 -0.26300001 56
15.49 -2.516 -0.26699999 56
15.377 -2.5280001 -0.27000001 51
15.343 -2.553 -0.27399999 47
15.308 -2.576 -0.278 52
15.367 -2.6159999 -0.285 55
15.337 -2.641 -0.289 52
15.236 -2.6530001 -0.29300001 50
15.266 -2.687 -0.29800001 54
15.285 -2.7190001 -0.30399999 54
15.306 -2.7520001 -0.31 55
15.366 -2.7909999 -0.31600001 48
15.333 -2.8139999 -0.32100001 55
15.425 -2.8599999 -0.329 50
15.454 -2.8940001 -0.336 56
15.342 -2.902 -0.33899999 54
15.328 -2.9289999 -0.345 48
15.294 -2.95 -0.34999999 38
15.319 -2.984 -0.35699999 26
15.283 -3.0050001 -0.36199999 39
15.272 -3.0309999 -0.368 16
15.305 -3.0650001 -0.375 2
0 0 0 0
0 0 0 0
0 0 0 3
30.32 -6.2909999 -0.79400003 9
30.285 -6.3369999 -0.80599999 15
0 0 0 1
13.471 -2.8659999 -0.37 7
13.401 -2.875 -0.37400001 8
13.348 -2.8870001 -0.37799999 17
13.271 -2.8940001 -0.382 9
13.191 -2.8989999 -0.38600001 13
13.13 -2.908 -0.38999999 14
13.078 -2.9189999 -0.39399999 11
12.958 -2.915 -0.39700001 13
12.955 -2.9360001 -0.403 11
12.915 -2.9489999 -0.40700001 10
12.843 -2.954 -0.41100001 18
12.795 -2.964 -0.41600001 11
12.737 -2.9719999 -0.41999999 12
12.68 -2.98 -0.42399999 11
12.637 -2.9909999 -0.42899999 10
12.563 -2.994 -0.433 18
12.559 -3.013 -0.43900001 21
12.561 -3.0350001 -0.44499999 24
12.555 -3.053 -0.45100001 24
12.563 -3.076 -0.458 27
12.568 -3.0969999 -0.46399999 25
12.565 -3.1159999 -0.47099999 38
12.576 -3.138 -0.47799999 27
12.58 -3.1589999 -0.484 24
12.583 -3.1789999 -0.491 26
12.578 -3.197 -0.49700001 24
12.586 -3.2190001 -0.50400001 27
12.588 -3.2390001 -0.51099998 28
12.592 -3.2590001 -0.51700002 24
12.595 -3.2780001 -0.52399999 23
12.606 -3.3 -0.53200001 26
12.609 -3.3199999 -0.53799999 27
12.596 -3.335 -0.54400003 26
12.597 -3.3540001 -0.551 38
12.62 -3.378 -0.55900002 26
12.627 -3.398 -0.56599998 19
12.632 -3.4170001 -0.57300001 2
0 0 0 41
31.131001 -8.5109997 -1.447 39
31.121 -8.552 -1.464 41
0 0 0 2
6.967 -1.934 -0.33500001 24
6.9699998 -1.944 -0.33899999 108
6.947 -1.947 -0.34200001 156
6.9629998 -1.961 -0.34599999 156
6.947 -1.966 -0.34999999 156
6.9299998 -1.97 -0.35299999 156
6.948 -1.984 -0.35699999 157
6.9369998 -1.99 -0.361 161
6.908 -1.9910001 -0.36300001 165
6.9320002 -2.007 -0.368 169
6.9359999 -2.016 -0.37200001 160
6.8850002 -2.01 -0.37400001 157
6.8990002 -2.023 -0.37799999 156
6.8920002 -2.029 -0.382 152
6.8460002 -2.0239999 -0.38299999 37
6.8920002 -2.046 -0.38999999 41
6.967 -2.0769999 -0.398 150
6.9250002 -2.072 -0.39899999 156
6.9070001 -2.075 -0.40200001 156
6.9089999 -2.0840001 -0.40599999 157
6.9229999 -2.096 -0.41100001 157
6.888 -2.0929999 -0.41299999 158
6.928 -2.1129999 -0.419 159
6.9419999 -2.125 -0.42399999 157
6.9219999 -2.1259999 -0.42699999 156
6.9089999 -2.1300001 -0.43000001 150
6.8629999 -2.1229999 -0.43099999 14
6.8759999 -2.135 -0.43599999 1
0 0 0 1
17.247 -5.3899999 -1.113 1
16.886 -5.2940001 -1.1 1
16.427999 -5.1680002 -1.079 1
16.209999 -5.1149998 -1.074 1
15.866 -5.0219998 -1.0599999 1
15.595 -4.9510002 -1.05 1
0 0 0 0
0 0 0 2
14.647 -4.6919999 -1.012 2
14.481 -4.652 -1.008 2
14.418 -4.6440001 -1.012 2
14.13 -4.5640001 -1 2
14.55 -4.7129998 -1.038 2
0 0 0 2
13.214 -4.302 -0.95700002 3
12.971 -4.2340002 -0.94700003 3
12.808 -4.1919999 -0.94199997 3
13.323 -4.3709998 -0.98699999 3
13.218 -4.3470001 -0.98699999 3
13.118 -4.3249998 -0.98699999 3
13.026 -4.3039999 -0.98699999 3
12.816 -4.2449999 -0.97799999 3
12.578 -4.1750002 -0.96700001 3
12.4 -4.125 -0.95999998 3
12.166 -4.0560002 -0.949 2
11.997 -4.0079999 -0.94199997 2
11.748 -3.9330001 -0.92900002 3
11.578 -3.8840001 -0.92199999 3
11.418 -3.8380001 -0.91500002 3
11.247 -3.7880001 -0.90799999 2
11.13 -3.7550001 -0.90399998 2
10.976 -3.71 -0.898 2
10.863 -3.678 -0.89399999 2
10.741 -3.6440001 -0.88999999 3
10.653 -3.6199999 -0.889 3
10.539 -3.5869999 -0.884 4
10.446 -3.5610001 -0.88200003 4
10.351 -3.5339999 -0.88 6
10.257 -3.5079999 -0.87699997 7
10.177 -3.4860001 -0.875 9
10.112 -3.4679999 -0.875 10
10.043 -3.4489999 -0.87400001 9
9.9779997 -3.4319999 -0.87300003 11
9.9239998 -3.418 -0.87400001 9
9.8290005 -3.3889999 -0.87 9
9.7469997 -3.365 -0.86799997 7
9.6750002 -3.3440001 -0.86699998 5
9.5550003 -3.306 -0.861 5
9.4840002 -3.2850001 -0.85900003 5
9.3669996 -3.2479999 -0.85299999 3
9.2340002 -3.2049999 -0.84500003 4
9.1409998 -3.1760001 -0.84100002 2
9.0200005 -3.1370001 -0.83499998 2
8.8879995 -3.0940001 -0.82700002 3
8.8280001 -3.075 -0.82499999 2
8.7270002 -3.043 -0.81999999 4
8.6700001 -3.0250001 -0.81900001 3
8.5900002 -3 -0.815 4
8.5389996 -2.984 -0.815 4
8.474 -2.9630001 -0.81199998 4
8.4090004 -2.9419999 -0.81 6
8.3599997 -2.9260001 -0.80900002 4
8.2930002 -2.904 -0.80599999 5
8.2510004 -2.891 -0.80599999 4
8.1920004 -2.8710001 -0.80400002 5
8.1590004 -2.8610001 -0.80400002 4
8.0819998 -2.835 -0.80000001 5
8.0240002 -2.816 -0.79799998 5
7.9860001 -2.803 -0.79799998 4
7.9120002 -2.777 -0.79400003 6
7.8769999 -2.766 -0.79299998 5
7.8179998 -2.7449999 -0.79100001 5
7.7610002 -2.7260001 -0.78799999 4
7.7280002 -2.714 -0.78799999 5
7.677 -2.6960001 -0.78600001 5
7.6529999 -2.688 -0.787 4
7.592 -2.6659999 -0.78399998 5
7.5549998 -2.6530001 -0.78299999 5
7.5300002 -2.6440001 -0.78299999 5
7.4619999 -2.619 -0.77899998 5
7.428 -2.6070001 -0.77899998 5
7.3959999 -2.595 -0.778 5
7.349 -2.5769999 -0.77600002 5
7.3280001 -2.569 -0.77600002 5
7.2719998 -2.5480001 -0.773 5
7.243 -2.5369999 -0.773 5
7.2090001 -2.5239999 -0.77200001 5
7.164 -2.507 -0.76999998 5
7.1290002 -2.493 -0.76800001 4
7.092 -2.4790001 -0.76700002 4
7.0700002 -2.47 -0.76700002 5
7.027 -2.4530001 -0.76499999 4
7 -2.4419999 -0.764 4
6.974 -2.431 -0.764 4
6.9349999 -2.415 -0.76200002 4
6.902 -2.402 -0.75999999 4
6.8639998 -2.3859999 -0.75800002 4
6.8470001 -2.378 -0.759 4
6.8010001 -2.3599999 -0.75599998 4
6.789 -2.3529999 -0.75599998 4
6.7589998 -2.3399999 -0.755 4
6.7249999 -2.326 -0.75300002 4
6.704 -2.316 -0.75300002 4
6.6799998 -2.3050001 -0.75199997 4
6.6560001 -2.2939999 -0.75099999 5
6.6230001 -2.28 -0.74900001 4
6.6170001 -2.2750001 -0.75 4
6.5869999 -2.2609999 -0.74900001 4
6.5669999 -2.2509999 -0.74800003 4
6.552 -2.243 -0.74800003 4
6.5430002 -2.237 -0.74900001 4
6.5310001 -2.2290001 -0.74900001 4
6.4910002 -2.2119999 -0.74599999 5
6.493 -2.2090001 -0.74800003 5
6.4650002 -2.1960001 -0.74599999 5
6.448 -2.1860001 -0.74599999 5
6.4299998 -2.1760001 -0.745 5
6.4200001 -2.1689999 -0.745 6
6.3899999 -2.155 -0.74299997 6
6.3439999 -2.135 -0.73900002 4
6.3140001 -2.1210001 -0.73699999 5
6.2950001 -2.1110001 -0.736 5
6.29 -2.105 -0.73699999 4
6.2600002 -2.0899999 -0.73400003 5
6.2480001 -2.082 -0.73400003 5
6.237 -2.0739999 -0.73400003 5
6.2119999 -2.0610001 -0.73199999 5
6.1810002 -2.046 -0.72899997 5
6.1750002 -2.04 -0.73000002 7
6.151 -2.027 -0.72799999 7
6.1329999 -2.016 -0.727 8
6.1139998 -2.0050001 -0.72500002 9
6.0960002 -1.994 -0.72399998 9
6.0890002 -1.987 -0.72399998 9
6.066 -1.975 -0.722 9
6.0469999 -1.9630001 -0.72000003 9
6.0440001 -1.957 -0.72100002 9
6.0370002 -1.95 -0.72100002 9
6.0209999 -1.939 -0.71899998 9
6.0050001 -1.929 -0.71799999 9
6.007 -1.924 -0.71899998 10
6.0079999 -1.919 -0.71899998 11
6.0050001 -1.9119999 -0.72000003 11
5.9990001 -1.905 -0.71899998 12
5.9990001 -1.899 -0.72000003 13
5.9910002 -1.891 -0.71899998 13
6.0029998 -1.8890001 -0.72100002 13
6.0190001 -1.888 -0.72299999 12
6.0180001 -1.881 -0.72299999 11
6.0279999 -1.878 -0.72500002 11
6.0320001 -1.873 -0.72500002 10
6.04 -1.87 -0.72600001 9
6.039 -1.863 -0.72600001 9
6.0539999 -1.8609999 -0.72799999 9
6.0489998 -1.853 -0.72799999 9
6.052 -1.848 -0.72799999 9
6.0609999 -1.844 -0.72899997 7
6.0549998 -1.835 -0.72899997 9
6.0669999 -1.832 -0.73000002 9
6.066 -1.825 -0.72899997 8
6.0679998 -1.819 -0.73000002 7
6.0599999 -1.809 -0.72799999 8
6.0689998 -1.8049999 -0.72899997 8
6.066 -1.7970001 -0.72899997 6
6.0570002 -1.7869999 -0.727 8
6.072 -1.784 -0.72899997 5
6.0679998 -1.776 -0.72799999 6
6.059 -1.766 -0.72600001 7
6.0689998 -1.761 -0.727 7
6.0630002 -1.752 -0.72600001 9
6.0599999 -1.743 -0.72500002 6
6.0700002 -1.739 -0.72500002 5
6.0739999 -1.732 -0.72500002 6
6.073 -1.724 -0.72399998 6
6.0830002 -1.719 -0.72500002 5
6.0700002 -1.7079999 -0.72299999 6
6.073 -1.7 -0.722 6
6.0869999 -1.696 -0.72299999 6
6.0910001 -1.689 -0.72299999 5
6.0900002 -1.681 -0.722 6
6.099 -1.675 -0.722 5
6.092 -1.665 -0.72000003 5
6.0999999 -1.659 -0.72000003 4
6.1240001 -1.6569999 -0.72100002 5
6.131 -1.65 -0.72100002 5
6.1459999 -1.646 -0.722 5
6.1550002 -1.6390001 -0.72100002 5
6.1659999 -1.633 -0.72100002 5
6.1810002 -1.6289999 -0.722 5
6.1919999 -1.623 -0.722 4
6.2119999 -1.619 -0.72299999 4
6.223 -1.613 -0.72299999 4
6.2420001 -1.609 -0.72299999 4
6.2620001 -1.605 -0.72399998 5
6.2600002 -1.595 -0.722 4
6.2909999 -1.594 -0.72399998 4
6.3039999 -1.5880001 -0.72399998 4
6.3319998 -1.585 -0.72500002 4
6.3569999 -1.582 -0.727 4
6.3670001 -1.575 -0.72600001 3
6.3889999 -1.5700001 -0.72600001 4
6.4089999 -1.5650001 -0.727 4
6.4390001 -1.563 -0.72799999 4
6.4549999 -1.557 -0.72799999 4
6.48 -1.553 -0.72899997 4
6.5159998 -1.551 -0.73100001 4
6.5380001 -1.5470001 -0.73100001 4
6.5580001 -1.541 -0.73100001 4
6.5939999 -1.539 -0.73199999 4
6.619 -1.534 -0.73299998 4
6.6539998 -1.5319999 -0.73400003 4
6.6849999 -1.528 -0.73500001 5
6.7049999 -1.522 -0.73500001 4
6.7420001 -1.52 -0.736 4
6.7880001 -1.5190001 -0.73900002 4
6.823 -1.516 -0.74000001 5
6.855 -1.512 -0.74000001 4
6.8920002 -1.508 -0.741 5
6.928 -1.505 -0.74199998 5
6.9530001 -1.499 -0.74199998 4
7.0050001 -1.498 -0.745 5
7.0469999 -1.495 -0.74599999 4
7.0619998 -1.487 -0.74400002 4
7.1230001 -1.488 -0.74699998 4
7.158 -1.483 -0.74800003 4
7.2030001 -1.48 -0.74900001 4
7.2519999 -1.478 -0.75099999 4
7.2950001 -1.475 -0.75099999 4
7.3540001 -1.474 -0.75400001 4
7.4169998 -1.474 -0.75700003 4
7.4850001 -1.475 -0.75999999 5
7.5440001 -1.473 -0.76200002 4
7.6570001 -1.482 -0.76899999 6
7.7030001 -1.478 -0.76999998 6
7.77 -1.477 -0.77200001 8
7.829 -1.475 -0.77399999 8
7.8940001 -1.474 -0.77600002 8
7.967 -1.473 -0.778 8
8.0340004 -1.472 -0.77999997 12
8.0909996 -1.4680001 -0.78100002 12
8.1479998 -1.464 -0.78200001 12
8.2130003 -1.461 -0.78299999 12
8.2740002 -1.457 -0.78399998 11
8.3500004 -1.456 -0.78600001 16
8.4169998 -1.4529999 -0.787 16
8.4709997 -1.447 -0.787 16
8.5450001 -1.444 -0.78899997 14
8.6160002 -1.441 -0.79000002 16
8.717 -1.443 -0.79400003 10
8.7889996 -1.439 -0.79400003 12
8.8859997 -1.439 -0.79699999 14
8.9870005 -1.439 -0.80000001 12
9.0900002 -1.439 -0.80299997 8
9.1780005 -1.436 -0.80500001 10
9.2919998 -1.437 -0.80800003 6
9.3940001 -1.436 -0.81099999 7
9.5380001 -1.441 -0.81599998 4
9.6590004 -1.442 -0.81999999 4
9.7840004 -1.443 -0.824 4
9.9209995 -1.4450001 -0.82800001 4
10.029 -1.442 -0.829 4
10.176 -1.4450001 -0.83399999 4
10.293 -1.443 -0.83600003 4
10.465 -1.448 -0.84200001 5
10.664 -1.456 -0.85000002 7
10.783 -1.4529999 -0.85100001 4
10.958 -1.456 -0.85600001 3
11.146 -1.46 -0.86199999 2
11.327 -1.4630001 -0.86699998 3
11.528 -1.4680001 -0.87300003 2
11.698 -1.4680001 -0.87699997 3
11.875 -1.4680001 -0.88 3
12.057 -1.469 -0.884 3
12.273 -1.473 -0.88999999 3
12.473 -1.474 -0.89399999 3
12.71 -1.478 -0.89899999 3
12.999 -1.487 -0.90899998 3
13.291 -1.4960001 -0.91799998 3
13.575 -1.503 -0.926 3
13.938 -1.517 -0.93800002 3
14.284 -1.529 -0.949 3
14.588 -1.534 -0.95599997 3
14.948 -1.544 -0.96600002 3
15.261 -1.548 -0.972 3
15.593 -1.553 -0.97899997 3
15.948 -1.559 -0.98699999 3
16.468 -1.58 -1.0039999 2
16.045 -1.508 -0.963 2
0 0 0 2
17.896999 -1.617 -1.04 4
17.999001 -1.5930001 -1.029 4
18.038 -1.563 -1.0140001 4
18.025 -1.529 -0.995 4
0 0 0 1
0 0 0 4
18.002001 -1.427 -0.94099998 3
17.981001 -1.392 -0.92199999 1
0 0 0 6
0 0 0 1
18.16 -1.306 -0.87599999 2
18.103001 -1.268 -0.85500002 2
18.062 -1.232 -0.83399999 3
17.951 -1.192 -0.81 3
17.629 -1.1390001 -0.778 2
17.478001 -1.097 -0.75300002 2
17.4 -1.061 -0.73100001 2
17.361 -1.026 -0.71100003 3
17.292 -0.991 -0.68900001 2
17.249001 -0.95700002 -0.66900003 2
17.25 -0.926 -0.65100002 4
17.219999 -0.89200002 -0.63 4
17.188 -0.86000001 -0.611 4
17.212 -0.82999998 -0.59200001 13
17.171 -0.79699999 -0.57200003 153
17.16 -0.76499999 -0.55199999 163
17.134001 -0.73299998 -0.53200001 175
17.139 -0.70200002 -0.51300001 22
17.172001 -0.67199999 -0.49399999 4
17.164 -0.64200002 -0.47499999 18
17.149 -0.61000001 -0.45500001 7
17.139 -0.57999998 -0.435 130
17.129 -0.54799998 -0.41499999 7
17.148001 -0.51800001 -0.39500001 14
17.167999 -0.48899999 -0.37599999 4
17.162001 -0.458 -0.35499999 1
17.231001 -0.42899999 -0.336 1
0 0 0 0
0 0 0 0
0 0 0 0
0 0 0 0
0 0 0 0
0 0 0 0
0 0 0 0
0 0 0 0
0 0 0 1
0 0 0 0
0 0 0 0
0 0 0 0
0 0 0 0
0 0 0 0
0 0 0 0
0 0 0 1
18.297001 0.083999999 0.026000001 1
18.544001 0.117 0.050999999 1
18.739 0.149 0.075000003 2
18.808001 0.182 0.098999999 2
18.74 0.212 0.123 2
18.823999 0.245 0.148 1
0 0 0 1
20.502001 0.33500001 0.214 1
0 0 0 7
34.296001 0.67400002 0.44999999 9
34.685001 0.73900002 0.50099999 10
35.028 0.80400002 0.55199999 8
35.424999 0.87099999 0.60500002 8
37.305 0.97799999 0.68699998 23
37.32 1.039 0.73799998 24
37.289001 1.098 0.78600001 20
37.255001 1.159 0.83700001 94
37.488998 1.226 0.89300001 7
37.992001 1.303 0.95599997 6
38.527 1.383 1.022 8
38.852001 1.456 1.082 15
39.16 1.53 1.145 15
41.299 1.679 1.2640001 131
41.306 1.744 1.321 104
41.285 1.808 1.376 101
41.312 1.874 1.434 28
41.955002 1.9680001 1.515 5
43.318001 2.0969999 1.623 8
43.598 2.178 1.694 21
42.231998 2.1760001 1.701 12
42.169998 2.2379999 1.757 11
0 0 0 14
45.537998 2.5550001 2.0250001 24
45.542999 2.6240001 2.0899999 6
0 0 0 6
41.540001 2.5179999 2.0220001 29
41.556999 2.5810001 2.082 43
41.650002 2.648 2.1459999 22
0 0 0 93
45.498001 3.027 2.474 30
0 0 0 0
0 0 0 0
0 0 0 12
49.904999 3.6099999 2.997 40
51.223999 3.779 3.1500001 70
51.442001 3.868 3.237 55
52.584999 4.0289998 3.385 72
53.671001 4.1880002 3.5320001 60
53.935001 4.2839999 3.6270001 58
55.250999 4.4660001 3.7950001 77
56.234001 4.6230001 3.9430001 54
56.710999 4.7399998 4.0580001 67
57.950001 4.9229999 4.2309999 53
59.245998 5.1139998 4.4089999 64
59.983002 5.2589998 4.5510001 44
60.714001 5.4039998 4.6929998 77
61.945999 5.5949998 4.8779998 60
63.285 5.8010001 5.0749998 60
64.547997 6.0019999 5.2680001 69
65.723999 6.1999998 5.46 53
66.944 6.401 5.6589999 53
67.892998 6.5799999 5.8379998 40
69.080002 6.7839999 6.0380001 44
70.761002 7.04 6.2880001 41
72.309998 7.289 6.5320001 55
73.730003 7.526 6.7670002 61
0 0 0 37
124.361 13.007 11.777 33
118.52 12.544 11.396 35
118.449 12.682 11.559 57
118.406 12.82 11.726 85
118.356 12.958 11.89 90
118.303 13.096 12.057 83
118.28 13.236 12.226 79
118.273 13.377 12.398 84
118.261 13.516 12.568 82
118.248 13.653 12.735 69
118.199 13.786 12.901 70
118.192 13.921 13.069 54
118.139 14.052 13.234 36
0 0 0 0
0 0 0 0
0 0 0 0
0 0 0 0
0 0 0 0
0 0 0 0
0 0 0 0
0 0 0 22
118.307 15.254 14.785 29
118.403 15.393 14.967 34
0 0 0 0
0 0 0 0
0 0 0 0
0 0 0 0
0 0 0 32
118.034 16.077999 15.923 37
117.894 16.177 16.070999 49
117.805 16.282 16.226 58
117.745 16.389999 16.379999 70
117.744 16.500999 16.546 68
117.731 16.617001 16.705999 72
117.716 16.728001 16.870001 83
117.733 16.839001 17.037001 57
117.664 16.938999 17.191 51
117.745 17.065001 17.367001 45
117.767 17.176001 17.534 33
117.784 17.287001 17.700001 34
117.801 17.396 17.865999 30
117.638 17.476999 18.003 34
117.762 17.6 18.18 34
117.752 17.701 18.344 31
117.682 17.792999 18.490999 31
117.647 17.889 18.646 35
117.707 17.997999 18.815001 29
117.662 18.09 18.968 30
0 0 0 0
0 0 0 0
0 0 0 0
0 0 0 0
0 0 0 0
0 0 0 0
0 0 0 38
115.279 18.462999 19.812 38
115.149 18.528999 19.940001 31
115.048 18.599001 20.073999 31
114.887 18.658001 20.195 40
114.893 18.742001 20.346001 44
114.847 18.816999 20.486 51
114.836 18.896999 20.628 63
114.826 18.975 20.774 60
114.832 19.056 20.921 63
114.797 19.128 21.061001 65
114.782 19.202 21.202999 59
114.787 19.280001 21.346001 56
114.792 19.355 21.49 43
114.783 19.427 21.632 30
0 0 0 0
0 0 0 0
0 0 0 0
0 0 0 0
0 0 0 0
0 0 0 0
0 0 0 27
114.885 19.997 22.764999 25
115.012 20.083 22.927 28
114.89 20.124001 23.038 25
114.822 20.174 23.16 22
0 0 0 0
0 0 0 0
0 0 0 0
0 0 0 0
0 0 0 22
114.865 20.532 23.961 26
114.761 20.568001 24.069 28
114.594 20.591 24.158001 36
114.663 20.655001 24.299999 45
114.616 20.697001 24.416 45
114.541 20.733999 24.523001 56
114.542 20.783001 24.648001 67
114.499 20.823 24.761999 59
114.526 20.872999 24.889999 60
114.502 20.914 25.007 67
114.549 20.966999 25.138 59
114.524 21.004999 25.252001 53
114.488 21.044001 25.363001 42
114.474 21.082001 25.476999 36
114.438 21.115 25.586 23
114.383 21.141001 25.687 22
0 0 0 0
0 0 0 0
0 0 0 0
0 0 0 0
0 0 0 0
0 0 0 0
0 0 0 0
0 0 0 0
0 0 0 0
0 0 0 0
0 0 0 0
0 0 0 0
0 0 0 0
0 0 0 0
0 0 0 0
0 0 0 0
0 0 0 0
0 0 0 0
0 0 0 0
0 0 0 0
0 0 0 0
0 0 0 0
0 0 0 28
114.584 21.783001 28.195 33
114.506 21.780001 28.264999 35
114.488 21.787001 28.349001 44
114.481 21.796 28.431 47
114.447 21.798 28.509001 53
114.492 21.816 28.601999 52
114.444 21.811001 28.677 61
114.423 21.813999 28.750999 68
114.429 21.819 28.834 60
114.447 21.825001 28.917999 60
114.417 21.820999 28.99 65
114.426 21.823999 29.07 55
114.427 21.823 29.146 59
114.39 21.816999 29.209 57
114.454 21.827 29.299999 58
114.439 21.820999 29.368999 43
114.464 21.820999 29.447001 42
114.481 21.822001 29.52 33
114.526 21.823999 29.601 33
114.552 21.820999 29.674999 31
114.433 21.790001 29.711 28
114.402 21.774 29.768 24
114.609 21.802999 29.886 25
0 0 0 0
0 0 0 0
0 0 0 25
114.646 21.759001 30.136999 26
114.565 21.728001 30.174 24
114.515 21.701 30.216999 25
114.716 21.721001 30.325001 26
0 0 0 0
0 0 0 23
114.648 21.650999 30.462999 24
0 0 0 0
0 0 0 0
0 0 0 0
0 0 0 0
0 0 0 0
0 0 0 0
0 0 0 0
0 0 0 0
0 0 0 0
0 0 0 0
0 0 0 0
0 0 0 0
0 0 0 0
0 0 0 0
0 0 0 0
0 0 0 0
0 0 0 0
0 0 0 0
0 0 0 0
0 0 0 0
0 0 0 0
0 0 0 0
0 0 0 0
0 0 0 0
0 0 0 0
0 0 0 0
0 0 0 0
0 0 0 0
0 0 0 0
0 0 0 0
0 0 0 0
0 0 0 0
0 0 0 0
0 0 0 0
0 0 0 0
0 0 0 0
0 0 0 0
0 0 0 0
0 0 0 0
0 0 0 0
0 0 0 0
0 0 0 0
0 0 0 0
0 0 0 26
0 0 0 0
0 0 0 24
0 0 0 0
0 0 0 0
0 0 0 0
0 0 0 0
0 0 0 0
0 0 0 0
0 0 0 0
0 0 0 0
0 0 0 0
0 0 0 0
0 0 0 0
0 0 0 0
0 0 0 0
0 0 0 25
115.423 18.763 31.198 23
115.342 18.67 31.143 26
115.37 18.601 31.113001 27
0 0 0 0
0 0 0 24
115.593 18.402 31.054001 28
115.557 18.313999 31.004999 29
115.551 18.233999 30.958 29
115.603 18.162001 30.929001 29
115.56 18.073 30.871 27
0 0 0 0
0 0 0 0
0 0 0 0
0 0 0 0
0 0 0 0
0 0 0 0
0 0 0 51
123.74 18.622999 32.606998 81
123.798 18.541 32.558998 84
123.828 18.450001 32.502998 88
123.834 18.358999 32.438 91
123.903 18.271999 32.389 76
123.944 18.181 32.331001 104
123.95 18.084 32.262001 91
123.979 17.989 32.196999 89
123.988 17.891001 32.125999 78
124.033 17.799999 32.060001 79
124.011 17.695999 31.978001 64
124.092 17.608 31.924 66
124.143 17.514999 31.854 60
124.122 17.41 31.768 42
