# .PCD v0.7 - Point Cloud Data file format
VERSION 0.7
FIELDS x y z intensity
SIZE 4 4 4 4
TYPE F F F F
COUNT 1 1 1 1
WIDTH 1555
HEIGHT 1
VIEWPOINT 0 0 0 1 0 0 0
POINTS 1555
DATA ascii
28.48 0.45199999 0.22499999 13
28.451 0.40099999 0.193 30
28.454 0.34999999 0.16 12
0 0 0 1
6.3099999 0.054000001 0.02 1
6.3039999 0.043000001 0.013 2
6.3130002 0.032000002 0.0060000001 2
6.2839999 0.021 0 3
6.309 0.0089999996 -0.0080000004 3
6.3140001 -0.001 -0.016000001 2
6.3109999 -0.012 -0.023 1
0 0 0 19
27.844999 -0.153 -0.17 22
27.77 -0.20100001 -0.204 28
27.712999 -0.25 -0.237 32
27.672001 -0.29800001 -0.27000001 35
27.653999 -0.347 -0.30500001 34
27.618 -0.39500001 -0.338 46
27.605 -0.44299999 -0.37200001 48
27.561001 -0.49000001 -0.40599999 51
27.559 -0.53799999 -0.44100001 63
27.577 -0.58600003 -0.47600001 59
27.573999 -0.63300002 -0.50999999 52
27.591 -0.68099999 -0.54500002 45
27.6 -0.72899997 -0.58099997 43
27.625 -0.77600002 -0.616 36
27.641001 -0.824 -0.65200001 33
27.676001 -0.87300003 -0.68900001 33
27.736 -0.921 -0.72600001 27
27.808001 -0.972 -0.76499999 18
27.91 -1.022 -0.80299997 8
0 0 0 4
9.7729998 -0.38999999 -0.30700001 13
9.717 -0.40400001 -0.31799999 19
9.6739998 -0.419 -0.329 13
9.6499996 -0.43399999 -0.34099999 15
9.6120005 -0.44800001 -0.352 21
9.6040001 -0.46399999 -0.36500001 15
9.5679998 -0.47799999 -0.377 23
9.5649996 -0.493 -0.389 25
9.5410004 -0.50800002 -0.40099999 25
9.5299997 -0.523 -0.414 25
9.5179996 -0.537 -0.426 26
9.5059996 -0.55199999 -0.43900001 27
9.4890003 -0.56599998 -0.45100001 27
9.4790001 -0.58099997 -0.463 29
9.4659996 -0.59500003 -0.47499999 30
9.4519997 -0.61000001 -0.48800001 32
9.4580002 -0.625 -0.50099999 30
9.4420004 -0.639 -0.514 30
9.4359999 -0.65399998 -0.52600002 31
9.4329996 -0.66900003 -0.53899997 32
9.4180002 -0.68199998 -0.55199999 33
9.4200001 -0.69700003 -0.565 33
9.4180002 -0.71200001 -0.57800001 35
9.415 -0.72600001 -0.59100002 37
9.4060001 -0.74000001 -0.60399997 38
9.4040003 -0.75400001 -0.61699998 39
9.3979998 -0.76800001 -0.63 38
9.3990002 -0.78299999 -0.64300001 39
9.3950005 -0.79699999 -0.65700001 41
9.3800001 -0.80900002 -0.66900003 38
9.3879995 -0.824 -0.68300003 36
9.4029999 -0.83999997 -0.69700003 38
9.3999996 -0.85299999 -0.70999998 38
9.3900003 -0.866 -0.72299999 36
9.4020004 -0.88099998 -0.73799998 34
9.3940001 -0.89499998 -0.75 33
9.4040003 -0.90899998 -0.76499999 27
9.3850002 -0.921 -0.77700001 13
9.2040005 -0.917 -0.77499998 1
8.7880001 -0.88800001 -0.75300002 2
8.6479998 -0.88599998 -0.75300002 4
8.5539999 -0.889 -0.75700003 5
8.4560003 -0.89099997 -0.76099998 6
8.2860003 -0.884 -0.75800002 5
8.0930004 -0.875 -0.75199997 4
7.9200001 -0.86799997 -0.74699998 4
7.7659998 -0.86199999 -0.74400002 5
7.6100001 -0.85500002 -0.74000001 4
7.4580002 -0.84799999 -0.73699999 4
7.2930002 -0.83899999 -0.73100001 4
7.1500001 -0.833 -0.727 4
7.0300002 -0.82800001 -0.72500002 4
6.8959999 -0.82200003 -0.722 4
6.777 -0.81699997 -0.71899998 4
6.6789999 -0.81400001 -0.71899998 3
6.5700002 -0.80900002 -0.71600002 1
6.2020001 -0.77200001 -0.685 1
6.072 -0.764 -0.68000001 1
6.013 -0.764 -0.68199998 1
6.0300002 -0.77399999 -0.69300002 1
5.8400002 -0.75700003 -0.68000001 1
5.8169999 -0.76200002 -0.68599999 1
5.711 -0.755 -0.68099999 1
5.6059999 -0.74800003 -0.67699999 1
5.5250001 -0.74400002 -0.67500001 1
5.4390001 -0.73900002 -0.67299998 1
5.335 -0.73199999 -0.66799998 2
5.27 -0.73000002 -0.667 3
5.2179999 -0.72899997 -0.66799998 4
5.1939998 -0.73199999 -0.67299998 3
5.1209998 -0.727 -0.671 3
5.0430002 -0.72299999 -0.66799998 3
4.9289999 -0.71200001 -0.66000003 2
4.8540001 -0.70700002 -0.65799999 3
4.7870002 -0.70300001 -0.65499997 2
4.7350001 -0.70099998 -0.65499997 3
4.652 -0.69400001 -0.65100002 3
4.5809999 -0.68900001 -0.64700001 3
4.5050001 -0.68199998 -0.64300001 4
4.4320002 -0.676 -0.639 5
4.368 -0.67199999 -0.63700002 6
4.3179998 -0.66799998 -0.63499999 7
4.2740002 -0.66600001 -0.63499999 9
4.2389998 -0.66600001 -0.63599998 8
4.1939998 -0.66299999 -0.63499999 6
4.1409998 -0.65899998 -0.63300002 5
4.21 -0.67500001 -0.64999998 3
4.0539999 -0.65399998 -0.63200003 3
4.0009999 -0.64999998 -0.62900001 2
3.9760001 -0.64999998 -0.63099998 2
3.902 -0.64200002 -0.625 2
3.891 -0.64399999 -0.62900001 2
3.904 -0.64999998 -0.63599998 3
3.842 -0.64399999 -0.63200003 2
3.803 -0.64099997 -0.63099998 3
3.7320001 -0.63300002 -0.62400001 3
3.652 -0.62300003 -0.616 1
3.641 -0.62400001 -0.61900002 3
3.609 -0.62199998 -0.61900002 3
3.5409999 -0.61400002 -0.61199999 1
3.5469999 -0.61799997 -0.61799997 2
3.4560001 -0.60600001 -0.60699999 1
3.4289999 -0.60399997 -0.60699999 1
3.447 -0.61000001 -0.61500001 2
3.428 -0.61000001 -0.61699998 2
3.3570001 -0.60100001 -0.60900003 2
3.358 -0.60399997 -0.61299998 2
3.2850001 -0.59399998 -0.60500002 1
3.3469999 -0.60799998 -0.62099999 2
3.2690001 -0.59600002 -0.611 2
3.2479999 -0.59500003 -0.611 2
3.201 -0.58899999 -0.60699999 2
3.1259999 -0.57800001 -0.597 2
3.095 -0.57499999 -0.59500003 2
3.0650001 -0.57200003 -0.59299999 2
3.039 -0.56999999 -0.59200001 2
3.0109999 -0.56699997 -0.59100002 2
2.993 -0.56599998 -0.59100002 2
2.96 -0.56199998 -0.58899999 2
2.9300001 -0.55800003 -0.58700001 2
2.921 -0.55900002 -0.58899999 2
2.895 -0.55599999 -0.58700001 2
2.858 -0.551 -0.583 2
2.839 -0.55000001 -0.583 2
2.8870001 -0.56099999 -0.597 2
2.7909999 -0.54400003 -0.58099997 1
2.7690001 -0.542 -0.57999998 1
2.7509999 -0.54000002 -0.579 1
2.733 -0.53899997 -0.579 1
2.714 -0.537 -0.579 1
2.688 -0.53299999 -0.57599998 2
2.674 -0.53200001 -0.57700002 2
2.6570001 -0.53100002 -0.57599998 2
2.641 -0.52899998 -0.57599998 2
2.6240001 -0.528 -0.57599998 1
2.6059999 -0.52600002 -0.57499999 1
2.585 -0.523 -0.574 1
2.569 -0.52100003 -0.57300001 1
2.5550001 -0.51999998 -0.57300001 1
2.539 -0.51800001 -0.57300001 1
2.5239999 -0.51700002 -0.57200003 1
2.5020001 -0.514 -0.56999999 1
2.487 -0.51200002 -0.56999999 1
2.473 -0.50999999 -0.56900001 1
2.4549999 -0.50800002 -0.56800002 1
2.448 -0.50800002 -0.56900001 1
2.427 -0.505 -0.56699997 1
2.415 -0.50300002 -0.56699997 1
2.4200001 -0.505 -0.57099998 1
2.4130001 -0.505 -0.57200003 1
2.424 -0.509 -0.57700002 1
2.507 -0.52700001 -0.60000002 1
2.4119999 -0.50800002 -0.57999998 1
2.3959999 -0.50599998 -0.579 1
2.325 -0.49200001 -0.56400001 1
2.309 -0.49000001 -0.56199998 1
2.2980001 -0.48800001 -0.56199998 1
2.286 -0.48699999 -0.56199998 1
2.283 -0.48699999 -0.56300002 1
2.267 -0.484 -0.56199998 1
2.3210001 -0.49700001 -0.57800001 1
2.256 -0.484 -0.56400001 1
2.23 -0.479 -0.56 1
2.2219999 -0.47799999 -0.56 1
2.21 -0.47600001 -0.55900002 1
2.21 -0.477 -0.56099999 1
2.194 -0.47400001 -0.55900002 1
2.1849999 -0.47299999 -0.55900002 1
2.1789999 -0.472 -0.56 1
2.1670001 -0.47 -0.55900002 1
2.1589999 -0.46900001 -0.55900002 1
2.1600001 -0.47 -0.56099999 1
2.148 -0.46799999 -0.56 1
2.141 -0.46700001 -0.56 1
2.132 -0.46599999 -0.56 1
2.1270001 -0.465 -0.56 1
2.1159999 -0.463 -0.55900002 2
2.105 -0.461 -0.55800003 2
2.098 -0.46000001 -0.55800003 2
2.0869999 -0.458 -0.55699998 1
2.0829999 -0.458 -0.55800003 1
2.0739999 -0.456 -0.55699998 1
2.072 -0.456 -0.55800003 1
2.062 -0.454 -0.55699998 1
2.049 -0.45100001 -0.55500001 1
2.0480001 -0.45100001 -0.55699998 1
2.0380001 -0.449 -0.55599999 1
2.0339999 -0.449 -0.55599999 1
2.0250001 -0.447 -0.55500001 1
2.0190001 -0.44600001 -0.55500001 1
2.013 -0.44499999 -0.55500001 1
2.0009999 -0.442 -0.55299997 1
1.999 -0.442 -0.55400002 1
1.992 -0.44100001 -0.55400002 1
1.988 -0.44 -0.55400002 2
1.984 -0.43900001 -0.55400002 1
1.974 -0.43700001 -0.55299997 1
1.967 -0.43599999 -0.55199999 1
1.9630001 -0.435 -0.55199999 1
1.959 -0.43399999 -0.55199999 1
1.9579999 -0.43399999 -0.55299997 1
1.946 -0.43099999 -0.551 1
1.948 -0.43099999 -0.55299997 1
1.939 -0.42899999 -0.55199999 1
1.9299999 -0.42699999 -0.55000001 1
1.926 -0.426 -0.55000001 1
1.926 -0.426 -0.551 1
1.9220001 -0.42500001 -0.551 1
1.921 -0.42500001 -0.55199999 1
1.915 -0.42300001 -0.551 1
1.915 -0.42300001 -0.55199999 1
1.905 -0.421 -0.55000001 1
1.908 -0.421 -0.55199999 1
1.895 -0.41800001 -0.54900002 1
1.8940001 -0.417 -0.55000001 1
1.8940001 -0.417 -0.551 1
1.893 -0.417 -0.551 1
1.888 -0.41499999 -0.551 1
1.882 -0.41299999 -0.55000001 1
1.8789999 -0.41299999 -0.55000001 1
1.877 -0.412 -0.55000001 1
1.873 -0.41 -0.54900002 1
1.863 -0.40799999 -0.54699999 1
1.8609999 -0.40700001 -0.54699999 1
1.859 -0.40599999 -0.54799998 1
1.8559999 -0.405 -0.54699999 1
1.855 -0.405 -0.54799998 1
1.851 -0.403 -0.54699999 1
1.852 -0.403 -0.54799998 1
1.847 -0.40099999 -0.54699999 1
1.848 -0.40099999 -0.54799998 1
1.8430001 -0.39899999 -0.54699999 1
1.848 -0.40000001 -0.54900002 1
1.835 -0.39700001 -0.546 1
1.836 -0.396 -0.546 1
1.839 -0.396 -0.54699999 1
1.836 -0.39500001 -0.54699999 1
1.835 -0.39399999 -0.54699999 1
1.835 -0.39399999 -0.54799998 1
1.8329999 -0.39300001 -0.54699999 1
1.832 -0.39199999 -0.54699999 1
1.834 -0.391 -0.54799998 1
1.829 -0.38999999 -0.54699999 1
1.8279999 -0.389 -0.54699999 1
1.8279999 -0.38800001 -0.54699999 1
1.826 -0.38699999 -0.54699999 1
1.826 -0.38600001 -0.54699999 1
1.825 -0.38499999 -0.54699999 1
1.817 -0.38299999 -0.54400003 1
1.824 -0.38299999 -0.54699999 1
1.8279999 -0.38299999 -0.54799998 1
1.824 -0.382 -0.54699999 1
1.825 -0.38100001 -0.54699999 1
1.826 -0.38 -0.54699999 1
1.825 -0.37900001 -0.54699999 1
1.825 -0.37799999 -0.54699999 1
1.826 -0.377 -0.54699999 1
1.83 -0.377 -0.54799998 1
1.832 -0.377 -0.54900002 1
1.826 -0.375 -0.54699999 1
1.8279999 -0.37400001 -0.54699999 1
1.8329999 -0.37400001 -0.54900002 1
1.829 -0.37200001 -0.54699999 1
1.831 -0.37200001 -0.54799998 1
1.831 -0.37099999 -0.54699999 1
1.83 -0.36899999 -0.54699999 1
1.834 -0.36899999 -0.54799998 1
1.834 -0.368 -0.54799998 1
1.835 -0.36700001 -0.54799998 1
1.835 -0.366 -0.54699999 1
1.8380001 -0.366 -0.54799998 1
1.835 -0.36399999 -0.546 1
1.836 -0.36300001 -0.546 1
1.848 -0.36399999 -0.54900002 1
1.8430001 -0.36199999 -0.54699999 1
1.848 -0.36199999 -0.54799998 1
1.849 -0.361 -0.54799998 1
1.842 -0.35800001 -0.546 1
1.853 -0.359 -0.54799998 1
1.857 -0.359 -0.54900002 1
1.859 -0.35800001 -0.54900002 1
1.8609999 -0.35699999 -0.54900002 1
1.8609999 -0.35600001 -0.54799998 1
1.8609999 -0.354 -0.54699999 1
1.876 -0.35600001 -0.551 1
1.876 -0.35499999 -0.55000001 1
1.88 -0.354 -0.551 1
1.882 -0.35299999 -0.55000001 1
1.88 -0.35100001 -0.54900002 1
1.893 -0.352 -0.55199999 2
1.891 -0.35100001 -0.551 2
1.892 -0.34900001 -0.55000001 1
1.895 -0.34799999 -0.55000001 1
1.899 -0.34799999 -0.55000001 1
1.8940001 -0.345 -0.54799998 1
1.898 -0.345 -0.54799998 1
1.903 -0.34400001 -0.54799998 1
1.906 -0.34299999 -0.54799998 1
1.92 -0.34400001 -0.551 1
1.926 -0.34400001 -0.55199999 1
1.929 -0.34299999 -0.55199999 1
1.921 -0.34 -0.54799998 1
1.939 -0.34099999 -0.55199999 1
1.9450001 -0.34099999 -0.55299997 1
1.944 -0.33899999 -0.551 1
1.95 -0.33899999 -0.551 1
1.952 -0.33700001 -0.551 1
1.9579999 -0.33700001 -0.551 1
1.959 -0.33500001 -0.55000001 1
1.97 -0.33500001 -0.55199999 1
1.977 -0.33500001 -0.55299997 1
1.984 -0.33399999 -0.55299997 1
1.987 -0.333 -0.55299997 1
1.9910001 -0.33199999 -0.55199999 1
2.0090001 -0.333 -0.55599999 1
2.013 -0.33199999 -0.55500001 1
2.0139999 -0.331 -0.55400002 1
2.0220001 -0.33000001 -0.55500001 1
2.03 -0.33000001 -0.55500001 1
2.0409999 -0.33000001 -0.55699998 1
2.04 -0.32800001 -0.55500001 1
2.052 -0.32800001 -0.55599999 1
2.0599999 -0.32699999 -0.55599999 1
2.062 -0.32600001 -0.55500001 1
2.0710001 -0.32499999 -0.55599999 1
2.075 -0.324 -0.55500001 1
2.086 -0.324 -0.55599999 1
2.0880001 -0.322 -0.55500001 1
2.1070001 -0.32300001 -0.55800003 1
2.099 -0.31999999 -0.55400002 1
2.1059999 -0.31900001 -0.55400002 1
2.1099999 -0.31799999 -0.55299997 1
2.1199999 -0.317 -0.55400002 1
2.1289999 -0.31600001 -0.55400002 1
2.151 -0.31799999 -0.55699998 1
2.152 -0.31600001 -0.55599999 1
2.1600001 -0.315 -0.55500001 1
2.214 -0.31999999 -0.56699997 1
2.188 -0.315 -0.55800003 1
2.1989999 -0.31400001 -0.55900002 1
2.2079999 -0.31299999 -0.55900002 1
2.2739999 -0.32100001 -0.57300001 1
2.2750001 -0.31799999 -0.57099998 1
2.3169999 -0.322 -0.579 1
2.3380001 -0.32300001 -0.58099997 1
2.3729999 -0.32499999 -0.588 1
2.3340001 -0.317 -0.57499999 1
2.3970001 -0.324 -0.588 1
2.303 -0.30899999 -0.56300002 1
2.3210001 -0.30899999 -0.56400001 1
2.3269999 -0.30700001 -0.56300002 1
2.4489999 -0.32100001 -0.58999997 1
2.4779999 -0.322 -0.59399998 1
2.4000001 -0.31 -0.57200003 1
2.404 -0.308 -0.56999999 1
2.4719999 -0.31400001 -0.58399999 1
2.4460001 -0.308 -0.574 1
2.4519999 -0.30700001 -0.57300001 1
2.506 -0.31099999 -0.58200002 1
2.47 -0.30399999 -0.57099998 1
2.4949999 -0.30500001 -0.574 1
2.539 -0.30700001 -0.57999998 1
2.5120001 -0.30199999 -0.57099998 1
2.5339999 -0.30199999 -0.57300001 1
2.5380001 -0.30000001 -0.56999999 1
0 0 0 1
2.605 -0.30199999 -0.57800001 1
2.721 -0.31299999 -0.60100001 1
2.7490001 -0.31299999 -0.60299999 1
2.665 -0.301 -0.58099997 1
2.727 -0.30500001 -0.59100002 1
2.664 -0.29499999 -0.574 1
2.6860001 -0.29499999 -0.57499999 1
2.71 -0.29499999 -0.57599998 2
2.7390001 -0.29499999 -0.57800001 2
2.766 -0.296 -0.57999998 2
2.783 -0.29499999 -0.57999998 2
2.803 -0.294 -0.57999998 2
2.835 -0.294 -0.583 2
2.8599999 -0.294 -0.58399999 2
2.8729999 -0.29300001 -0.58200002 2
2.892 -0.292 -0.58200002 2
2.9189999 -0.29100001 -0.583 2
2.9530001 -0.292 -0.58499998 2
2.984 -0.292 -0.58700001 2
3.017 -0.292 -0.58899999 2
3.0369999 -0.29100001 -0.588 2
3.063 -0.28999999 -0.58899999 2
3.095 -0.28999999 -0.58999997 2
3.125 -0.28999999 -0.59100002 2
3.1600001 -0.28999999 -0.59299999 2
3.28 -0.29800001 -0.61000001 2
3.309 -0.29699999 -0.611 2
3.345 -0.29699999 -0.61199999 2
3.316 -0.29100001 -0.60100001 1
3.3699999 -0.292 -0.60600001 2
3.507 -0.301 -0.625 2
3.428 -0.28999999 -0.60500002 1
3.4790001 -0.29100001 -0.60799998 1
3.49 -0.289 -0.60500002 1
3.5469999 -0.28999999 -0.60900003 2
3.5769999 -0.289 -0.60799998 3
3.608 -0.28799999 -0.60699999 2
3.677 -0.28999999 -0.61299998 2
3.697 -0.28799999 -0.61000001 2
3.7869999 -0.29100001 -0.61900002 3
3.8440001 -0.29100001 -0.62099999 3
3.915 -0.29300001 -0.62599999 3
3.9330001 -0.29100001 -0.62300003 2
3.948 -0.28799999 -0.61799997 2
4.0380001 -0.29100001 -0.62599999 2
4.0489998 -0.28799999 -0.62 2
4.145 -0.28999999 -0.62800002 2
4.1929998 -0.28999999 -0.62800002 2
4.2859998 -0.292 -0.63499999 3
4.3439999 -0.292 -0.63599998 2
4.401 -0.292 -0.63599998 2
4.4679999 -0.292 -0.63800001 2
4.5300002 -0.292 -0.639 4
4.6149998 -0.29300001 -0.64300001 2
4.7069998 -0.294 -0.64700001 3
4.8039999 -0.296 -0.65200001 5
4.8870001 -0.29699999 -0.65499997 7
4.9439998 -0.29499999 -0.653 9
5.0279999 -0.296 -0.65499997 10
5.112 -0.296 -0.65700001 9
5.198 -0.296 -0.65899998 7
5.3410001 -0.30000001 -0.667 5
5.461 -0.30199999 -0.67199999 5
5.566 -0.30199999 -0.67500001 4
5.7030001 -0.30500001 -0.68099999 4
5.8639998 -0.308 -0.69 5
5.9499998 -0.30700001 -0.68900001 5
6.0710001 -0.308 -0.69199997 3
6.2090001 -0.31 -0.69599998 3
6.3390002 -0.31099999 -0.69800001 4
6.4860001 -0.31200001 -0.70200002 4
6.6469998 -0.31400001 -0.70700002 4
6.8280001 -0.317 -0.71399999 4
6.9959998 -0.31900001 -0.71799999 4
7.1529999 -0.31999999 -0.72100002 5
7.348 -0.32300001 -0.72600001 5
7.5419998 -0.32499999 -0.73100001 5
7.723 -0.32600001 -0.73400003 5
7.947 -0.329 -0.74000001 6
8.1829996 -0.33199999 -0.74699998 5
8.4359999 -0.336 -0.75300002 4
8.7919998 -0.34299999 -0.76800001 4
9.2069998 -0.35100001 -0.787 7
9.5129995 -0.35600001 -0.79400003 17
9.7379999 -0.35600001 -0.79400003 20
10.051 -0.36000001 -0.80000001 7
10.455 -0.366 -0.81199998 4
10.912 -0.373 -0.82599998 2
11.472 -0.384 -0.84600002 2
12.139 -0.39700001 -0.87199998 3
12.837 -0.41 -0.89700001 3
13.517 -0.421 -0.91799998 3
14.256 -0.433 -0.93900001 3
14.48 -0.43000001 -0.926 2
0 0 0 2
0 0 0 2
0 0 0 1
0 0 0 2
0 0 0 2
0 0 0 4
27.528 -0.67799997 -1.375 22
27.554001 -0.65899998 -1.321 43
27.561001 -0.63999999 -1.266 53
27.556999 -0.62099999 -1.21 56
27.559 -0.602 -1.153 59
27.527 -0.583 -1.096 64
27.534 -0.565 -1.0420001 69
27.525 -0.546 -0.98500001 68
27.532 -0.528 -0.92900002 72
27.539 -0.50999999 -0.87199998 70
27.544001 -0.493 -0.81599998 66
27.549 -0.47499999 -0.75999999 63
27.566 -0.458 -0.704 61
27.559 -0.44100001 -0.648 59
27.587 -0.42399999 -0.59200001 57
27.589001 -0.40700001 -0.53500003 53
27.611 -0.391 -0.479 50
27.617001 -0.375 -0.42300001 49
27.620001 -0.35800001 -0.366 49
27.632 -0.34200001 -0.30899999 44
27.646999 -0.32699999 -0.252 47
27.649 -0.31099999 -0.19599999 45
27.679001 -0.296 -0.139 43
27.702 -0.28 -0.082000002 41
27.702999 -0.26499999 -0.024 38
27.737 -0.25 0.032000002 32
27.739 -0.235 0.090999998 38
27.753 -0.221 0.147 37
27.773001 -0.206 0.206 34
27.815001 -0.192 0.264 32
27.839001 -0.178 0.32100001 30
27.867001 -0.16500001 0.37900001 28
27.902 -0.15099999 0.43599999 22
27.98 -0.138 0.49599999 15
28.069 -0.124 0.55699998 8
28.142 -0.112 0.61699998 1
0 0 0 13
31.530001 -0.096000001 0.82200003 14
31.540001 -0.082000002 0.88700002 13
31.576 -0.068000004 0.954 7
0 0 0 0
0 0 0 9
36.333 -0.030999999 1.322 9
36.335999 -0.016000001 1.397 9
36.334 -0.001 1.472 8
36.311001 0.013 1.5470001 8
36.338001 0.027000001 1.625 6
36.313999 0.041999999 1.699 4
0 0 0 2
28.862 0.055 1.47 2
0 0 0 33
36.252998 0.094999999 1.997 34
36.262001 0.108 2.073 26
0 0 0 1
31.664 0.116 1.9400001 1
0 0 0 14
34.015999 0.147 2.2249999 17
33.285999 0.155 2.2449999 18
32.561001 0.161 2.263 18
32.067001 0.169 2.2950001 25
31.867001 0.177 2.345 47
31.833 0.186 2.408 52
31.836 0.19499999 2.474 52
31.825001 0.204 2.54 52
31.819 0.212 2.6040001 55
31.82 0.221 2.6689999 54
31.815001 0.229 2.734 52
31.815001 0.237 2.799 51
31.796 0.245 2.8629999 50
31.813999 0.252 2.928 53
31.791 0.259 2.9909999 52
31.851 0.266 3.0599999 37
31.972 0.27399999 3.1370001 26
32.165001 0.28299999 3.2219999 15
32.188 0.289 3.289 15
32.189999 0.296 3.355 15
32.194 0.30199999 3.4200001 15
32.171001 0.30700001 3.4809999 13
32.194 0.31299999 3.55 13
32.182999 0.31799999 3.6140001 11
32.179001 0.32300001 3.6760001 14
32.182999 0.329 3.7420001 14
32.182999 0.333 3.806 16
32.182999 0.338 3.8699999 15
32.162998 0.34200001 3.9319999 9
32.221001 0.34599999 4.0019999 2
0 0 0 5
0 0 0 1
32.116001 0.35600001 4.1799998 2
32.073002 0.359 4.2379999 1
0 0 0 27
35.709999 0.40599999 4.8579998 26
35.669998 0.40799999 4.9229999 29
35.630001 0.41 4.9860001 33
35.612999 0.412 5.052 33
35.617001 0.414 5.1220002 34
35.611 0.41600001 5.1890001 38
35.644001 0.41800001 5.263 36
35.738998 0.421 5.3460002 27
35.896999 0.42399999 5.4380002 15
36.216 0.42899999 5.5560002 6
36.254002 0.43099999 5.6300001 5
36.25 0.43000001 5.697 4
36.389999 0.433 5.7870002 3
36.409 0.433 5.8590002 4
36.173 0.43000001 5.8889999 9
35.919998 0.42699999 5.914 16
35.666 0.42300001 5.9390001 26
35.372002 0.419 5.9549999 26
35.123001 0.41499999 5.9780002 26
34.792 0.41 5.9860001 25
34.487 0.405 5.9970002 25
34.181999 0.40000001 6.007 25
33.889 0.39500001 6.0170002 24
33.603001 0.38999999 6.0279999 24
33.327 0.384 6.039 23
33.043999 0.37900001 6.046 22
32.796001 0.37400001 6.0599999 23
32.505001 0.368 6.0640001 22
32.243999 0.36199999 6.072 22
31.975 0.35600001 6.079 21
31.737 0.35100001 6.0900002 22
31.495001 0.345 6.099 24
31.298 0.33899999 6.1160002 24
31.030001 0.333 6.1170001 27
30.816999 0.32699999 6.1279998 28
30.575001 0.32100001 6.1329999 23
30.358 0.315 6.1420002 23
30.146 0.30899999 6.1500001 24
29.947001 0.303 6.1609998 27
29.719999 0.296 6.164 26
29.507 0.28999999 6.1700001 25
29.320999 0.28299999 6.1789999 28
29.167 0.27700001 6.1960001 24
28.938 0.271 6.1960001 27
28.740999 0.264 6.2010002 24
28.573999 0.25799999 6.2119999 24
28.400999 0.25099999 6.2210002 25
28.238001 0.245 6.2309999 21
28.047001 0.237 6.2350001 22
27.875 0.23100001 6.2410002 23
27.716999 0.22400001 6.2509999 23
27.547001 0.21799999 6.256 23
27.362 0.20999999 6.257 23
27.212 0.20299999 6.2659998 25
27.056999 0.19599999 6.2729998 33
26.900999 0.189 6.277 26
26.735001 0.183 6.2800002 28
26.582001 0.175 6.2849998 28
26.440001 0.168 6.2930002 29
26.291 0.161 6.296 28
26.143999 0.154 6.3000002 28
26.000999 0.147 6.3049998 26
25.857 0.14 6.309 23
25.707001 0.133 6.3099999 23
25.57 0.126 6.3140001 25
25.457001 0.118 6.323 24
25.316999 0.111 6.3249998 23
25.188999 0.103 6.3299999 24
25.055 0.096000001 6.3319998 22
24.931999 0.089000002 6.336 29
24.798 0.081 6.3369999 27
24.698999 0.074000001 6.3460002 23
24.544001 0.067000002 6.3400002 27
24.438999 0.059 6.3470001 23
24.320999 0.052000001 6.3499999 24
24.202 0.044 6.3509998 31
24.118 0.037 6.3610001 31
24.003 0.029999999 6.3629999 31
23.910999 0.022 6.3699999 29
23.796 0.015 6.3709998 29
23.701 0.0080000004 6.375 24
23.584999 0 6.375 24
23.492001 -0.0060000001 6.3790002 30
23.393 -0.014 6.382 26
23.297001 -0.022 6.3850002 26
23.195999 -0.028999999 6.3870001 24
23.097 -0.035999998 6.388 28
23.004999 -0.043000001 6.3899999 23
22.912001 -0.052000001 6.3930001 28
22.84 -0.059 6.3990002 23
22.757 -0.066 6.4029999 24
22.686001 -0.074000001 6.4099998 24
22.565001 -0.082000002 6.402 28
22.490999 -0.089000002 6.4060001 29
22.414 -0.096000001 6.4099998 28
22.326 -0.104 6.4099998 29
22.250999 -0.112 6.4130001 24
22.160999 -0.119 6.4120002 29
22.084 -0.126 6.4130001 28
22.013 -0.134 6.4159999 31
21.948999 -0.142 6.4200001 30
21.889 -0.149 6.4260001 26
21.823999 -0.15700001 6.4289999 26
21.768999 -0.16500001 6.4359999 29
21.676001 -0.17200001 6.4299998 27
21.611 -0.18000001 6.4320002 26
21.538 -0.18799999 6.4320002 30
21.476999 -0.19499999 6.4349999 31
21.41 -0.20299999 6.4349999 24
21.346001 -0.20999999 6.4359999 31
21.299999 -0.21699999 6.4419999 27
21.240999 -0.226 6.4439998 25
21.188 -0.233 6.447 27
21.128 -0.241 6.448 32
21.080999 -0.248 6.4520001 27
21.023001 -0.25600001 6.4520001 26
20.978001 -0.264 6.4559999 28
20.92 -0.271 6.4559999 33
20.863001 -0.27900001 6.4549999 34
20.812 -0.287 6.4569998 31
20.761 -0.294 6.4580002 30
20.723 -0.30199999 6.4619999 30
20.674999 -0.30899999 6.4629998 26
20.624001 -0.317 6.4629998 33
20.580999 -0.324 6.4650002 33
20.539 -0.33199999 6.467 27
20.504 -0.34 6.4699998 27
20.462 -0.34799999 6.4720001 25
20.412001 -0.35499999 6.4699998 25
20.377001 -0.36300001 6.473 26
20.341 -0.37099999 6.4749999 24
20.302999 -0.37799999 6.4759998 27
20.257 -0.38600001 6.4749999 31
20.218 -0.39300001 6.4749999 32
20.181999 -0.40099999 6.4749999 26
20.139 -0.40900001 6.473 32
20.117001 -0.417 6.4780002 33
20.073 -0.42399999 6.4759998 33
20.048 -0.43200001 6.4790001 33
20.023001 -0.43900001 6.4809999 24
19.989 -0.447 6.4809999 25
19.966999 -0.45500001 6.4840002 32
19.933001 -0.46200001 6.4829998 34
19.908001 -0.47 6.4840002 32
19.879 -0.477 6.4840002 26
19.855 -0.486 6.4860001 33
19.82 -0.493 6.4829998 33
19.813999 -0.50099999 6.4889998 34
19.792 -0.509 6.4899998 25
19.782 -0.51599997 6.4949999 25
19.747999 -0.52399999 6.4920001 32
19.729 -0.53100002 6.4920001 25
19.722 -0.54000002 6.4970002 25
19.693001 -0.54699999 6.494 24
19.67 -0.55500001 6.493 29
19.646 -0.56300002 6.4910002 31
19.636999 -0.56999999 6.4949999 24
19.613001 -0.57800001 6.4920001 24
19.601 -0.58600003 6.494 29
19.586 -0.59299999 6.494 27
19.573 -0.60100001 6.494 29
19.552 -0.60799998 6.4920001 29
19.554001 -0.61699998 6.4959998 23
19.531 -0.62400001 6.493 23
19.524 -0.63200003 6.494 32
19.503 -0.639 6.4899998 28
19.506001 -0.648 6.494 29
19.485001 -0.65499997 6.4899998 30
19.483999 -0.66299999 6.4920001 30
19.482 -0.671 6.494 24
19.473 -0.67900002 6.493 29
19.466 -0.68599999 6.4920001 31
19.464001 -0.69400001 6.493 24
19.466999 -0.70300001 6.494 24
19.455 -0.70999998 6.4910002 24
19.452 -0.71799999 6.4910002 31
19.447001 -0.72500002 6.4899998 30
19.452999 -0.73299998 6.4910002 31
19.459 -0.74199998 6.493 24
19.450001 -0.74900001 6.4889998 30
19.458 -0.75700003 6.4910002 24
19.452 -0.76499999 6.4879999 30
19.461 -0.773 6.4889998 30
19.465 -0.78100002 6.4889998 25
19.475 -0.78899997 6.4899998 25
19.476 -0.79699999 6.4879999 25
19.485001 -0.80500001 6.4879999 25
19.48 -0.81199998 6.4840002 30
19.488001 -0.81999999 6.4829998 32
19.506001 -0.829 6.4860001 23
19.514 -0.83600003 6.4850001 25
19.525999 -0.84399998 6.4850001 31
19.542 -0.85299999 6.4860001 24
19.552 -0.861 6.4840002 24
19.568001 -0.86900002 6.4850001 24
19.572001 -0.87599999 6.4809999 24
19.598 -0.88499999 6.4840002 25
19.606001 -0.89300001 6.4809999 29
19.615 -0.90100002 6.4780002 24
0 0 0 1
9.9940004 -0.46599999 3.2939999 1
9.9969997 -0.47 3.2909999 4
9.9700003 -0.472 3.279 6
9.9440002 -0.47499999 3.266 9
9.9250002 -0.477 3.256 12
9.927 -0.48100001 3.253 9
9.9029999 -0.48300001 3.2409999 14
9.8999996 -0.48699999 3.2360001 16
9.8719997 -0.48899999 3.2219999 16
9.8730001 -0.493 3.2179999 15
9.8599997 -0.495 3.2090001 11
9.8409996 -0.498 3.198 18
9.8479996 -0.50099999 3.1949999 11
9.816 -0.50300002 3.1800001 18
9.8100004 -0.50599998 3.1719999 18
9.8050003 -0.509 3.1659999 20
9.8000002 -0.51200002 3.158 14
9.7919998 -0.51499999 3.1500001 14
9.7849998 -0.51800001 3.142 23
9.7869997 -0.52100003 3.1370001 15
9.7639999 -0.523 3.1229999 14
9.7580004 -0.52600002 3.115 14
9.7589998 -0.52899998 3.1099999 15
9.75 -0.53200001 3.0999999 13
9.7440004 -0.53399998 3.092 23
9.7469997 -0.53799999 3.086 14
9.7349997 -0.54000002 3.075 16
9.7329998 -0.54299998 3.0680001 15
9.7329998 -0.546 3.0610001 16
9.7270002 -0.54799998 3.052 15
9.7200003 -0.551 3.0420001 17
9.7060003 -0.55299997 3.0309999 16
9.71 -0.55599999 3.0239999 18
9.6990004 -0.55800003 3.013 17
9.7069998 -0.56099999 3.0079999 19
9.6949997 -0.56300002 2.9960001 18
9.6829996 -0.565 2.9849999 19
9.6929998 -0.56800002 2.9790001 20
9.6879997 -0.56999999 2.97 18
9.6829996 -0.57300001 2.9590001 19
9.6759996 -0.57499999 2.9489999 20
9.6689997 -0.57700002 2.938 20
9.6750002 -0.57999998 2.931 25
9.6639996 -0.58200002 2.918 26
9.6709995 -0.58499998 2.9119999 26
9.6660004 -0.58700001 2.901 26
9.6630001 -0.58899999 2.891 26
9.6540003 -0.59100002 2.8789999 26
9.6529999 -0.59299999 2.869 27
9.6470003 -0.59500003 2.858 27
9.651 -0.597 2.849 27
9.6599998 -0.60000002 2.842 27
9.6459999 -0.60100001 2.8280001 27
9.6420002 -0.60299999 2.8169999 27
9.632 -0.60500002 2.803 27
9.6359997 -0.60699999 2.7939999 27
9.6409998 -0.60900003 2.7850001 27
9.6330004 -0.61000001 2.7720001 27
9.6359997 -0.61299998 2.763 28
9.625 -0.61299998 2.7490001 27
9.6269999 -0.616 2.7390001 27
9.6359997 -0.61799997 2.73 27
9.6199999 -0.61900002 2.714 27
9.625 -0.62099999 2.7049999 27
9.6199999 -0.62199998 2.6919999 27
9.6230001 -0.62400001 2.681 27
9.6120005 -0.62400001 2.6670001 27
9.6149998 -0.62599999 2.6559999 27
9.6079998 -0.62699997 2.642 27
9.6020002 -0.62800002 2.6289999 27
9.618 -0.63099998 2.6210001 27
9.6009998 -0.63099998 2.605 27
9.6070004 -0.63300002 2.5940001 28
9.5939999 -0.63300002 2.5780001 28
9.5970001 -0.634 2.5669999 28
9.6029997 -0.63599998 2.556 28
9.6029997 -0.63700002 2.543 27
9.599 -0.63800001 2.53 28
9.599 -0.639 2.517 28
9.5950003 -0.63999999 2.503 28
9.6009998 -0.64099997 2.4909999 27
9.6120005 -0.64300001 2.4809999 27
9.6029997 -0.64300001 2.4660001 27
9.6009998 -0.64300001 2.4519999 28
9.592 -0.64399999 2.4360001 28
9.5860004 -0.64399999 2.421 28
9.5889997 -0.64499998 2.408 28
9.5780001 -0.64499998 2.392 28
9.5889997 -0.64600003 2.381 28
9.5749998 -0.64600003 2.3640001 28
9.5889997 -0.64700001 2.3529999 29
9.585 -0.64700001 2.3380001 29
9.5780001 -0.64700001 2.323 29
9.5860004 -0.648 2.3110001 29
9.5649996 -0.64700001 2.2920001 29
9.5719995 -0.64700001 2.279 29
9.5710001 -0.64700001 2.2639999 28
9.566 -0.64700001 2.2490001 28
9.566 -0.64700001 2.234 28
9.573 -0.64700001 2.221 28
9.5719995 -0.648 2.2060001 28
9.5690002 -0.64700001 2.1900001 28
9.5760002 -0.648 2.177 28
9.573 -0.64700001 2.161 29
9.5679998 -0.64600003 2.145 28
9.5570002 -0.64499998 2.1270001 28
9.5609999 -0.64499998 2.1129999 28
9.5640001 -0.64499998 2.098 29
9.5649996 -0.64399999 2.0829999 28
9.5670004 -0.64399999 2.0680001 30
9.5640001 -0.64300001 2.0510001 30
9.5719995 -0.64300001 2.0369999 29
9.5609999 -0.64200002 2.02 29
9.5609999 -0.64099997 2.0039999 28
9.5629997 -0.63999999 1.989 29
9.5649996 -0.639 1.973 28
9.559 -0.63800001 1.956 28
9.5539999 -0.63700002 1.938 28
9.5679998 -0.63700002 1.926 28
9.5690002 -0.63599998 1.91 28
9.5649996 -0.634 1.893 28
9.5629997 -0.63300002 1.876 29
9.5550003 -0.63099998 1.858 28
9.5600004 -0.63 1.8430001 29
9.5609999 -0.62900001 1.827 28
9.5679998 -0.62800002 1.811 30
9.5640001 -0.62599999 1.794 30
9.5679998 -0.625 1.778 30
9.5740004 -0.62300003 1.762 30
9.5559998 -0.62 1.742 30
9.5640001 -0.61900002 1.727 29
9.5710001 -0.61799997 1.711 28
9.5649996 -0.616 1.693 27
9.573 -0.61400002 1.677 28
9.5640001 -0.611 1.659 29
9.566 -0.61000001 1.642 29
9.5559998 -0.60699999 1.623 28
9.5670004 -0.60500002 1.607 28
9.5670004 -0.60299999 1.589 29
9.573 -0.60100001 1.573 28
9.566 -0.59799999 1.5549999 27
9.5690002 -0.59600002 1.538 28
9.5699997 -0.59299999 1.52 29
9.5790005 -0.59100002 1.5039999 29
9.5749998 -0.588 1.485 29
9.5670004 -0.58499998 1.466 28
9.5780001 -0.583 1.45 28
9.5760002 -0.57999998 1.432 27
9.5670004 -0.57700002 1.413 27
9.5819998 -0.574 1.397 27
9.5869999 -0.57200003 1.38 28
9.592 -0.56900001 1.363 28
9.5830002 -0.565 1.3430001 27
9.5819998 -0.56199998 1.325 27
9.5839996 -0.55900002 1.307 27
9.5819998 -0.55500001 1.289 26
9.5939999 -0.55199999 1.272 26
9.5970001 -0.54900002 1.2539999 26
9.5950003 -0.54500002 1.2359999 26
9.5909996 -0.54100001 1.217 26
9.6040001 -0.53799999 1.2 26
9.6009998 -0.53500003 1.182 26
9.6090002 -0.53100002 1.164 27
9.6169996 -0.528 1.147 26
9.6079998 -0.523 1.127 25
9.6059999 -0.51899999 1.108 25
9.6269999 -0.51599997 1.092 25
9.6210003 -0.51099998 1.073 25
9.6280003 -0.50800002 1.0549999 25
9.625 -0.50300002 1.036 24
9.6350002 -0.49900001 1.018 24
9.6400003 -0.495 1 25
9.6450005 -0.491 0.98199999 24
9.6389999 -0.486 0.963 24
9.651 -0.48199999 0.94499999 22
9.6520004 -0.477 0.926 15
9.6549997 -0.472 0.90700001 21
9.6719999 -0.46799999 0.88999999 15
9.6789999 -0.463 0.87199998 21
9.6850004 -0.45899999 0.85299999 17
9.6850004 -0.454 0.83399999 16
9.6960001 -0.449 0.81599998 17
9.6920004 -0.44299999 0.796 21
9.7139997 -0.43900001 0.77899998 21
9.7349997 -0.435 0.76200002 14
9.7379999 -0.42899999 0.74299997 21
9.7510004 -0.42399999 0.72399998 21
9.7659998 -0.419 0.70599997 19
9.7790003 -0.414 0.68800002 17
9.8079996 -0.41 0.67000002 16
9.8260002 -0.40400001 0.65200001 12
9.8339996 -0.39899999 0.63300002 11
9.8760004 -0.39399999 0.616 7
9.927 -0.38999999 0.60000002 3
9.9189997 -0.384 0.57999998 1
0 0 0 11
27.93 -1.046 1.522 18
27.898001 -1.027 1.465 22
27.864 -1.007 1.408 26
27.83 -0.98799998 1.352 27
27.805 -0.96799999 1.295 30
27.799999 -0.94999999 1.2410001 33
27.764 -0.93000001 1.1849999 33
27.740999 -0.91000003 1.1289999 36
27.726999 -0.88999999 1.073 37
27.702999 -0.86900002 1.017 39
27.702999 -0.85000002 0.963 39
27.677999 -0.829 0.90700001 40
27.663 -0.80900002 0.85100001 41
27.657 -0.78799999 0.796 44
27.636 -0.76700002 0.741 46
27.632999 -0.74699998 0.68599999 51
27.622999 -0.72500002 0.63200003 50
27.614 -0.70499998 0.57800001 51
27.612 -0.68300003 0.523 56
27.607 -0.662 0.46799999 57
27.598 -0.63999999 0.414 61
27.589001 -0.61799997 0.359 50
27.584999 -0.59600002 0.30399999 60
27.573 -0.574 0.249 66
27.565001 -0.551 0.19499999 71
27.559999 -0.52899998 0.142 63
27.565001 -0.50700003 0.088 63
27.575001 -0.484 0.034000002 60
27.589001 -0.461 -0.018999999 55
27.597 -0.43799999 -0.074000001 56
27.593 -0.41499999 -0.12800001 50
27.605 -0.39199999 -0.18000001 49
27.614 -0.368 -0.235 48
27.625 -0.345 -0.28799999 45
27.629999 -0.32100001 -0.34200001 41
27.636999 -0.29699999 -0.396 42
27.665001 -0.273 -0.44999999 37
27.677 -0.248 -0.50300002 35
27.691999 -0.22400001 -0.55699998 34
27.702 -0.198 -0.611 33
0 0 0 6
6.2859998 -0.033 -0.162 152
6.3280001 -0.028000001 -0.176 155
6.3429999 -0.022 -0.18799999 155
6.3670001 -0.016000001 -0.20100001 156
6.3559999 -0.0099999998 -0.213 156
6.3379998 -0.0040000002 -0.22400001 157
6.329 0.001 -0.236 157
6.3130002 0.0070000002 -0.24699999 158
6.3109999 0.013 -0.259 160
6.303 0.018999999 -0.271 162
6.3049998 0.025 -0.28299999 163
6.302 0.030999999 -0.294 157
6.2709999 0.037 -0.30500001 155
6.257 0.043000001 -0.315 155
6.256 0.048999999 -0.32699999 82
6.2069998 0.055 -0.336 4
6.3080001 0.061999999 -0.35299999 71
6.2800002 0.068000004 -0.36300001 155
6.2690001 0.074000001 -0.37400001 155
6.2839999 0.081 -0.38699999 158
6.2870002 0.086999997 -0.39899999 166
6.2620001 0.093999997 -0.40799999 166
6.2849998 0.1 -0.42199999 168
6.2550001 0.106 -0.43099999 161
6.2709999 0.113 -0.44299999 157
6.1960001 0.118 -0.449 155
6.2010002 0.125 -0.461 155
6.256 0.133 -0.47600001 155
6.2340002 0.139 -0.486 155
6.257 0.146 -0.49900001 155
6.2059999 0.15099999 -0.50599998 98
6.296 0.16 -0.52499998 28
6.2930002 0.167 -0.53500003 16
6.2969999 0.17399999 -0.54699999 5
6.3390002 0.182 -0.56199998 1
6.3629999 0.189 -0.57499999 1
0 0 0 1
6.539 0.20900001 -0.61299998 2
0 0 0 4
7.0970001 0.242 -0.69 4
6.8379998 0.241 -0.67699999 4
6.6500001 0.242 -0.67000002 1
6.3509998 0.23800001 -0.65100002 2
6.2649999 0.241 -0.65200001 3
6.256 0.248 -0.662 4
6.2140002 0.25299999 -0.66799998 6
6.1420002 0.257 -0.671 8
6.0650001 0.26100001 -0.67299998 9
5.9590001 0.26300001 -0.671 6
5.855 0.26499999 -0.66900003 4
5.7189999 0.266 -0.66299999 3
5.6079998 0.26699999 -0.65899998 3
5.4899998 0.26699999 -0.65499997 3
5.4200001 0.27000001 -0.65499997 3
5.3140001 0.271 -0.65100002 3
5.2119999 0.27200001 -0.64700001 3
5.132 0.27399999 -0.64499998 4
5.0240002 0.27399999 -0.63999999 3
4.9450002 0.27500001 -0.63800001 4
4.842 0.27500001 -0.63200003 4
4.7820001 0.27700001 -0.63200003 3
4.7030001 0.278 -0.62900001 3
4.6409998 0.28 -0.62800002 3
4.5539999 0.28 -0.62300003 3
4.4899998 0.28099999 -0.62199998 3
4.4349999 0.28299999 -0.62099999 3
4.3639998 0.28400001 -0.61799997 2
4.2719998 0.28299999 -0.611 2
4.224 0.28400001 -0.611 2
4.1279998 0.28299999 -0.60299999 2
4.1100001 0.28600001 -0.60699999 2
4.0770001 0.289 -0.60799998 2
4.0100002 0.289 -0.60399997 2
3.9760001 0.29100001 -0.60500002 2
3.9909999 0.29699999 -0.61299998 2
3.8759999 0.29300001 -0.60100001 2
3.813 0.29300001 -0.597 2
3.826 0.29800001 -0.60500002 2
3.789 0.30000001 -0.60399997 3
3.7390001 0.301 -0.602 3
3.665 0.29899999 -0.59500003 2
3.6159999 0.29899999 -0.59200001 1
3.5969999 0.30199999 -0.59399998 2
3.5220001 0.30000001 -0.58700001 1
3.5079999 0.303 -0.58999997 2
3.4579999 0.303 -0.58600003 2
3.418 0.303 -0.58399999 1
3.3989999 0.30599999 -0.58499998 1
3.3859999 0.30899999 -0.588 2
3.3759999 0.31200001 -0.59100002 2
3.3210001 0.31099999 -0.58499998 2
3.3099999 0.31400001 -0.588 2
3.29 0.31600001 -0.58899999 2
3.2360001 0.31400001 -0.583 2
3.2149999 0.31600001 -0.58399999 2
3.158 0.31400001 -0.57700002 2
3.2119999 0.32300001 -0.59200001 2
3.1489999 0.32100001 -0.58399999 2
3.158 0.32499999 -0.58999997 2
3.095 0.32300001 -0.58200002 2
3.0280001 0.31900001 -0.57300001 2
3 0.31999999 -0.57099998 2
2.9779999 0.32100001 -0.57099998 2
2.96 0.322 -0.57099998 2
2.9300001 0.32300001 -0.56900001 2
2.898 0.32300001 -0.56599998 2
2.881 0.324 -0.56599998 2
2.862 0.32499999 -0.56599998 2
2.8440001 0.32699999 -0.56599998 2
2.832 0.329 -0.56699997 2
2.8069999 0.329 -0.565 2
2.789 0.33000001 -0.565 2
2.7679999 0.331 -0.56400001 2
2.7539999 0.333 -0.56400001 2
2.734 0.333 -0.56300002 1
2.733 0.336 -0.56599998 1
2.73 0.33899999 -0.56800002 1
2.707 0.34 -0.56599998 1
2.661 0.33700001 -0.56 1
2.664 0.34 -0.56300002 1
2.6630001 0.34299999 -0.56599998 1
2.654 0.345 -0.56699997 1
2.6140001 0.34299999 -0.56099999 1
2.628 0.34799999 -0.56699997 1
2.615 0.34900001 -0.56699997 1
2.556 0.34400001 -0.55599999 1
2.5350001 0.34400001 -0.55400002 1
2.526 0.34599999 -0.55500001 1
2.52 0.34799999 -0.55599999 1
2.5009999 0.34799999 -0.55400002 1
2.4909999 0.34999999 -0.55500001 1
2.4760001 0.34999999 -0.55400002 1
2.4679999 0.352 -0.55400002 1
2.45 0.352 -0.55299997 1
2.441 0.35299999 -0.55299997 1
2.4319999 0.35499999 -0.55299997 1
2.424 0.35600001 -0.55299997 1
2.4030001 0.35600001 -0.551 1
2.3900001 0.35699999 -0.55000001 1
2.3829999 0.35800001 -0.55000001 1
2.4679999 0.37400001 -0.57200003 1
2.3559999 0.359 -0.54799998 1
2.3399999 0.359 -0.546 1
2.339 0.36199999 -0.54799998 1
2.3280001 0.36199999 -0.54699999 1
2.3180001 0.36300001 -0.54699999 1
2.306 0.36399999 -0.546 1
2.3010001 0.366 -0.54699999 1
2.29 0.366 -0.546 1
2.2809999 0.36700001 -0.546 1
2.3340001 0.37799999 -0.56 1
2.3239999 0.37900001 -0.55900002 1
2.3 0.377 -0.55500001 1
2.2739999 0.375 -0.551 1
2.2850001 0.38 -0.55500001 1
2.2850001 0.382 -0.55599999 1
2.2750001 0.38299999 -0.55599999 1
2.221 0.37599999 -0.54400003 1
2.21 0.37599999 -0.54299998 1
2.2219999 0.38 -0.54699999 1
2.2360001 0.38499999 -0.55199999 1
2.2360001 0.38699999 -0.55299997 1
2.2690001 0.39500001 -0.56300002 1
2.1789999 0.38100001 -0.542 1
2.257 0.39700001 -0.56300002 1
2.217 0.39199999 -0.55400002 1
2.2909999 0.40700001 -0.574 1
0 0 0 1
2.1500001 0.38600001 -0.54100001 1
2.1270001 0.384 -0.537 1
2.125 0.38600001 -0.537 1
2.181 0.398 -0.55299997 1
2.224 0.40799999 -0.565 1
2.1440001 0.39500001 -0.54500002 1
2.2379999 0.414 -0.56999999 1
2.125 0.39500001 -0.54299998 1
2.0910001 0.391 -0.53500003 1
2.0940001 0.39300001 -0.537 1
2.082 0.39300001 -0.53500003 1
2.075 0.39300001 -0.53399998 1
2.0769999 0.396 -0.53500003 1
2.0739999 0.39700001 -0.53500003 1
2.0710001 0.398 -0.53500003 1
2.063 0.398 -0.53399998 1
2.0610001 0.39899999 -0.53399998 1
2.0580001 0.40000001 -0.53399998 1
2.052 0.40099999 -0.53299999 1
2.059 0.40400001 -0.53600001 1
2.04 0.40200001 -0.53200001 1
2.039 0.403 -0.53200001 1
2.0350001 0.40400001 -0.53200001 1
2.033 0.405 -0.53200001 1
2.039 0.40799999 -0.53399998 1
2.029 0.40700001 -0.53200001 1
2.029 0.40900001 -0.53299999 1
2.0369999 0.412 -0.53500003 1
2.0380001 0.414 -0.53600001 1
2.026 0.41299999 -0.53299999 1
2.0280001 0.41499999 -0.53399998 1
2.033 0.417 -0.53600001 1
2.03 0.41800001 -0.53600001 1
2.0250001 0.41800001 -0.53500003 1
2.0280001 0.41999999 -0.53600001 1
2.029 0.42199999 -0.537 1
2.0239999 0.42199999 -0.53600001 1
2.0150001 0.42199999 -0.53299999 1
2.0209999 0.42399999 -0.53500003 1
2.0179999 0.42500001 -0.53500003 1
2.0050001 0.42300001 -0.53200001 1
2.0109999 0.426 -0.53299999 1
2.007 0.426 -0.53299999 1
2.013 0.42899999 -0.53399998 1
2.003 0.428 -0.53200001 1
2.006 0.43000001 -0.53299999 1
2.003 0.43000001 -0.53200001 1
2.006 0.43200001 -0.53299999 1
2.0050001 0.433 -0.53299999 1
2.0039999 0.43399999 -0.53200001 1
2.006 0.435 -0.53299999 1
2.0009999 0.435 -0.53200001 1
2 0.43599999 -0.53200001 1
1.999 0.43700001 -0.53100002 1
1.998 0.43799999 -0.53100002 1
1.989 0.43700001 -0.528 1
1.9960001 0.43900001 -0.52999997 1
2.006 0.442 -0.53299999 1
2.003 0.44299999 -0.53200001 1
2.006 0.44400001 -0.53200001 1
2.029 0.44999999 -0.53799999 1
2.043 0.454 -0.54100001 1
2.1259999 0.47299999 -0.56300002 1
2.0220001 0.45100001 -0.53500003 1
2.0450001 0.45699999 -0.54100001 1
2.029 0.454 -0.537 1
2.0450001 0.45899999 -0.54100001 1
2.062 0.463 -0.54500002 1
2.079 0.46799999 -0.54900002 1
2.056 0.46399999 -0.542 1
2.082 0.47 -0.54900002 1
2.0350001 0.46000001 -0.53600001 1
2.0409999 0.46200001 -0.537 1
2.0869999 0.47299999 -0.54900002 1
2.0780001 0.472 -0.546 1
2.069 0.47099999 -0.54299998 1
2.0480001 0.46599999 -0.537 1
2.0810001 0.47400001 -0.54500002 1
2.0380001 0.465 -0.53299999 1
2.118 0.484 -0.55299997 1
2.1010001 0.48100001 -0.54799998 1
2.1270001 0.48699999 -0.55400002 1
2.0480001 0.46900001 -0.53299999 1
2.056 0.472 -0.53399998 1
2.0510001 0.47099999 -0.53200001 1
2.053 0.472 -0.53200001 1
2.053 0.472 -0.53100002 1
2.0580001 0.47400001 -0.53100002 1
2.062 0.47499999 -0.53200001 1
2.072 0.47799999 -0.53299999 1
2.0669999 0.477 -0.53100002 1
2.0829999 0.48100001 -0.53399998 1
2.0769999 0.47999999 -0.53200001 1
2.076 0.47999999 -0.53100002 1
2.0880001 0.48300001 -0.53299999 1
2.0899999 0.48300001 -0.53200001 1
2.095 0.48500001 -0.53299999 1
2.1070001 0.48699999 -0.53500003 1
2.1040001 0.48699999 -0.53299999 1
2.1110001 0.48899999 -0.53299999 1
2.1210001 0.491 -0.53500003 1
2.125 0.49200001 -0.53500003 1
2.1259999 0.49200001 -0.53399998 1
2.1370001 0.495 -0.53600001 1
2.1429999 0.49599999 -0.53600001 1
2.152 0.498 -0.537 1
2.158 0.5 -0.537 1
2.165 0.50099999 -0.537 1
2.266 0.52399999 -0.56099999 1
2.1719999 0.50300002 -0.537 1
2.1860001 0.50599998 -0.53899997 1
2.194 0.50700003 -0.53899997 1
2.1919999 0.50700003 -0.537 1
2.303 0.53200001 -0.56300002 1
2.2130001 0.51099998 -0.54000002 1
2.299 0.53100002 -0.55900002 1
2.3039999 0.53200001 -0.55900002 1
2.3210001 0.53500003 -0.56099999 1
2.3610001 0.54400003 -0.56900001 1
2.4000001 0.55299997 -0.57700002 1
2.3080001 0.53100002 -0.55299997 1
2.388 0.54900002 -0.57099998 1
2.3889999 0.54900002 -0.56900001 1
2.313 0.53100002 -0.54900002 1
2.2920001 0.52499998 -0.54299998 1
2.296 0.52600002 -0.542 1
2.3099999 0.52899998 -0.54299998 1
2.316 0.52899998 -0.54299998 1
2.3169999 0.52899998 -0.54100001 1
2.3340001 0.53200001 -0.54400003 1
2.3429999 0.53299999 -0.54400003 1
2.352 0.53500003 -0.54400003 1
2.3629999 0.537 -0.54400003 1
2.372 0.53799999 -0.54500002 1
2.382 0.53899997 -0.54500002 1
2.392 0.54100001 -0.54500002 1
2.402 0.542 -0.54500002 1
2.408 0.54299998 -0.54500002 1
2.421 0.54500002 -0.546 1
2.4289999 0.546 -0.54500002 1
2.4489999 0.54900002 -0.54799998 1
2.4890001 0.55699998 -0.55400002 1
2.5469999 0.56900001 -0.565 1
2.5380001 0.56599998 -0.56099999 1
2.539 0.565 -0.55800003 1
2.527 0.56099999 -0.55400002 1
2.516 0.55800003 -0.54900002 1
2.5339999 0.56099999 -0.55000001 1
2.5420001 0.56099999 -0.55000001 1
2.5539999 0.56300002 -0.55000001 1
2.566 0.56400001 -0.55000001 1
2.5829999 0.56599998 -0.551 1
2.609 0.57099998 -0.55400002 2
2.609 0.56900001 -0.551 2
2.6210001 0.56999999 -0.551 2
2.641 0.57300001 -0.55299997 2
2.6500001 0.574 -0.55199999 2
2.671 0.57700002 -0.55400002 2
2.6860001 0.579 -0.55500001 2
2.704 0.58099997 -0.55500001 1
2.7149999 0.58099997 -0.55500001 1
2.7909999 0.59600002 -0.56699997 1
2.823 0.60100001 -0.57099998 1
2.7720001 0.588 -0.55800003 1
2.809 0.59399998 -0.56199998 1
2.8469999 0.60100001 -0.56699997 1
2.9130001 0.61299998 -0.57700002 1
2.9230001 0.61299998 -0.57599998 1
2.9289999 0.61199999 -0.574 1
2.948 0.61400002 -0.57499999 1
2.954 0.61299998 -0.57200003 1
3.0320001 0.62699997 -0.58499998 1
3.0369999 0.62599999 -0.58200002 2
3.0420001 0.625 -0.57999998 1
3.0369999 0.62099999 -0.57499999 2
3.1849999 0.64899999 -0.60000002 2
3.095 0.62800002 -0.57999998 1
3.098 0.62599999 -0.57700002 1
3.0999999 0.62400001 -0.57300001 1
3.164 0.63499999 -0.58200002 1
3.1930001 0.63800001 -0.583 2
3.161 0.62900001 -0.574 2
3.1849999 0.63099998 -0.57499999 2
3.293 0.64999998 -0.58999997 2
3.2590001 0.63999999 -0.57999998 2
3.2939999 0.64399999 -0.583 2
3.336 0.64899999 -0.58600003 2
3.3659999 0.65200001 -0.588 2
3.3340001 0.64300001 -0.57800001 2
3.4130001 0.65499997 -0.588 2
3.451 0.65899998 -0.58999997 2
3.4219999 0.64999998 -0.58099997 2
3.4130001 0.64600003 -0.57599998 2
3.4849999 0.65600002 -0.58399999 2
3.4690001 0.64899999 -0.57700002 1
3.5309999 0.65799999 -0.583 2
3.5810001 0.66299999 -0.58700001 2
3.6259999 0.66799998 -0.58999997 2
3.665 0.671 -0.59200001 2
3.6440001 0.66399997 -0.58399999 1
3.789 0.68699998 -0.60299999 3
3.8010001 0.685 -0.60000002 2
3.809 0.68199998 -0.597 2
3.8659999 0.68800002 -0.60100001 2
3.8940001 0.68900001 -0.60000002 2
4.007 0.70499998 -0.61299998 2
3.984 0.69700003 -0.60500002 2
4.02 0.69800001 -0.60500002 2
4.0349998 0.69700003 -0.602 3
4.0900002 0.70200002 -0.60500002 3
4.0819998 0.69599998 -0.59899998 2
4.1020002 0.69400001 -0.597 2
4.158 0.699 -0.60000002 2
4.217 0.704 -0.60299999 2
4.2540002 0.70499998 -0.60299999 2
4.3400002 0.71499997 -0.61000001 3
4.3639998 0.713 -0.60799998 2
4.4120002 0.71600002 -0.60900003 3
4.4660001 0.71899998 -0.611 3
4.5219998 0.72299999 -0.61299998 3
4.5749998 0.72600001 -0.61400002 3
4.625 0.72799999 -0.61500001 3
4.6869998 0.73199999 -0.61699998 3
4.7459998 0.73500001 -0.61900002 3
4.8179998 0.741 -0.62199998 3
4.882 0.74400002 -0.62400001 4
4.9619999 0.75 -0.62800002 3
5.0159998 0.75199997 -0.62900001 3
5.085 0.75599998 -0.63099998 3
5.1680002 0.76099998 -0.63499999 3
5.23 0.76300001 -0.63599998 3
5.3140001 0.76899999 -0.639 3
5.3839998 0.77200001 -0.64099997 3
5.4650002 0.77600002 -0.64399999 3
5.5500002 0.78100002 -0.64700001 3
5.6329999 0.78500003 -0.64899999 3
5.7179999 0.78899997 -0.65200001 3
5.8130002 0.79400003 -0.65499997 3
5.9260001 0.801 -0.66000003 3
6.0209999 0.80599999 -0.66299999 4
6.1040001 0.80900002 -0.66500002 4
6.2069998 0.81300002 -0.66799998 5
6.2849998 0.815 -0.66900003 4
6.3920002 0.81900001 -0.67199999 4
6.5149999 0.82599998 -0.67699999 3
6.6300001 0.83099997 -0.68000001 3
6.75 0.83600003 -0.68400002 3
6.9260001 0.84799999 -0.69300002 6
7.0300002 0.85100001 -0.69499999 11
7.1160002 0.85100001 -0.69400001 11
7.184 0.84799999 -0.69199997 13
7.2719998 0.84799999 -0.69099998 12
7.428 0.85500002 -0.69700003 9
7.599 0.86299998 -0.70300001 7
7.7820001 0.87199998 -0.71100003 5
7.9260001 0.87599999 -0.71399999 5
8.1160002 0.88499999 -0.72100002 5
8.276 0.88999999 -0.72500002 5
8.4890003 0.89899999 -0.73299998 5
8.6630001 0.90499997 -0.73699999 4
8.8339996 0.90899998 -0.741 5
9.0200005 0.91399997 -0.745 5
9.217 0.91900003 -0.75 4
9.4130001 0.92400002 -0.75400001 4
9.6260004 0.93000001 -0.75999999 4
9.8649998 0.93699998 -0.76599997 4
10.118 0.94499999 -0.77399999 4
10.383 0.95300001 -0.78100002 3
10.673 0.963 -0.79000002 2
10.96 0.97100002 -0.79799998 3
11.331 0.98500001 -0.81099999 3
11.715 0.99900001 -0.824 5
11.972 1.001 -0.82800001 13
12.051 0.98799998 -0.81900001 9
12.069 0.96899998 -0.80599999 13
12.066 0.949 -0.79100001 9
12.015 0.92500001 -0.773 14
11.965 0.90100002 -0.75599998 11
11.93 0.87800002 -0.73900002 24
11.931 0.85799998 -0.72500002 24
11.959 0.83999997 -0.713 27
11.959 0.81999999 -0.699 23
11.98 0.80000001 -0.68599999 24
11.987 0.77999997 -0.67199999 23
11.988 0.75999999 -0.65799999 39
12.015 0.741 -0.64499998 26
12.004 0.71899998 -0.63099998 25
12.021 0.699 -0.61799997 23
12.044 0.67900002 -0.60500002 40
12.048 0.65799999 -0.59100002 37
12.051 0.63700002 -0.57800001 25
12.072 0.61699998 -0.565 26
12.072 0.59600002 -0.551 35
12.094 0.57499999 -0.53899997 26
12.092 0.55400002 -0.52499998 24
12.12 0.53299999 -0.51200002 25
12.136 0.51200002 -0.49900001 20
0 0 0 41
31.41 1.212 -1.224 44
31.434 1.156 -1.1900001 39
31.466 1.101 -1.1569999 35
31.486 1.044 -1.123 14
0 0 0 4
35.449001 1.046 -1.188 5
35.457001 0.98000002 -1.149 6
35.449001 0.91600001 -1.1109999 7
0 0 0 15
6.3499999 0.14 -0.185 65
6.3080001 0.12800001 -0.177 150
6.3150001 0.117 -0.171 155
6.3049998 0.104 -0.164 155
6.3309999 0.093000002 -0.15800001 156
6.3379998 0.081 -0.152 161
6.2950001 0.068999998 -0.145 162
6.296 0.057 -0.138 164
6.316 0.046 -0.132 163
6.3000002 0.034000002 -0.125 164
6.3309999 0.022 -0.12 155
6.3070002 0.0099999998 -0.113 155
6.302 -0.001 -0.107 155
6.3509998 -0.013 -0.101 40
0 0 0 27
27.732 -0.16500001 -0.389 33
27.672001 -0.21799999 -0.361 35
27.639 -0.271 -0.33399999 43
27.605 -0.324 -0.30700001 47
27.583 -0.377 -0.28099999 52
27.577999 -0.43000001 -0.25400001 59
27.559 -0.48199999 -0.229 65
27.576 -0.53600001 -0.20299999 51
27.575001 -0.58899999 -0.178 55
27.597 -0.64200002 -0.153 42
27.621 -0.69599998 -0.12800001 44
27.642 -0.75099999 -0.103 41
27.686001 -0.80599999 -0.078000002 35
27.737 -0.86199999 -0.052999999 27
27.805 -0.91900003 -0.028000001 25
27.903999 -0.97600001 -0.0040000002 10
0 0 0 6
9.7790003 -0.38 0.015 10
9.7159996 -0.39700001 0.023 14
9.6859999 -0.41499999 0.032000002 18
9.6429996 -0.43200001 0.039999999 16
9.6260004 -0.44999999 0.048 25
9.6099997 -0.46799999 0.056000002 26
9.599 -0.48699999 0.064000003 26
9.5620003 -0.50400001 0.071000002 27
9.5559998 -0.52200001 0.079000004 27
9.5299997 -0.54000002 0.086000003 29
9.526 -0.55800003 0.093999997 28
9.5100002 -0.57599998 0.101 30
9.507 -0.59500003 0.109 34
9.5010004 -0.61299998 0.116 37
9.4870005 -0.63099998 0.123 39
9.4860001 -0.64999998 0.13 39
9.4750004 -0.66799998 0.138 40
9.4630003 -0.685 0.14399999 39
9.46 -0.704 0.15099999 42
9.4499998 -0.722 0.15800001 44
9.448 -0.741 0.16500001 49
9.4490004 -0.75999999 0.17200001 51
