# .PCD v0.7 - Point Cloud Data file format
VERSION 0.7
FIELDS x y z intensity
SIZE 4 4 4 4
TYPE F F F F
COUNT 1 1 1 1
WIDTH 1743
HEIGHT 1
VIEWPOINT 0 0 0 1 0 0 0
POINTS 1743
DATA ascii
1.997 -0.041000001 -0.54900002 1
2.0179999 -0.041000001 -0.55199999 1
2.0280001 -0.039999999 -0.55199999 1
2.039 -0.039999999 -0.551 1
2.053 -0.039000001 -0.55199999 1
2.0669999 -0.037999999 -0.55299997 1
2.0829999 -0.037999999 -0.55400002 1
2.089 -0.037 -0.55299997 1
2.1059999 -0.037 -0.55400002 1
2.1240001 -0.035999998 -0.55500001 1
2.1289999 -0.035999998 -0.55299997 1
2.1489999 -0.035 -0.55500001 1
2.1600001 -0.035 -0.55500001 1
2.181 -0.034000002 -0.55699998 1
2.1919999 -0.033 -0.55599999 1
2.2149999 -0.033 -0.55800003 1
2.223 -0.032000002 -0.55599999 1
2.2479999 -0.032000002 -0.55900002 1
2.2639999 -0.030999999 -0.56 1
2.2780001 -0.030999999 -0.55900002 1
2.289 -0.029999999 -0.55800003 1
2.312 -0.029999999 -0.56 1
2.3329999 -0.028999999 -0.56099999 1
2.3469999 -0.028999999 -0.56099999 1
2.3659999 -0.028000001 -0.56199998 1
2.3859999 -0.028000001 -0.56199998 1
2.4089999 -0.027000001 -0.56400001 1
2.434 -0.027000001 -0.565 1
2.448 -0.026000001 -0.56400001 1
2.473 -0.026000001 -0.56599998 1
2.5020001 -0.025 -0.56800002 2
2.5320001 -0.025 -0.57099998 2
2.5510001 -0.024 -0.57099998 3
2.569 -0.024 -0.56999999 3
2.596 -0.023 -0.57099998 4
2.6229999 -0.023 -0.57300001 5
2.641 -0.022 -0.57200003 4
2.671 -0.022 -0.574 3
2.6960001 -0.021 -0.574 3
2.7290001 -0.021 -0.57700002 3
2.7539999 -0.02 -0.57700002 3
2.779 -0.02 -0.57700002 3
2.806 -0.018999999 -0.57700002 3
2.845 -0.018999999 -0.57999998 2
2.868 -0.017999999 -0.57999998 2
2.908 -0.017999999 -0.58200002 2
2.937 -0.017999999 -0.583 2
2.9679999 -0.017000001 -0.583 2
3 -0.017000001 -0.58399999 2
3.04 -0.016000001 -0.58600003 2
3.22 -0.017000001 -0.61500001 2
3.154 -0.016000001 -0.59600002 1
3.234 -0.016000001 -0.60500002 1
3.237 -0.015 -0.60000002 2
3.352 -0.015 -0.61500001 2
3.3889999 -0.015 -0.61500001 2
3.3940001 -0.014 -0.60900003 2
3.46 -0.014 -0.61500001 2
3.513 -0.013 -0.61699998 2
3.457 -0.013 -0.60100001 2
3.4719999 -0.012 -0.597 2
3.5710001 -0.012 -0.60699999 2
3.6340001 -0.012 -0.61000001 2
3.6489999 -0.011 -0.60600001 2
3.8599999 -0.012 -0.63300002 3
3.802 -0.011 -0.616 2
3.8510001 -0.011 -0.61699998 2
3.8789999 -0.0099999998 -0.61400002 2
3.9790001 -0.0099999998 -0.62199998 2
4.0580001 -0.0099999998 -0.62599999 2
4.1160002 -0.0099999998 -0.62699997 2
4.1329999 -0.0099999998 -0.62099999 2
4.1950002 -0.0089999996 -0.62199998 2
4.2839999 -0.0089999996 -0.62699997 2
4.3699999 -0.0089999996 -0.63099998 2
4.46 -0.0089999996 -0.634 2
4.5359998 -0.0089999996 -0.63599998 4
4.645 -0.0089999996 -0.64200002 3
4.7340002 -0.0089999996 -0.64499998 3
4.8179998 -0.0089999996 -0.64600003 3
4.9310002 -0.0099999998 -0.65100002 3
5.0409999 -0.0099999998 -0.65600002 3
5.145 -0.0099999998 -0.65899998 3
5.2610002 -0.0099999998 -0.66299999 5
5.381 -0.0099999998 -0.667 3
5.5289998 -0.011 -0.67400002 3
5.6440001 -0.011 -0.676 3
5.7989998 -0.011 -0.68300003 3
5.9439998 -0.012 -0.68800002 4
6.1030002 -0.013 -0.69300002 4
6.2909999 -0.013 -0.70200002 4
6.4439998 -0.014 -0.70499998 5
6.6290002 -0.015 -0.71200001 5
6.8039999 -0.015 -0.71600002 6
6.9990001 -0.016000001 -0.72299999 6
7.257 -0.017999999 -0.73400003 6
7.5019999 -0.018999999 -0.74299997 7
7.7950001 -0.02 -0.75599998 6
8.1630001 -0.022 -0.77499998 11
8.4180002 -0.024 -0.78100002 16
8.6709995 -0.025 -0.787 17
8.948 -0.027000001 -0.79299998 13
9.3450003 -0.029999999 -0.80900002 4
9.8369999 -0.033 -0.83099997 4
10.318 -0.035999998 -0.85000002 3
10.802 -0.039000001 -0.86699998 3
11.239 -0.041999999 -0.87800002 4
11.72 -0.046 -0.89099997 3
12.295 -0.050000001 -0.90899998 3
12.96 -0.055 -0.93099999 3
13.641 -0.061000001 -0.95099998 3
14.351 -0.066 -0.97000003 4
15.094 -0.072999999 -0.98900002 3
0 0 0 3
0 0 0 2
0 0 0 2
0 0 0 1
20.226 -0.12 -1.1109999 1
0 0 0 0
0 0 0 0
0 0 0 0
0 0 0 0
0 0 0 0
0 0 0 17
49.883999 -0.38600001 -2.0009999 152
49.922001 -0.40000001 -1.896 171
49.938999 -0.41499999 -1.791 197
46.966999 -0.405 -1.585 3
0 0 0 174
49.938999 -0.461 -1.474 153
49.991001 -0.47799999 -1.37 11
0 0 0 150
94.122002 -0.96100003 -2.1849999 142
94.061996 -0.99299997 -1.984 42
94.132004 -1.026 -1.786 13
93.977997 -1.058 -1.584 16
94.070999 -1.0930001 -1.386 26
94.058998 -1.128 -1.1900001 20
0 0 0 67
0 0 0 32
74.098 -0.97399998 -0.46700001 61
74.149002 -1.0039999 -0.31099999 86
74.186996 -1.034 -0.155 93
74.167999 -1.0650001 0.001 54
0 0 0 0
0 0 0 0
0 0 0 0
0 0 0 0
0 0 0 0
0 0 0 10
65.179001 -1.136 0.95999998 27
64.560997 -1.155 1.086 18
63.173 -1.16 1.1950001 17
62.252998 -1.173 1.307 27
61.720001 -1.193 1.426 33
61.41 -1.2180001 1.549 34
61.002998 -1.24 1.665 18
60.527 -1.261 1.776 10
0 0 0 0
0 0 0 19
63.210999 -1.414 2.2449999 61
63.152 -1.446 2.3729999 85
62.929001 -1.475 2.494 82
62.160999 -1.4910001 2.5910001 66
61.813 -1.516 2.704 76
61.814999 -1.551 2.8299999 70
61.220001 -1.5700001 2.9260001 45
60.536999 -1.586 3.0150001 68
60.466 -1.619 3.135 58
60.229 -1.648 3.2449999 60
59.386002 -1.66 3.3199999 73
59.129002 -1.687 3.424 76
59.158001 -1.723 3.5450001 75
58.530998 -1.74 3.625 41
57.861 -1.7539999 3.698 66
57.814999 -1.789 3.812 71
57.666 -1.8200001 3.9170001 69
56.771999 -1.826 3.9679999 53
56.459 -1.852 4.059 54
56.453999 -1.888 4.171 52
56.088001 -1.9119999 4.2550001 46
55.188 -1.916 4.2930002 63
55.120998 -1.95 4.3979998 66
55.123001 -1.9859999 4.506 62
54.390999 -1.9960001 4.553 36
53.796001 -2.01 4.6090002 57
53.779999 -2.046 4.7119999 64
53.702999 -2.0799999 4.8099999 60
52.757 -2.079 4.8280001 58
52.435001 -2.1040001 4.9029999 63
52.438 -2.1400001 5.0040002 60
51.944 -2.1559999 5.0560002 41
51.132999 -2.158 5.0749998 52
51.129002 -2.194 5.1719999 54
51.112 -2.23 5.2680001 52
50.463001 -2.2379999 5.2969999 31
49.777 -2.244 5.3189998 52
49.712002 -2.277 5.4050002 46
48.963001 -2.2780001 5.415 10
48.376999 -2.2869999 5.441 10
48.082001 -2.309 5.4980001 32
48.048 -2.3429999 5.5840001 50
48.042 -2.378 5.671 56
48.056 -2.415 5.7600002 55
48.073002 -2.4519999 5.8509998 56
48.068001 -2.4890001 5.9380002 51
48.021999 -2.523 6.0219998 40
47.824001 -2.55 6.0840001 23
47.130001 -2.55 6.0809999 13
46.59 -2.5569999 6.0960002 13
45.584999 -2.5380001 6.046 9
44.638 -2.5190001 6 10
44.353001 -2.5380001 6.039 10
44.071999 -2.556 6.079 23
44.035 -2.5899999 6.152 52
44.037998 -2.625 6.23 61
43.790001 -2.6459999 6.2709999 40
43.102001 -2.638 6.2470002 41
43.063999 -2.671 6.3169999 50
43.063999 -2.7049999 6.3909998 49
43.067001 -2.74 6.4650002 47
42.257999 -2.724 6.4169998 31
41.723999 -2.724 6.4070001 46
41.734001 -2.7579999 6.4780002 48
41.738998 -2.793 6.5489998 48
41.730999 -2.8280001 6.618 42
40.928001 -2.8069999 6.5580001 25
40.348 -2.8010001 6.533 39
40.362 -2.835 6.6030002 40
40.356998 -2.869 6.6690001 41
40.366001 -2.904 6.737 40
39.713001 -2.891 6.6929998 19
39.028 -2.8740001 6.6409998 44
39.028999 -2.908 6.704 47
39.032001 -2.941 6.7659998 45
39.027 -2.974 6.8280001 42
38.726002 -2.984 6.8379998 32
37.768002 -2.9430001 6.7280002 29
37.666 -2.9679999 6.7680001 42
37.682999 -3.0020001 6.8299999 42
37.668999 -3.033 6.8860002 37
37.610001 -3.0610001 6.934 30
36.601002 -3.01 6.803 12
36.238998 -3.0120001 6.7919998 10
36.015999 -3.0239999 6.8039999 8
35.772999 -3.0350001 6.8119998 9
35.594002 -3.0510001 6.8309999 10
35.368999 -3.062 6.8400002 10
35.141998 -3.073 6.848 10
34.905998 -3.0829999 6.8540001 10
34.705002 -3.096 6.8649998 10
34.504002 -3.108 6.8759999 9
34.282001 -3.118 6.881 10
34.105999 -3.1329999 6.8940001 9
33.897999 -3.1429999 6.9000001 10
33.667 -3.151 6.901 9
33.460999 -3.161 6.9050002 10
33.289001 -3.174 6.9159999 10
33.097 -3.1849999 6.9219999 10
32.917 -3.197 6.9299998 10
32.728001 -3.207 6.934 10
32.567001 -3.22 6.9439998 10
32.389 -3.2309999 6.9489999 10
32.202999 -3.2409999 6.9530001 10
32.014 -3.2509999 6.954 10
31.820999 -3.2590001 6.954 11
31.66 -3.2709999 6.96 10
31.466 -3.2780001 6.9569998 10
31.322001 -3.29 6.9660001 9
31.17 -3.302 6.9710002 10
30.983 -3.3099999 6.9689999 8
30.802 -3.3169999 6.9660001 9
30.643999 -3.3269999 6.9679999 10
30.471001 -3.335 6.9660001 9
30.319 -3.3440001 6.967 10
30.157 -3.3529999 6.9660001 9
30.009001 -3.362 6.967 9
29.867001 -3.372 6.9699998 10
29.679001 -3.3770001 6.96 9
29.542 -3.3870001 6.9619999 10
29.413 -3.3970001 6.9650002 10
29.247999 -3.404 6.9590001 10
29.120001 -3.414 6.961 9
28.965 -3.421 6.9569998 10
28.801001 -3.427 6.9489999 9
28.67 -3.4360001 6.9489999 9
28.549999 -3.4460001 6.9510002 11
28.375999 -3.4489999 6.9390001 10
28.233999 -3.4560001 6.934 10
28.111 -3.4660001 6.934 10
27.972 -3.4719999 6.928 10
27.851 -3.4809999 6.927 11
27.704 -3.4860001 6.9190001 9
27.580999 -3.493 6.915 9
27.465 -3.5020001 6.9130001 10
27.34 -3.5090001 6.908 10
27.212 -3.516 6.902 11
27.094999 -3.523 6.8979998 10
26.976 -3.53 6.8930001 10
26.823999 -3.533 6.8800001 9
26.733 -3.543 6.881 9
26.606001 -3.5480001 6.8720002 10
26.48 -3.553 6.8629999 9
26.363001 -3.559 6.8559999 10
26.252001 -3.5650001 6.8499999 10
26.134001 -3.5699999 6.842 8
26.028 -3.5769999 6.8369999 9
25.924 -3.5829999 6.8309999 9
25.816999 -3.589 6.8239999 9
25.711 -3.595 6.8169999 10
25.6 -3.5999999 6.8070002 10
25.492001 -3.605 6.7979999 9
25.385 -3.6099999 6.79 10
25.297001 -3.618 6.7849998 10
25.202999 -3.6240001 6.7789998 10
25.122 -3.632 6.776 11
25.041 -3.6400001 6.7719998 11
24.945999 -3.645 6.7639999 11
24.884001 -3.655 6.7639999 15
24.802 -3.661 6.7589998 16
24.75 -3.6719999 6.7610002 17
24.695 -3.6819999 6.763 19
24.65 -3.6949999 6.7659998 21
24.593 -3.704 6.7659998 22
24.525999 -3.7119999 6.763 25
24.482 -3.724 6.7659998 26
24.416 -3.7309999 6.7620001 27
24.372999 -3.743 6.7639999 26
24.318001 -3.7509999 6.7639999 28
24.264 -3.7609999 6.7620001 30
24.216999 -3.7709999 6.7620001 31
24.18 -3.783 6.7649999 27
24.149 -3.7939999 6.7690001 27
24.101999 -3.8039999 6.7680001 28
24.063999 -3.8150001 6.7690001 28
24.037001 -3.826 6.7729998 27
23.989 -3.835 6.7709999 31
23.964001 -3.848 6.7750001 27
23.924999 -3.858 6.7750001 27
23.889 -3.868 6.7750001 26
23.860001 -3.878 6.777 27
23.818001 -3.8870001 6.7740002 27
23.792999 -3.8989999 6.776 32
23.766001 -3.9100001 6.7779999 27
23.759001 -3.924 6.7839999 28
23.704 -3.9289999 6.777 34
23.690001 -3.9430001 6.7810001 34
23.667 -3.954 6.7820001 28
23.642 -3.964 6.783 35
23.615 -3.973 6.7820001 34
23.601999 -3.9860001 6.7849998 33
23.582001 -3.997 6.7859998 28
23.552999 -4.0050001 6.7839999 35
23.542999 -4.0180001 6.7870002 35
23.524 -4.0289998 6.7870002 28
23.496 -4.0370002 6.7839999 32
23.490999 -4.0500002 6.7880001 33
23.466999 -4.059 6.7859998 34
23.448 -4.0689998 6.7839999 32
23.434999 -4.079 6.7849998 32
23.422001 -4.0900002 6.7839999 32
23.403999 -4.099 6.783 30
23.379999 -4.1069999 6.7789998 31
23.393 -4.1220002 6.7859998 33
23.386999 -4.1329999 6.7870002 27
23.363001 -4.1399999 6.7820001 30
23.361 -4.152 6.783 31
23.347 -4.1609998 6.7810001 31
23.336 -4.1700001 6.7789998 31
23.337999 -4.1820002 6.7810001 31
23.34 -4.1939998 6.7820001 26
23.336 -4.204 6.7810001 31
23.339001 -4.2160001 6.7820001 31
23.336 -4.2259998 6.7810001 32
23.329 -4.2350001 6.7789998 31
23.334999 -4.2470002 6.7800002 26
23.343 -4.2589998 6.7810001 32
23.34 -4.2680001 6.7789998 30
23.344999 -4.2789998 6.7789998 31
23.351 -4.289 6.7779999 27
23.356001 -4.3000002 6.777 26
23.364 -4.3119998 6.777 30
23.382999 -4.323 6.7800002 30
23.374001 -4.3309999 6.7740002 30
23.399 -4.3439999 6.7779999 31
23.407 -4.355 6.777 31
23.415001 -4.3660002 6.7740002 32
23.438999 -4.3790002 6.777 34
23.448 -4.388 6.7750001 33
23.458 -4.3979998 6.7729998 27
23.473 -4.4089999 6.7719998 28
23.495001 -4.421 6.7729998 27
23.517 -4.4320002 6.7729998 27
23.535 -4.4429998 6.7719998 27
23.563999 -4.4559999 6.7740002 35
23.573 -4.4640002 6.77 28
23.591999 -4.4749999 6.7680001 28
23.615 -4.4860001 6.7670002 28
23.643 -4.4980001 6.7670002 34
23.666 -4.5089998 6.7659998 32
23.683001 -4.5180001 6.763 32
23.712 -4.5289998 6.763 26
23.738001 -4.54 6.7610002 31
23.778 -4.5539999 6.7639999 27
23.785 -4.5599999 6.756 30
23.813999 -4.5710001 6.7540002 30
23.860001 -4.5840001 6.757 27
23.885 -4.5939999 6.7540002 30
23.923 -4.6069999 6.7540002 29
23.952999 -4.6170001 6.7519999 31
23.997 -4.6300001 6.7529998 26
24.028 -4.6389999 6.75 28
24.052 -4.6479998 6.7449999 29
24.084999 -4.6589999 6.7420001 29
24.153999 -4.6750002 6.7490001 27
24.184999 -4.6849999 6.744 33
24.232 -4.697 6.744 32
24.275999 -4.7090001 6.743 28
24.315001 -4.7189999 6.7399998 27
24.348 -4.7280002 6.7350001 33
24.389999 -4.7389998 6.7319999 32
24.426001 -4.7480001 6.7270002 31
24.474001 -4.7589998 6.7259998 30
24.517 -4.7690001 6.723 31
24.568001 -4.7810001 6.7210002 31
24.625 -4.7930002 6.7210002 30
24.674999 -4.8039999 6.7179999 28
24.732 -4.816 6.7160001 30
24.798 -4.8299999 6.7179999 27
24.849001 -4.8400002 6.7140002 29
24.907 -4.8520002 6.7129998 31
24.979 -4.8660002 6.7140002 26
25.027 -4.875 6.7090001 27
25.089001 -4.8870001 6.7080002 31
25.155001 -4.9000001 6.7059999 31
25.212999 -4.9109998 6.7030001 25
25.282 -4.9219999 6.7010002 26
25.354 -4.9359999 6.7010002 30
25.434999 -4.9499998 6.7020001 25
25.496 -4.96 6.697 29
25.580999 -4.9749999 6.6989999 26
25.636 -4.9829998 6.6919999 30
25.700001 -4.994 6.6880002 29
25.764 -5.0040002 6.6820002 26
25.833 -5.0149999 6.678 28
25.902 -5.0250001 6.6729999 30
25.983 -5.0380001 6.671 29
26.066 -5.0500002 6.6690001 28
26.157 -5.0640001 6.6690001 25
26.263 -5.0809999 6.6719999 25
26.316 -5.0869999 6.6609998 28
26.400999 -5.0999999 6.658 29
26.493 -5.1129999 6.6560001 28
26.583 -5.125 6.6539998 25
26.663 -5.1350002 6.6490002 28
26.781 -5.1529999 6.652 23
26.863001 -5.1630001 6.6459999 28
26.964001 -5.1760001 6.6440001 25
27.042999 -5.1849999 6.6370001 27
27.141001 -5.198 6.6339998 28
27.252001 -5.2129998 6.6329999 24
27.325001 -5.2189999 6.6230001 27
27.454 -5.237 6.625 25
27.552 -5.2480001 6.6199999 27
27.660999 -5.2610002 6.618 24
27.768999 -5.2729998 6.6129999 23
27.874001 -5.2849998 6.6079998 28
27.972 -5.2950001 6.6009998 24
28.072001 -5.3049998 6.5949998 24
28.212 -5.322 6.5970001 24
28.351999 -5.3400002 6.598 23
28.454 -5.349 6.5910001 25
28.579 -5.362 6.5869999 25
28.705999 -5.3759999 6.5840001 26
28.819 -5.3860002 6.5780001 28
28.933001 -5.3969998 6.5700002 28
29.066 -5.4099998 6.5669999 25
29.209 -5.4250002 6.5650001 24
29.322001 -5.4349999 6.5560002 24
29.48 -5.4510002 6.5570002 22
29.611 -5.4629998 6.5510001 26
29.767 -5.4790001 6.5489998 23
29.896 -5.4899998 6.5419998 24
30.033001 -5.5019999 6.5349998 23
30.208 -5.52 6.5359998 23
30.34 -5.5300002 6.527 27
30.507999 -5.546 6.5250001 25
30.632 -5.5539999 6.5149999 24
30.791 -5.5669999 6.5100002 24
30.931 -5.5770001 6.5 25
31.099001 -5.592 6.4959998 21
31.275 -5.6069999 6.4920001 22
31.445 -5.6209998 6.4879999 21
31.615999 -5.6350002 6.4819999 22
31.811001 -5.652 6.4809999 23
31.979 -5.664 6.473 22
32.127998 -5.6719999 6.4619999 25
32.316002 -5.6869998 6.4580002 23
32.506001 -5.7020001 6.4520001 22
32.686001 -5.7140002 6.4439998 23
32.865002 -5.7259998 6.4359999 22
33.049999 -5.7379999 6.428 24
33.247002 -5.75 6.421 23
33.448002 -5.7639999 6.414 24
0 0 0 1
28.162001 -4.8169999 5.3239999 8
28.117001 -4.7909999 5.277 13
28.066 -4.7639999 5.2280002 18
28.023001 -4.7379999 5.1810002 21
27.993 -4.7140002 5.1370001 24
27.978001 -4.691 5.0949998 26
27.958 -4.6680002 5.052 30
27.945 -4.6459999 5.0100002 30
27.924999 -4.6230001 4.967 31
27.908001 -4.5999999 4.9239998 33
27.893999 -4.5770001 4.882 35
27.878 -4.5539999 4.8400002 39
27.879999 -4.5339999 4.8010001 42
27.854 -4.5079999 4.756 42
27.849001 -4.4860001 4.7150002 47
27.843 -4.4640002 4.6739998 44
27.836 -4.441 4.6329999 48
27.825001 -4.4180002 4.592 46
27.823 -4.3940001 4.5510001 47
27.816999 -4.3720002 4.5079999 43
27.816999 -4.349 4.4679999 45
27.812 -4.3249998 4.427 51
27.816999 -4.302 4.3860002 53
27.823 -4.2800002 4.3460002 42
27.823 -4.256 4.3049998 51
27.832001 -4.2329998 4.2649999 51
27.819 -4.2069998 4.2220001 48
27.836 -4.1849999 4.184 48
27.856001 -4.164 4.145 37
27.851 -4.138 4.1020002 42
27.853001 -4.1129999 4.0609999 42
27.879999 -4.0910001 4.0219998 42
27.893999 -4.0679998 3.9820001 41
27.902 -4.0430002 3.941 38
27.923 -4.02 3.902 36
27.950001 -3.997 3.8640001 36
27.962999 -3.9719999 3.823 34
27.978001 -3.948 3.7820001 32
28.011999 -3.925 3.744 30
28.058001 -3.904 3.7079999 25
28.101999 -3.882 3.671 22
28.174999 -3.8640001 3.638 13
28.237 -3.845 3.6029999 9
0 0 0 0
0 0 0 0
0 0 0 0
0 0 0 0
0 0 0 0
0 0 0 0
0 0 0 0
0 0 0 0
0 0 0 0
0 0 0 0
0 0 0 0
0 0 0 0
0 0 0 0
0 0 0 6
0 0 0 0
0 0 0 0
0 0 0 0
0 0 0 3
35.994999 -4.1570001 3.5339999 2
35.98 -4.1149998 3.477 2
35.855999 -4.0580001 3.4089999 6
35.787998 -4.0089998 3.348 43
35.780998 -3.9649999 3.2909999 52
35.794998 -3.924 3.237 54
35.779999 -3.8789999 3.181 52
35.773998 -3.835 3.1240001 53
35.764 -3.79 3.0669999 54
35.755001 -3.7449999 3.0109999 57
35.743999 -3.7 2.954 60
35.723999 -3.6530001 2.8970001 75
35.727001 -3.609 2.842 81
35.73 -3.5650001 2.7869999 82
35.726002 -3.52 2.7320001 76
35.716999 -3.474 2.6760001 86
35.707001 -3.428 2.6210001 91
35.700001 -3.381 2.5650001 71
35.705002 -3.335 2.51 71
35.682999 -3.286 2.4530001 87
35.688999 -3.24 2.398 86
35.688 -3.194 2.3429999 81
35.678001 -3.145 2.2869999 78
35.667 -3.0969999 2.2320001 76
35.664001 -3.049 2.177 70
35.666 -3.0009999 2.122 65
35.665001 -2.9530001 2.0669999 56
35.674999 -2.905 2.013 42
35.675999 -2.8570001 1.959 41
35.667 -2.8080001 1.904 32
35.726002 -2.763 1.852 16
35.813999 -2.721 1.802 11
35.825001 -2.6719999 1.748 11
35.837002 -2.6229999 1.6950001 12
35.797001 -2.569 1.638 4
0 0 0 3
39.738998 -2.74 1.698 6
40.162998 -2.7119999 1.656 3
0 0 0 11
43.528 -2.8139999 1.663 3
44.173 -2.793 1.623 5
44.604 -2.756 1.571 15
44.360001 -2.6760001 1.497 14
44.644001 -2.628 1.4400001 8
44.493 -2.5539999 1.368 71
44.477001 -2.4879999 1.302 151
44.501999 -2.425 1.238 103
44.501999 -2.3559999 1.17 121
44.519001 -2.2909999 1.105 57
44.518002 -2.224 1.039 42
44.52 -2.158 0.97399998 43
44.526001 -2.0910001 0.90899998 33
44.52 -2.023 0.84299999 25
44.494999 -1.954 0.778 15
44.523998 -1.888 0.71399999 5
0 0 0 27
52.382999 -2.0610001 0.68900001 20
0 0 0 0
0 0 0 7
59.783001 -2.075 0.52899998 32
59.805 -1.984 0.44499999 74
59.807999 -1.89 0.359 71
60.446999 -1.8150001 0.27700001 18
60.409 -1.719 0.191 25
60.459999 -1.626 0.107 12
0 0 0 150
67.810997 -1.607 -0.071000002 74
67.789001 -1.5 -0.16500001 77
67.910004 -1.393 -0.25999999 49
68.057999 -1.2869999 -0.35600001 22
71.046997 -1.2309999 -0.46799999 9
73.195 -1.15 -0.58399999 92
74.245003 -1.046 -0.69400001 34
0 0 0 43
0 0 0 18
94.029999 -0.866 -1.265 18
93.997002 -0.71100003 -1.392 16
0 0 0 0
0 0 0 0
0 0 0 32
0 0 0 25
0 0 0 0
0 0 0 0
0 0 0 25
0 0 0 25
0 0 0 11
0 0 0 0
0 0 0 172
71.963997 0.88999999 -2.2049999 165
71.948997 1.0089999 -2.296 15
0 0 0 39
0 0 0 0
0 0 0 0
0 0 0 0
0 0 0 0
0 0 0 0
0 0 0 0
0 0 0 0
0 0 0 0
0 0 0 0
0 0 0 0
0 0 0 0
0 0 0 3
0 0 0 1
0 0 0 1
0 0 0 0
0 0 0 1
19.993 0.89300001 -1.076 2
19.604 0.91100001 -1.0779999 2
0 0 0 0
0 0 0 5
17.539 0.90600002 -1.025 4
16.695999 0.89200002 -0.995 2
16.202999 0.89300001 -0.98299998 2
15.637 0.889 -0.96700001 2
15.162 0.889 -0.954 2
14.714 0.88800001 -0.94199997 2
14.277 0.88599998 -0.93000001 2
13.939 0.889 -0.92299998 3
13.561 0.889 -0.912 3
13.222 0.88999999 -0.90399998 2
12.866 0.88800001 -0.89300001 2
12.539 0.88700002 -0.884 2
12.223 0.88599998 -0.87400001 3
11.957 0.88700002 -0.86699998 3
11.747 0.89200002 -0.86400002 2
11.48 0.89200002 -0.85699999 2
11.241 0.89300001 -0.85000002 3
10.937 0.88800001 -0.838 2
10.706 0.88800001 -0.83099997 2
10.504 0.889 -0.82599998 3
10.266 0.88599998 -0.81699997 4
10.093 0.889 -0.81400001 4
9.8769999 0.88800001 -0.80599999 4
9.6669998 0.88499999 -0.79799998 4
9.5159998 0.88800001 -0.79500002 3
9.2810001 0.88300002 -0.78399998 4
9.0939999 0.88 -0.77700001 4
8.9230003 0.87900001 -0.77100003 4
8.7469997 0.87699997 -0.764 4
8.5690002 0.87400001 -0.75599998 5
8.4320002 0.875 -0.75199997 5
8.2889996 0.87400001 -0.74599999 4
8.1619997 0.875 -0.74199998 4
8.0220003 0.87400001 -0.73699999 4
7.8740001 0.87199998 -0.73000002 4
7.7270002 0.86900002 -0.72399998 4
7.6220002 0.87 -0.72000003 5
7.5320001 0.87300003 -0.71799999 5
7.4369998 0.875 -0.71600002 5
7.3309999 0.875 -0.71200001 5
7.2319999 0.87599999 -0.708 4
7.132 0.87599999 -0.704 4
7.0380001 0.87599999 -0.70099998 4
6.9520001 0.87699997 -0.69800001 4
6.8579998 0.87699997 -0.69400001 3
6.7800002 0.87900001 -0.69199997 3
6.6810002 0.87699997 -0.68699998 2
6.6230001 0.88099998 -0.68599999 2
6.5479999 0.88200003 -0.68400002 2
6.4569998 0.88099998 -0.67900002 3
6.402 0.884 -0.67799997 3
6.3369999 0.88599998 -0.676 3
6.2909999 0.88999999 -0.676 3
6.2399998 0.89399999 -0.67500001 4
6.1859999 0.89600003 -0.67400002 4
6.1430001 0.90100002 -0.67400002 4
6.0879998 0.903 -0.67199999 4
6.0440001 0.90600002 -0.671 4
5.9879999 0.90799999 -0.66900003 4
5.9229999 0.90799999 -0.66600001 3
5.8629999 0.90799999 -0.66399997 3
5.802 0.90899998 -0.66000003 3
5.7509999 0.91000003 -0.65899998 3
5.7069998 0.912 -0.65700001 3
5.651 0.91299999 -0.65499997 3
5.585 0.91100001 -0.65100002 4
5.546 0.91399997 -0.64999998 3
5.5170002 0.91799998 -0.64999998 3
5.4840002 0.92199999 -0.64899999 3
5.4359999 0.92199999 -0.64700001 3
5.4000001 0.92500001 -0.64600003 3
5.3629999 0.92699999 -0.64499998 3
5.3249998 0.92900002 -0.64300001 3
5.289 0.93099999 -0.64200002 3
5.2459998 0.93199998 -0.63999999 5
5.2259998 0.93699998 -0.63999999 3
5.1859999 0.93800002 -0.63800001 3
5.151 0.94 -0.63700002 3
5.1220002 0.94199997 -0.63599998 3
5.099 0.94599998 -0.63599998 3
5.0619998 0.94700003 -0.634 3
5.0359998 0.94999999 -0.63300002 3
5.0079999 0.95300001 -0.63200003 3
4.9689999 0.95300001 -0.63 4
4.9450002 0.95599997 -0.62900001 4
4.9180002 0.958 -0.62800002 4
4.8959999 0.96200001 -0.62800002 4
4.875 0.96499997 -0.62800002 3
4.8509998 0.96700001 -0.62699997 2
4.8309999 0.97100002 -0.62599999 3
4.8109999 0.97399998 -0.62599999 3
4.7810001 0.97500002 -0.62400001 3
4.7649999 0.97899997 -0.62400001 3
4.7319999 0.97899997 -0.62199998 3
4.724 0.98400003 -0.62300003 2
4.7080002 0.98799998 -0.62300003 3
4.677 0.98799998 -0.62 3
4.6659999 0.99299997 -0.62099999 3
4.6500001 0.99599999 -0.62 3
4.625 0.99699998 -0.61900002 2
4.6009998 0.99900001 -0.61699998 3
4.5869999 1.002 -0.61699998 5
4.5689998 1.005 -0.616 4
4.5640001 1.01 -0.61699998 2
4.5500002 1.013 -0.61699998 2
4.527 1.015 -0.61500001 2
4.5139999 1.018 -0.61500001 2
4.5 1.021 -0.61500001 4
4.4860001 1.024 -0.61400002 2
4.4790001 1.028 -0.61500001 2
4.4549999 1.029 -0.61299998 2
4.4369998 1.031 -0.61199999 4
4.4369998 1.036 -0.61299998 2
4.415 1.0369999 -0.611 2
4.4039998 1.04 -0.611 2
4.3850002 1.0420001 -0.60900003 2
4.3790002 1.046 -0.60900003 2
4.3730001 1.05 -0.60900003 2
4.355 1.051 -0.60799998 2
4.342 1.054 -0.60699999 2
4.349 1.061 -0.60900003 2
4.3189998 1.059 -0.60600001 4
4.316 1.063 -0.60600001 4
4.3049998 1.066 -0.60600001 4
4.2870002 1.067 -0.60399997 4
4.2849998 1.072 -0.60500002 4
4.289 1.0779999 -0.60600001 2
4.2810001 1.081 -0.60500002 4
4.2690001 1.0829999 -0.60399997 2
4.276 1.09 -0.60600001 2
4.256 1.089 -0.60399997 4
4.2480001 1.092 -0.60299999 4
4.2389998 1.095 -0.60299999 4
4.2470002 1.102 -0.60399997 2
4.2360001 1.103 -0.60299999 4
4.2309999 1.107 -0.60299999 2
4.2389998 1.114 -0.60500002 2
4.2259998 1.115 -0.60299999 4
4.2119999 1.1160001 -0.602 2
4.2020001 1.118 -0.60000002 2
4.2199998 1.127 -0.60299999 2
4.2189999 1.131 -0.60399997 2
4.2140002 1.1339999 -0.60299999 4
4.2020001 1.135 -0.602 2
4.2090001 1.141 -0.60299999 2
4.1939998 1.142 -0.60100001 3
4.2069998 1.149 -0.60299999 2
4.2059999 1.153 -0.60299999 2
4.1900001 1.153 -0.60100001 2
4.1939998 1.158 -0.60100001 2
4.1869998 1.16 -0.60000002 3
4.217 1.1720001 -0.60500002 3
4.1880002 1.168 -0.60000002 2
4.1620002 1.165 -0.597 2
4.1560001 1.166 -0.59600002 2
4.1890001 1.1799999 -0.60000002 3
4.1919999 1.184 -0.60100001 3
4.184 1.1849999 -0.59899998 3
4.1900001 1.191 -0.60000002 2
4.2010002 1.197 -0.60100001 4
4.2030001 1.201 -0.60100001 2
4.191 1.202 -0.59899998 4
4.2020001 1.2079999 -0.60100001 3
4.2199998 1.217 -0.60299999 2
4.2129998 1.2180001 -0.602 2
4.2210002 1.224 -0.602 4
4.2069998 1.223 -0.60000002 4
4.198 1.223 -0.59799999 3
4.2189999 1.233 -0.60100001 3
4.2259998 1.238 -0.60100001 4
4.2160001 1.238 -0.59899998 3
4.23 1.245 -0.60100001 4
4.23 1.248 -0.60000002 4
4.2410002 1.2539999 -0.60100001 4
4.2319999 1.2539999 -0.59899998 3
4.2659998 1.267 -0.60299999 2
4.25 1.265 -0.60000002 4
4.2649999 1.272 -0.602 2
4.276 1.278 -0.602 2
4.27 1.279 -0.60100001 4
4.2800002 1.284 -0.60100001 4
4.2930002 1.291 -0.602 2
4.2979999 1.295 -0.602 4
4.3080001 1.3 -0.60299999 2
4.3119998 1.303 -0.602 4
4.3299999 1.311 -0.60399997 2
4.335 1.3150001 -0.60399997 2
4.349 1.321 -0.60500002 2
4.3460002 1.322 -0.60299999 2
4.3649998 1.33 -0.60500002 2
4.3800001 1.337 -0.60600001 2
4.3889999 1.342 -0.60600001 4
4.3990002 1.346 -0.60600001 2
4.415 1.353 -0.60699999 3
4.415 1.355 -0.60600001 2
4.4310002 1.362 -0.60699999 2
4.4419999 1.367 -0.60699999 2
4.4549999 1.372 -0.60799998 4
4.4720001 1.3789999 -0.60900003 2
4.4860001 1.385 -0.60900003 3
4.4889998 1.387 -0.60799998 4
4.5040002 1.393 -0.60900003 3
4.5110002 1.397 -0.60799998 3
4.5159998 1.4 -0.60699999 5
4.539 1.408 -0.60900003 5
4.5570002 1.415 -0.61000001 2
4.5640001 1.418 -0.60900003 3
4.5929999 1.428 -0.61199999 3
4.5900002 1.428 -0.61000001 3
4.612 1.436 -0.611 3
4.619 1.439 -0.61000001 4
4.6350002 1.4450001 -0.611 5
4.6680002 1.456 -0.61299998 3
4.6810002 1.461 -0.61299998 3
4.6939998 1.465 -0.61299998 3
4.717 1.473 -0.61400002 5
4.7290001 1.477 -0.61400002 3
4.7529998 1.485 -0.61500001 3
4.763 1.489 -0.61500001 4
4.8049998 1.502 -0.61799997 2
4.8200002 1.507 -0.61799997 3
4.836 1.512 -0.61799997 3
4.848 1.516 -0.61799997 5
4.875 1.525 -0.61900002 3
4.8940001 1.531 -0.61900002 5
4.9130001 1.5369999 -0.62 5
4.9380002 1.544 -0.62099999 3
4.954 1.549 -0.62 3
4.9840002 1.558 -0.62199998 3
5.0009999 1.563 -0.62199998 3
5.0229998 1.5700001 -0.62199998 5
5.052 1.5779999 -0.62300003 3
5.086 1.5880001 -0.625 3
5.0890002 1.589 -0.62300003 5
5.132 1.601 -0.62599999 3
5.1620002 1.61 -0.62699997 3
5.1750002 1.613 -0.62599999 3
5.2069998 1.622 -0.62800002 3
5.2399998 1.631 -0.62900001 3
5.2480001 1.633 -0.62800002 3
5.289 1.6440001 -0.63 3
5.3189998 1.652 -0.63099998 3
5.3499999 1.661 -0.63200003 3
5.3740001 1.6670001 -0.63200003 3
5.408 1.676 -0.63300002 3
5.434 1.682 -0.63300002 3
5.4650002 1.6900001 -0.634 2
5.5019999 1.7 -0.63499999 4
5.5359998 1.7079999 -0.63599998 2
5.5869999 1.722 -0.639 2
5.6269999 1.733 -0.64099997 2
5.6609998 1.7410001 -0.64099997 2
5.697 1.75 -0.64200002 2
5.7399998 1.761 -0.64399999 3
5.776 1.7690001 -0.64499998 3
5.8140001 1.779 -0.64600003 3
5.8410001 1.784 -0.64600003 4
5.8899999 1.796 -0.648 3
5.9229999 1.804 -0.648 3
5.967 1.814 -0.64899999 3
6.0089998 1.824 -0.65100002 3
6.0310001 1.8279999 -0.64999998 3
6.105 1.847 -0.65399998 3
6.1279998 1.85 -0.653 3
6.1690001 1.86 -0.65399998 3
6.2090001 1.868 -0.65399998 4
6.2709999 1.883 -0.65700001 2
6.3340001 1.898 -0.66000003 3
6.382 1.909 -0.66100001 2
6.4320002 1.92 -0.662 2
6.4899998 1.933 -0.66399997 3
6.5570002 1.949 -0.667 2
6.6059999 1.959 -0.66799998 2
6.664 1.972 -0.67000002 2
6.724 1.985 -0.67199999 3
6.7779999 1.9960001 -0.67299998 4
6.8390002 2.0090001 -0.67500001 3
6.8800001 2.016 -0.67500001 3
6.96 2.0350001 -0.67799997 3
7.0209999 2.0469999 -0.68000001 4
7.072 2.0569999 -0.68099999 4
7.1599998 2.0769999 -0.685 5
7.2360001 2.0929999 -0.68699998 5
7.2919998 2.1029999 -0.68800002 5
7.3829999 2.1229999 -0.69199997 5
7.46 2.1389999 -0.69400001 5
7.5120001 2.148 -0.69499999 5
7.5960002 2.1659999 -0.69700003 4
7.704 2.1900001 -0.70200002 5
7.7880001 2.207 -0.70499998 4
7.8790002 2.2260001 -0.708 4
7.9770002 2.2460001 -0.71200001 4
8.0340004 2.2550001 -0.71200001 4
8.1169996 2.2709999 -0.71399999 4
8.2069998 2.2880001 -0.71700001 4
8.3199997 2.312 -0.72100002 4
8.4399996 2.3369999 -0.72600001 5
8.5310001 2.3540001 -0.72899997 7
8.6190004 2.369 -0.73000002 6
8.7180004 2.388 -0.73299998 5
8.8290005 2.4089999 -0.73699999 5
8.9110003 2.4230001 -0.73799998 4
9.0170002 2.4419999 -0.74000001 4
9.1809998 2.477 -0.74800003 3
9.3459997 2.5120001 -0.755 3
9.5229998 2.549 -0.76300001 3
9.7150002 2.5899999 -0.77200001 3
9.8760004 2.622 -0.77899998 4
10.011 2.6470001 -0.78299999 4
10.149 2.6719999 -0.787 4
10.286 2.6960001 -0.79100001 5
10.445 2.7260001 -0.796 4
10.414 2.7060001 -0.787 6
10.626 2.7479999 -0.796 7
10.93 2.8139999 -0.81199998 8
11.08 2.8399999 -0.815 9
11.211 2.859 -0.81800002 8
11.324 2.8740001 -0.81800002 8
11.467 2.8970001 -0.82099998 11
11.604 2.9170001 -0.824 14
11.748 2.9389999 -0.82599998 10
11.886 2.9579999 -0.82800001 8
12.034 2.98 -0.83099997 4
12.229 3.0120001 -0.83600003 3
12.355 3.0280001 -0.83700001 3
12.523 3.053 -0.83999997 3
12.692 3.0769999 -0.84299999 3
12.943 3.1210001 -0.85100001 3
13.186 3.1619999 -0.85799998 3
13.41 3.197 -0.86400002 3
13.641 3.234 -0.87 4
13.763 3.244 -0.86900002 5
13.917 3.2609999 -0.87 4
14.105 3.2850001 -0.87199998 4
14.327 3.3169999 -0.87699997 4
14.522 3.342 -0.88 4
14.703 3.362 -0.88099998 4
15.024 3.414 -0.89099997 4
15.417 3.4809999 -0.90399998 4
14.889 3.3399999 -0.86400002 4
0 0 0 4
16.261999 3.5999999 -0.92299998 4
16.537001 3.6359999 -0.92799997 4
16.011 3.497 -0.88800001 3
16.370001 3.55 -0.898 3
16.51 3.556 -0.89600003 3
0 0 0 0
0 0 0 0
0 0 0 3
18.094 3.786 -0.93599999 3
18.351 3.8110001 -0.93800002 2
18.722 3.859 -0.94599998 2
18.705999 3.826 -0.93300003 2
19.719 4.0019999 -0.972 1
20.733 4.1739998 -1.01 3
0 0 0 0
0 0 0 0
0 0 0 1
0 0 0 3
0 0 0 0
0 0 0 0
0 0 0 2
0 0 0 0
0 0 0 0
0 0 0 2
32.139999 5.8850002 -1.358 1
32.196999 5.8410001 -1.342 1
32.558998 5.8509998 -1.3380001 4
32.512001 5.7870002 -1.319 3
32.383999 5.7080002 -1.295 3
32.426998 5.6589999 -1.279 3
32.396 5.5970001 -1.26 3
32.368 5.5349998 -1.2410001 3
32.508999 5.5019999 -1.229 7
32.522999 5.4489999 -1.2130001 4
32.303001 5.3540001 -1.187 11
32.455002 5.3210001 -1.175 18
32.352001 5.2459998 -1.154 40
32.327999 5.1849999 -1.137 44
32.333 5.1269999 -1.12 14
32.355999 5.0710001 -1.105 12
32.365002 5.0139999 -1.0880001 15
32.335999 4.9499998 -1.071 40
32.341999 4.8899999 -1.0549999 57
32.356998 4.8330002 -1.039 4
32.457001 4.7880001 -1.026 22
32.337002 4.71 -1.007 26
32.352001 4.651 -0.991 11
32.462002 4.605 -0.98000002 5
32.518002 4.552 -0.96600002 46
32.567001 4.4970002 -0.95200002 31
32.669998 4.4489999 -0.93900001 9
32.666 4.3860002 -0.92400002 1
0 0 0 0
0 0 0 0
0 0 0 68
0 0 0 12
37.790001 4.7119999 -0.98500001 6
0 0 0 21
40.997002 4.9530001 -1.034 40
40.973999 4.8709998 -1.017 49
40.931 4.7880001 -0.99900001 49
40.896999 4.7030001 -0.98100001 38
40.852001 4.619 -0.96399999 43
40.821999 4.5349998 -0.94700003 46
40.792 4.4510002 -0.93000001 45
40.761002 4.3670001 -0.91500002 42
40.733002 4.283 -0.898 44
40.694 4.198 -0.88200003 45
40.673 4.1139998 -0.86699998 42
40.633999 4.0289998 -0.85100001 43
40.588001 3.9430001 -0.83600003 40
40.577999 3.8610001 -0.82200003 34
40.542 3.776 -0.80699998 35
40.509998 3.691 -0.792 32
40.493999 3.6070001 -0.778 26
40.457001 3.52 -0.76499999 24
40.449001 3.437 -0.75099999 23
40.400002 3.352 -0.73799998 22
40.381001 3.2690001 -0.72500002 21
40.349998 3.1819999 -0.71200001 19
40.327999 3.099 -0.69999999 18
40.280998 3.0120001 -0.68699998 16
40.272999 2.927 -0.676 13
40.240002 2.842 -0.66399997 12
40.235001 2.7579999 -0.653 9
40.210999 2.6730001 -0.64200002 21
40.217999 2.5899999 -0.63200003 48
40.193001 2.5050001 -0.62099999 48
40.167999 2.4189999 -0.611 41
40.171001 2.336 -0.60100001 26
40.150002 2.2490001 -0.59200001 18
40.132 2.164 -0.58200002 11
40.112 2.079 -0.57300001 8
40.063999 1.992 -0.56400001 5
0 0 0 0
0 0 0 2
0 0 0 0
0 0 0 0
0 0 0 0
0 0 0 0
0 0 0 30
0 0 0 0
0 0 0 28
86.922997 2.4879999 -1.0700001 13
0 0 0 0
0 0 0 0
0 0 0 0
0 0 0 0
0 0 0 33
0 0 0 0
0 0 0 0
0 0 0 0
0 0 0 0
0 0 0 29
0 0 0 0
0 0 0 0
0 0 0 0
0 0 0 0
0 0 0 42
134.66901 -0.73900002 -1.471 84
134.724 -1.028 -1.4680001 31
0 0 0 0
0 0 0 50
0 0 0 25
73.193001 -1.184 -0.79400003 20
0 0 0 30
67.775002 -1.39 -0.73699999 66
67.800003 -1.536 -0.73799998 74
67.752998 -1.678 -0.74000001 128
67.801003 -1.827 -0.74299997 74
0 0 0 13
59.717999 -1.865 -0.65899998 110
59.737 -1.9960001 -0.66299999 116
0 0 0 14
45.655998 -1.721 -0.51300001 13
0 0 0 14
0 0 0 12
44.997002 -1.983 -0.51599997 39
44.922001 -2.075 -0.51999998 15
44.695 -2.1619999 -0.52200001 14
45.187 -2.279 -0.53299999 22
44.339001 -2.3310001 -0.528 35
43.990002 -2.4070001 -0.52899998 40
43.667 -2.4809999 -0.53100002 44
43.638 -2.5739999 -0.537 39
43.761002 -2.6730001 -0.54400003 58
43.547001 -2.7509999 -0.54799998 98
43.541 -2.842 -0.55500001 116
43.551998 -2.9360001 -0.56199998 113
41.212002 -2.865 -0.53899997 10
40.570999 -2.9059999 -0.53799999 11
39.965 -2.947 -0.537 5
39.487 -2.9949999 -0.53799999 64
0 0 0 0
0 0 0 0
0 0 0 0
0 0 0 0
0 0 0 0
0 0 0 0
0 0 0 0
0 0 0 1
20.115999 -1.906 -0.315 1
0 0 0 0
0 0 0 0
0 0 0 25
0 0 0 25
0 0 0 1
19.608999 -2.1010001 -0.33899999 1
0 0 0 25
0 0 0 25
0 0 0 25
0 0 0 25
0 0 0 25
0 0 0 25
0 0 0 25
0 0 0 1
19.417 -2.438 -0.391 1
19.382 -2.473 -0.39700001 1
19.445 -2.52 -0.405 3
19.455 -2.5599999 -0.412 9
19.433001 -2.596 -0.419 8
19.458 -2.638 -0.42699999 9
19.448999 -2.6760001 -0.433 8
19.469999 -2.717 -0.44100001 9
19.427999 -2.7509999 -0.44800001 9
19.379999 -2.7820001 -0.45500001 13
19.341999 -2.8150001 -0.461 27
19.285 -2.845 -0.46799999 49
19.299 -2.885 -0.47600001 109
19.306 -2.924 -0.484 150
19.32 -2.964 -0.493 150
19.364 -3.0079999 -0.50199997 153
19.351 -3.0439999 -0.50999999 155
19.341 -3.0799999 -0.51800001 155
19.518 -3.1459999 -0.53200001 21
19.518999 -3.184 -0.54000002 5
19.371 -3.1960001 -0.54500002 1
19.438999 -3.2449999 -0.55599999 2
19.392 -3.273 -0.56300002 3
19.403999 -3.312 -0.57200003 1
19.389999 -3.346 -0.58099997 1
19.426001 -3.3889999 -0.59100002 1
19.471001 -3.434 -0.602 1
19.486 -3.473 -0.61199999 1
19.612 -3.5320001 -0.625 1
19.774 -3.598 -0.63999999 47
19.797001 -3.6389999 -0.65100002 22
19.783001 -3.6730001 -0.66000003 10
0 0 0 14
22.122999 -4.1880002 -0.76099998 42
22.148001 -4.2340002 -0.773 35
22.142 -4.2729998 -0.78399998 61
22.152 -4.3150001 -0.796 47
22.152 -4.355 -0.80800003 34
0 0 0 14
35.816002 -7.171 -1.344 36
35.828999 -7.237 -1.364 40
35.807999 -7.296 -1.383 48
35.412998 -7.2779999 -1.388 48
0 0 0 5
19.938 -4.1669998 -0.80299997 19
19.860001 -4.1849999 -0.81 24
19.816999 -4.21 -0.81999999 29
19.768 -4.2340002 -0.829 30
19.716999 -4.256 -0.83700001 26
19.679001 -4.2820001 -0.847 34
19.665001 -4.3119998 -0.85799998 41
19.621 -4.336 -0.86699998 39
19.607 -4.3649998 -0.87800002 43
19.594 -4.395 -0.889 44
19.580999 -4.4250002 -0.89999998 47
19.556 -4.4510002 -0.91000003 52
19.549999 -4.4819999 -0.921 51
19.549999 -4.5139999 -0.93300003 66
19.391001 -4.5089998 -0.93699998 31
0 0 0 8
17.917999 -4.224 -0.88700002 7
17.822001 -4.2290001 -0.89300001 5
17.726999 -4.2360001 -0.89899999 10
17.621 -4.2379999 -0.90399998 7
17.540001 -4.2459998 -0.91100001 9
17.441 -4.2490001 -0.91600001 10
17.355 -4.2550001 -0.92199999 8
17.259001 -4.2579999 -0.92799997 9
17.164 -4.2610002 -0.93300003 17
17.153 -4.2839999 -0.94300002 26
17.146999 -4.309 -0.954 47
17.159 -4.3379998 -0.96499997 28
17.17 -4.3660002 -0.97600001 27
17.159 -4.3889999 -0.98699999 29
17.150999 -4.4120002 -0.99699998 32
17.155001 -4.4380002 -1.008 24
17.150999 -4.4619999 -1.018 30
17.159 -4.4889998 -1.03 37
17.153 -4.5110002 -1.04 34
17.164 -4.539 -1.052 29
17.162001 -4.5619998 -1.063 34
17.156 -4.5840001 -1.073 23
17.160999 -4.6100001 -1.084 35
17.164 -4.6339998 -1.096 27
17.148001 -4.6529999 -1.1059999 34
17.290001 -4.7140002 -1.126 6
16.368999 -4.4860001 -1.076 3
15.976 -4.3990002 -1.061 3
15.951 -4.414 -1.069 3
15.587 -4.3330002 -1.0549999 3
15.222 -4.2509999 -1.04 3
14.912 -4.184 -1.029 3
15.235 -4.2950001 -1.061 5
15.05 -4.2610002 -1.058 7
14.914 -4.2420001 -1.058 5
14.802 -4.2280002 -1.0599999 5
14.597 -4.1880002 -1.054 4
14.392 -4.1459999 -1.049 4
14.137 -4.0900002 -1.04 3
13.816 -4.013 -1.025 3
13.516 -3.9419999 -1.011 3
13.246 -3.8789999 -0.99900001 3
0 0 0 0
0 0 0 3
9.0690002 -2.687 -0.70200002 6
9.0170002 -2.681 -0.70300001 6
8.967 -2.6760001 -0.70499998 9
8.9460001 -2.6800001 -0.70999998 9
8.9359999 -2.687 -0.71499997 11
8.9219999 -2.6919999 -0.71899998 12
8.9130001 -2.6989999 -0.72399998 8
8.9370003 -2.7149999 -0.73199999 5
8.9289999 -2.7219999 -0.73699999 6
8.9099998 -2.7249999 -0.741 7
8.9110003 -2.7349999 -0.74699998 6
8.927 -2.7479999 -0.75400001 5
8.9250002 -2.756 -0.759 4
8.9280005 -2.766 -0.76499999 3
8.9250002 -2.7739999 -0.77100003 3
8.927 -2.783 -0.77600002 3
8.9139996 -2.7869999 -0.78100002 3
8.9139996 -2.7950001 -0.787 3
8.8940001 -2.7969999 -0.79000002 3
8.8920002 -2.8039999 -0.796 3
8.8900003 -2.8110001 -0.801 3
8.868 -2.812 -0.80500001 3
8.8710003 -2.8210001 -0.81099999 3
8.8629999 -2.826 -0.815 4
8.8439999 -2.8269999 -0.81900001 4
8.8240004 -2.8280001 -0.82300001 5
8.8079996 -2.8299999 -0.82700002 5
8.7720003 -2.825 -0.829 5
8.7349997 -2.8199999 -0.83099997 5
8.6789999 -2.809 -0.82999998 5
8.632 -2.8 -0.83099997 6
8.566 -2.7850001 -0.82999998 6
8.4849997 -2.7650001 -0.82700002 5
8.3850002 -2.7379999 -0.82300001 5
8.2770004 -2.7090001 -0.81699997 6
8.2010002 -2.6889999 -0.81400001 7
8.1070004 -2.664 -0.81 11
8.0369997 -2.6459999 -0.80800003 8
7.9640002 -2.6270001 -0.80500001 13
7.8959999 -2.6099999 -0.80299997 10
7.8390002 -2.596 -0.801 15
7.7969999 -2.5869999 -0.80199999 15
7.7470002 -2.5739999 -0.801 15
7.6950002 -2.5610001 -0.80000001 13
7.645 -2.549 -0.79900002 14
7.5960002 -2.5369999 -0.79799998 9
7.5289998 -2.5190001 -0.796 13
7.4679999 -2.5020001 -0.79400003 9
7.4099998 -2.487 -0.79100001 8
7.348 -2.4690001 -0.78899997 6
7.2649999 -2.4449999 -0.78399998 4
7.1890001 -2.4230001 -0.77999997 5
7.1040001 -2.3970001 -0.77399999 4
7.04 -2.3789999 -0.77100003 4
6.9650002 -2.3559999 -0.76700002 4
6.9169998 -2.3429999 -0.76499999 4
6.8579998 -2.325 -0.76200002 4
6.8000002 -2.3080001 -0.75999999 4
6.7719998 -2.3010001 -0.75999999 4
6.7090001 -2.2820001 -0.75700003 4
6.664 -2.2690001 -0.755 4
6.6170001 -2.2550001 -0.75300002 4
6.572 -2.2420001 -0.75099999 3
6.5300002 -2.23 -0.75 3
6.4790001 -2.214 -0.74699998 3
6.448 -2.2049999 -0.74699998 3
6.3909998 -2.187 -0.74299997 3
6.3629999 -2.1789999 -0.74299997 3
6.3210001 -2.1659999 -0.74199998 3
6.2729998 -2.151 -0.73900002 3
6.2309999 -2.138 -0.73699999 3
6.1960001 -2.1270001 -0.736 3
6.1589999 -2.115 -0.73400003 3
6.1279998 -2.1059999 -0.73400003 3
6.0910001 -2.0940001 -0.73199999 4
6.0419998 -2.0780001 -0.72899997 4
6.0079999 -2.0669999 -0.727 4
5.9770002 -2.0569999 -0.72600001 4
5.9429998 -2.046 -0.72500002 4
5.9130001 -2.036 -0.72399998 4
5.8870001 -2.027 -0.72299999 4
5.8460002 -2.013 -0.72100002 4
5.8239999 -2.0050001 -0.72000003 4
5.796 -1.9960001 -0.72000003 4
5.7600002 -1.984 -0.71700001 4
5.737 -1.975 -0.71700001 3
5.7010002 -1.9630001 -0.71499997 4
5.6950002 -1.961 -0.71600002 4
5.664 -1.949 -0.71499997 4
5.631 -1.938 -0.71200001 3
5.6020002 -1.928 -0.71100003 3
5.5830002 -1.92 -0.71100003 3
5.5450001 -1.9069999 -0.708 3
5.5300002 -1.901 -0.708 3
5.4970002 -1.8890001 -0.70599997 3
5.4710002 -1.8789999 -0.70499998 3
5.4489999 -1.87 -0.704 3
5.428 -1.862 -0.70300001 3
5.401 -1.852 -0.70200002 3
5.3930001 -1.848 -0.70300001 3
5.3709998 -1.839 -0.70099998 3
5.3600001 -1.834 -0.70200002 3
5.3369999 -1.825 -0.69999999 3
5.309 -1.814 -0.699 3
5.2930002 -1.807 -0.69800001 3
5.263 -1.795 -0.69599998 3
5.2550001 -1.791 -0.69599998 3
5.2249999 -1.779 -0.69400001 5
5.211 -1.772 -0.69400001 3
5.1989999 -1.766 -0.69400001 3
5.1919999 -1.762 -0.69400001 3
5.1620002 -1.75 -0.69199997 3
5.151 -1.744 -0.69099998 3
5.125 -1.733 -0.68900001 3
5.1090002 -1.725 -0.68900001 3
5.0970001 -1.719 -0.68800002 3
5.072 -1.7079999 -0.68599999 4
5.0580001 -1.701 -0.68599999 5
5.059 -1.699 -0.68699998 3
5.04 -1.691 -0.68599999 5
5.0289998 -1.684 -0.685 5
5.007 -1.674 -0.68300003 5
5.0149999 -1.674 -0.685 3
5.0019999 -1.6670001 -0.685 3
4.9959998 -1.6619999 -0.685 3
4.9850001 -1.656 -0.68400002 3
4.9749999 -1.649 -0.68400002 3
4.9520001 -1.6390001 -0.68199998 3
4.9619999 -1.6390001 -0.68400002 3
4.9510002 -1.633 -0.68300003 3
4.9450002 -1.627 -0.68300003 3
4.9169998 -1.615 -0.68000001 3
4.915 -1.6109999 -0.68099999 3
4.8979998 -1.602 -0.67900002 3
4.914 -1.604 -0.68199998 3
4.8940001 -1.594 -0.68000001 3
4.8870001 -1.5880001 -0.68000001 3
4.8790002 -1.582 -0.67900002 3
4.868 -1.575 -0.67799997 3
4.875 -1.573 -0.68000001 3
4.8730001 -1.569 -0.68000001 3
4.8559999 -1.5599999 -0.67799997 3
4.8470001 -1.553 -0.67699999 3
4.8439999 -1.548 -0.67699999 3
4.842 -1.544 -0.67699999 3
4.8460002 -1.541 -0.67799997 3
4.829 -1.5319999 -0.676 3
4.8189998 -1.524 -0.67500001 5
4.816 -1.5190001 -0.67500001 3
4.816 -1.515 -0.67500001 3
4.8060002 -1.507 -0.67400002 5
4.8130002 -1.505 -0.67500001 3
4.816 -1.502 -0.676 3
4.8200002 -1.498 -0.676 3
4.7940001 -1.4859999 -0.67299998 3
4.8119998 -1.487 -0.67500001 3
4.8039999 -1.48 -0.67400002 3
4.8010001 -1.474 -0.67400002 3
4.8049998 -1.471 -0.67400002 3
4.8010001 -1.465 -0.67400002 3
4.8000002 -1.46 -0.67400002 3
4.8109999 -1.4579999 -0.67500001 3
4.809 -1.452 -0.67400002 3
4.8039999 -1.446 -0.67400002 3
4.8010001 -1.4400001 -0.67299998 5
4.8119998 -1.438 -0.67400002 3
4.8109999 -1.433 -0.67400002 3
4.809 -1.427 -0.67299998 3
4.809 -1.421 -0.67199999 3
4.8260002 -1.421 -0.67500001 3
4.8299999 -1.4170001 -0.67500001 3
4.8309999 -1.4119999 -0.67400002 3
4.8379998 -1.409 -0.67500001 3
4.8379998 -1.403 -0.67400002 3
4.8340001 -1.396 -0.67299998 4
4.8379998 -1.392 -0.67299998 3
4.8449998 -1.388 -0.67299998 4
4.8540001 -1.3839999 -0.67400002 3
4.8639998 -1.382 -0.67400002 3
4.8720002 -1.378 -0.67500001 3
4.881 -1.374 -0.67500001 3
4.8889999 -1.3710001 -0.67500001 3
4.8850002 -1.363 -0.67400002 3
4.915 -1.3660001 -0.67699999 3
4.9180002 -1.36 -0.67699999 3
4.921 -1.355 -0.676 3
4.9429998 -1.354 -0.67799997 3
4.9439998 -1.348 -0.67699999 3
4.9660001 -1.348 -0.67900002 3
4.9749999 -1.344 -0.67900002 3
4.9920001 -1.342 -0.68000001 3
4.993 -1.336 -0.67900002 2
5.0009999 -1.331 -0.67900002 2
5.0159998 -1.3279999 -0.68000001 2
5.0310001 -1.325 -0.68000001 2
5.0510001 -1.323 -0.68199998 2
5.0739999 -1.323 -0.68300003 2
5.0739999 -1.316 -0.68199998 4
5.0910001 -1.313 -0.68300003 4
5.0939999 -1.307 -0.68199998 3
5.112 -1.304 -0.68199998 4
5.1339998 -1.302 -0.68400002 4
5.151 -1.299 -0.68400002 4
5.158 -1.294 -0.68300003 4
5.1890001 -1.294 -0.68599999 2
5.2069998 -1.291 -0.68599999 2
5.21 -1.284 -0.685 2
5.2220001 -1.279 -0.68400002 4
5.2550001 -1.28 -0.68699998 3
5.263 -1.274 -0.68599999 4
5.2930002 -1.273 -0.68800002 3
5.3239999 -1.273 -0.69 3
5.3400002 -1.268 -0.69 3
5.368 -1.267 -0.69099998 3
5.382 -1.262 -0.69099998 3
5.4180002 -1.262 -0.69300002 3
5.4349999 -1.258 -0.69300002 3
5.4699998 -1.258 -0.69499999 3
5.5009999 -1.256 -0.69599998 3
5.513 -1.251 -0.69499999 4
5.5500002 -1.25 -0.69700003 3
5.579 -1.248 -0.69800001 3
5.6129999 -1.247 -0.69999999 3
5.6539998 -1.247 -0.70200002 3
5.6849999 -1.245 -0.70300001 3
5.7069998 -1.2410001 -0.70300001 3
5.723 -1.235 -0.70200002 3
5.7610002 -1.234 -0.704 3
5.7989998 -1.233 -0.70599997 3
5.8400002 -1.232 -0.708 3
5.8660002 -1.228 -0.708 3
5.9039998 -1.227 -0.70899999 4
5.9460001 -1.226 -0.71100003 4
5.9980001 -1.227 -0.71399999 3
6.0339999 -1.224 -0.71399999 4
6.0679998 -1.221 -0.71499997 4
6.1149998 -1.22 -0.71700001 4
6.1570001 -1.219 -0.71799999 4
6.1989999 -1.217 -0.71899998 4
6.257 -1.2180001 -0.722 4
6.3130002 -1.2180001 -0.72500002 4
6.3530002 -1.215 -0.72500002 3
6.4000001 -1.214 -0.727 3
6.447 -1.212 -0.72799999 3
6.4990001 -1.21 -0.73000002 3
6.5609999 -1.211 -0.73199999 3
6.632 -1.2130001 -0.736 4
6.6760001 -1.209 -0.736 3
6.7340002 -1.2079999 -0.73799998 4
6.7950001 -1.2079999 -0.74000001 4
6.8600001 -1.2079999 -0.74299997 4
6.9460001 -1.211 -0.74699998 4
7.0029998 -1.2079999 -0.74800003 4
7.0669999 -1.207 -0.75 4
7.1389999 -1.207 -0.75199997 4
7.2080002 -1.207 -0.75400001 4
7.309 -1.211 -0.759 5
7.3790002 -1.209 -0.76099998 4
7.467 -1.211 -0.764 5
7.5370002 -1.209 -0.76599997 5
7.6290002 -1.21 -0.76899999 5
7.7210002 -1.211 -0.77200001 5
7.8099999 -1.212 -0.77499998 5
7.9070001 -1.2130001 -0.77899998 5
8.0030003 -1.2130001 -0.78200001 5
8.1219997 -1.217 -0.78600001 4
8.2600002 -1.223 -0.79299998 4
8.3479996 -1.222 -0.79500002 4
8.4770002 -1.225 -0.80000001 3
8.6009998 -1.228 -0.80400002 3
8.7559996 -1.235 -0.81099999 3
8.9899998 -1.252 -0.82499999 4
9.1759996 -1.261 -0.83499998 5
9.3380003 -1.267 -0.84100002 7
9.5080004 -1.274 -0.84799999 9
9.6029997 -1.2690001 -0.84799999 14
9.7390003 -1.27 -0.852 19
9.8809996 -1.271 -0.85500002 14
10.014 -1.27 -0.85699999 15
10.177 -1.273 -0.86199999 15
10.345 -1.275 -0.86699998 11
10.556 -1.283 -0.875 9
10.772 -1.29 -0.88200003 8
10.956 -1.2920001 -0.88700002 10
11.176 -1.298 -0.89399999 7
11.371 -1.301 -0.89899999 5
11.617 -1.308 -0.90700001 3
11.837 -1.312 -0.91299999 3
12.068 -1.316 -0.91900003 2
12.411 -1.331 -0.93300003 3
12.751 -1.345 -0.94499999 3
13.052 -1.354 -0.95499998 3
13.409 -1.367 -0.96799999 3
13.773 -1.3789999 -0.98000002 3
14.084 -1.386 -0.98699999 3
14.441 -1.395 -0.99800003 3
14.79 -1.402 -1.006 3
15.183 -1.4119999 -1.017 2
15.604 -1.423 -1.029 3
16.132 -1.443 -1.046 2
16.691999 -1.4630001 -1.0650001 2
17.162001 -1.474 -1.076 2
17.663 -1.485 -1.0880001 2
18.389 -1.5140001 -1.113 2
19.194 -1.546 -1.141 1
18.92 -1.4910001 -1.104 1
19.872 -1.53 -1.137 1
20.990999 -1.579 -1.178 1
0 0 0 2
0 0 0 0
0 0 0 0
0 0 0 4
27.157 -1.803 -1.369 3
27.249001 -1.762 -1.342 81
27.334999 -1.719 -1.314 40
27.403999 -1.676 -1.286 38
0 0 0 0
0 0 0 24
39.437 -2.2049999 -1.711 7
39.221001 -2.125 -1.655 6
0 0 0 47
31.962 -1.62 -1.271 158
31.944 -1.563 -1.2309999 184
31.955999 -1.508 -1.193 196
32.011002 -1.456 -1.156 159
32.012001 -1.4 -1.1160001 4
0 0 0 54
43.683998 -1.761 -1.414 48
43.891998 -1.693 -1.3660001 40
44.167 -1.628 -1.319 40
44.542 -1.567 -1.274 41
44.780998 -1.498 -1.224 43
44.896 -1.425 -1.169 40
44.950001 -1.352 -1.115 39
44.911999 -1.275 -1.056 26
45.001999 -1.201 -0.99900001 7
0 0 0 36
67.767998 -1.581 -1.329 90
67.764 -1.4680001 -1.2410001 74
67.783997 -1.355 -1.152 15
70.948997 -1.3 -1.113 79
73.217003 -1.22 -1.051 27
73.628998 -1.105 -0.95999998 49
0 0 0 0
0 0 0 53
0 0 0 0
0 0 0 36
74.080002 -0.5 -0.46700001 49
0 0 0 50
0 0 0 0
0 0 0 0
0 0 0 11
0 0 0 0
0 0 0 0
0 0 0 0
0 0 0 0
0 0 0 11
0 0 0 25
0 0 0 0
0 0 0 0
0 0 0 0
0 0 0 0
0 0 0 0
0 0 0 0
0 0 0 16
91.585999 2.0139999 1.7410001 25
91.338997 2.1500001 1.868 20
91.303001 2.2880001 1.998 15
88.737 2.3599999 2.0710001 18
0 0 0 0
0 0 0 0
0 0 0 18
90.971001 2.967 2.652 33
0 0 0 0
0 0 0 0
0 0 0 19
89.417999 3.4489999 3.1329999 27
88.994003 3.5639999 3.25 32
88.559998 3.675 3.3640001 33
88.310997 3.7950001 3.4879999 25
92.987 4.1300001 3.8099999 26
92.809998 4.257 3.941 14
91.321999 4.3200002 4.0149999 13
89.212997 4.3470001 4.0539999 25
89.097 4.4689999 4.1830001 17
0 0 0 0
0 0 0 69
118.218 6.4330001 6.0879998 55
0 0 0 0
0 0 0 22
0 0 0 0
0 0 0 15
90.230003 5.5289998 5.323 16
90.397003 5.6630001 5.4710002 17
91.598999 5.8629999 5.6830001 16
91.315002 5.967 5.803 33
90.925003 6.0630002 5.9169998 42
90.730003 6.1719999 6.0430002 26
90.612999 6.2839999 6.1739998 15
0 0 0 32
118.418 8.5290003 8.4359999 45
118.497 8.6859999 8.6219997 49
118.566 8.8479996 8.8109999 51
118.498 8.9960003 8.9879999 57
118.439 9.1420002 9.1619997 45
118.18 9.2700005 9.323 36
0 0 0 28
128.463 10.4 10.526 28
0 0 0 0
0 0 0 25
128.44299 10.877 11.118 56
128.386 11.025 11.306 43
128.401 11.188 11.51 55
0 0 0 0
0 0 0 0
0 0 0 75
118.018 10.849 11.304 99
117.98 10.985 11.482 115
117.968 11.121 11.66 86
117.951 11.256 11.84 85
117.983 11.397 12.028 79
117.973 11.53 12.205 82
118.002 11.663 12.385 77
118.009 11.797 12.568 78
117.965 11.924 12.741 47
118.036 12.063 12.93 27
0 0 0 0
0 0 0 0
0 0 0 0
0 0 0 0
0 0 0 0
0 0 0 29
118.139 12.967 14.204 25
0 0 0 0
0 0 0 0
0 0 0 0
0 0 0 0
0 0 0 0
0 0 0 25
118.08 13.803 15.446 33
117.968 13.903 15.608 43
117.919 14.013 15.78 59
117.877 14.121 15.948 62
117.887 14.236 16.127001 70
117.862 14.346 16.304001 69
