# .PCD v0.7 - Point Cloud Data file format
VERSION 0.7
FIELDS x y z intensity
SIZE 4 4 4 4
TYPE F F F F
COUNT 1 1 1 1
WIDTH 1762
HEIGHT 1
VIEWPOINT 0 0 0 1 0 0 0
POINTS 1762
DATA ascii
0 0 0 0
0 0 0 0
0 0 0 1
0 0 0 0
0 0 0 0
0 0 0 11
45.821999 -0.412 -1.728 159
45.865002 -0.42300001 -1.631 187
45.886002 -0.433 -1.534 234
45.887001 -0.44400001 -1.438 244
45.917999 -0.456 -1.341 219
45.922001 -0.46700001 -1.243 189
45.912998 -0.479 -1.145 157
45.879002 -0.49000001 -1.0470001 50
0 0 0 41
73.075996 -0.82099998 -1.357 50
73.102997 -0.84299999 -1.202 53
73.056 -0.86400002 -1.043 44
72.836998 -0.88300002 -0.88499999 56
72.378998 -0.89899999 -0.72600001 63
72.168999 -0.91900003 -0.57499999 108
72.058998 -0.94099998 -0.419 118
72.052002 -0.96399999 -0.266 141
72.069 -0.98799998 -0.113 113
72.089996 -1.013 0.039000001 81
0 0 0 16
67.307999 -0.99299997 0.322 43
67.321999 -1.017 0.46200001 48
67.449997 -1.044 0.60500002 39
68.041 -1.079 0.75400001 23
68.138 -1.1059999 0.89899999 26
67.996002 -1.13 1.038 14
0 0 0 0
0 0 0 0
0 0 0 0
0 0 0 9
60.063 -1.12 1.55 31
59.502998 -1.135 1.66 58
59.141998 -1.155 1.775 80
59.082001 -1.1799999 1.896 77
57.490002 -1.173 1.9630001 9
57.344002 -1.196 2.0780001 19
57.186001 -1.219 2.191 9
60.573002 -1.3200001 2.4460001 8
60.665001 -1.35 2.5739999 28
60.536999 -1.376 2.6930001 58
59.846001 -1.3890001 2.786 43
59.325001 -1.406 2.8840001 59
59.318001 -1.436 3.0079999 71
59.195999 -1.4630001 3.1229999 73
58.484001 -1.475 3.2049999 56
58.013 -1.493 3.2980001 68
58.002998 -1.523 3.4159999 81
57.948002 -1.552 3.529 71
57.247002 -1.563 3.6029999 45
56.658001 -1.5779999 3.681 63
56.646999 -1.608 3.793 77
56.645 -1.6390001 3.908 71
56.004002 -1.652 3.9760001 38
55.348 -1.664 4.0409999 64
55.307999 -1.694 4.1490002 66
55.289001 -1.725 4.2579999 64
54.817001 -1.743 4.3309999 45
54.030998 -1.749 4.3769999 61
53.952999 -1.778 4.4759998 67
53.959999 -1.811 4.5840001 69
53.598 -1.831 4.6589999 47
52.734001 -1.8329999 4.6880002 58
52.625999 -1.8609999 4.7810001 63
52.647999 -1.895 4.8860002 62
52.437 -1.92 4.9689999 57
51.574001 -1.921 4.9879999 55
51.275002 -1.941 5.0570002 63
51.278 -1.974 5.1570001 60
51.068001 -1.999 5.2350001 54
50.195 -1.997 5.243 52
49.965 -2.0209999 5.3150001 55
49.960999 -2.053 5.408 60
49.931999 -2.085 5.5 50
49.110001 -2.0840001 5.506 40
48.598999 -2.095 5.54 53
48.569 -2.1259999 5.6279998 46
47.929001 -2.131 5.6440001 11
47.326 -2.1370001 5.6620002 9
46.923 -2.151 5.7020001 23
46.888 -2.181 5.7839999 40
46.891998 -2.2149999 5.8720002 56
46.889 -2.2479999 5.9580002 58
46.904999 -2.2809999 6.046 60
46.905998 -2.3139999 6.132 57
46.898998 -2.348 6.217 53
46.858002 -2.3789999 6.2940001 36
46.594002 -2.3989999 6.3439999 20
45.925999 -2.398 6.336 14
45.426998 -2.4059999 6.349 14
44.889999 -2.4100001 6.3540001 12
43.717999 -2.3789999 6.2659998 11
43.382 -2.392 6.2940001 10
43.078999 -2.4089999 6.3270001 11
42.889 -2.4289999 6.3740001 33
42.877998 -2.461 6.4489999 55
42.877998 -2.494 6.5229998 62
42.612 -2.51 6.5560002 38
41.939999 -2.503 6.526 41
41.900002 -2.5320001 6.592 47
41.889999 -2.5639999 6.6630001 49
41.900002 -2.5969999 6.737 46
41.525002 -2.6059999 6.7470002 36
40.630001 -2.5810001 6.6690001 33
40.57 -2.609 6.7280002 48
40.570999 -2.641 6.7969999 47
40.573002 -2.6730001 6.8649998 45
40.544998 -2.7030001 6.927 40
39.582001 -2.671 6.8280001 27
39.199001 -2.675 6.8260002 37
39.200001 -2.707 6.8909998 40
39.207001 -2.7379999 6.9549999 40
39.194 -2.7690001 7.0159998 36
38.91 -2.779 7.027 32
37.956001 -2.7420001 6.9159999 29
37.868 -2.766 6.96 43
37.865002 -2.7980001 7.02 41
37.866001 -2.8280001 7.079 38
37.880001 -2.8599999 7.1409998 37
37.493999 -2.8610001 7.1269999 30
36.576 -2.8210001 7.0079999 27
36.513 -2.8469999 7.053 39
36.504002 -2.875 7.1059999 36
36.508999 -2.9059999 7.1630001 34
36.513 -2.9349999 7.2179999 32
36.103001 -2.9319999 7.191 14
35.224998 -2.8889999 7.0679998 10
35.007 -2.901 7.0760002 9
34.784 -2.9119999 7.0830002 10
34.582001 -2.9230001 7.0910001 9
34.344002 -2.931 7.092 10
34.185001 -2.9449999 7.1079998 9
33.988998 -2.9579999 7.1160002 9
33.798 -2.9679999 7.1240001 10
33.596001 -2.9790001 7.1290002 10
33.403999 -2.99 7.1350002 10
33.223 -3.0009999 7.1430001 10
33.040001 -3.0120001 7.1490002 9
32.859001 -3.023 7.1550002 11
32.671001 -3.033 7.158 10
32.502998 -3.0439999 7.165 10
32.292999 -3.052 7.1620002 10
32.172001 -3.0669999 7.178 10
31.948999 -3.073 7.1700001 9
31.802 -3.085 7.1789999 11
31.672001 -3.099 7.191 10
31.462999 -3.105 7.184 11
31.302999 -3.1159999 7.1869998 12
31.136 -3.125 7.1880002 11
30.986 -3.135 7.1919999 9
30.822001 -3.1440001 7.1919999 9
30.663 -3.154 7.1929998 10
30.506001 -3.1630001 7.1929998 10
30.375999 -3.174 7.1989999 10
30.190001 -3.1800001 7.191 10
30.046 -3.1900001 7.1919999 10
29.893999 -3.198 7.191 10
29.766001 -3.2090001 7.1939998 9
29.598 -3.2149999 7.1880002 9
29.466 -3.2249999 7.1900001 9
29.316 -3.2320001 7.1859999 8
29.153 -3.2390001 7.1789999 9
29.035999 -3.25 7.1820002 9
28.900999 -3.2579999 7.1799998 9
28.756001 -3.266 7.1750002 9
28.605 -3.2720001 7.1680002 9
28.482 -3.2809999 7.1690001 10
28.344999 -3.2880001 7.164 10
28.202999 -3.2950001 7.1570001 9
28.08 -3.303 7.1539998 9
27.971001 -3.312 7.1539998 9
27.834 -3.3180001 7.1469998 10
27.721001 -3.3269999 7.1459999 10
27.559999 -3.329 7.131 9
27.455 -3.3380001 7.1300001 10
27.343 -3.3469999 7.1269999 10
27.209 -3.352 7.118 10
27.105 -3.3599999 7.1160002 11
26.978001 -3.3659999 7.1069999 10
26.863001 -3.3729999 7.1009998 10
26.746 -3.3789999 7.0939999 10
26.649 -3.388 7.092 9
26.521 -3.391 7.0809999 9
26.42 -3.3989999 7.0760002 10
26.299999 -3.404 7.0669999 10
26.219 -3.414 7.0669999 9
26.106001 -3.4189999 7.0580001 10
25.982 -3.4219999 7.046 9
25.884001 -3.4289999 7.04 11
25.795 -3.438 7.0359998 10
25.684999 -3.4430001 7.026 10
25.576 -3.447 7.0149999 10
25.475 -3.4519999 7.006 8
25.367001 -3.457 6.9959998 9
25.257999 -3.461 6.9840002 9
25.158001 -3.4660001 6.974 8
25.073999 -3.473 6.9679999 9
24.996 -3.4790001 6.9640002 8
24.892 -3.483 6.9520001 8
24.799 -3.4879999 6.9419999 9
24.709 -3.493 6.9330001 9
24.628 -3.4990001 6.9260001 10
24.531 -3.503 6.914 10
24.448999 -3.5079999 6.9050002 13
24.4 -3.5179999 6.9060001 11
24.320999 -3.523 6.8979998 11
24.247 -3.529 6.8899999 13
24.202 -3.539 6.8909998 16
24.167999 -3.5510001 6.8940001 18
24.120001 -3.5599999 6.8940001 19
24.068001 -3.5680001 6.8909998 21
24.023001 -3.5780001 6.8899999 23
23.988001 -3.5880001 6.8920002 24
23.962 -3.5999999 6.8959999 24
23.917 -3.6099999 6.8940001 24
23.870001 -3.618 6.8909998 28
23.823 -3.6259999 6.888 31
23.796 -3.6370001 6.8899999 28
23.757 -3.6459999 6.8889999 33
23.702 -3.652 6.882 36
23.684 -3.664 6.8860002 29
23.660999 -3.6760001 6.888 36
23.629999 -3.6849999 6.8870001 29
23.610001 -3.6960001 6.8899999 36
23.583 -3.7060001 6.8899999 34
23.552999 -3.7160001 6.888 35
23.52 -3.724 6.8870001 33
23.518 -3.7379999 6.8920002 33
23.489 -3.7460001 6.8909998 27
23.475 -3.7579999 6.8930001 32
23.454 -3.7679999 6.8930001 32
23.436001 -3.7780001 6.8930001 30
23.41 -3.7869999 6.8909998 31
23.399 -3.799 6.8930001 27
23.382 -3.8080001 6.8930001 31
23.361 -3.8180001 6.8909998 32
23.357 -3.8299999 6.8940001 31
23.347 -3.8399999 6.895 30
23.323999 -3.848 6.8909998 30
23.323 -3.8599999 6.8940001 31
23.311001 -3.8699999 6.8940001 30
23.296 -3.8789999 6.8920002 31
23.295 -3.891 6.8940001 27
23.278999 -3.9000001 6.8909998 33
23.273001 -3.9100001 6.8909998 32
23.285 -3.924 6.8959999 28
23.27 -3.9319999 6.8930001 27
23.264999 -3.9419999 6.8920002 33
23.257 -3.951 6.8899999 33
23.253 -3.961 6.8889999 32
23.266001 -3.9749999 6.8930001 33
23.247999 -3.9820001 6.8870001 32
23.261 -3.994 6.8899999 32
23.266001 -4.0050001 6.8899999 31
23.273001 -4.0159998 6.8909998 27
23.275 -4.026 6.8899999 34
23.274 -4.0349998 6.888 33
23.285 -4.046 6.8889999 28
23.290001 -4.0570002 6.8870001 32
23.299 -4.0669999 6.8870001 32
23.291 -4.0749998 6.882 32
23.309 -4.0869999 6.8839998 33
23.315001 -4.0960002 6.882 32
23.326 -4.1069999 6.881 31
23.349001 -4.119 6.8829999 33
23.361 -4.1290002 6.882 32
23.365 -4.138 6.8779998 31
23.377001 -4.1469998 6.8769999 31
23.407 -4.1599998 6.8800001 30
23.441999 -4.1739998 6.8839998 27
23.443001 -4.1820002 6.8779998 32
23.461 -4.1919999 6.8769999 31
23.478001 -4.2020001 6.875 33
23.497999 -4.2129998 6.8740001 27
23.516001 -4.223 6.8720002 31
23.554001 -4.2360001 6.875 28
23.572001 -4.2449999 6.8720002 33
23.608999 -4.2579999 6.875 27
23.629 -4.2670002 6.8720002 32
23.660999 -4.2789998 6.8720002 27
23.694 -4.2909999 6.8730001 27
23.716999 -4.3010001 6.8699999 27
23.747999 -4.3119998 6.869 27
23.766001 -4.3200002 6.8639998 30
23.809999 -4.3330002 6.8660002 31
23.846001 -4.3449998 6.8660002 27
23.861 -4.3520002 6.8590002 30
23.912001 -4.3670001 6.8610001 26
23.948 -4.3779998 6.8600001 27
23.976 -4.3860002 6.8559999 31
24.031 -4.4000001 6.8600001 32
24.059999 -4.4089999 6.8559999 29
24.103001 -4.421 6.855 30
24.148001 -4.4320002 6.8540001 30
24.186001 -4.4429998 6.8509998 30
24.24 -4.4549999 6.8530002 27
24.289 -4.467 6.8520002 27
24.333 -4.4780002 6.8499999 32
24.377001 -4.4889998 6.8470001 33
24.444 -4.5029998 6.8509998 28
24.476999 -4.5110002 6.8449998 28
24.530001 -4.5229998 6.8439999 32
24.57 -4.5320001 6.8390002 31
24.622999 -4.5440001 6.8369999 33
24.666 -4.552 6.8319998 26
24.716999 -4.5630002 6.829 28
24.771 -4.5739999 6.8270001 30
24.833 -4.586 6.8260002 25
24.885 -4.5960002 6.822 30
24.952999 -4.6090002 6.822 26
25.035 -4.625 6.8260002 26
25.097 -4.6360002 6.8239999 32
25.160999 -4.6479998 6.822 32
25.231001 -4.6599998 6.8210001 26
25.290001 -4.671 6.816 29
25.357 -4.6820002 6.8140001 24
25.410999 -4.691 6.8080001 25
25.466 -4.6999998 6.8010001 28
25.555 -4.7140002 6.8039999 28
25.636999 -4.7270002 6.8039999 28
25.709999 -4.7389998 6.802 31
25.785 -4.7509999 6.7989998 29
25.867001 -4.7639999 6.7979999 30
25.948999 -4.776 6.796 30
26.021999 -4.7870002 6.7919998 28
26.108999 -4.7989998 6.7909999 24
26.169001 -4.8080001 6.783 27
26.268 -4.822 6.7839999 23
26.362 -4.836 6.783 28
26.434999 -4.8449998 6.777 29
26.528999 -4.8579998 6.7750001 29
26.612 -4.8699999 6.77 25
26.704 -4.8800001 6.7680001 28
26.799 -4.8930001 6.7649999 24
26.893 -4.9060001 6.7620001 27
27.006001 -4.9200001 6.763 23
27.115 -4.9349999 6.763 23
27.202999 -4.9450002 6.756 27
27.327999 -4.961 6.7589998 26
27.416 -4.9710002 6.7519999 26
27.509001 -4.9809999 6.7459998 30
27.615 -4.993 6.7420001 29
27.725 -5.006 6.7389998 26
27.819 -5.0149999 6.7319999 28
27.945 -5.0300002 6.7309999 29
28.048 -5.0409999 6.7249999 26
28.150999 -5.0510001 6.7179999 25
28.278999 -5.0650001 6.717 25
28.412001 -5.0799999 6.7160001 26
28.541 -5.0949998 6.7150002 28
28.643999 -5.1030002 6.7059999 29
28.775999 -5.1170001 6.7030001 25
28.893 -5.1279998 6.697 25
29.035999 -5.1440001 6.6960001 28
29.173 -5.1570001 6.6929998 27
29.299999 -5.1690001 6.6880002 24
0 0 0 1
27.073999 -4.7550001 6.1139998 5
27.014999 -4.7340002 6.0679998 9
27.013 -4.723 6.0349998 13
26.952999 -4.7010002 5.9879999 18
26.927999 -4.6859999 5.948 19
26.929001 -4.6739998 5.915 20
26.906 -4.658 5.8759999 21
26.878 -4.6409998 5.836 23
26.864 -4.6269999 5.7989998 25
26.858 -4.6129999 5.763 28
26.836 -4.5970001 5.724 29
26.832001 -4.5830002 5.6880002 32
26.809 -4.566 5.6479998 30
26.806999 -4.552 5.6129999 33
26.787001 -4.5349998 5.573 34
26.774 -4.5180001 5.5349998 34
26.764999 -4.5029998 5.4970002 33
26.76 -4.4879999 5.46 35
26.738001 -4.4699998 5.4190001 37
26.738001 -4.4549999 5.3839998 39
26.733 -4.4390001 5.3460002 38
26.726999 -4.4229999 5.3080001 39
26.716 -4.4050002 5.2690001 40
26.719 -4.3899999 5.2329998 41
26.709999 -4.3730001 5.1939998 45
26.701 -4.355 5.1550002 46
26.691999 -4.3379998 5.1160002 45
26.702 -4.323 5.0799999 45
26.705999 -4.3060002 5.0430002 37
26.688999 -4.2859998 5.0019999 40
26.681999 -4.2680001 4.9629998 43
26.686001 -4.2509999 4.9260001 50
26.676001 -4.2319999 4.8860002 47
26.686001 -4.2150002 4.849 48
26.690001 -4.198 4.8119998 51
26.684999 -4.1789999 4.7719998 51
26.690001 -4.1609998 4.7350001 44
26.695999 -4.1430001 4.697 50
26.705 -4.1259999 4.6599998 51
26.695999 -4.105 4.619 47
26.698999 -4.0869999 4.5809999 49
26.711 -4.0689998 4.5430002 45
26.715 -4.0479999 4.5040002 45
26.723 -4.0300002 4.4660001 44
26.729 -4.0100002 4.4260001 43
26.757999 -3.994 4.3920002 33
26.76 -3.973 4.3520002 39
26.77 -3.954 4.3130002 37
26.783001 -3.934 4.2750001 38
26.797001 -3.914 4.2360001 35
26.819 -3.895 4.1989999 34
26.83 -3.875 4.1599998 31
26.854 -3.8559999 4.1230001 31
26.879 -3.8369999 4.086 28
26.912001 -3.819 4.0489998 26
26.945999 -3.8010001 4.013 23
26.989 -3.7820001 3.977 19
27.070999 -3.77 3.948 12
27.124001 -3.7539999 3.9130001 6
0 0 0 0
0 0 0 0
0 0 0 0
0 0 0 0
0 0 0 0
0 0 0 0
0 0 0 0
0 0 0 0
0 0 0 0
0 0 0 0
0 0 0 0
0 0 0 0
0 0 0 0
0 0 0 0
0 0 0 0
0 0 0 0
0 0 0 0
0 0 0 0
0 0 0 0
0 0 0 0
0 0 0 2
34.926998 -4.0830002 3.8340001 2
34.868 -4.039 3.7720001 2
34.881001 -4.0029998 3.717 2
34.720001 -3.9460001 3.6429999 5
34.653 -3.901 3.5810001 45
34.657001 -3.862 3.5250001 50
34.647999 -3.823 3.47 52
34.653999 -3.7850001 3.415 51
34.646 -3.7449999 3.359 51
34.631001 -3.704 3.302 55
34.632 -3.664 3.2460001 52
34.619999 -3.6229999 3.1900001 52
34.608002 -3.582 3.1329999 55
34.599998 -3.5409999 3.0769999 68
34.591999 -3.4979999 3.02 61
34.577999 -3.4560001 2.9630001 79
34.59 -3.4159999 2.9089999 73
34.573002 -3.3729999 2.852 83
34.575001 -3.332 2.7980001 90
34.583 -3.2909999 2.743 84
34.549 -3.2460001 2.6849999 86
34.563 -3.2049999 2.631 58
34.541 -3.1600001 2.5739999 88
34.556999 -3.119 2.5209999 91
34.551998 -3.075 2.4649999 67
34.542 -3.0309999 2.408 83
34.525002 -2.9849999 2.352 73
34.542 -2.9419999 2.2980001 68
34.530998 -2.8970001 2.2420001 59
34.535 -2.855 2.1889999 54
34.548 -2.8110001 2.135 45
34.544998 -2.7650001 2.079 32
34.585999 -2.723 2.027 19
34.651001 -2.6830001 1.975 12
34.710999 -2.642 1.924 11
34.696999 -2.595 1.869 13
34.694 -2.5480001 1.813 12
34.673 -2.5009999 1.758 12
34.664001 -2.4530001 1.7029999 6
0 0 0 2
40.877998 -2.7820001 1.88 3
41.423 -2.763 1.84 3
41.810001 -2.7309999 1.7920001 38
42.284 -2.7030001 1.7460001 4
42.848 -2.6800001 1.7029999 5
43.313999 -2.6489999 1.654 8
44.848 -2.6800001 1.643 11
45.053001 -2.6300001 1.582 18
43.417 -2.474 1.4579999 31
43.377998 -2.4089999 1.3890001 56
43.389 -2.348 1.322 43
43.387001 -2.286 1.255 42
43.380001 -2.223 1.188 39
43.381001 -2.1619999 1.123 40
43.384998 -2.099 1.056 32
43.389 -2.0380001 0.99199998 23
43.394001 -1.974 0.92500001 8
0 0 0 29
50.821999 -2.1630001 0.93000001 15
51.248001 -2.105 0.86000001 24
51.206001 -2.0280001 0.78299999 32
51.186001 -1.95 0.70499998 39
0 0 0 43
58.595001 -2.0599999 0.63300002 58
58.623001 -1.971 0.54500002 150
58.624001 -1.883 0.458 136
58.623001 -1.794 0.37099999 113
58.639999 -1.705 0.28400001 59
58.844002 -1.6210001 0.198 45
0 0 0 0
0 0 0 119
66.636002 -1.533 -0.063000001 150
66.683998 -1.431 -0.161 76
66.672997 -1.326 -0.259 72
66.654999 -1.225 -0.35299999 55
66.958 -1.126 -0.45100001 37
69.841003 -1.064 -0.57200003 59
72.032997 -0.98400003 -0.69300002 90
73.071999 -0.88300002 -0.80800003 38
75.351997 -0.79500002 -0.93699998 12
0 0 0 0
0 0 0 0
0 0 0 23
116.963 -0.491 -2.115 44
116.925 -0.30399999 -2.2780001 52
116.831 -0.121 -2.434 25
0 0 0 0
0 0 0 0
0 0 0 25
0 0 0 157
60.777 0.42500001 -1.682 170
0 0 0 0
0 0 0 176
65.441002 0.778 -2.0769999 153
0 0 0 6
39.014999 0.58999997 -1.342 3
0 0 0 0
0 0 0 0
0 0 0 0
0 0 0 0
0 0 0 0
0 0 0 3
29.278 0.78100002 -1.275 2
0 0 0 1
28.294001 0.84899998 -1.304 1
0 0 0 1
0 0 0 0
0 0 0 5
0 0 0 0
0 0 0 2
17.413 0.69599998 -0.93300003 2
17.813 0.74199998 -0.977 2
16.899 0.73299998 -0.94700003 2
16.284 0.73299998 -0.93199998 3
15.706 0.73299998 -0.91799998 3
15.2 0.736 -0.90700001 2
14.731 0.73799998 -0.89700001 2
14.268 0.73900002 -0.88599998 3
14.04 0.75099999 -0.88800001 4
13.389 0.73900002 -0.86299998 3
13.032 0.741 -0.85500002 3
12.737 0.74599999 -0.85100001 3
12.427 0.74900001 -0.84399998 3
12.162 0.75400001 -0.83999997 3
11.805 0.75199997 -0.829 2
11.484 0.75099999 -0.81999999 2
11.231 0.75300002 -0.81400001 3
10.963 0.75400001 -0.80699998 2
10.722 0.75599998 -0.801 3
10.472 0.75599998 -0.79400003 3
10.272 0.759 -0.79000002 3
10.039 0.759 -0.78299999 3
9.8710003 0.76300001 -0.78100002 4
9.6689997 0.764 -0.77499998 4
9.507 0.76700002 -0.773 3
9.2880001 0.76499999 -0.764 4
9.1029997 0.76499999 -0.759 4
8.9490004 0.76800001 -0.755 4
8.7779999 0.76800001 -0.75 3
8.5930004 0.76700002 -0.74299997 3
8.4309998 0.76599997 -0.73799998 4
8.2889996 0.76700002 -0.73400003 4
8.1230001 0.76599997 -0.727 5
7.98 0.76599997 -0.72299999 4
7.8330002 0.76599997 -0.71700001 4
7.6880002 0.76499999 -0.71100003 4
7.5879998 0.76800001 -0.70999998 4
7.4510002 0.76599997 -0.704 3
7.3470001 0.76800001 -0.70099998 3
7.2220001 0.76700002 -0.69599998 3
7.1220002 0.76899999 -0.69300002 3
7.0240002 0.76999998 -0.69 3
6.9099998 0.76899999 -0.68599999 3
6.8189998 0.77100003 -0.68300003 4
6.7179999 0.77100003 -0.67900002 3
6.6090002 0.76899999 -0.67400002 3
6.546 0.773 -0.67400002 4
6.4689999 0.77499998 -0.671 4
6.4099998 0.778 -0.671 4
6.3179998 0.778 -0.667 4
6.2329998 0.778 -0.66299999 4
6.1570001 0.778 -0.66000003 4
6.0939999 0.78100002 -0.65899998 4
6.0339999 0.78299999 -0.65799999 4
5.9499998 0.78200001 -0.653 3
5.8909998 0.78399998 -0.65200001 3
5.8390002 0.787 -0.65100002 3
5.7659998 0.787 -0.64700001 3
5.7259998 0.79100001 -0.648 2
5.678 0.79299998 -0.64700001 2
5.6170001 0.79400003 -0.64399999 2
5.5450001 0.79299998 -0.63999999 3
5.4970002 0.79500002 -0.639 2
5.454 0.79799998 -0.63800001 2
5.4190001 0.80199999 -0.63800001 3
5.3699999 0.80299997 -0.63700002 2
5.3260002 0.80500001 -0.63499999 2
5.302 0.81099999 -0.63599998 2
5.2540002 0.81199998 -0.634 2
5.1989999 0.81199998 -0.63099998 2
5.1589999 0.81400001 -0.63 3
5.1079998 0.81400001 -0.62800002 5
5.092 0.81999999 -0.62900001 3
5.0469999 0.82099998 -0.62699997 5
5.013 0.82300001 -0.62699997 5
4.9920001 0.82800001 -0.62699997 3
4.9619999 0.83099997 -0.62699997 3
4.9239998 0.83200002 -0.625 3
4.8969998 0.83499998 -0.625 3
4.8790002 0.83999997 -0.62599999 5
4.8559999 0.84399998 -0.62599999 5
4.7950001 0.84100002 -0.62099999 3
4.7319999 0.83700001 -0.616 4
4.7259998 0.84299999 -0.61799997 3
4.6950002 0.84500003 -0.61699998 3
4.6539998 0.84500003 -0.61400002 2
4.632 0.84799999 -0.61400002 3
4.5999999 0.84899998 -0.61199999 3
4.5960002 0.85500002 -0.61500001 3
4.5560002 0.85500002 -0.61199999 2
4.5159998 0.85399997 -0.60900003 4
4.4889998 0.85600001 -0.60799998 4
4.4770002 0.86000001 -0.60799998 2
4.4390001 0.86000001 -0.60600001 4
4.4330001 0.86500001 -0.60699999 4
4.4089999 0.86699998 -0.60600001 2
4.3790002 0.86699998 -0.60399997 4
4.3709998 0.87199998 -0.60500002 2
4.3439999 0.87300003 -0.60299999 2
4.3200002 0.875 -0.602 2
4.3099999 0.87900001 -0.60299999 2
4.2940001 0.88200003 -0.60299999 2
4.302 0.88999999 -0.60600001 3
4.257 0.88599998 -0.60100001 2
4.2540002 0.89200002 -0.60299999 2
4.1999998 0.88700002 -0.597 2
4.2470002 0.903 -0.60600001 4
4.1719999 0.89200002 -0.597 2
4.1620002 0.89600003 -0.597 2
4.132 0.89499998 -0.59399998 3
4.1339998 0.90200001 -0.59600002 2
4.1100001 0.90200001 -0.59399998 2
4.0830002 0.90200001 -0.59200001 4
4.0819998 0.90700001 -0.59299999 2
4.1139998 0.92000002 -0.60000002 2
4.1100001 0.92400002 -0.60000002 2
4.0689998 0.921 -0.59600002 2
4.0489998 0.921 -0.59399998 2
4.0570002 0.92900002 -0.597 2
4.0370002 0.92900002 -0.59500003 2
4.0159998 0.93000001 -0.59299999 2
4.0419998 0.94099998 -0.59799999 4
4.0029998 0.93699998 -0.59399998 2
3.9809999 0.93699998 -0.59200001 2
3.9619999 0.93800002 -0.58999997 2
3.9530001 0.94 -0.58999997 2
3.9649999 0.94800001 -0.59299999 2
3.928 0.94400001 -0.588 2
3.964 0.958 -0.59500003 2
3.9630001 0.96200001 -0.59500003 2
3.9349999 0.95999998 -0.59200001 2
3.9159999 0.95999998 -0.58999997 2
3.9920001 0.98400003 -0.602 3
3.9260001 0.972 -0.59299999 2
3.902 0.97100002 -0.58999997 2
3.914 0.97799999 -0.59299999 2
3.881 0.97500002 -0.58899999 2
3.852 0.972 -0.58499998 2
3.8510001 0.97600001 -0.58600003 2
3.8829999 0.98799998 -0.59100002 2
3.859 0.98699999 -0.588 2
3.8269999 0.98299998 -0.58399999 2
3.8570001 0.99400002 -0.58899999 2
3.8369999 0.99299997 -0.58600003 2
3.846 1 -0.588 2
3.8859999 1.015 -0.59500003 2
3.8670001 1.0140001 -0.59299999 2
3.829 1.008 -0.58700001 2
3.8800001 1.025 -0.59500003 2
3.8640001 1.025 -0.59299999 2
3.829 1.0190001 -0.588 2
3.8800001 1.0369999 -0.59600002 3
3.848 1.0319999 -0.59200001 2
3.8469999 1.036 -0.59200001 2
3.7980001 1.026 -0.58399999 2
3.908 1.059 -0.602 2
3.848 1.0470001 -0.59200001 2
3.7950001 1.036 -0.58499998 2
3.836 1.051 -0.59100002 2
3.904 1.073 -0.602 3
3.9189999 1.081 -0.60399997 3
3.839 1.062 -0.59200001 2
3.882 1.077 -0.59799999 2
3.927 1.0930001 -0.60500002 3
3.9260001 1.096 -0.60500002 2
3.9679999 1.1109999 -0.611 3
3.8210001 1.074 -0.58899999 2
3.8340001 1.08 -0.58999997 2
3.8710001 1.094 -0.59600002 2
3.8699999 1.097 -0.59600002 2
3.846 1.0930001 -0.59100002 3
3.9289999 1.12 -0.60399997 2
3.8440001 1.098 -0.59100002 2
3.8299999 1.097 -0.588 2
3.829 1.1 -0.588 2
3.8570001 1.11 -0.59200001 2
3.8410001 1.109 -0.58899999 2
3.9100001 1.131 -0.59899998 3
3.8670001 1.1210001 -0.59200001 2
3.8150001 1.109 -0.58399999 2
3.822 1.113 -0.58399999 2
3.8340001 1.12 -0.58600003 2
3.813 1.1160001 -0.58200002 2
3.9000001 1.1440001 -0.59500003 2
3.8989999 1.146 -0.59399998 2
3.8859999 1.1440001 -0.59100002 2
3.8599999 1.1390001 -0.58700001 2
3.846 1.137 -0.58399999 2
3.8299999 1.135 -0.58099997 2
3.8989999 1.1569999 -0.59100002 2
3.8859999 1.155 -0.588 2
3.9260001 1.169 -0.59299999 2
3.9219999 1.17 -0.59200001 2
3.8929999 1.164 -0.58700001 2
3.8789999 1.161 -0.58399999 2
3.937 1.181 -0.59100002 2
3.954 1.188 -0.59299999 3
3.938 1.1849999 -0.58999997 2
3.938 1.186 -0.58899999 3
3.967 1.197 -0.59200001 2
3.9349999 1.189 -0.58600003 2
3.9690001 1.2 -0.59100002 3
4.0219998 1.2180001 -0.597 4
3.9460001 1.197 -0.58499998 2
3.9809999 1.209 -0.58899999 2
4.007 1.2180001 -0.59200001 2
4.0100002 1.22 -0.59100002 2
4.0310001 1.228 -0.59299999 2
4.0619998 1.239 -0.59600002 4
4.0300002 1.23 -0.58999997 2
4.0819998 1.247 -0.59600002 2
4.0170002 1.228 -0.58600003 2
4.0339999 1.235 -0.58700001 2
4.0500002 1.24 -0.588 2
4.072 1.248 -0.58999997 2
4.0640001 1.247 -0.58700001 2
4.099 1.258 -0.59100002 2
4.105 1.261 -0.58999997 2
4.1350002 1.271 -0.59299999 2
4.1370001 1.272 -0.59200001 3
4.1500001 1.277 -0.59200001 4
4.1630001 1.281 -0.59200001 3
4.1719999 1.284 -0.59200001 4
4.197 1.293 -0.59399998 4
4.1999998 1.294 -0.59299999 3
4.2270002 1.303 -0.59500003 2
4.25 1.3099999 -0.59600002 2
4.2540002 1.311 -0.59500003 4
4.2719998 1.317 -0.59600002 2
4.29 1.323 -0.597 2
4.3119998 1.33 -0.59799999 2
4.3280001 1.335 -0.59799999 2
4.329 1.335 -0.59600002 4
4.3470001 1.34 -0.597 4
4.3639998 1.345 -0.597 4
4.3920002 1.354 -0.59899998 4
4.3959999 1.355 -0.59799999 4
4.4390001 1.368 -0.60100001 2
4.4330001 1.3660001 -0.59899998 4
4.4679999 1.376 -0.60100001 2
4.4819999 1.38 -0.60100001 2
4.506 1.386 -0.602 3
4.539 1.396 -0.60399997 2
4.5539999 1.4 -0.60399997 3
4.572 1.405 -0.60399997 5
4.6009998 1.4119999 -0.60500002 2
4.6269999 1.419 -0.60600001 4
4.652 1.426 -0.60699999 3
4.6609998 1.428 -0.60600001 3
4.6820002 1.433 -0.60699999 3
4.7150002 1.442 -0.60799998 3
4.7379999 1.448 -0.60900003 3
4.7610002 1.4529999 -0.60900003 3
4.7849998 1.459 -0.61000001 5
4.8179998 1.4680001 -0.611 5
4.8429999 1.474 -0.61199999 3
4.8709998 1.4809999 -0.61299998 3
4.9060001 1.489 -0.61400002 3
4.9289999 1.495 -0.61400002 5
4.9590001 1.502 -0.616 3
4.9860001 1.508 -0.616 3
5.0250001 1.518 -0.61799997 3
5.046 1.522 -0.61799997 2
5.0760002 1.529 -0.61799997 2
5.105 1.535 -0.61900002 2
5.145 1.545 -0.62099999 2
5.1659999 1.549 -0.62 3
5.2140002 1.561 -0.62300003 2
5.2290001 1.563 -0.62099999 3
5.263 1.5700001 -0.62199998 2
5.2930002 1.576 -0.62300003 3
5.3319998 1.585 -0.62400001 2
5.3600001 1.59 -0.62400001 3
5.401 1.6 -0.62599999 3
5.4510002 1.6109999 -0.62800002 2
5.4819999 1.617 -0.62800002 2
5.5159998 1.624 -0.62900001 3
5.5640001 1.635 -0.63099998 2
5.618 1.647 -0.63300002 2
5.6420002 1.65 -0.63200003 4
5.7059999 1.665 -0.63599998 3
5.7340002 1.67 -0.63499999 3
5.7800002 1.679 -0.63700002 3
5.836 1.691 -0.639 3
5.8730001 1.698 -0.63999999 3
5.9289999 1.709 -0.64200002 3
5.9660001 1.716 -0.64200002 3
6.0209999 1.727 -0.64399999 4
6.0609999 1.734 -0.64399999 4
6.1259999 1.748 -0.64700001 3
6.1789999 1.758 -0.64899999 3
6.2220001 1.765 -0.64899999 3
6.2820001 1.777 -0.65100002 3
6.3309999 1.786 -0.65200001 3
6.3969998 1.799 -0.65399998 3
6.4660001 1.813 -0.65700001 3
6.539 1.8279999 -0.66000003 3
6.5770001 1.8329999 -0.65899998 3
6.6539998 1.848 -0.66299999 3
6.7160001 1.859 -0.66500002 3
6.777 1.87 -0.66600001 3
6.8649998 1.888 -0.67000002 3
6.9330001 1.9 -0.67199999 4
7.0029998 1.913 -0.67400002 4
7.085 1.928 -0.67699999 4
7.1409998 1.937 -0.67699999 4
7.2199998 1.951 -0.68000001 4
7.3060002 1.967 -0.68300003 4
7.3759999 1.978 -0.68400002 4
7.4359999 1.987 -0.685 4
7.5009999 1.9960001 -0.68599999 4
7.6100001 2.0179999 -0.69 4
7.723 2.039 -0.69499999 4
7.8270001 2.0580001 -0.699 4
7.9330001 2.0769999 -0.70300001 4
8.0139999 2.0899999 -0.704 4
8.1459999 2.115 -0.70999998 4
8.2709999 2.1389999 -0.71499997 4
8.3629999 2.1530001 -0.71700001 3
8.474 2.1719999 -0.72100002 4
8.6110001 2.197 -0.727 4
8.7620001 2.2249999 -0.73299998 4
8.8649998 2.2409999 -0.736 5
8.9770002 2.2579999 -0.73900002 5
9.0839996 2.2750001 -0.741 4
9.1809998 2.2869999 -0.74299997 5
9.2910004 2.3039999 -0.745 5
9.4119997 2.322 -0.74800003 9
9.5559998 2.346 -0.75300002 6
9.7950001 2.392 -0.76499999 5
9.9189997 2.4100001 -0.76700002 6
10.044 2.428 -0.76999998 8
10.154 2.441 -0.77200001 9
10.282 2.4579999 -0.77399999 10
10.413 2.4760001 -0.77700001 9
10.528 2.4890001 -0.778 12
10.691 2.513 -0.78200001 9
10.767 2.517 -0.77999997 6
10.847 2.5209999 -0.77899998 5
10.975 2.5350001 -0.77999997 5
11.116 2.553 -0.78200001 3
11.304 2.5799999 -0.78799999 2
11.526 2.615 -0.79500002 2
11.689 2.635 -0.79799998 2
11.883 2.6619999 -0.80299997 3
12.06 2.684 -0.80699998 3
12.277 2.7149999 -0.81300002 3
12.469 2.7390001 -0.81699997 3
12.683 2.767 -0.82200003 3
12.831 2.7809999 -0.82300001 3
13.001 2.7980001 -0.82499999 3
13.08 2.796 -0.82099998 3
13.3 2.823 -0.82599998 3
13.495 2.8440001 -0.829 3
13.691 2.865 -0.83200002 4
13.946 2.8970001 -0.838 3
14.202 2.928 -0.84399998 3
14.522 2.9719999 -0.85299999 3
14.86 3.017 -0.86299998 2
15.208 3.0639999 -0.87300003 2
15.466 3.0910001 -0.87800002 3
15.853 3.1440001 -0.889 3
15.389 3.027 -0.85299999 3
15.667 3.056 -0.85799998 3
16.207001 3.1359999 -0.87699997 4
15.952 3.0599999 -0.852 4
16.365999 3.1129999 -0.86400002 3
16.886999 3.1849999 -0.88099998 3
17.278 3.23 -0.88999999 3
17.535999 3.2490001 -0.89200002 3
0 0 0 0
0 0 0 0
0 0 0 4
19.358 3.457 -0.93599999 3
19.795 3.5009999 -0.94499999 2
0 0 0 0
0 0 0 7
22.198 3.813 -1.018 3
22.775999 3.8729999 -1.031 3
0 0 0 0
0 0 0 1
26.26 4.3270001 -1.141 1
0 0 0 0
0 0 0 0
0 0 0 1
0 0 0 0
0 0 0 0
0 0 0 0
0 0 0 0
0 0 0 0
0 0 0 2
36.141998 5.3070002 -1.362 16
36.120998 5.237 -1.341 23
36.144001 5.1739998 -1.322 28
36.159 5.1090002 -1.303 31
36.167999 5.0430002 -1.283 30
36.185001 4.9790001 -1.265 27
36.219002 4.9159999 -1.247 58
36.251999 4.8520002 -1.228 65
36.355999 4.7969999 -1.2130001 8
36.591999 4.7589998 -1.201 5
36.639 4.6960001 -1.184 89
37.144001 4.6900001 -1.182 41
0 0 0 150
48.758999 5.9689999 -1.502 153
48.778999 5.8800001 -1.479 150
48.806999 5.789 -1.455 150
48.827999 5.698 -1.433 121
0 0 0 0
0 0 0 25
40.298 4.467 -1.125 9
40.136002 4.3709998 -1.102 7
40.183998 4.2969999 -1.085 8
40.146999 4.2129998 -1.0650001 14
40.202999 4.1409998 -1.049 10
39.978001 4.0380001 -1.025 17
39.887001 3.9489999 -1.006 34
39.835999 3.865 -0.98699999 32
39.756001 3.7780001 -0.96799999 34
39.699001 3.6930001 -0.94999999 35
39.639 3.6070001 -0.93199998 37
39.573002 3.523 -0.91399997 37
39.512001 3.438 -0.89700001 39
39.459999 3.3529999 -0.88 35
39.376999 3.266 -0.86199999 38
39.324001 3.181 -0.84600002 39
39.276001 3.099 -0.82999998 38
39.193001 3.0120001 -0.81400001 38
39.130001 2.9260001 -0.79799998 37
39.087002 2.8429999 -0.78299999 35
39.039001 2.7590001 -0.76800001 38
38.976002 2.674 -0.75300002 38
38.91 2.5899999 -0.73900002 39
38.868999 2.507 -0.72500002 37
38.785999 2.421 -0.70999998 37
38.738998 2.339 -0.69700003 37
38.698002 2.256 -0.68400002 36
38.633999 2.1719999 -0.671 35
38.583 2.0899999 -0.65799999 35
38.551998 2.007 -0.64600003 39
38.511002 1.925 -0.634 40
38.459 1.8430001 -0.62300003 39
38.419998 1.76 -0.611 39
38.383999 1.679 -0.60000002 40
38.367001 1.598 -0.58999997 21
38.332001 1.517 -0.579 18
38.324001 1.4349999 -0.56900001 20
38.291 1.354 -0.55900002 30
38.323002 1.274 -0.551 23
38.373001 1.194 -0.542 24
38.414001 1.114 -0.53399998 23
38.535999 1.036 -0.52700001 26
38.696999 0.95899999 -0.52100003 23
38.672001 0.875 -0.51300001 13
38.817001 0.79699999 -0.50700003 13
38.939999 0.71700001 -0.50099999 10
39.009998 0.63499999 -0.495 3
0 0 0 0
0 0 0 0
0 0 0 0
0 0 0 0
0 0 0 0
0 0 0 0
0 0 0 0
0 0 0 33
133.48 -0.37900001 -1.512 103
0 0 0 0
0 0 0 0
0 0 0 56
0 0 0 27
72.022003 -0.97600001 -0.778 55
0 0 0 8
66.641998 -1.189 -0.70899999 63
66.646004 -1.335 -0.70499998 78
66.625999 -1.473 -0.69999999 150
66.653999 -1.617 -0.69700003 147
0 0 0 0
0 0 0 89
58.598999 -1.7970001 -0.60600001 118
0 0 0 21
44.485001 -1.556 -0.45699999 44
44.530998 -1.653 -0.45699999 22
43.995998 -1.728 -0.45100001 11
43.780998 -1.813 -0.449 23
43.757 -1.905 -0.449 43
43.535 -1.988 -0.44800001 21
43.735001 -2.0910001 -0.45100001 13
43.929001 -2.194 -0.454 23
43.053001 -2.244 -0.44600001 36
42.393002 -2.3 -0.44100001 37
42.241001 -2.3829999 -0.442 36
42.396 -2.483 -0.44600001 35
42.617001 -2.5869999 -0.45100001 43
42.389 -2.6619999 -0.45100001 85
42.418999 -2.7539999 -0.45500001 114
42.417999 -2.8440001 -0.458 95
40.210999 -2.7809999 -0.43799999 5
39.352001 -2.8050001 -0.43200001 11
38.130001 -2.799 -0.42300001 8
38.214001 -2.8859999 -0.428 17
37.811001 -2.9360001 -0.428 6
0 0 0 0
0 0 0 0
0 0 0 0
0 0 0 0
0 0 0 0
0 0 0 1
0 0 0 0
0 0 0 1
19.16 -1.849 -0.242 1
0 0 0 0
0 0 0 25
0 0 0 25
0 0 0 25
0 0 0 25
0 0 0 1
18.499001 -2.0550001 -0.25999999 1
0 0 0 25
0 0 0 25
0 0 0 25
0 0 0 25
0 0 0 25
0 0 0 0
0 0 0 1
18.288 -2.332 -0.29300001 1
18.280001 -2.368 -0.29800001 1
18.233 -2.3989999 -0.303 1
18.249001 -2.438 -0.308 1
18.306999 -2.4820001 -0.315 8
18.329 -2.5220001 -0.32100001 11
18.323 -2.5580001 -0.32600001 9
18.306999 -2.5929999 -0.331 8
18.311001 -2.6300001 -0.33700001 8
18.325001 -2.668 -0.34299999 9
18.32 -2.7030001 -0.34900001 7
18.313 -2.7390001 -0.35499999 8
18.292 -2.7720001 -0.361 7
18.268999 -2.8050001 -0.36700001 5
18.261999 -2.8399999 -0.373 11
18.25 -2.8740001 -0.37900001 17
18.204 -2.902 -0.38499999 38
18.191999 -2.9349999 -0.391 70
18.195 -2.971 -0.398 131
18.200001 -3.007 -0.405 150
18.378 -3.072 -0.41600001 26
18.386 -3.109 -0.42300001 9
18.320999 -3.1329999 -0.42899999 3
18.292999 -3.1630001 -0.435 1
18.301001 -3.1989999 -0.44299999 1
18.17 -3.21 -0.447 1
18.289 -3.266 -0.45699999 1
18.308001 -3.303 -0.465 1
18.334 -3.342 -0.47400001 1
18.372 -3.3829999 -0.48199999 1
18.389999 -3.421 -0.491 1
18.479 -3.4719999 -0.50099999 1
18.657 -3.539 -0.514 31
18.662001 -3.575 -0.52200001 25
18.672001 -3.6110001 -0.53100002 18
18.657 -3.642 -0.53899997 1
0 0 0 47
21.014999 -4.178 -0.62599999 38
21.025999 -4.2189999 -0.63700002 61
21.01 -4.2540002 -0.64600003 66
21.041 -4.2979999 -0.65700001 23
0 0 0 33
34.724998 -7.2160001 -1.117 49
34.595001 -7.25 -1.1289999 58
34.286999 -7.2470002 -1.137 58
34.276001 -7.3039999 -1.153 24
34.591999 -7.4320002 -1.181 17
0 0 0 6
18.815001 -4.1079998 -0.66100001 18
18.753 -4.1269999 -0.66799998 23
18.672001 -4.1409998 -0.67500001 30
18.649 -4.1669998 -0.68300003 25
18.608999 -4.1890001 -0.69199997 25
18.57 -4.2119999 -0.69999999 39
18.551001 -4.2389998 -0.70899999 41
18.525999 -4.2639999 -0.71700001 45
18.495001 -4.2880001 -0.72600001 47
18.481001 -4.3150001 -0.73500001 48
18.483999 -4.3460002 -0.745 35
18.465 -4.3709998 -0.75400001 51
18.452999 -4.3979998 -0.76300001 53
18.437 -4.4239998 -0.773 57
18.434999 -4.4530001 -0.78299999 41
18.43 -4.4809999 -0.79299998 42
17.919001 -4.3850002 -0.78100002 37
16.921 -4.1669998 -0.74699998 8
16.816999 -4.1680002 -0.75099999 8
16.742001 -4.1760001 -0.75700003 5
16.631001 -4.1739998 -0.76099998 9
16.566999 -4.1830001 -0.76800001 8
16.493 -4.1890001 -0.77399999 8
16.410999 -4.1929998 -0.77899998 10
16.327999 -4.197 -0.78399998 11
16.246 -4.1999998 -0.79000002 8
16.183001 -4.2069998 -0.796 7
16.117001 -4.2140002 -0.80199999 9
16.030001 -4.2150002 -0.80699998 27
16.030001 -4.2379999 -0.81599998 39
16.003 -4.2540002 -0.824 38
16.024 -4.2820001 -0.83399999 40
16.025999 -4.3049998 -0.84399998 36
16.027 -4.329 -0.85299999 39
16.021999 -4.3499999 -0.86299998 38
16.028999 -4.3740001 -0.87199998 32
16.042999 -4.4000001 -0.88300002 28
16.032 -4.4190001 -0.89200002 44
16.028999 -4.4400001 -0.90100002 42
16.039 -4.4640002 -0.91100001 26
16.033001 -4.4840002 -0.92000002 43
16.040001 -4.507 -0.93000001 24
16.028 -4.5250001 -0.93900001 34
16.038 -4.5489998 -0.949 25
16.042 -4.5710001 -0.95899999 47
16.045 -4.592 -0.96799999 29
16.055 -4.6149998 -0.97799999 28
16.047001 -4.6329999 -0.98799998 5
16.507 -4.7859998 -1.026 2
16.25 -4.7319999 -1.02 2
16.266001 -4.756 -1.031 3
15.958 -4.6859999 -1.021 3
15.775 -4.651 -1.018 3
15.341 -4.5409999 -1 3
15.072 -4.4790001 -0.991 3
14.637 -4.3670001 -0.972 2
14.377 -4.3060002 -0.963 4
14.323 -4.3060002 -0.96799999 5
14.207 -4.2870002 -0.96899998 10
14.138 -4.2820001 -0.972 10
14.028 -4.2639999 -0.97299999 10
13.939 -4.2519999 -0.97600001 9
13.785 -4.2199998 -0.97299999 9
13.741 -4.2210002 -0.97799999 8
13.598 -4.191 -0.97600001 6
13.495 -4.1729999 -0.977 5
13.341 -4.1389999 -0.97399998 3
13.117 -4.0830002 -0.96499997 3
12.871 -4.0190001 -0.95499998 3
12.643 -3.96 -0.94499999 3
12.386 -3.892 -0.93300003 3
12.195 -3.8429999 -0.926 3
12.024 -3.8010001 -0.92000002 3
11.85 -3.757 -0.91399997 3
11.683 -3.7149999 -0.90799999 3
11.512 -3.671 -0.90200001 2
11.366 -3.6340001 -0.89700001 2
11.21 -3.595 -0.89099997 2
11.072 -3.5599999 -0.88700002 2
10.97 -3.5369999 -0.88499999 2
10.833 -3.5009999 -0.88 2
10.691 -3.464 -0.875 2
10.576 -3.4360001 -0.87199998 2
10.476 -3.4119999 -0.86900002 2
10.339 -3.375 -0.86400002 3
10.195 -3.336 -0.85799998 2
10.093 -3.3099999 -0.85500002 3
9.9689999 -3.277 -0.85000002 2
9.8699999 -3.2520001 -0.84799999 3
0 0 0 0
0 0 0 0
0 0 0 1
7.98 -2.652 -0.70300001 1
7.954 -2.648 -0.70599997 1
7.9510002 -2.652 -0.70999998 1
7.9180002 -2.6459999 -0.71100003 1
7.901 -2.6459999 -0.71399999 1
7.888 -2.6459999 -0.71700001 1
7.849 -2.638 -0.71799999 1
7.8210001 -2.6329999 -0.72000003 1
7.809 -2.6329999 -0.72299999 2
7.7940001 -2.6329999 -0.72600001 2
7.7870002 -2.635 -0.73000002 2
7.7709999 -2.6329999 -0.73199999 3
7.7600002 -2.6340001 -0.73500001 4
7.7319999 -2.628 -0.73699999 5
7.7199998 -2.628 -0.74000001 5
7.717 -2.6300001 -0.74400002 5
7.7199998 -2.635 -0.74800003 6
7.7179999 -2.638 -0.75199997 6
7.7059999 -2.6370001 -0.755 6
7.6989999 -2.638 -0.75800002 6
7.6929998 -2.6389999 -0.76200002 5
7.678 -2.6370001 -0.764 5
7.6599998 -2.6329999 -0.76599997 6
7.6259999 -2.6240001 -0.76700002 7
7.585 -2.6129999 -0.76599997 10
7.5500002 -2.6029999 -0.76700002 11
7.5 -2.5880001 -0.76499999 11
7.4400001 -2.5699999 -0.76300001 14
7.3940001 -2.556 -0.76200002 14
7.3520002 -2.543 -0.76099998 13
7.2969999 -2.527 -0.759 13
7.276 -2.5209999 -0.75999999 13
7.2360001 -2.5090001 -0.759 13
7.204 -2.4990001 -0.759 13
7.1789999 -2.4920001 -0.75999999 13
7.1609998 -2.487 -0.76099998 13
7.1259999 -2.4760001 -0.76099998 12
7.1040001 -2.47 -0.76200002 10
7.072 -2.46 -0.76200002 9
7.0469999 -2.4519999 -0.76200002 5
7.0079999 -2.4389999 -0.76099998 4
6.994 -2.4349999 -0.76300001 3
6.9520001 -2.421 -0.76099998 2
6.8969998 -2.402 -0.75800002 1
6.868 -2.3929999 -0.75800002 1
6.816 -2.375 -0.755 1
6.7870002 -2.365 -0.755 1
6.7529998 -2.3529999 -0.75400001 1
6.7199998 -2.342 -0.75300002 1
6.6820002 -2.3280001 -0.75099999 1
6.6719999 -2.325 -0.75300002 1
6.6290002 -2.309 -0.75099999 1
6.6269999 -2.3080001 -0.75300002 1
6.5700002 -2.2880001 -0.74900001 1
6.25 -2.1760001 -0.71499997 1
6.2309999 -2.1689999 -0.71499997 1
6.204 -2.1589999 -0.71399999 1
6.1729999 -2.1470001 -0.713 1
6.1430001 -2.1359999 -0.71200001 1
6.1149998 -2.125 -0.71100003 1
6.1020002 -2.119 -0.71100003 1
6.0710001 -2.108 -0.70999998 1
6.0310001 -2.092 -0.708 1
5.9970002 -2.079 -0.70599997 1
5.9850001 -2.0739999 -0.70599997 1
5.9559999 -2.062 -0.70499998 1
5.9349999 -2.053 -0.70499998 1
5.9120002 -2.0439999 -0.704 1
5.8790002 -2.0309999 -0.70200002 1
5.868 -2.0250001 -0.70200002 1
5.8379998 -2.013 -0.70099998 1
5.8039999 -2 -0.69800001 2
5.8000002 -1.9960001 -0.699 2
5.7820001 -1.988 -0.699 4
5.7589998 -1.978 -0.69800001 4
5.7340002 -1.967 -0.69700003 3
5.6999998 -1.9529999 -0.69400001 1
5.704 -1.952 -0.69599998 3
5.6669998 -1.937 -0.69300002 2
5.6399999 -1.925 -0.69199997 3
5.638 -1.9220001 -0.69300002 1
5.7059999 -1.943 -0.70300001 1
5.6700001 -1.928 -0.699 1
5.6490002 -1.918 -0.69800001 3
5.6420002 -1.913 -0.699 3
5.6129999 -1.9 -0.69599998 3
5.5879998 -1.8890001 -0.69499999 3
5.5949998 -1.888 -0.69700003 3
5.5809999 -1.88 -0.69599998 3
5.5479999 -1.8660001 -0.69400001 3
5.546 -1.862 -0.69400001 3
5.5320001 -1.854 -0.69400001 3
5.5159998 -1.845 -0.69300002 3
5.5019999 -1.837 -0.69199997 3
5.4860001 -1.8279999 -0.69099998 3
5.4759998 -1.821 -0.69099998 3
5.4580002 -1.812 -0.69 3
5.4489999 -1.8049999 -0.68900001 3
5.448 -1.801 -0.69 3
5.421 -1.788 -0.68699998 3
5.4120002 -1.781 -0.68699998 3
5.4089999 -1.776 -0.68800002 3
5.3959999 -1.768 -0.68699998 3
5.3779998 -1.758 -0.685 3
5.369 -1.751 -0.685 3
5.3740001 -1.748 -0.68599999 3
5.3540001 -1.737 -0.68400002 3
5.3470001 -1.7309999 -0.68400002 3
5.3559999 -1.729 -0.685 4
5.3439999 -1.721 -0.68400002 3
5.3309999 -1.712 -0.68300003 3
5.3299999 -1.707 -0.68400002 3
5.3249998 -1.701 -0.68400002 4
5.3239999 -1.696 -0.68400002 3
5.316 -1.689 -0.68300003 3
5.3109999 -1.682 -0.68300003 3
5.3060002 -1.676 -0.68300003 3
5.2969999 -1.668 -0.68199998 3
5.3000002 -1.664 -0.68199998 3
5.2909999 -1.656 -0.68099999 3
5.296 -1.652 -0.68199998 4
5.2909999 -1.646 -0.68099999 4
5.2789998 -1.637 -0.68000001 4
5.2859998 -1.6339999 -0.68099999 4
5.2800002 -1.626 -0.68000001 3
5.2719998 -1.618 -0.67900002 6
5.2859998 -1.617 -0.68099999 3
5.2810001 -1.61 -0.68000001 3
5.2719998 -1.602 -0.67900002 3
5.277 -1.598 -0.68000001 3
5.277 -1.592 -0.67900002 3
5.276 -1.586 -0.67900002 3
5.2849998 -1.5829999 -0.68000001 3
5.2800002 -1.575 -0.67900002 3
5.283 -1.5700001 -0.67900002 3
5.2870002 -1.5650001 -0.67900002 3
5.2989998 -1.563 -0.68000001 3
5.289 -1.554 -0.67900002 3
5.3080001 -1.553 -0.68099999 3
5.302 -1.545 -0.68000001 3
5.3189998 -1.543 -0.68099999 4
5.3140001 -1.536 -0.68000001 3
5.3189998 -1.53 -0.68000001 4
5.329 -1.527 -0.68099999 3
5.3309999 -1.521 -0.68000001 3
5.3330002 -1.515 -0.68000001 3
5.342 -1.511 -0.68000001 3
5.3470001 -1.505 -0.68000001 3
5.368 -1.5039999 -0.68199998 3
5.3600001 -1.495 -0.68000001 3
5.382 -1.494 -0.68199998 3
5.3829999 -1.487 -0.68099999 3
5.3899999 -1.482 -0.68099999 4
5.3979998 -1.477 -0.68099999 3
5.408 -1.473 -0.68099999 3
5.4180002 -1.4680001 -0.68199998 3
5.4229999 -1.4630001 -0.68099999 3
5.4439998 -1.461 -0.68300003 3
5.4530001 -1.456 -0.68300003 3
5.473 -1.4529999 -0.68400002 3
5.4720001 -1.4450001 -0.68199998 3
5.4920001 -1.443 -0.68300003 3
5.5040002 -1.438 -0.68400002 3
5.5170002 -1.434 -0.68400002 3
5.5479999 -1.434 -0.68599999 3
5.5560002 -1.428 -0.68599999 3
5.5619998 -1.4220001 -0.685 3
5.5890002 -1.421 -0.68699998 3
5.6009998 -1.415 -0.68599999 3
5.6110001 -1.41 -0.68599999 2
5.6230001 -1.405 -0.68599999 4
5.6529999 -1.404 -0.68800002 3
5.6760001 -1.401 -0.68900001 3
5.6810002 -1.393 -0.68699998 3
5.6989999 -1.3890001 -0.68800002 3
5.7129998 -1.3839999 -0.68699998 3
5.7420001 -1.382 -0.68900001 3
5.7649999 -1.3789999 -0.68900001 3
5.8039999 -1.3789999 -0.69199997 3
5.822 -1.375 -0.69199997 3
5.8509998 -1.372 -0.69300002 3
5.8800001 -1.37 -0.69400001 3
5.901 -1.365 -0.69400001 4
5.9349999 -1.364 -0.69599998 3
5.9569998 -1.36 -0.69599998 3
5.9899998 -1.358 -0.69800001 4
6.006 -1.352 -0.69700003 4
6.0380001 -1.349 -0.69800001 3
6.0580001 -1.344 -0.69800001 3
6.1040001 -1.344 -0.69999999 4
6.1339998 -1.341 -0.70099998 3
6.1609998 -1.337 -0.70099998 4
6.2049999 -1.336 -0.70300001 4
6.2259998 -1.331 -0.70300001 4
6.263 -1.3279999 -0.704 4
6.2950001 -1.325 -0.704 4
6.336 -1.323 -0.70599997 4
6.3699999 -1.319 -0.70599997 4
6.415 -1.318 -0.708 5
6.4569998 -1.316 -0.70899999 4
6.4840002 -1.3099999 -0.70899999 4
6.552 -1.313 -0.713 5
6.5879998 -1.309 -0.713 4
6.6399999 -1.309 -0.71499997 5
6.677 -1.304 -0.71499997 4
6.737 -1.3049999 -0.71799999 4
6.7849998 -1.303 -0.71899998 4
6.8369999 -1.301 -0.72100002 4
6.9039998 -1.302 -0.72399998 5
6.9699998 -1.303 -0.727 5
7.0190001 -1.3 -0.72799999 4
7.0710001 -1.2970001 -0.72899997 4
7.1329999 -1.296 -0.73100001 4
7.191 -1.294 -0.73199999 4
7.2729998 -1.296 -0.736 4
7.3559999 -1.298 -0.74000001 4
7.402 -1.293 -0.73900002 4
7.4699998 -1.2920001 -0.741 4
7.5700002 -1.296 -0.74599999 3
7.6440001 -1.296 -0.74800003 3
7.7290001 -1.296 -0.75099999 3
7.8119998 -1.296 -0.75400001 3
7.8990002 -1.2970001 -0.75700003 4
7.9910002 -1.298 -0.75999999 4
8.118 -1.304 -0.76599997 8
8.2329998 -1.308 -0.77200001 9
8.3210001 -1.308 -0.77399999 12
8.3690004 -1.3 -0.77200001 14
8.4589996 -1.299 -0.77399999 11
8.5360003 -1.295 -0.77499998 15
8.6379995 -1.295 -0.778 12
8.7299995 -1.294 -0.77899998 16
8.8459997 -1.295 -0.78299999 12
8.9709997 -1.2970001 -0.787 8
9.073 -1.296 -0.78899997 11
9.1899996 -1.296 -0.792 8
9.3430004 -1.3 -0.79699999 7
9.4840002 -1.303 -0.80199999 5
9.6669998 -1.3099999 -0.80900002 4
9.8299999 -1.3150001 -0.815 8
9.9770002 -1.316 -0.81900001 8
10.136 -1.318 -0.82300001 6
10.3 -1.321 -0.82800001 4
10.439 -1.3200001 -0.82999998 4
10.601 -1.321 -0.83399999 5
10.815 -1.3279999 -0.84100002 2
10.999 -1.33 -0.84600002 3
11.202 -1.335 -0.85100001 2
11.451 -1.3430001 -0.86000001 2
11.67 -1.348 -0.866 2
11.893 -1.352 -0.87199998 2
12.132 -1.357 -0.87800002 3
12.407 -1.365 -0.88700002 3
12.648 -1.369 -0.89300001 3
12.943 -1.377 -0.90200001 3
13.16 -1.377 -0.90399998 3
13.464 -1.3839999 -0.91299999 3
13.751 -1.3890001 -0.91900003 3
14.062 -1.395 -0.92699999 3
14.422 -1.404 -0.93599999 2
14.836 -1.4170001 -0.94800001 2
15.191 -1.423 -0.95599997 2
15.597 -1.433 -0.96600002 3
16.004 -1.442 -0.97600001 3
16.384001 -1.446 -0.98299998 2
16.902 -1.462 -0.99699998 2
17.539 -1.485 -1.016 2
18.142 -1.503 -1.033 2
18.084 -1.465 -1.011 1
18.556 -1.47 -1.018 1
0 0 0 2
20.601999 -1.557 -1.087 2
0 0 0 0
0 0 0 2
0 0 0 0
0 0 0 4
26.052999 -1.734 -1.235 3
26.061001 -1.688 -1.207 5
26.195999 -1.65 -1.1849999 15
26.278999 -1.608 -1.159 19
0 0 0 2
40.069 -2.3069999 -1.678 8
39.994999 -2.2309999 -1.63 18
38.137001 -2.0599999 -1.511 7
0 0 0 18
30.815001 -1.554 -1.15 153
30.813 -1.499 -1.115 169
30.834 -1.446 -1.08 177
30.858999 -1.392 -1.045 168
30.875 -1.3380001 -1.0089999 8
0 0 0 55
42.389999 -1.688 -1.2869999 54
42.486 -1.618 -1.24 47
42.667 -1.55 -1.194 36
42.931999 -1.485 -1.151 38
43.338001 -1.424 -1.1109999 39
43.661999 -1.358 -1.066 43
43.799 -1.286 -1.016 52
43.797001 -1.21 -0.963 38
43.858002 -1.135 -0.91000003 24
43.928001 -1.061 -0.85699999 20
0 0 0 45
66.629997 -1.3789999 -1.135 76
66.614998 -1.2640001 -1.051 72
0 0 0 0
0 0 0 79
72.029999 -0.99599999 -0.86400002 123
73.119003 -0.88599998 -0.78299999 42
0 0 0 62
0 0 0 0
0 0 0 46
133.548 -0.71200001 -0.74400002 52
133.502 -0.486 -0.56999999 117
133.524 -0.264 -0.39700001 100
133.51601 -0.039000001 -0.222 89
133.51801 0.184 -0.046 54
0 0 0 0
0 0 0 0
0 0 0 0
0 0 0 0
0 0 0 25
0 0 0 0
0 0 0 0
0 0 0 0
0 0 0 0
0 0 0 0
0 0 0 0
0 0 0 0
0 0 0 0
0 0 0 0
0 0 0 14
87.971001 2.414 1.876 19
87.925003 2.5539999 1.998 32
87.766998 2.688 2.118 23
87.635002 2.822 2.237 24
87.512001 2.9549999 2.3570001 24
89.737 3.1700001 2.5439999 40
90.042999 3.319 2.677 34
89.856003 3.451 2.799 27
89.809998 3.5880001 2.925 20
89.521004 3.714 3.043 20
89.700996 3.859 3.177 12
88.952003 3.961 3.276 17
88.123001 4.0570002 3.3710001 24
88.107002 4.1900001 3.497 33
87.752998 4.3049998 3.609 39
87.665001 4.4320002 3.7320001 22
90.153999 4.6919999 3.9679999 31
0 0 0 0
0 0 0 0
0 0 0 0
0 0 0 19
87.831001 5.2129998 4.5 19
0 0 0 0
0 0 0 56
116.884 7.4460001 6.5019999 36
0 0 0 13
88.681 5.902 5.1929998 20
88.686996 6.0279999 5.3239999 20
89.602997 6.2160001 5.5110002 25
0 0 0 0
0 0 0 14
0 0 0 29
117.099 8.7709999 7.8909998 23
0 0 0 26
89.973999 6.9850001 6.329 34
0 0 0 0
0 0 0 35
125.792 10.272 9.4060001 30
0 0 0 0
0 0 0 0
0 0 0 0
0 0 0 33
117.159 10.336 9.6289997 46
117.033 10.476 9.7930002 41
117.014 10.627 9.967 45
117.077 10.778 10.142 25
0 0 0 0
0 0 0 36
117.177 11.229 10.672 34
117.264 11.383 10.855 21
0 0 0 0
0 0 0 0
0 0 0 0
0 0 0 0
0 0 0 53
116.734 12.181 11.847 68
116.685 12.314 12.016 86
0 0 0 4
48.790001 5.263 5.1680002 3
0 0 0 71
116.671 12.859 12.707 75
116.662 12.991 12.879 81
116.657 13.123 13.052 72
116.688 13.257 13.225 64
116.703 13.389 13.4 39
116.817 13.532 13.586 23
0 0 0 0
0 0 0 0
0 0 0 0
0 0 0 25
116.975 14.184 14.465 30
116.878 14.295 14.624 32
116.945 14.427 14.808 29
116.984 14.557 14.985 26
116.916 14.669 15.148 37
116.915 14.788 15.319 32
117.018 14.92 15.5 27
0 0 0 0
0 0 0 27
116.817 15.243 15.983 27
116.67 15.338 16.129 39
116.639 15.447 16.294001 45
116.559 15.548 16.451 53
116.537 15.656 16.615999 70
116.501 15.761 16.778 70
116.495 15.869 16.941 85
116.535 15.982 17.114 68
116.523 16.087 17.275 53
116.607 16.204 17.454 48
116.612 16.309999 17.620001 38
116.596 16.410999 17.783001 25
116.7 16.528 17.964001 32
116.706 16.634001 18.129999 28
0 0 0 0
0 0 0 27
116.58 16.914 18.601 25
116.639 17.02 18.773001 29
116.591 17.108999 18.927999 29
116.419 17.179001 19.056999 76
116.459 17.278999 19.225 62
116.414 17.365 19.378 51
116.442 17.461 19.542 48
116.479 17.556999 19.708 57
116.442 17.642 19.857 63
116.474 17.735001 20.021 48
116.398 17.811001 20.165001 55
116.436 17.906 20.332001 50
116.419 17.989 20.486 59
116.412 18.072001 20.636999 61
116.362 18.148001 20.783001 50
116.456 18.240999 20.954 52
116.409 18.319 21.096001 49
116.369 18.392 21.242001 52
116.379 18.469 21.396 58
116.383 18.548 21.546 53
116.375 18.622999 21.695 47
116.418 18.705999 21.854 45
116.348 18.768999 21.990999 48
116.4 18.854 22.149 51
116.349 18.915001 22.285 52
116.344 18.986 22.431 57
116.393 19.063999 22.587999 54
116.39 19.132999 22.73 56
116.414 19.205 22.879999 48
116.331 19.257999 23.009001 52
116.382 19.336 23.162001 43
116.379 19.4 23.305 51
116.371 19.462 23.445999 51
116.363 19.521 23.582001 48
116.345 19.58 23.716 55
116.361 19.643 23.858999 50
116.318 19.695 23.989 49
116.334 19.756001 24.131001 64
116.327 19.813 24.264 67
116.37 19.875 24.412001 44
116.372 19.931 24.545 37
116.364 19.986 24.681 51
116.364 20.037001 24.812 59
116.379 20.094 24.948 69
116.361 20.139 25.073 61
116.357 20.188 25.204 67
116.374 20.239 25.337999 50
116.336 20.280001 25.459 39
116.383 20.337999 25.597 31
116.374 20.382 25.722 26
0 0 0 0
0 0 0 0
0 0 0 0
0 0 0 0
0 0 0 0
0 0 0 0
0 0 0 0
0 0 0 0
0 0 0 0
0 0 0 0
0 0 0 0
0 0 0 0
0 0 0 0
0 0 0 0
0 0 0 0
0 0 0 24
116.708 21.048 27.804001 27
0 0 0 0
0 0 0 25
116.655 21.114 28.113001 26
116.444 21.098 28.167999 26
116.372 21.105 28.254 27
116.473 21.143999 28.382 29
116.453 21.160999 28.476999 36
116.441 21.177 28.575001 36
116.369 21.181 28.658001 39
116.323 21.188999 28.745001 48
116.329 21.205 28.844999 53
116.347 21.225 28.945 64
116.37 21.242001 29.046 59
116.362 21.253 29.138 51
116.345 21.26 29.226999 60
116.329 21.267 29.315001 62
116.349 21.278999 29.410999 50
116.343 21.285999 29.499001 41
116.265 21.280001 29.563999 38
116.295 21.294001 29.658001 27
0 0 0 0
0 0 0 0
0 0 0 0
0 0 0 0
0 0 0 0
0 0 0 0
0 0 0 0
0 0 0 0
0 0 0 0
0 0 0 0
0 0 0 0
0 0 0 0
0 0 0 0
0 0 0 0
0 0 0 0
0 0 0 0
0 0 0 0
0 0 0 0
0 0 0 0
0 0 0 0
0 0 0 0
0 0 0 0
0 0 0 0
0 0 0 0
0 0 0 0
0 0 0 0
0 0 0 0
0 0 0 0
0 0 0 0
0 0 0 0
0 0 0 0
0 0 0 24
116.771 21 31.927999 26
