# .PCD v0.7 - Point Cloud Data file format
VERSION 0.7
FIELDS x y z intensity
SIZE 4 4 4 4
TYPE F F F F
COUNT 1 1 1 1
WIDTH 1678
HEIGHT 1
VIEWPOINT 0 0 0 1 0 0 0
POINTS 1678
DATA ascii
24.591 4.3109999 4.1420002 48
24.587999 4.2789998 4.1230001 49
24.575001 4.2449999 4.1030002 56
24.580999 4.2140002 4.086 55
24.587 4.184 4.0679998 41
24.575001 4.1500001 4.0469999 52
24.607 4.1240001 4.033 51
24.620001 4.0939999 4.0159998 47
24.625 4.0630002 3.997 53
24.658001 4.0359998 3.983 46
24.679001 4.007 3.9660001 46
24.698999 3.9779999 3.9489999 41
24.719999 3.948 3.9319999 39
24.754999 3.921 3.9159999 35
24.787001 3.8929999 3.9000001 33
24.839001 3.868 3.8870001 29
24.879999 3.8399999 3.872 24
24.962 3.819 3.8629999 18
25.079 3.803 3.859 5
0 0 0 3
37.547001 5.5929999 5.7090001 3
37.631001 5.5539999 5.6880002 3
37.728001 5.5170002 5.6669998 3
37.791 5.474 5.6420002 2
37.867001 5.434 5.6170001 2
0 0 0 0
0 0 0 1
33.138 4.618 4.8189998 10
33.137001 4.572 4.7870002 12
33.331001 4.552 4.7810001 2
33.365002 4.5110002 4.7540002 1
0 0 0 0
0 0 0 0
0 0 0 0
0 0 0 0
0 0 0 0
0 0 0 0
0 0 0 0
0 0 0 0
0 0 0 0
0 0 0 0
0 0 0 0
0 0 0 0
0 0 0 0
0 0 0 0
0 0 0 0
0 0 0 0
0 0 0 0
0 0 0 0
0 0 0 0
0 0 0 0
0 0 0 0
0 0 0 0
0 0 0 3
33.643002 3.408 3.898 18
33.625 3.358 3.855 12
0 0 0 14
17.282 1.676 1.939 21
17.219999 1.645 1.91 28
17.188999 1.618 1.885 32
17.143999 1.589 1.859 34
17.139999 1.564 1.837 38
17.103001 1.536 1.811 43
17.097 1.511 1.788 47
17.076 1.485 1.7640001 45
17.058001 1.459 1.74 52
17.047001 1.434 1.717 33
17.031 1.408 1.692 52
17.031 1.383 1.67 59
17.023001 1.358 1.646 56
17.024 1.334 1.624 35
17.007 1.308 1.599 63
17.007999 1.284 1.576 62
17.011999 1.26 1.553 40
17.006001 1.235 1.529 39
17.014999 1.212 1.507 39
17.004999 1.187 1.483 62
17.014999 1.164 1.46 66
17.023001 1.14 1.437 33
17.038 1.117 1.414 34
17.055 1.094 1.391 49
17.055 1.0700001 1.367 55
17.066 1.0470001 1.344 55
17.073999 1.023 1.319 55
17.08 0.99900001 1.295 49
17.105 0.97600001 1.272 53
17.117001 0.95300001 1.248 45
17.149 0.93099999 1.226 41
17.190001 0.90899998 1.2029999 25
17.209 0.88599998 1.179 37
17.233999 0.86299998 1.155 29
17.277 0.84100002 1.132 28
17.351999 0.81999999 1.1109999 20
17.431999 0.79900002 1.089 11
0 0 0 1
34.547001 1.489 2.053 1
34.567001 1.442 2.0009999 3
34.584999 1.395 1.949 2
0 0 0 0
0 0 0 4
38.563 1.396 1.994 4
38.548 1.3430001 1.933 5
38.595001 1.2920001 1.875 4
0 0 0 0
0 0 0 0
0 0 0 12
34.813 0.977 1.471 30
34.830002 0.93099999 1.416 31
34.869999 0.88599998 1.362 4
34.856998 0.83899999 1.3049999 2
0 0 0 0
0 0 0 1
0 0 0 0
0 0 0 0
0 0 0 0
0 0 0 4
35.089001 0.51999998 0.91299999 21
35.042999 0.47400001 0.85399997 33
35.005001 0.42699999 0.79500002 47
34.855999 0.38100001 0.73400003 16
0 0 0 2
0 0 0 15
34.771 0.245 0.55699998 18
34.797001 0.20200001 0.49900001 18
34.800999 0.15700001 0.44 18
0 0 0 2
27.77 0.055 0.257 3
0 0 0 2
0 0 0 3
0 0 0 8
0 0 0 1
12.845 -0.054000001 0.0080000004 17
12.782 -0.07 -0.014 37
12.69 -0.085000001 -0.035999998 45
12.65 -0.1 -0.057999998 47
12.562 -0.115 -0.079000004 45
12.599 -0.131 -0.102 44
12.619 -0.146 -0.124 42
12.558 -0.16 -0.145 42
12.455 -0.17399999 -0.16599999 43
12.445 -0.189 -0.18799999 27
12.438 -0.20299999 -0.20999999 18
12.267 -0.215 -0.228 9
12.226 -0.229 -0.249 14
12.212 -0.243 -0.271 9
12.123 -0.255 -0.29100001 28
12.139 -0.27000001 -0.31299999 22
12.145 -0.28400001 -0.33500001 24
12.143 -0.29800001 -0.35699999 24
12.145 -0.31200001 -0.37900001 23
12.171 -0.32600001 -0.40200001 25
12.156 -0.33899999 -0.42300001 22
12.171 -0.354 -0.44600001 22
12.174 -0.36700001 -0.46799999 24
12.178 -0.38100001 -0.49000001 38
12.182 -0.39399999 -0.51200002 38
12.187 -0.40799999 -0.53500003 25
12.207 -0.42199999 -0.55800003 24
12.205 -0.435 -0.57999998 21
12.202 -0.44800001 -0.602 21
12.198 -0.461 -0.62400001 25
12.195 -0.47400001 -0.64600003 34
12.208 -0.48699999 -0.66900003 34
12.211 -0.5 -0.69199997 25
12.224 -0.51300001 -0.71499997 38
12.229 -0.52600002 -0.73699999 25
12.237 -0.53899997 -0.76099998 27
12.21 -0.551 -0.78200001 23
12.112 -0.55900002 -0.79799998 28
11.711 -0.55199999 -0.79299998 5
11.122 -0.53500003 -0.773 2
10.63 -0.52200001 -0.759 3
10.249 -0.514 -0.75099999 3
9.8900003 -0.505 -0.74299997 3
9.5310001 -0.49599999 -0.73400003 3
9.1969995 -0.48800001 -0.72500002 3
8.9200001 -0.48199999 -0.72000003 4
8.6190004 -0.47400001 -0.71200001 4
8.3479996 -0.46700001 -0.70499998 4
8.085 -0.46000001 -0.69800001 3
7.8590002 -0.454 -0.69199997 4
7.6409998 -0.449 -0.68800002 5
7.3610001 -0.43900001 -0.676 6
6.9619999 -0.42199999 -0.65200001 2
0 0 0 2
6.4000001 -0.39899999 -0.62300003 3
6.3200002 -0.40000001 -0.62699997 2
6.2579999 -0.40099999 -0.63300002 3
6.2459998 -0.40599999 -0.64300001 6
6.1820002 -0.40700001 -0.648 5
6.085 -0.40599999 -0.64899999 8
5.9829998 -0.40400001 -0.64899999 8
5.8779998 -0.40200001 -0.64899999 7
5.7919998 -0.40099999 -0.64999998 6
5.6630001 -0.39700001 -0.64600003 5
5.5539999 -0.39399999 -0.64399999 5
5.427 -0.38999999 -0.63999999 4
5.3260002 -0.38699999 -0.63800001 4
5.2160001 -0.38299999 -0.634 4
5.1269999 -0.38 -0.63300002 3
5.0409999 -0.37799999 -0.63099998 2
4.9380002 -0.37400001 -0.62800002 2
4.8569999 -0.37200001 -0.62599999 1
4.7709999 -0.36899999 -0.62400001 1
4.7249999 -0.36899999 -0.62699997 1
4.645 -0.366 -0.625 1
4.5749998 -0.36399999 -0.62400001 1
4.473 -0.359 -0.61799997 1
4.533 -0.36700001 -0.63499999 1
4.5960002 -0.37599999 -0.65200001 1
4.4029999 -0.36300001 -0.63300002 1
4.2989998 -0.35800001 -0.62599999 1
4.0560002 -0.34 -0.59799999 2
3.9660001 -0.33500001 -0.59100002 2
3.938 -0.336 -0.59399998 2
3.8570001 -0.331 -0.58899999 2
3.796 -0.329 -0.58700001 2
3.7720001 -0.329 -0.58999997 2
3.7030001 -0.32600001 -0.58600003 2
3.678 -0.32600001 -0.58899999 2
3.6259999 -0.324 -0.58700001 2
3.622 -0.32499999 -0.59299999 2
3.546 -0.32100001 -0.58700001 2
3.4590001 -0.315 -0.57800001 2
3.4809999 -0.31900001 -0.588 2
3.4419999 -0.31799999 -0.588 2
3.4489999 -0.31999999 -0.59500003 2
3.398 -0.31799999 -0.59299999 2
3.2869999 -0.30899999 -0.579 2
3.303 -0.31299999 -0.588 2
3.2980001 -0.31400001 -0.59299999 2
3.152 -0.30199999 -0.57200003 2
3.22 -0.31 -0.58999997 2
3.211 -0.31099999 -0.59399998 2
3.155 -0.30700001 -0.58899999 2
3.0699999 -0.301 -0.579 2
2.9690001 -0.292 -0.565 2
2.9389999 -0.29100001 -0.56400001 2
2.9119999 -0.28999999 -0.56400001 2
2.8759999 -0.28799999 -0.56199998 2
2.8469999 -0.28600001 -0.56199998 2
2.8269999 -0.28600001 -0.56199998 2
2.793 -0.28299999 -0.56 2
2.767 -0.28200001 -0.56 2
2.773 -0.28400001 -0.56599998 1
2.7309999 -0.28099999 -0.56199998 1
2.7249999 -0.28200001 -0.565 1
2.6530001 -0.27500001 -0.55500001 1
2.6289999 -0.27399999 -0.55400002 1
2.609 -0.273 -0.55400002 2
2.5880001 -0.27200001 -0.55400002 2
2.5680001 -0.271 -0.55400002 2
2.549 -0.27000001 -0.55400002 1
2.5209999 -0.26800001 -0.55199999 1
2.5350001 -0.271 -0.56 1
2.506 -0.26800001 -0.55699998 1
2.4549999 -0.264 -0.55000001 1
2.4300001 -0.26199999 -0.54799998 1
2.4170001 -0.26100001 -0.54900002 1
2.3940001 -0.25999999 -0.54799998 1
2.372 -0.25799999 -0.54699999 1
2.355 -0.257 -0.54699999 1
2.3369999 -0.25600001 -0.546 1
2.323 -0.255 -0.54699999 1
2.3039999 -0.25400001 -0.546 1
2.29 -0.25299999 -0.546 1
2.273 -0.252 -0.546 1
2.2509999 -0.25 -0.54400003 1
2.2349999 -0.249 -0.54299998 1
2.2249999 -0.249 -0.54400003 1
2.2030001 -0.24699999 -0.542 1
2.194 -0.24600001 -0.54299998 1
2.175 -0.245 -0.542 1
2.1589999 -0.244 -0.54100001 1
2.1400001 -0.242 -0.54000002 1
2.131 -0.241 -0.54000002 1
2.1210001 -0.241 -0.54100001 1
2.112 -0.23999999 -0.542 1
2.0940001 -0.23899999 -0.54000002 1
2.085 -0.23800001 -0.54100001 1
2.066 -0.236 -0.53899997 1
2.053 -0.235 -0.53899997 1
2.033 -0.233 -0.53600001 1
2.03 -0.233 -0.53799999 1
2.0190001 -0.233 -0.53799999 1
2.006 -0.23100001 -0.53799999 1
1.985 -0.229 -0.53500003 1
1.98 -0.229 -0.53600001 1
1.97 -0.228 -0.53600001 1
1.96 -0.227 -0.53600001 1
1.947 -0.226 -0.53500003 1
1.9349999 -0.22499999 -0.53500003 1
1.9349999 -0.22499999 -0.537 1
1.92 -0.22400001 -0.53500003 1
1.905 -0.222 -0.53399998 1
1.896 -0.221 -0.53399998 1
1.892 -0.221 -0.53500003 1
1.875 -0.219 -0.53200001 1
1.873 -0.219 -0.53399998 1
1.857 -0.21799999 -0.53200001 1
1.847 -0.21699999 -0.53200001 1
1.842 -0.21600001 -0.53200001 1
1.837 -0.21600001 -0.53299999 1
1.825 -0.214 -0.53200001 1
1.8150001 -0.213 -0.53100002 1
1.806 -0.212 -0.53100002 1
1.799 -0.211 -0.53100002 1
1.788 -0.20999999 -0.52999997 1
1.783 -0.20999999 -0.52999997 1
1.776 -0.20900001 -0.52999997 1
1.767 -0.208 -0.52999997 1
1.766 -0.208 -0.53100002 1
1.757 -0.207 -0.53100002 1
1.751 -0.206 -0.53100002 1
1.742 -0.205 -0.52999997 1
1.7309999 -0.204 -0.528 1
1.733 -0.204 -0.53100002 1
1.722 -0.20299999 -0.52999997 1
1.716 -0.20200001 -0.52899998 1
1.712 -0.20100001 -0.52999997 1
1.702 -0.2 -0.52899998 1
1.6849999 -0.198 -0.52499998 1
1.683 -0.198 -0.52600002 1
1.674 -0.19599999 -0.52499998 1
1.6720001 -0.19599999 -0.52600002 1
1.664 -0.19499999 -0.52499998 1
1.6619999 -0.19499999 -0.52600002 1
1.656 -0.19400001 -0.52600002 1
1.654 -0.193 -0.52600002 1
1.645 -0.192 -0.52499998 1
1.637 -0.191 -0.52399999 1
1.6339999 -0.191 -0.52399999 1
1.623 -0.189 -0.52200001 1
1.622 -0.189 -0.523 1
1.627 -0.189 -0.52700001 1
1.618 -0.18799999 -0.52499998 1
1.614 -0.18700001 -0.52499998 1
1.6109999 -0.18700001 -0.52499998 1
1.595 -0.185 -0.52200001 1
1.5880001 -0.184 -0.52100003 1
1.584 -0.183 -0.51999998 1
1.58 -0.182 -0.51999998 1
1.575 -0.18099999 -0.51999998 1
1.573 -0.18099999 -0.51999998 1
1.573 -0.18099999 -0.52200001 1
1.568 -0.18000001 -0.52100003 1
1.561 -0.17900001 -0.51999998 1
1.561 -0.178 -0.52100003 1
1.558 -0.178 -0.52100003 1
1.556 -0.177 -0.52100003 1
1.557 -0.177 -0.523 1
1.541 -0.175 -0.51800001 1
1.5470001 -0.175 -0.52100003 1
1.543 -0.17399999 -0.52100003 1
1.5369999 -0.17299999 -0.51999998 1
1.536 -0.17299999 -0.51999998 1
1.535 -0.17200001 -0.52100003 1
1.531 -0.171 -0.51999998 1
1.529 -0.171 -0.51999998 1
1.535 -0.171 -0.523 1
1.533 -0.17 -0.523 1
1.531 -0.17 -0.52399999 1
1.527 -0.169 -0.523 1
1.516 -0.167 -0.51999998 1
1.518 -0.167 -0.52100003 1
1.517 -0.167 -0.52100003 1
1.521 -0.167 -0.52399999 1
1.506 -0.16500001 -0.51899999 1
1.516 -0.16500001 -0.523 1
1.516 -0.16500001 -0.52399999 1
1.506 -0.163 -0.52100003 1
1.511 -0.163 -0.523 1
1.508 -0.162 -0.523 1
1.4960001 -0.161 -0.51899999 1
1.5 -0.161 -0.52100003 1
1.498 -0.16 -0.52100003 1
1.495 -0.15899999 -0.51999998 1
1.498 -0.15899999 -0.52100003 1
1.495 -0.15800001 -0.52100003 1
1.485 -0.15700001 -0.51700002 1
1.489 -0.156 -0.51899999 1
1.485 -0.155 -0.51800001 1
1.498 -0.156 -0.523 1
1.4960001 -0.156 -0.523 1
1.493 -0.155 -0.52200001 1
1.488 -0.154 -0.51999998 1
1.488 -0.153 -0.51999998 1
1.485 -0.152 -0.51999998 1
1.485 -0.152 -0.51999998 1
1.483 -0.15099999 -0.51899999 1
1.483 -0.15000001 -0.51899999 1
1.485 -0.15000001 -0.51999998 1
1.479 -0.149 -0.51800001 1
1.482 -0.148 -0.51899999 1
1.4859999 -0.148 -0.52100003 1
1.483 -0.147 -0.51999998 1
1.483 -0.147 -0.51999998 1
1.488 -0.147 -0.52100003 1
1.488 -0.146 -0.52100003 1
1.485 -0.145 -0.51999998 1
1.488 -0.145 -0.52100003 1
1.4859999 -0.14399999 -0.52100003 1
1.4910001 -0.14399999 -0.52200001 1
1.485 -0.142 -0.51999998 1
1.488 -0.142 -0.52100003 1
1.494 -0.142 -0.523 1
1.489 -0.141 -0.52100003 1
1.483 -0.14 -0.51800001 1
1.49 -0.14 -0.51999998 1
1.4859999 -0.139 -0.51899999 1
1.489 -0.138 -0.51999998 1
1.489 -0.138 -0.51899999 1
1.499 -0.138 -0.52200001 1
1.487 -0.13600001 -0.51800001 1
1.4960001 -0.13600001 -0.52100003 1
1.499 -0.13600001 -0.52100003 1
1.493 -0.134 -0.51899999 1
1.493 -0.134 -0.51800001 1
1.501 -0.134 -0.52100003 1
1.499 -0.133 -0.51999998 1
1.501 -0.132 -0.51999998 1
1.502 -0.132 -0.51899999 1
1.508 -0.131 -0.52100003 1
1.511 -0.131 -0.52100003 1
1.508 -0.13 -0.51999998 1
1.512 -0.13 -0.51999998 1
1.505 -0.12800001 -0.51700002 1
1.515 -0.12800001 -0.51999998 1
1.517 -0.12800001 -0.51999998 1
1.524 -0.12800001 -0.52200001 1
1.523 -0.127 -0.52100003 1
1.526 -0.126 -0.52100003 1
1.526 -0.125 -0.51999998 1
1.535 -0.125 -0.52200001 1
1.535 -0.124 -0.52200001 1
1.528 -0.123 -0.51800001 1
1.5420001 -0.123 -0.52200001 1
1.539 -0.122 -0.51999998 1
1.5420001 -0.122 -0.51999998 1
1.543 -0.121 -0.51999998 1
1.543 -0.12 -0.51899999 1
1.549 -0.12 -0.51999998 1
1.5549999 -0.12 -0.52100003 1
1.558 -0.119 -0.52100003 1
1.558 -0.118 -0.51999998 1
1.568 -0.118 -0.52200001 1
1.576 -0.118 -0.52399999 1
1.585 -0.118 -0.52499998 1
1.5829999 -0.117 -0.523 1
1.584 -0.116 -0.523 1
1.5880001 -0.115 -0.523 1
1.589 -0.114 -0.52200001 1
1.592 -0.114 -0.52200001 1
1.595 -0.113 -0.52100003 1
1.599 -0.113 -0.52100003 1
1.6059999 -0.112 -0.52200001 1
1.6109999 -0.112 -0.52200001 1
1.62 -0.111 -0.52399999 1
1.623 -0.111 -0.52399999 1
1.6289999 -0.11 -0.52399999 1
1.636 -0.11 -0.52499998 1
1.642 -0.109 -0.52499998 1
1.647 -0.109 -0.52499998 1
1.659 -0.109 -0.528 1
1.663 -0.108 -0.52700001 1
1.6619999 -0.107 -0.52499998 1
1.663 -0.106 -0.52399999 1
1.674 -0.106 -0.52600002 1
1.691 -0.106 -0.52999997 1
1.692 -0.105 -0.528 1
1.698 -0.105 -0.528 1
1.707 -0.104 -0.52899998 1
1.7079999 -0.103 -0.528 1
1.7130001 -0.103 -0.52700001 1
1.724 -0.102 -0.52899998 1
1.7359999 -0.102 -0.53100002 1
1.7460001 -0.102 -0.53200001 1
1.7539999 -0.101 -0.53200001 1
1.756 -0.1 -0.53100002 1
1.766 -0.1 -0.53200001 1
1.77 -0.098999999 -0.53100002 1
1.779 -0.098999999 -0.53200001 1
1.783 -0.097999997 -0.53100002 1
1.794 -0.097999997 -0.53200001 1
1.803 -0.097000003 -0.53200001 1
1.804 -0.096000001 -0.52999997 1
1.819 -0.096000001 -0.53299999 1
1.827 -0.094999999 -0.53299999 1
1.844 -0.094999999 -0.53500003 1
1.845 -0.093999997 -0.53399998 1
1.859 -0.093999997 -0.53500003 1
1.874 -0.093999997 -0.537 1
1.876 -0.093000002 -0.53500003 1
1.888 -0.092 -0.53600001 1
1.898 -0.092 -0.53600001 1
1.908 -0.090999998 -0.537 1
1.916 -0.090999998 -0.53600001 1
1.928 -0.090000004 -0.537 1
1.941 -0.090000004 -0.53799999 1
1.939 -0.089000002 -0.53500003 1
1.947 -0.088 -0.53500003 1
1.9630001 -0.088 -0.53600001 1
1.976 -0.086999997 -0.537 1
1.989 -0.086999997 -0.53799999 1
1.995 -0.086000003 -0.53600001 1
2.0079999 -0.085000001 -0.537 1
2.02 -0.085000001 -0.537 1
2.017 -0.083999999 -0.53399998 1
2.0550001 -0.083999999 -0.54100001 1
2.053 -0.082999997 -0.537 1
2.1140001 -0.083999999 -0.55000001 1
2.1289999 -0.083999999 -0.55000001 1
2.132 -0.082999997 -0.54799998 1
2.204 -0.085000001 -0.56300002 1
2.1919999 -0.082999997 -0.55699998 1
2.1889999 -0.082000002 -0.55299997 1
2.2309999 -0.082000002 -0.56 1
2.2309999 -0.081 -0.55599999 1
2.2520001 -0.081 -0.55800003 1
2.22 -0.079000004 -0.54699999 1
2.2520001 -0.079000004 -0.551 1
2.233 -0.077 -0.54299998 1
2.2520001 -0.077 -0.54400003 1
2.2590001 -0.075999998 -0.542 1
2.2850001 -0.075999998 -0.54400003 1
2.302 -0.075000003 -0.54400003 1
2.3239999 -0.075000003 -0.546 1
2.339 -0.074000001 -0.546 1
2.355 -0.072999999 -0.54500002 1
2.3710001 -0.072999999 -0.54500002 1
2.388 -0.071999997 -0.54500002 1
2.4059999 -0.071999997 -0.54500002 1
2.4319999 -0.071000002 -0.54699999 1
2.4619999 -0.071000002 -0.54900002 1
2.4860001 -0.071000002 -0.55000001 1
2.5 -0.07 -0.54900002 1
2.5209999 -0.07 -0.55000001 1
2.5539999 -0.07 -0.55199999 1
2.566 -0.068999998 -0.55000001 1
2.602 -0.068999998 -0.55400002 1
2.625 -0.068000004 -0.55400002 1
2.6489999 -0.068000004 -0.55400002 1
2.6760001 -0.067000002 -0.55500001 1
2.704 -0.067000002 -0.55599999 1
2.73 -0.066 -0.55599999 1
2.763 -0.066 -0.55800003 2
2.7909999 -0.066 -0.55900002 2
2.822 -0.064999998 -0.56 2
2.836 -0.064999998 -0.55800003 2
2.8829999 -0.064999998 -0.56099999 2
2.918 -0.064000003 -0.56300002 2
2.95 -0.064000003 -0.56400001 2
2.994 -0.064000003 -0.56599998 2
3.0309999 -0.064000003 -0.56800002 2
3.0550001 -0.063000001 -0.56699997 2
3.098 -0.063000001 -0.56900001 2
3.132 -0.061999999 -0.56900001 2
3.1719999 -0.061999999 -0.56999999 2
3.2130001 -0.061999999 -0.57200003 2
3.2539999 -0.061999999 -0.57300001 2
3.3740001 -0.063000001 -0.588 2
3.4260001 -0.063000001 -0.58999997 2
3.438 -0.061999999 -0.58600003 2
3.461 -0.061000001 -0.583 2
3.5120001 -0.061000001 -0.58399999 2
3.523 -0.059999999 -0.579 2
3.6040001 -0.059999999 -0.58600003 2
3.6730001 -0.061000001 -0.58999997 2
3.737 -0.061000001 -0.59299999 2
3.7579999 -0.059999999 -0.58899999 2
3.8110001 -0.059999999 -0.58899999 2
3.8900001 -0.059999999 -0.59399998 2
3.9690001 -0.059999999 -0.59799999 2
4.0229998 -0.059999999 -0.59799999 2
4.0970001 -0.059999999 -0.60100001 2
4.165 -0.059999999 -0.60299999 3
4.1700001 -0.059 -0.59500003 2
4.3080001 -0.059999999 -0.60600001 2
4.3670001 -0.059999999 -0.60600001 3
4.4380002 -0.059999999 -0.60699999 3
4.5120001 -0.059999999 -0.60799998 3
4.6009998 -0.059999999 -0.611 3
4.684 -0.059999999 -0.61199999 3
4.802 -0.061000001 -0.61799997 4
4.9050002 -0.061000001 -0.62099999 4
5.0050001 -0.061999999 -0.62400001 4
5.1079998 -0.061999999 -0.62599999 4
5.2329998 -0.063000001 -0.63 5
5.3369999 -0.063000001 -0.63200003 3
5.467 -0.064000003 -0.63599998 4
5.6090002 -0.064999998 -0.64099997 4
5.7550001 -0.064999998 -0.64600003 4
5.8889999 -0.066 -0.64899999 3
6.0190001 -0.067000002 -0.65100002 4
6.197 -0.068000004 -0.65700001 4
6.3660002 -0.068999998 -0.662 6
6.5679998 -0.071000002 -0.66900003 9
6.7069998 -0.071000002 -0.66900003 10
6.8270001 -0.071999997 -0.667 12
7.0500002 -0.074000001 -0.67400002 11
7.2969999 -0.075999998 -0.68199998 7
7.5229998 -0.077 -0.68699998 5
7.77 -0.079000004 -0.69400001 6
7.9889998 -0.081 -0.69599998 5
8.2869997 -0.083999999 -0.70499998 5
8.6099997 -0.086000003 -0.71399999 6
8.934 -0.089000002 -0.722 6
9.2799997 -0.092 -0.73100001 5
9.6339998 -0.096000001 -0.73799998 6
10.01 -0.098999999 -0.74599999 5
10.465 -0.103 -0.75700003 3
10.959 -0.108 -0.76899999 3
11.569 -0.114 -0.78799999 4
12.132 -0.12 -0.801 12
12.351 -0.122 -0.78899997 12
12.388 -0.122 -0.76499999 12
12.402 -0.123 -0.73900002 13
12.409 -0.123 -0.71399999 14
12.395 -0.123 -0.68599999 16
12.416 -0.124 -0.66100001 18
12.407 -0.125 -0.634 21
12.42 -0.126 -0.60900003 20
12.418 -0.126 -0.58200002 22
12.416 -0.127 -0.55500001 24
12.414 -0.12800001 -0.528 22
12.415 -0.12899999 -0.50199997 23
12.418 -0.13 -0.47499999 23
12.415 -0.131 -0.449 26
12.41 -0.133 -0.42300001 24
12.411 -0.134 -0.396 24
12.409 -0.13600001 -0.36899999 26
12.403 -0.13699999 -0.34200001 25
12.39 -0.139 -0.315 25
12.4 -0.14 -0.289 25
12.414 -0.142 -0.264 22
12.438 -0.145 -0.237 14
12.517 -0.147 -0.212 30
12.556 -0.15000001 -0.186 42
12.514 -0.152 -0.15800001 45
12.488 -0.154 -0.131 48
12.524 -0.156 -0.105 49
12.554 -0.15899999 -0.078000002 49
12.518 -0.161 -0.052000001 47
12.509 -0.164 -0.025 42
12.525 -0.167 0.001 41
12.578 -0.17 0.028000001 27
12.596 -0.17299999 0.054000001 11
12.622 -0.177 0.081 1
0 0 0 10
35.125999 -0.50999999 0.375 11
35.117001 -0.51800001 0.449 11
35.110001 -0.528 0.523 9
0 0 0 2
27.990999 -0.43599999 0.53600001 2
0 0 0 29
35.119999 -0.56699997 0.82099998 34
35.119999 -0.57800001 0.89700001 34
35.143002 -0.58899999 0.972 32
0 0 0 1
30.716 -0.53399998 0.97799999 2
30.695 -0.54299998 1.0420001 1
0 0 0 70
35.125 -0.64499998 1.34 98
35.152 -0.65799999 1.414 87
35.164001 -0.67000002 1.487 91
35.174999 -0.68300003 1.561 93
35.182999 -0.69599998 1.6339999 89
35.188 -0.70899999 1.707 91
35.194 -0.722 1.781 89
35.196999 -0.736 1.854 91
35.203999 -0.75 1.929 89
35.207001 -0.764 2.0020001 88
35.209 -0.778 2.075 87
35.224998 -0.79299998 2.148 92
35.235001 -0.80699998 2.221 95
35.245998 -0.82200003 2.2939999 89
35.132999 -0.83399999 2.3570001 74
34.713001 -0.83899999 2.3989999 25
33.862999 -0.83399999 2.4100001 20
33.147999 -0.82999998 2.4260001 19
32.561001 -0.82999998 2.4489999 22
32.168999 -0.83499998 2.4849999 20
32.070999 -0.847 2.5420001 22
32.026001 -0.861 2.6029999 22
31.996 -0.875 2.665 24
31.973 -0.88999999 2.7279999 21
31.945 -0.90499997 2.789 22
31.91 -0.92000002 2.8499999 23
31.865 -0.93400002 2.911 23
31.864 -0.94999999 2.973 22
31.823999 -0.96499997 3.0320001 24
31.778 -0.98000002 3.0910001 23
31.756001 -0.995 3.1530001 23
31.745001 -1.012 3.2149999 15
31.711 -1.028 3.273 11
31.819 -1.048 3.3469999 2
0 0 0 0
0 0 0 0
0 0 0 0
0 0 0 0
0 0 0 0
0 0 0 0
0 0 0 0
0 0 0 0
0 0 0 0
0 0 0 0
0 0 0 0
0 0 0 0
0 0 0 0
0 0 0 1
0 0 0 0
0 0 0 0
0 0 0 0
0 0 0 5
35.730999 -1.574 5.0469999 12
35.743 -1.596 5.1139998 13
35.731998 -1.618 5.177 11
35.776001 -1.643 5.2490001 14
35.806999 -1.668 5.3189998 12
35.808998 -1.691 5.3829999 13
35.821999 -1.715 5.4510002 13
35.810001 -1.738 5.5120001 13
35.82 -1.761 5.5770001 9
35.860001 -1.7869999 5.6469998 5
37.841999 -1.911 6.026 2
0 0 0 0
0 0 0 2
36.551998 -1.92 6.0139999 3
36.278999 -1.931 6.033 3
35.944 -1.938 6.039 9
35.734001 -1.95 6.0650001 15
35.493999 -1.962 6.085 26
35.243999 -1.972 6.1020002 26
34.972 -1.9809999 6.1160002 26
34.703999 -1.99 6.1269999 25
34.416 -1.998 6.1339998 25
34.138 -2.006 6.1420002 25
33.868999 -2.0139999 6.1500001 24
33.603001 -2.023 6.158 24
33.334999 -2.0309999 6.164 23
33.083 -2.039 6.1719999 23
32.830002 -2.0469999 6.178 22
32.578999 -2.0550001 6.184 22
32.323002 -2.062 6.1869998 22
32.105 -2.0710001 6.197 22
31.864 -2.079 6.2020001 21
31.638 -2.0869999 6.2080002 23
31.422001 -2.095 6.2140002 23
31.219 -2.105 6.223 24
30.993 -2.1129999 6.2259998 25
30.815001 -2.1229999 6.2379999 25
30.594 -2.131 6.2399998 23
30.409 -2.1400001 6.2490001 21
30.209999 -2.1489999 6.2529998 23
30.025999 -2.1570001 6.2600002 24
29.849001 -2.168 6.2680001 26
29.643999 -2.175 6.2690001 27
29.462999 -2.184 6.2740002 27
29.297001 -2.194 6.2820001 28
29.132 -2.2030001 6.289 24
28.962 -2.211 6.2950001 25
28.792 -2.221 6.2979999 24
28.641001 -2.23 6.3070002 23
28.492001 -2.24 6.3130002 24
28.344999 -2.25 6.3200002 23
28.188999 -2.2590001 6.3249998 22
28.021999 -2.266 6.3260002 26
27.872999 -2.2750001 6.3309999 27
27.731001 -2.2850001 6.336 27
27.582001 -2.2939999 6.3390002 23
27.447001 -2.302 6.3449998 23
27.292 -2.3099999 6.3449998 24
27.184 -2.322 6.3559999 26
27.030001 -2.329 6.355 26
26.903999 -2.339 6.3610001 26
26.768 -2.348 6.3629999 24
26.620001 -2.355 6.3629999 25
26.507 -2.365 6.369 29
26.403999 -2.3759999 6.3779998 30
26.278999 -2.385 6.3800001 25
26.152 -2.3929999 6.381 28
26.02 -2.401 6.381 26
25.9 -2.4100001 6.3829999 24
25.788 -2.4189999 6.3860002 26
25.691 -2.4289999 6.3920002 27
25.589001 -2.4389999 6.3969998 24
25.475 -2.447 6.3979998 24
25.368 -2.4560001 6.401 24
25.267 -2.4649999 6.4039998 27
25.150999 -2.473 6.4029999 23
25.055 -2.4820001 6.4070001 22
24.947001 -2.49 6.4060001 23
24.855 -2.5 6.4099998 24
24.747999 -2.5079999 6.4089999 24
24.650999 -2.517 6.4109998 28
24.561001 -2.526 6.414 28
24.476999 -2.5350001 6.4180002 28
24.386 -2.5439999 6.4190001 26
24.299999 -2.553 6.421 29
24.237 -2.5639999 6.4289999 25
24.157 -2.5739999 6.4320002 25
24.069 -2.582 6.4310002 25
23.976999 -2.5899999 6.4299998 26
23.910999 -2.5999999 6.4349999 26
23.830999 -2.609 6.4359999 29
23.747999 -2.6170001 6.4359999 24
23.688999 -2.628 6.4419999 27
23.598 -2.6340001 6.4390001 28
23.513 -2.642 6.4369998 28
23.440001 -2.6500001 6.4380002 27
23.382 -2.661 6.4419999 23
23.315001 -2.6700001 6.4439998 23
23.240999 -2.678 6.4419999 29
23.184 -2.688 6.4460001 30
23.111 -2.6949999 6.4450002 30
23.058001 -2.7060001 6.4489999 31
23.003 -2.7160001 6.4520001 25
22.93 -2.723 6.4499998 25
22.872999 -2.7320001 6.4510002 24
22.830999 -2.743 6.4569998 30
22.771999 -2.7520001 6.4569998 25
22.707001 -2.76 6.4559999 24
22.636 -2.767 6.4520001 28
22.591999 -2.776 6.4549999 23
22.535999 -2.786 6.4549999 28
22.500999 -2.796 6.461 25
22.434999 -2.803 6.4569998 30
22.396999 -2.813 6.461 26
22.362 -2.8239999 6.4650002 31
22.326 -2.835 6.4689999 27
22.274 -2.842 6.4679999 27
22.211 -2.849 6.4629998 31
22.181 -2.8599999 6.4679999 26
22.153 -2.8710001 6.4720001 25
22.108999 -2.8789999 6.4720001 29
22.066 -2.888 6.4710002 28
22.009001 -2.8940001 6.467 29
21.972 -2.9030001 6.467 29
21.937 -2.9130001 6.4679999 24
21.893 -2.9200001 6.4660001 30
21.844999 -2.927 6.4619999 28
21.825001 -2.938 6.467 28
21.777 -2.9449999 6.4629998 29
0 0 0 2
10.024 -1.367 2.984 6
9.9989996 -1.37 2.9809999 11
9.9750004 -1.373 2.9779999 14
9.9359999 -1.374 2.97 15
9.9189997 -1.377 2.9690001 18
9.8990002 -1.38 2.9660001 19
9.8909998 -1.3839999 2.967 21
9.8699999 -1.387 2.964 20
9.8699999 -1.393 2.9679999 13
9.842 -1.3940001 2.9619999 14
9.8409996 -1.399 2.9649999 14
9.8149996 -1.401 2.96 24
9.8219995 -1.408 2.9649999 15
9.8190002 -1.413 2.967 15
9.8000002 -1.415 2.9630001 14
9.7790003 -1.418 2.9590001 24
9.783 -1.424 2.9630001 15
9.7790003 -1.428 2.9630001 15
9.7740002 -1.432 2.964 17
9.7670002 -1.437 2.9630001 18
9.7589998 -1.441 2.9630001 17
9.7299995 -1.441 2.9549999 24
9.7379999 -1.447 2.9590001 17
9.724 -1.45 2.9560001 25
9.7349997 -1.456 2.961 25
9.7259998 -1.46 2.9590001 27
9.7270002 -1.465 2.96 27
9.717 -1.467 2.9579999 28
9.7159996 -1.472 2.9579999 28
9.6929998 -1.473 2.9519999 28
9.6960001 -1.478 2.9530001 28
9.6929998 -1.482 2.9519999 28
9.6899996 -1.4859999 2.951 28
9.6969995 -1.4910001 2.954 27
9.6759996 -1.492 2.947 28
9.6780005 -1.497 2.947 28
9.6809998 -1.501 2.948 29
9.677 -1.5039999 2.9460001 29
9.6789999 -1.5089999 2.9460001 29
9.6700001 -1.511 2.9419999 29
9.6680002 -1.515 2.941 29
9.6569996 -1.517 2.9360001 29
9.6540003 -1.52 2.934 29
9.6569996 -1.524 2.934 29
9.6590004 -1.528 2.9330001 29
9.6370001 -1.528 2.925 29
9.6450005 -1.533 2.925 29
9.6440001 -1.536 2.9230001 29
9.6280003 -1.5369999 2.9159999 29
9.6359997 -1.541 2.9170001 29
9.6289997 -1.543 2.9119999 29
9.6350002 -1.5470001 2.9119999 29
9.6289997 -1.55 2.908 30
9.6309996 -1.553 2.9059999 30
9.6350002 -1.556 2.904 30
9.632 -1.559 2.9000001 30
9.6239996 -1.561 2.895 30
9.6169996 -1.563 2.8889999 30
9.6269999 -1.567 2.8889999 31
9.6190004 -1.568 2.8829999 31
9.6300001 -1.572 2.8829999 31
9.6210003 -1.573 2.8770001 31
9.6149998 -1.575 2.872 31
9.6029997 -1.576 2.8640001 31
9.6140003 -1.58 2.8640001 31
9.6149998 -1.582 2.8599999 32
9.6029997 -1.582 2.852 32
9.6090002 -1.585 2.849 32
9.6099997 -1.5880001 2.845 32
9.5959997 -1.587 2.836 32
9.6070004 -1.591 2.835 32
9.5959997 -1.591 2.8269999 32
9.599 -1.5930001 2.823 32
9.6059999 -1.596 2.8199999 33
9.6079998 -1.598 2.8150001 33
9.5860004 -1.596 2.803 33
9.5959997 -1.599 2.8010001 33
9.5909996 -1.6 2.7939999 33
9.5889997 -1.601 2.7880001 33
9.5900002 -1.603 2.7820001 33
9.5880003 -1.603 2.776 33
9.5860004 -1.604 2.7690001 33
9.5799999 -1.605 2.7609999 33
9.5860004 -1.607 2.757 33
9.585 -1.607 2.75 34
9.5900002 -1.609 2.7449999 33
9.5830002 -1.609 2.737 34
9.5869999 -1.61 2.7309999 34
9.585 -1.6109999 2.724 34
9.5880003 -1.612 2.7179999 34
9.585 -1.612 2.71 34
9.5830002 -1.612 2.7019999 33
9.592 -1.614 2.697 33
9.599 -1.6160001 2.6919999 33
9.5690002 -1.6109999 2.6760001 33
9.5819998 -1.613 2.6719999 33
9.5909996 -1.615 2.6670001 33
9.5839996 -1.614 2.6570001 33
9.5780001 -1.613 2.648 33
9.5819998 -1.613 2.641 34
9.5819998 -1.613 2.632 34
9.5869999 -1.614 2.6259999 34
9.585 -1.613 2.6159999 34
9.5799999 -1.612 2.6070001 33
9.5699997 -1.61 2.596 33
9.5799999 -1.6109999 2.589 33
9.5869999 -1.6109999 2.5829999 33
9.5760002 -1.609 2.5710001 33
9.5799999 -1.609 2.563 33
9.5699997 -1.6059999 2.5510001 34
9.5860004 -1.608 2.546 34
9.5710001 -1.605 2.533 35
9.5699997 -1.604 2.523 36
9.5710001 -1.603 2.5139999 33
9.5649996 -1.6 2.503 31
9.5799999 -1.601 2.497 32
9.5790005 -1.6 2.487 32
9.5780001 -1.598 2.477 32
9.5869999 -1.598 2.47 32
9.5959997 -1.598 2.461 32
9.5769997 -1.594 2.447 33
9.5780001 -1.592 2.437 33
9.5749998 -1.59 2.425 33
9.5790005 -1.5880001 2.4159999 33
9.5889997 -1.5880001 2.408 34
9.5830002 -1.585 2.3959999 34
9.592 -1.584 2.3870001 34
9.5790005 -1.58 2.3729999 34
9.5830002 -1.579 2.3629999 34
9.5900002 -1.5779999 2.3540001 34
9.5889997 -1.575 2.342 33
9.592 -1.573 2.332 32
9.5889997 -1.5700001 2.3199999 32
9.5930004 -1.568 2.3099999 32
9.6000004 -1.566 2.3 32
9.5869999 -1.561 2.2850001 32
9.599 -1.5599999 2.277 32
9.6059999 -1.558 2.266 32
9.592 -1.553 2.2509999 30
9.5909996 -1.55 2.2390001 31
9.599 -1.548 2.2290001 32
9.6009998 -1.545 2.217 32
9.6009998 -1.5420001 2.2049999 33
9.6020002 -1.538 2.1930001 32
9.6090002 -1.536 2.1819999 31
9.6190004 -1.534 2.1719999 30
9.5970001 -1.526 2.155 29
9.6120005 -1.525 2.1459999 29
9.6129999 -1.521 2.1329999 30
9.618 -1.518 2.1210001 29
9.6190004 -1.515 2.109 31
9.6210003 -1.511 2.096 31
9.6230001 -1.507 2.0829999 31
9.6280003 -1.503 2.0710001 30
9.6210003 -1.498 2.0569999 29
9.6309996 -1.495 2.046 29
9.6359997 -1.4910001 2.0339999 28
9.6379995 -1.487 2.0209999 28
9.6389999 -1.483 2.0079999 28
9.6470003 -1.479 1.9960001 29
9.6450005 -1.474 1.982 29
9.6599998 -1.471 1.972 29
9.6599998 -1.467 1.9579999 28
9.6610003 -1.462 1.944 28
9.6680002 -1.457 1.932 28
9.6680002 -1.452 1.918 28
9.677 -1.448 1.906 28
9.6660004 -1.441 1.89 28
9.6759996 -1.437 1.877 27
9.6920004 -1.434 1.8660001 27
9.6879997 -1.428 1.851 26
9.691 -1.423 1.8380001 26
9.6969995 -1.418 1.824 27
9.698 -1.4119999 1.8099999 27
9.7180004 -1.409 1.799 26
9.7189999 -1.403 1.785 23
9.7299995 -1.398 1.773 23
9.7259998 -1.392 1.757 23
9.7370005 -1.387 1.744 17
9.7480001 -1.382 1.7309999 18
9.7650003 -1.378 1.72 15
9.7770004 -1.373 1.707 15
9.7799997 -1.367 1.693 16
9.7950001 -1.362 1.6799999 16
9.7939997 -1.355 1.665 16
9.8170004 -1.352 1.653 14
9.8459997 -1.349 1.643 14
9.8579998 -1.3430001 1.63 14
9.8669996 -1.337 1.6160001 13
9.8879995 -1.3329999 1.604 19
9.9189997 -1.33 1.5930001 15
9.9350004 -1.324 1.58 10
9.9890003 -1.324 1.574 5
10.027 -1.321 1.563 1
0 0 0 13
27.919001 -3.6359999 4.2649999 20
27.885 -3.6099999 4.217 23
27.848 -3.5829999 4.1669998 26
27.82 -3.5569999 4.118 27
27.787001 -3.53 4.0679998 30
27.775999 -3.5050001 4.0229998 31
27.750999 -3.4790001 3.9749999 34
27.733 -3.4530001 3.928 37
27.714001 -3.427 3.8800001 38
27.719 -3.405 3.8369999 33
27.686001 -3.3770001 3.7869999 36
27.686001 -3.3529999 3.7420001 41
27.694 -3.329 3.698 41
27.676001 -3.303 3.651 41
27.683001 -3.2780001 3.6070001 45
27.673 -3.2520001 3.5610001 45
27.660999 -3.2260001 3.5139999 47
27.66 -3.2 3.4690001 47
27.666 -3.175 3.424 42
27.67 -3.1489999 3.3789999 52
27.659 -3.122 3.3329999 54
27.662001 -3.096 3.2880001 50
27.664 -3.0699999 3.243 49
27.666 -3.043 3.197 47
27.687 -3.0179999 3.154 39
27.694 -2.993 3.1099999 37
27.695999 -2.9649999 3.0639999 42
27.719999 -2.9400001 3.0209999 43
27.729 -2.9130001 2.977 40
27.752001 -2.8870001 2.9330001 37
27.771 -2.8610001 2.8900001 36
27.804001 -2.836 2.8469999 32
27.830999 -2.8099999 2.8039999 30
27.85 -2.7820001 2.76 28
27.889 -2.757 2.717 26
27.945999 -2.733 2.6760001 21
28.017 -2.71 2.6359999 12
28.122 -2.6889999 2.599 3
0 0 0 44
32.014999 -2.9920001 2.8529999 44
31.990999 -2.9549999 2.7980001 45
31.969999 -2.9170001 2.743 44
31.971001 -2.882 2.6900001 42
31.944 -2.8440001 2.635 43
31.940001 -2.8080001 2.582 46
31.921 -2.77 2.527 44
31.908001 -2.7309999 2.473 42
32.013 -2.7030001 2.427 25
32.294998 -2.6900001 2.395 21
32.854 -2.698 2.3829999 15
33.467999 -2.7090001 2.372 13
34.054001 -2.7160001 2.3559999 14
34.722 -2.7290001 2.346 14
35.599998 -2.7550001 2.346 22
35.972 -2.7420001 2.312 56
36.076 -2.7049999 2.2579999 67
36.064999 -2.661 2.1989999 40
0 0 0 1
31.492001 -2.2460001 1.816 1
0 0 0 10
35.993999 -2.4790001 1.9579999 8
35.992001 -2.4330001 1.898 9
35.966999 -2.3859999 1.8380001 6
35.959999 -2.3399999 1.778 7
0 0 0 7
0 0 0 3
35.882 -2.198 1.599 4
0 0 0 8
0 0 0 1
28.440001 -1.631 1.128 1
28.490999 -1.597 1.084 1
28.476999 -1.559 1.038 1
0 0 0 5
31.620001 -1.648 1.051 6
31.577999 -1.604 0.99900001 6
31.586 -1.562 0.949 6
31.551001 -1.518 0.89700001 7
31.507999 -1.473 0.84500003 6
31.51 -1.4299999 0.79400003 6
31.472 -1.385 0.74299997 7
31.455 -1.341 0.69199997 6
31.448 -1.298 0.64200002 5
31.504999 -1.257 0.59299999 3
31.625999 -1.2180001 0.54500002 3
31.695 -1.176 0.49599999 2
0 0 0 0
0 0 0 0
0 0 0 4
28.183001 -0.88599998 0.26300001 2
0 0 0 1
12.414 -0.354 0.077 6
12.37 -0.33500001 0.057 9
12.365 -0.317 0.037999999 22
12.51 -0.30399999 0.02 35
12.559 -0.28600001 0 35
12.457 -0.266 -0.017999999 35
12.349 -0.24600001 -0.037 46
12.308 -0.227 -0.055 55
12.334 -0.20900001 -0.074000001 49
12.469 -0.193 -0.093999997 41
12.494 -0.175 -0.113 42
12.43 -0.156 -0.131 43
12.612 -0.139 -0.152 36
12.715 -0.121 -0.17299999 36
12.617 -0.101 -0.19 36
12.425 -0.081 -0.206 36
12.52 -0.063000001 -0.226 19
12.646 -0.045000002 -0.24699999 10
12.675 -0.025 -0.266 14
12.714 -0.0060000001 -0.28600001 13
12.786 0.012 -0.30599999 13
12.843 0.032000002 -0.32600001 9
12.893 0.052000001 -0.34599999 10
12.947 0.071999997 -0.36700001 13
12.995 0.093000002 -0.38699999 9
13.025 0.113 -0.40700001 4
0 0 0 13
27.747 0.32699999 -0.94599998 12
28.1 0.37599999 -0.99900001 13
28.778 0.42899999 -1.063 8
28.834 0.47499999 -1.105 9
28.641001 0.51700002 -1.138 8
28.368999 0.55599999 -1.1670001 4
28.319 0.60000002 -1.205 3
0 0 0 0
0 0 0 0
0 0 0 41
14.735 0.405 -0.708 44
14.728 0.42899999 -0.72799999 27
14.717 0.45100001 -0.74699998 35
14.713 0.47499999 -0.76599997 21
14.698 0.498 -0.78600001 26
14.683 0.52100003 -0.80500001 28
14.639 0.54299998 -0.82099998 31
14.534 0.56199998 -0.83499998 24
14.239 0.574 -0.83700001 6
13.481 0.565 -0.81 3
12.854 0.56 -0.78899997 3
12.429 0.56099999 -0.77899998 3
12.057 0.56400001 -0.77100003 3
11.672 0.56400001 -0.76099998 3
11.401 0.56999999 -0.75800002 4
11.105 0.57300001 -0.75300002 4
10.82 0.57599998 -0.74800003 3
10.534 0.57800001 -0.741 2
10.233 0.57800001 -0.73299998 3
9.96 0.579 -0.72500002 4
9.7589998 0.583 -0.72299999 5
9.566 0.58700001 -0.72000003 4
9.3450003 0.58899999 -0.71499997 4
9.125 0.58999997 -0.70899999 4
8.9180002 0.59100002 -0.704 5
8.7399998 0.59399998 -0.70099998 7
8.5640001 0.59600002 -0.69700003 9
8.4280005 0.60000002 -0.69599998 12
8.3149996 0.60600001 -0.69599998 7
8.158 0.60799998 -0.69199997 6
7.9310002 0.60399997 -0.68300003 4
7.763 0.60399997 -0.67699999 3
7.6389999 0.60699999 -0.67500001 3
7.5050001 0.60900003 -0.67199999 3
7.3790002 0.61000001 -0.66900003 3
7.2680001 0.61299998 -0.667 3
7.1209998 0.61299998 -0.662 3
7.0180001 0.61500001 -0.66000003 3
6.9229999 0.61799997 -0.65899998 3
6.8210001 0.62 -0.65600002 3
6.7280002 0.62300003 -0.65499997 3
6.6440001 0.62599999 -0.65399998 3
6.5240002 0.62599999 -0.64899999 3
6.441 0.62800002 -0.648 3
6.3509998 0.63 -0.64499998 3
6.2540002 0.63099998 -0.64200002 3
6.164 0.63200003 -0.639 3
6.1059999 0.63599998 -0.63999999 3
6.0229998 0.63700002 -0.63700002 3
5.9369998 0.63800001 -0.634 4
5.8540001 0.63800001 -0.63099998 2
5.783 0.63999999 -0.62900001 3
5.7049999 0.64099997 -0.62699997 2
5.6399999 0.64300001 -0.625 3
5.579 0.64499998 -0.62400001 2
5.5170002 0.64700001 -0.62199998 3
5.4590001 0.64899999 -0.62099999 3
5.4060001 0.65100002 -0.62 3
5.349 0.653 -0.61900002 3
5.2779999 0.653 -0.61500001 3
5.2389998 0.65700001 -0.616 3
5.1630001 0.65600002 -0.61199999 3
5.105 0.65600002 -0.61000001 3
5.0570002 0.65799999 -0.60799998 3
5.0050001 0.66000003 -0.60699999 3
4.9520001 0.66100001 -0.60500002 2
4.908 0.66299999 -0.60399997 3
4.8569999 0.66399997 -0.602 3
4.8109999 0.66500002 -0.60000002 4
4.7659998 0.667 -0.59899998 3
4.7280002 0.66900003 -0.59799999 3
4.6830001 0.67000002 -0.59600002 3
4.6630001 0.67500001 -0.59799999 3
4.619 0.67500001 -0.59600002 3
4.5689998 0.67500001 -0.59299999 4
4.5370002 0.67799997 -0.59299999 2
4.5050001 0.68000001 -0.59200001 2
4.4660001 0.68099999 -0.59100002 3
4.4239998 0.68199998 -0.58899999 3
4.3979998 0.685 -0.58899999 3
4.3740001 0.68800002 -0.58899999 2
4.349 0.69099998 -0.58899999 2
4.3390002 0.69599998 -0.59100002 3
4.2800002 0.69300002 -0.58600003 2
4.263 0.69700003 -0.58700001 2
4.23 0.69800001 -0.58499998 4
4.1729999 0.69499999 -0.57999998 2
4.1609998 0.699 -0.58200002 2
4.1149998 0.69800001 -0.57800001 2
4.0819998 0.699 -0.57599998 2
4.0419998 0.69800001 -0.57300001 4
4.0209999 0.69999999 -0.57300001 7
4.013 0.70499998 -0.57499999 8
3.9990001 0.708 -0.57499999 8
3.9879999 0.713 -0.57700002 8
3.9679999 0.71499997 -0.57599998 7
3.9749999 0.722 -0.57999998 7
3.9489999 0.72299999 -0.579 6
3.9619999 0.73199999 -0.583 3
3.9119999 0.72799999 -0.57800001 2
3.868 0.72600001 -0.574 2
3.8989999 0.73699999 -0.58099997 2
3.7950001 0.72299999 -0.56800002 2
3.9000001 0.74900001 -0.58600003 2
3.7679999 0.72899997 -0.56800002 3
3.7579999 0.73199999 -0.56800002 4
3.747 0.73500001 -0.56900001 4
3.744 0.74000001 -0.56999999 4
3.7320001 0.74299997 -0.57099998 4
3.717 0.745 -0.56999999 3
3.7390001 0.755 -0.57599998 2
3.723 0.75700003 -0.57499999 2
3.681 0.75300002 -0.57099998 2
3.6659999 0.755 -0.56999999 2
3.648 0.75700003 -0.56900001 2
3.6159999 0.755 -0.56599998 2
3.596 0.75599998 -0.56400001 3
3.6159999 0.76499999 -0.56900001 2
3.645 0.77600002 -0.57499999 3
3.609 0.773 -0.57099998 2
3.576 0.77100003 -0.56800002 3
3.6259999 0.78600001 -0.57700002 3
3.563 0.77700001 -0.56900001 3
3.4920001 0.76599997 -0.55900002 2
3.5079999 0.77399999 -0.56300002 2
3.48 0.773 -0.56 2
3.5090001 0.78299999 -0.56599998 2
3.4990001 0.78600001 -0.565 2
3.4790001 0.78600001 -0.56300002 2
3.5190001 0.79900002 -0.57099998 3
3.4679999 0.792 -0.56400001 2
3.447 0.79100001 -0.56199998 2
3.4330001 0.792 -0.56099999 2
3.3759999 0.78299999 -0.55299997 2
3.421 0.79799998 -0.56099999 2
3.4230001 0.80299997 -0.56199998 2
3.3970001 0.80000001 -0.55900002 2
3.4200001 0.81 -0.56400001 2
3.362 0.80000001 -0.55500001 1
3.3529999 0.80199999 -0.55500001 1
3.381 0.81300002 -0.56 2
3.3510001 0.80900002 -0.55599999 1
3.3659999 0.81699997 -0.56 1
3.3510001 0.81699997 -0.55800003 1
3.378 0.82700002 -0.56300002 2
3.4070001 0.838 -0.56900001 2
3.3559999 0.82999998 -0.56099999 2
3.352 0.83200002 -0.56099999 1
3.415 0.852 -0.57300001 2
3.3940001 0.85000002 -0.56999999 2
3.309 0.83200002 -0.55599999 1
3.375 0.85299999 -0.56800002 2
3.3369999 0.84600002 -0.56199998 2
3.3529999 0.85399997 -0.565 1
3.293 0.84200001 -0.55599999 1
3.3529999 0.861 -0.56599998 2
3.3800001 0.87099999 -0.57200003 2
3.3800001 0.87400001 -0.57200003 2
3.3180001 0.86199999 -0.56199998 2
3.2969999 0.85900003 -0.55900002 1
3.3269999 0.87099999 -0.56400001 1
3.355 0.88099998 -0.56900001 1
3.279 0.86400002 -0.55699998 1
3.267 0.86400002 -0.55500001 1
3.2869999 0.87199998 -0.55900002 1
3.299 0.87800002 -0.56099999 1
3.2909999 0.87900001 -0.56 1
3.2609999 0.87400001 -0.55500001 1
3.296 0.88700002 -0.56099999 2
3.3010001 0.89099997 -0.56199998 2
3.342 0.90499997 -0.56900001 2
3.2520001 0.88300002 -0.55400002 1
3.299 0.89899999 -0.56199998 2
3.2690001 0.89300001 -0.55699998 1
3.2880001 0.90100002 -0.56 1
3.25 0.89300001 -0.55400002 1
3.355 0.92500001 -0.57099998 2
3.2479999 0.898 -0.55299997 1
3.3929999 0.94099998 -0.57800001 2
3.2650001 0.90799999 -0.55599999 1
3.2639999 0.91000003 -0.55599999 1
3.3329999 0.93199998 -0.56699997 2
3.3759999 0.94599998 -0.574 2
3.2739999 0.92000002 -0.55699998 1
3.2739999 0.92199999 -0.55599999 1
3.3069999 0.93400002 -0.56199998 1
3.3310001 0.94199997 -0.56599998 1
3.312 0.93900001 -0.56199998 2
3.3959999 0.96499997 -0.57599998 2
3.3110001 0.94300002 -0.56099999 1
3.329 0.94999999 -0.56400001 2
3.3269999 0.95200002 -0.56300002 1
3.3840001 0.97000003 -0.57200003 2
3.2780001 0.94199997 -0.55400002 2
3.3340001 0.95999998 -0.56300002 1
3.339 0.963 -0.56300002 1
3.362 0.972 -0.56699997 2
3.2920001 0.95300001 -0.55400002 1
3.3239999 0.96499997 -0.55900002 2
3.3239999 0.96600002 -0.55900002 2
3.3199999 0.96700001 -0.55699998 2
3.3169999 0.96700001 -0.55599999 1
3.3599999 0.98199999 -0.56300002 2
3.3440001 0.97899997 -0.55900002 1
3.325 0.97399998 -0.55500001 2
3.4070001 1 -0.56800002 2
3.3080001 0.972 -0.551 1
3.441 1.013 -0.57200003 3
3.3369999 0.98299998 -0.55400002 2
3.3150001 0.97899997 -0.55000001 1
3.3469999 0.98900002 -0.55400002 2
3.3510001 0.99199998 -0.55400002 1
3.3559999 0.99400002 -0.55400002 2
3.395 1.007 -0.55900002 2
3.4100001 1.013 -0.56099999 2
3.391 1.008 -0.55699998 2
3.372 1.003 -0.55299997 2
3.375 1.005 -0.55199999 2
3.4070001 1.016 -0.55599999 2
3.424 1.022 -0.55800003 2
3.4289999 1.024 -0.55800003 2
3.378 1.01 -0.54799998 2
3.4449999 1.03 -0.55800003 2
3.4089999 1.02 -0.551 2
3.461 1.036 -0.55800003 2
3.5050001 1.05 -0.56400001 2
3.4790001 1.043 -0.55800003 2
3.4809999 1.044 -0.55800003 2
3.517 1.0549999 -0.56199998 2
3.5420001 1.064 -0.565 2
3.517 1.056 -0.55900002 2
3.5109999 1.0549999 -0.55699998 1
3.665 1.102 -0.57999998 3
3.609 1.085 -0.56900001 2
3.618 1.0880001 -0.56900001 2
3.5829999 1.0779999 -0.56199998 2
3.655 1.1 -0.57200003 2
3.575 1.075 -0.55800003 3
3.589 1.08 -0.55900002 3
3.5969999 1.082 -0.55800003 3
3.6059999 1.085 -0.55800003 4
3.605 1.085 -0.55599999 4
3.6159999 1.0880001 -0.55599999 4
3.6359999 1.0930001 -0.55800003 4
3.6440001 1.096 -0.55699998 4
3.6489999 1.097 -0.55599999 3
3.6700001 1.103 -0.55800003 2
3.8429999 1.154 -0.58200002 3
3.8050001 1.143 -0.574 2
3.806 1.142 -0.57300001 2
3.8559999 1.1569999 -0.57800001 2
3.862 1.158 -0.57700002 2
3.8499999 1.154 -0.57300001 2
3.859 1.156 -0.57300001 2
3.9030001 1.168 -0.57700002 3
3.9000001 1.166 -0.57499999 3
3.865 1.155 -0.56699997 3
3.8759999 1.1569999 -0.56699997 3
3.869 1.154 -0.56400001 3
3.925 1.17 -0.56999999 3
3.937 1.173 -0.56900001 3
4.0120001 1.194 -0.57800001 3
3.9960001 1.188 -0.57300001 3
4.0240002 1.1950001 -0.57499999 3
4.0370002 1.197 -0.57499999 3
4.1009998 1.215 -0.58099997 3
4.1389999 1.224 -0.58399999 4
4.0679998 1.202 -0.57200003 3
4.0960002 1.209 -0.57300001 2
4.1919999 1.235 -0.58399999 4
4.177 1.229 -0.57999998 2
4.1960001 1.233 -0.57999998 4
4.2179999 1.238 -0.57999998 3
4.1799998 1.225 -0.57200003 2
4.2069998 1.2309999 -0.57300001 2
4.2220001 1.233 -0.57300001 4
4.2649999 1.243 -0.57599998 2
4.277 1.245 -0.57499999 4
4.3049998 1.251 -0.57599998 2
4.3330002 1.257 -0.57700002 2
4.3639998 1.263 -0.57800001 2
4.3909998 1.2690001 -0.579 4
4.415 1.273 -0.579 4
4.4400001 1.278 -0.57999998 4
4.467 1.283 -0.57999998 4
4.5029998 1.29 -0.58200002 3
4.5240002 1.294 -0.58200002 3
4.5430002 1.296 -0.58099997 4
4.5879998 1.306 -0.583 2
4.6220002 1.313 -0.58499998 3
4.6560001 1.319 -0.58600003 3
4.6849999 1.324 -0.58600003 3
4.7140002 1.329 -0.58600003 3
4.7600002 1.339 -0.58899999 3
4.7919998 1.344 -0.58999997 3
4.829 1.351 -0.59100002 3
4.8670001 1.358 -0.59200001 2
4.908 1.3660001 -0.59399998 3
4.9569998 1.376 -0.59600002 2
4.9710002 1.376 -0.59399998 4
5.026 1.387 -0.597 3
5.0510001 1.3890001 -0.59600002 2
5.0900002 1.396 -0.597 4
5.1399999 1.405 -0.59899998 2
5.178 1.4119999 -0.60000002 2
5.2150002 1.4170001 -0.60100001 2
5.257 1.424 -0.602 2
5.2919998 1.429 -0.602 2
5.348 1.439 -0.60399997 3
5.3930001 1.446 -0.60500002 2
5.4349999 1.4529999 -0.60600001 4
5.4949999 1.464 -0.60900003 3
5.54 1.47 -0.61000001 3
5.5809999 1.476 -0.61000001 3
5.6220002 1.4809999 -0.61000001 5
5.7049999 1.497 -0.61500001 3
5.7659998 1.508 -0.61699998 4
5.8039999 1.512 -0.61699998 4
5.8379998 1.5140001 -0.616 4
5.8779998 1.5190001 -0.616 3
5.9349999 1.527 -0.61699998 3
6.0079999 1.54 -0.62 3
6.0599999 1.5470001 -0.62099999 3
6.138 1.5599999 -0.62400001 3
6.2030001 1.5700001 -0.62599999 3
6.2670002 1.579 -0.62800002 3
6.3330002 1.5880001 -0.63 2
6.4089999 1.6 -0.63200003 3
6.473 1.609 -0.634 3
6.5349998 1.617 -0.63499999 3
6.6030002 1.626 -0.63599998 3
6.6680002 1.6339999 -0.63700002 3
6.724 1.64 -0.63800001 3
6.7989998 1.65 -0.639 3
6.8709998 1.66 -0.64099997 3
6.9380002 1.6670001 -0.64200002 3
7.0240002 1.679 -0.64399999 3
7.1059999 1.6900001 -0.64600003 3
7.191 1.701 -0.64899999 3
7.257 1.7079999 -0.64899999 3
7.362 1.723 -0.653 3
7.447 1.733 -0.65399998 3
7.5640001 1.751 -0.65899998 4
7.7179999 1.776 -0.66600001 5
7.8039999 1.786 -0.66799998 6
7.8860002 1.795 -0.66799998 8
7.9419999 1.796 -0.667 9
8.0220003 1.804 -0.66799998 11
8.1359997 1.818 -0.671 13
8.2299995 1.8279999 -0.67199999 13
8.3190002 1.836 -0.67299998 11
8.4329996 1.85 -0.676 10
8.4910002 1.851 -0.67400002 9
8.6009998 1.863 -0.676 6
8.6870003 1.869 -0.676 6
8.8079996 1.882 -0.67900002 4
8.934 1.896 -0.68199998 4
9.0909996 1.9170001 -0.68699998 3
9.2530003 1.937 -0.69199997 2
9.3579998 1.946 -0.69300002 4
9.4969997 1.96 -0.69599998 3
9.6660004 1.9809999 -0.70099998 2
9.7799997 1.99 -0.70200002 3
9.9219999 2.003 -0.704 3
10.046 2.013 -0.70499998 3
10.217 2.0320001 -0.70999998 2
10.346 2.0420001 -0.71100003 3
10.53 2.062 -0.71600002 3
10.696 2.0780001 -0.71899998 3
10.887 2.098 -0.72399998 2
11.046 2.1110001 -0.72600001 3
11.207 2.1240001 -0.72799999 4
11.368 2.1359999 -0.73000002 3
11.563 2.155 -0.73400003 2
11.913 2.201 -0.74800003 3
12.124 2.22 -0.75199997 5
12.299 2.2320001 -0.75400001 4
12.417 2.234 -0.75199997 4
12.569 2.24 -0.75300002 3
12.735 2.2490001 -0.75300002 3
12.946 2.2650001 -0.75700003 3
13.314 2.3069999 -0.76899999 3
13.587 2.3310001 -0.77499998 3
13.859 2.355 -0.77999997 3
14.106 2.3729999 -0.78399998 3
14.362 2.392 -0.78799999 2
14.591 2.405 -0.79100001 2
14.935 2.4360001 -0.79900002 2
15.261 2.4630001 -0.80599999 2
14.666 2.342 -0.764 2
14.995 2.368 -0.77100003 2
0 0 0 2
15.608 2.4100001 -0.78100002 4
16.469999 2.5139999 -0.81300002 2
16.847 2.5409999 -0.81999999 2
17.077999 2.546 -0.81999999 2
17.204 2.533 -0.81400001 4
17.132999 2.4920001 -0.80000001 4
17.115999 2.4590001 -0.78799999 4
17.107 2.4260001 -0.77600002 4
17.103001 2.395 -0.76499999 4
17.106001 2.3640001 -0.75400001 3
17.113001 2.3340001 -0.74299997 3
17.445 2.3469999 -0.74599999 4
0 0 0 45
19.253 2.5190001 -0.79900002 49
19.267 2.4849999 -0.78799999 46
19.297001 2.4530001 -0.77700001 34
19.299999 2.4170001 -0.76499999 68
19.313 2.382 -0.75400001 56
19.329 2.348 -0.74299997 30
0 0 0 7
33.202999 3.908 -1.237 6
32.708 3.786 -1.198 4
32.853001 3.7409999 -1.184 9
32.948002 3.6900001 -1.169 12
33.394001 3.6760001 -1.165 36
33.414001 3.612 -1.147 40
0 0 0 9
17.181999 1.791 -0.56999999 19
17.110001 1.75 -0.55800003 24
17.073 1.7130001 -0.54699999 28
17.038 1.676 -0.537 33
17.024 1.641 -0.52700001 35
16.986 1.603 -0.51599997 33
16.990999 1.5700001 -0.50700003 42
16.966999 1.535 -0.498 40
16.951 1.5 -0.48899999 44
16.948999 1.465 -0.47999999 52
16.952 1.431 -0.47099999 52
16.950001 1.397 -0.46200001 51
16.954 1.364 -0.454 55
16.945 1.329 -0.44499999 39
16.948 1.295 -0.43700001 59
16.969999 1.262 -0.42899999 58
0 0 0 6
15.356 1.08 -0.37400001 8
15.272 1.044 -0.36500001 8
15.161 1.006 -0.35499999 9
15.078 0.96899998 -0.347 9
14.994 0.93300003 -0.338 9
14.913 0.89700001 -0.33000001 9
14.835 0.86199999 -0.32100001 8
14.741 0.82599998 -0.31299999 6
14.662 0.79100001 -0.30500001 7
14.637 0.75999999 -0.29800001 23
14.619 0.72899997 -0.292 22
14.623 0.699 -0.28600001 42
14.661 0.67000002 -0.28099999 24
14.717 0.64200002 -0.27700001 24
14.741 0.61299998 -0.271 29
14.777 0.583 -0.266 37
14.755 0.55199999 -0.26100001 33
14.751 0.52100003 -0.255 35
14.817 0.49200001 -0.25099999 37
14.756 0.458 -0.245 29
14.771 0.428 -0.23999999 29
14.797 0.39700001 -0.235 10
14.786 0.366 -0.23 15
14.826 0.336 -0.226 2
0 0 0 0
0 0 0 1
30.304001 0.49399999 -0.433 3
30.275999 0.43099999 -0.42399999 7
30.224001 0.366 -0.41499999 10
30.243 0.30199999 -0.40599999 13
0 0 0 9
12.945 0.074000001 -0.16599999 25
12.904 0.046999998 -0.163 17
12.849 0.018999999 -0.15800001 37
12.841 -0.0070000002 -0.155 37
12.681 -0.034000002 -0.15000001 36
12.599 -0.059999999 -0.146 36
12.626 -0.086999997 -0.14399999 44
12.612 -0.114 -0.141 42
12.45 -0.139 -0.13600001 45
12.484 -0.16599999 -0.134 40
12.447 -0.192 -0.131 43
12.432 -0.219 -0.12800001 44
12.446 -0.24600001 -0.126 43
12.296 -0.26899999 -0.122 45
12.296 -0.29499999 -0.12 42
12.305 -0.322 -0.118 45
12.283 -0.34799999 -0.116 51
12.285 -0.37400001 -0.114 42
12.275 -0.40000001 -0.112 46
12.277 -0.42699999 -0.11 43
12.31 -0.454 -0.109 44
12.307 -0.47999999 -0.108 36
12.31 -0.50599998 -0.106 29
12.433 -0.53899997 -0.106 35
12.376 -0.56199998 -0.104 22
12.446 -0.59200001 -0.103 1
0 0 0 50
28.233 -1.4630001 -0.23 49
28.257 -1.525 -0.228 51
28.281 -1.587 -0.226 50
28.313 -1.648 -0.22499999 49
28.333 -1.71 -0.223 48
28.362 -1.772 -0.222 49
28.385 -1.834 -0.221 48
28.415001 -1.895 -0.22 47
28.448999 -1.9579999 -0.22 48
28.475 -2.0209999 -0.219 20
0 0 0 1
6.4380002 -0.484 -0.048999999 1
6.3839998 -0.493 -0.048999999 3
6.4120002 -0.509 -0.048999999 2
6.4169998 -0.523 -0.048999999 2
6.4180002 -0.53600001 -0.048999999 2
6.4239998 -0.55000001 -0.048999999 3
6.4099998 -0.56199998 -0.048999999 3
