# .PCD v0.7 - Point Cloud Data file format
VERSION 0.7
FIELDS x y z intensity
SIZE 4 4 4 4
TYPE F F F F
COUNT 1 1 1 1
WIDTH 1861
HEIGHT 1
VIEWPOINT 0 0 0 1 0 0 0
POINTS 1861
DATA ascii
41.692001 3.1229999 -0.72500002 20
41.757 3.0409999 -0.71399999 17
41.893002 2.9649999 -0.704 11
42.070999 2.892 -0.69599998 4
0 0 0 185
87.757004 5.6680002 -1.404 152
87.774002 5.487 -1.382 150
87.814003 5.3060002 -1.36 150
87.777 5.1230001 -1.3380001 157
87.800003 4.941 -1.317 165
87.82 4.7579999 -1.2970001 152
87.863998 4.5760002 -1.278 150
87.816002 4.3899999 -1.257 152
87.899002 4.2119999 -1.24 72
87.915001 4.027 -1.222 37
0 0 0 0
0 0 0 0
0 0 0 0
0 0 0 0
0 0 0 0
0 0 0 35
0 0 0 36
0 0 0 32
87.911003 2.362 -1.085 15
0 0 0 0
0 0 0 0
0 0 0 0
0 0 0 0
0 0 0 48
0 0 0 0
0 0 0 0
0 0 0 0
0 0 0 36
0 0 0 0
0 0 0 0
0 0 0 55
136.131 -0.11 -1.5039999 31
136.065 -0.398 -1.497 30
135.881 -0.68900001 -1.489 100
135.98599 -0.977 -1.485 53
135.869 -1.267 -1.48 39
135.85001 -1.5549999 -1.476 32
0 0 0 12
74.428001 -1.171 -0.80699998 83
0 0 0 10
69.194 -1.386 -0.75 57
68.954002 -1.529 -0.74800003 76
68.967003 -1.675 -0.74900001 123
68.956001 -1.823 -0.75099999 137
0 0 0 0
0 0 0 45
60.909 -2.0009999 -0.67000002 115
60.889 -2.1300001 -0.67299998 103
0 0 0 8
0 0 0 16
0 0 0 7
46.219002 -2.0120001 -0.52399999 22
46.084999 -2.102 -0.52700001 27
46.056 -2.2 -0.52999997 6
46.528 -2.322 -0.54100001 11
45.709999 -2.378 -0.53600001 25
45.408001 -2.46 -0.53799999 42
44.946999 -2.5309999 -0.53799999 40
44.855999 -2.622 -0.542 39
44.971001 -2.724 -0.55000001 46
44.756001 -2.8069999 -0.55400002 75
44.736 -2.8989999 -0.56 107
44.738998 -2.993 -0.56699997 106
42.483002 -2.9319999 -0.54500002 13
41.766998 -2.973 -0.54299998 11
41.080002 -3.01 -0.54100001 4
40.676998 -3.0650001 -0.54299998 15
0 0 0 0
0 0 0 0
0 0 0 0
0 0 0 0
0 0 0 0
0 0 0 0
0 0 0 0
0 0 0 0
0 0 0 0
0 0 0 0
0 0 0 0
0 0 0 25
0 0 0 25
0 0 0 25
0 0 0 25
0 0 0 25
0 0 0 25
0 0 0 1
0 0 0 25
0 0 0 1
20.552999 -2.4449999 -0.38299999 1
20.618 -2.4949999 -0.391 1
20.674 -2.543 -0.39899999 2
20.666 -2.5840001 -0.405 8
20.625 -2.6210001 -0.412 10
20.636999 -2.664 -0.419 7
20.627001 -2.704 -0.426 10
20.650999 -2.7490001 -0.43399999 7
20.632 -2.7880001 -0.44100001 6
20.629 -2.829 -0.449 7
20.537001 -2.8570001 -0.454 13
20.552999 -2.9000001 -0.46200001 4
20.622999 -2.951 -0.472 4
20.65 -2.9949999 -0.47999999 7
20.646999 -3.036 -0.48899999 10
20.608 -3.0710001 -0.49599999 14
20.566999 -3.105 -0.50300002 24
20.709 -3.1670001 -0.51499999 19
20.712 -3.2079999 -0.52399999 11
20.674 -3.243 -0.53200001 5
20.548 -3.263 -0.537 1
20.587 -3.309 -0.54699999 1
0 0 0 0
0 0 0 0
0 0 0 1
20.672001 -3.4820001 -0.58600003 1
20.712 -3.5280001 -0.59600002 1
20.886999 -3.5969999 -0.611 1
20.948999 -3.648 -0.62300003 55
20.957001 -3.6889999 -0.63300002 60
20.937 -3.7249999 -0.64200002 1
0 0 0 34
23.378 -4.2449999 -0.73900002 35
23.375 -4.289 -0.75099999 31
23.334 -4.3239999 -0.76099998 49
23.334 -4.3670001 -0.77200001 49
23.341999 -4.4109998 -0.78399998 13
0 0 0 7
37.098 -7.1459999 -1.284 19
37.101002 -7.2119999 -1.303 31
36.955002 -7.25 -1.317 41
0 0 0 9
21.094999 -4.2150002 -0.773 19
21.033001 -4.2389998 -0.78200001 26
20.976999 -4.2649999 -0.79100001 29
20.931999 -4.2930002 -0.801 35
20.896999 -4.323 -0.81099999 35
20.849001 -4.3499999 -0.81999999 31
20.82 -4.3790002 -0.82999998 44
20.798 -4.4109998 -0.84100002 47
20.777 -4.4419999 -0.85100001 46
20.757999 -4.473 -0.86199999 49
20.752001 -4.5079999 -0.87400001 54
20.746 -4.5419998 -0.88499999 40
19.650999 -4.335 -0.85000002 25
19.191999 -4.2659998 -0.83999997 6
19.055 -4.2680001 -0.84500003 5
18.938 -4.2729998 -0.85100001 9
18.849001 -4.2849998 -0.85799998 6
18.728001 -4.2880001 -0.86299998 8
18.599001 -4.289 -0.86900002 8
18.517 -4.2989998 -0.875 7
18.41 -4.3049998 -0.88099998 8
18.334999 -4.3169999 -0.889 27
18.329 -4.3439999 -0.89899999 41
18.325001 -4.3730001 -0.91000003 36
18.329 -4.4029999 -0.921 24
18.330999 -4.4320002 -0.93199998 29
18.329 -4.46 -0.94300002 36
18.344999 -4.493 -0.95499998 38
18.344 -4.5209999 -0.96600002 44
18.346001 -4.5489998 -0.977 30
18.34 -4.5760002 -0.98799998 44
18.343 -4.605 -1 26
18.354 -4.6350002 -1.012 41
18.353001 -4.6630001 -1.023 44
18.353001 -4.6900001 -1.034 34
18.368999 -4.7210002 -1.046 20
0 0 0 0
0 0 0 1
0 0 0 1
0 0 0 0
0 0 0 1
10.222 -2.7149999 -0.62 10
10.176 -2.717 -0.62400001 95
10.207 -2.74 -0.63300002 163
10.17 -2.744 -0.63700002 164
10.157 -2.7539999 -0.64200002 164
10.171 -2.7720001 -0.64999998 164
10.145 -2.779 -0.65499997 164
10.148 -2.793 -0.66100001 163
10.193 -2.819 -0.671 153
10.192 -2.832 -0.67699999 161
10.167 -2.8380001 -0.68199998 163
10.175 -2.8540001 -0.68900001 163
10.155 -2.8610001 -0.69400001 164
10.14 -2.869 -0.69999999 164
10.161 -2.888 -0.708 164
10.156 -2.9000001 -0.71399999 164
10.139 -2.9070001 -0.71899998 164
10.139 -2.9200001 -0.72600001 163
10.137 -2.931 -0.73199999 126
10.117 -2.937 -0.73699999 6
0 0 0 2
13.627 -3.9890001 -1.01 2
13.38 -3.9319999 -1 3
13.153 -3.881 -0.99199998 3
12.939 -3.832 -0.98400003 3
12.725 -3.783 -0.97600001 3
12.559 -3.7479999 -0.97100002 3
12.337 -3.6949999 -0.96200001 3
12.13 -3.6459999 -0.95300001 3
11.951 -3.6059999 -0.94700003 3
11.794 -3.5710001 -0.94199997 3
11.608 -3.526 -0.93400002 2
11.428 -3.484 -0.92799997 2
11.306 -3.4579999 -0.92500001 2
11.147 -3.421 -0.91900003 2
11.037 -3.398 -0.917 2
10.901 -3.3670001 -0.912 3
10.758 -3.3340001 -0.90700001 3
10.654 -3.312 -0.90499997 2
10.488 -3.27 -0.898 2
10.341 -3.234 -0.89099997 3
10.225 -3.207 -0.88800001 3
10.114 -3.181 -0.884 3
10.002 -3.155 -0.88099998 3
9.8830004 -3.1259999 -0.87599999 4
9.7620001 -3.0969999 -0.87199998 5
9.665 -3.0739999 -0.86900002 4
9.5539999 -3.0469999 -0.86500001 4
9.4519997 -3.023 -0.86199999 3
9.3579998 -3 -0.85900003 4
9.2779999 -2.9820001 -0.85699999 4
9.1780005 -2.957 -0.85399997 5
9.066 -2.9289999 -0.84899998 5
8.9630003 -2.902 -0.84500003 3
8.8620005 -2.8759999 -0.83999997 3
8.7089996 -2.8329999 -0.83099997 3
8.5640001 -2.7920001 -0.82200003 5
8.4680004 -2.767 -0.81800002 4
8.3940001 -2.7490001 -0.81599998 6
8.3070002 -2.7260001 -0.81300002 7
8.2370005 -2.7079999 -0.81 9
8.1739998 -2.6930001 -0.80900002 10
8.1129999 -2.678 -0.80800003 10
8.0450001 -2.661 -0.80599999 14
7.994 -2.6489999 -0.80500001 9
7.9310002 -2.6329999 -0.80400002 10
7.8909998 -2.6240001 -0.80400002 7
7.8200002 -2.605 -0.801 8
7.7470002 -2.585 -0.79799998 6
7.6680002 -2.563 -0.79400003 5
7.5890002 -2.5409999 -0.79100001 6
7.5149999 -2.52 -0.787 4
7.4320002 -2.4960001 -0.78299999 4
7.3410001 -2.4690001 -0.77700001 4
7.2509999 -2.4419999 -0.77200001 4
7.1900001 -2.425 -0.76899999 4
7.1110001 -2.402 -0.764 3
7.0440001 -2.382 -0.76099998 4
7.0149999 -2.375 -0.76200002 4
6.954 -2.3570001 -0.759 4
6.8979998 -2.3410001 -0.75599998 4
6.8559999 -2.3299999 -0.755 4
6.8200002 -2.3199999 -0.755 4
6.7589998 -2.302 -0.75199997 4
6.717 -2.29 -0.75099999 4
6.6810002 -2.28 -0.75 5
6.618 -2.26 -0.74599999 5
6.5879998 -2.2520001 -0.74599999 5
6.5380001 -2.237 -0.74400002 5
6.4899998 -2.2219999 -0.74199998 4
6.4549999 -2.2119999 -0.741 4
6.415 -2.2 -0.74000001 5
6.3660002 -2.184 -0.73699999 5
6.3429999 -2.178 -0.73699999 5
6.276 -2.1559999 -0.73299998 5
6.2480001 -2.148 -0.73199999 4
6.2189999 -2.1389999 -0.73199999 4
6.164 -2.1210001 -0.72799999 4
6.131 -2.1099999 -0.727 4
6.1020002 -2.1010001 -0.727 4
6.0570002 -2.086 -0.72399998 4
6.0180001 -2.0739999 -0.722 4
5.987 -2.063 -0.72100002 4
5.9489999 -2.0510001 -0.71899998 4
5.9190001 -2.0409999 -0.71799999 4
5.8889999 -2.0309999 -0.71700001 4
5.8600001 -2.0209999 -0.71600002 4
5.8200002 -2.007 -0.713 3
5.7909999 -1.997 -0.71200001 3
5.7649999 -1.988 -0.71200001 3
5.744 -1.9809999 -0.71100003 4
5.704 -1.967 -0.70899999 3
5.684 -1.959 -0.708 4
5.652 -1.948 -0.70700002 4
5.6230001 -1.938 -0.70499998 3
5.5999999 -1.929 -0.704 4
5.585 -1.923 -0.70499998 4
5.5539999 -1.9119999 -0.70300001 3
5.5240002 -1.901 -0.70099998 4
5.4990001 -1.891 -0.69999999 3
5.4879999 -1.887 -0.70099998 3
5.4640002 -1.877 -0.699 3
5.4429998 -1.869 -0.699 3
5.4200001 -1.86 -0.69800001 3
5.3969998 -1.851 -0.69599998 4
5.381 -1.844 -0.69599998 4
5.3629999 -1.837 -0.69599998 4
5.3340001 -1.825 -0.69400001 4
5.3099999 -1.816 -0.69199997 4
5.2919998 -1.808 -0.69199997 3
5.2800002 -1.802 -0.69199997 4
5.2550001 -1.7920001 -0.69 4
5.2509999 -1.789 -0.69099998 4
5.2259998 -1.778 -0.68900001 4
5.2049999 -1.7690001 -0.68800002 4
5.1890001 -1.762 -0.68699998 4
5.1729999 -1.7539999 -0.68699998 4
5.1609998 -1.748 -0.68599999 3
5.1570001 -1.745 -0.68699998 4
5.1329999 -1.735 -0.685 4
5.112 -1.725 -0.68400002 3
5.105 -1.72 -0.68400002 3
5.0910001 -1.7130001 -0.68400002 3
5.0770001 -1.706 -0.68300003 3
5.0650001 -1.7 -0.68199998 3
5.0489998 -1.692 -0.68099999 3
5.0430002 -1.687 -0.68199998 3
5.0320001 -1.6799999 -0.68099999 3
5.013 -1.6720001 -0.68000001 3
5.0019999 -1.665 -0.67900002 3
4.9980001 -1.661 -0.68000001 3
4.9920001 -1.656 -0.68000001 3
4.973 -1.646 -0.67799997 3
4.9559999 -1.638 -0.67699999 3
4.9590001 -1.635 -0.67799997 3
4.9429998 -1.627 -0.67699999 3
4.9439998 -1.624 -0.67799997 3
4.9299998 -1.6160001 -0.676 3
4.9180002 -1.609 -0.67500001 3
4.908 -1.602 -0.67500001 3
4.908 -1.599 -0.67500001 3
4.901 -1.5930001 -0.67500001 3
4.8930001 -1.587 -0.67500001 3
4.8759999 -1.5779999 -0.67299998 4
4.8759999 -1.574 -0.67299998 4
4.8569999 -1.564 -0.671 4
4.8639998 -1.562 -0.67299998 5
4.8509998 -1.554 -0.671 6
4.8520002 -1.551 -0.67199999 7
4.8460002 -1.545 -0.671 7
4.8369999 -1.538 -0.67000002 7
4.8460002 -1.5369999 -0.67199999 6
4.8449998 -1.5319999 -0.67199999 5
4.8390002 -1.526 -0.67199999 3
4.8369999 -1.521 -0.67199999 3
4.8390002 -1.517 -0.67199999 3
4.8309999 -1.511 -0.671 5
4.835 -1.507 -0.67199999 3
4.8239999 -1.499 -0.67000002 3
4.8210001 -1.494 -0.67000002 3
4.8299999 -1.492 -0.671 3
4.8309999 -1.488 -0.671 3
4.8369999 -1.485 -0.67199999 3
4.8249998 -1.476 -0.67000002 3
4.8379998 -1.475 -0.67199999 3
4.8330002 -1.469 -0.671 3
4.8280001 -1.462 -0.67000002 3
4.848 -1.4630001 -0.67299998 3
4.829 -1.4529999 -0.67000002 3
4.823 -1.446 -0.66900003 5
4.8189998 -1.439 -0.66799998 5
4.8470001 -1.442 -0.67199999 3
4.8330002 -1.433 -0.66900003 3
4.8340001 -1.428 -0.66900003 3
4.8470001 -1.426 -0.67000002 3
4.8439999 -1.42 -0.67000002 3
4.8470001 -1.415 -0.66900003 3
4.8540001 -1.4119999 -0.67000002 3
4.8629999 -1.409 -0.671 3
4.8639998 -1.403 -0.67000002 3
4.8759999 -1.401 -0.671 3
4.8730001 -1.395 -0.67000002 3
4.8759999 -1.39 -0.67000002 5
4.8800001 -1.385 -0.67000002 5
4.8979998 -1.3839999 -0.671 3
4.8990002 -1.378 -0.671 3
4.9089999 -1.375 -0.671 3
4.915 -1.37 -0.671 3
4.9169998 -1.365 -0.67000002 3
4.9359999 -1.364 -0.67199999 3
4.9260001 -1.355 -0.67000002 5
4.9549999 -1.3559999 -0.67299998 3
4.9629998 -1.352 -0.67299998 3
4.9629998 -1.346 -0.67199999 6
4.9809999 -1.344 -0.67299998 3
4.9980001 -1.342 -0.67400002 3
5.0050001 -1.337 -0.67400002 3
5.007 -1.331 -0.67299998 3
5.0190001 -1.327 -0.67299998 3
5.0380001 -1.326 -0.67400002 3
5.0650001 -1.326 -0.67699999 4
5.0640001 -1.319 -0.67500001 4
5.0809999 -1.316 -0.676 3
5.0970001 -1.313 -0.676 3
5.1079998 -1.309 -0.676 3
5.1279998 -1.306 -0.67699999 3
5.1370001 -1.301 -0.67699999 3
5.1570001 -1.299 -0.67799997 3
5.1659999 -1.294 -0.67699999 3
5.1919999 -1.293 -0.67900002 3
5.2210002 -1.2920001 -0.68099999 3
5.2379999 -1.289 -0.68099999 3
5.2480001 -1.284 -0.68099999 3
5.2800002 -1.284 -0.68300003 3
5.2979999 -1.28 -0.68300003 3
5.3099999 -1.275 -0.68300003 3
5.336 -1.273 -0.68400002 3
5.3460002 -1.268 -0.68300003 3
5.3720002 -1.266 -0.68400002 3
5.3860002 -1.261 -0.68400002 4
5.421 -1.261 -0.68599999 4
5.4419999 -1.257 -0.68599999 3
5.4759998 -1.257 -0.68800002 3
5.506 -1.255 -0.68900001 3
5.5310001 -1.252 -0.69 3
5.5500002 -1.248 -0.69 3
5.5679998 -1.243 -0.68900001 3
5.6059999 -1.243 -0.69099998 3
5.6370001 -1.24 -0.69300002 3
5.6729999 -1.239 -0.69400001 3
5.7069998 -1.238 -0.69499999 3
5.73 -1.233 -0.69499999 3
5.757 -1.23 -0.69599998 3
5.7909999 -1.228 -0.69700003 3
5.8179998 -1.224 -0.69700003 3
5.8709998 -1.226 -0.69999999 3
5.9000001 -1.223 -0.69999999 2
5.9310002 -1.219 -0.70099998 3
5.9819999 -1.22 -0.70300001 3
6.0300002 -1.22 -0.70599997 3
6.0609999 -1.216 -0.70599997 3
6.1020002 -1.214 -0.70700002 3
6.1370001 -1.211 -0.70700002 3
6.1789999 -1.209 -0.70899999 3
6.2309999 -1.209 -0.71100003 3
6.289 -1.21 -0.71399999 3
6.3460002 -1.21 -0.71600002 3
6.3730001 -1.204 -0.71499997 3
6.448 -1.207 -0.71899998 3
6.4899998 -1.204 -0.72000003 3
6.566 -1.207 -0.72399998 3
6.6300001 -1.207 -0.727 3
6.6789999 -1.205 -0.727 4
6.7290001 -1.2029999 -0.72799999 4
6.8060002 -1.205 -0.73199999 4
6.8649998 -1.2029999 -0.73400003 4
6.9499998 -1.206 -0.73799998 4
7.0170002 -1.206 -0.74000001 4
7.0809999 -1.205 -0.74199998 4
7.1570001 -1.205 -0.74400002 3
7.2220001 -1.204 -0.74599999 4
7.2940001 -1.2029999 -0.74800003 4
7.381 -1.205 -0.75199997 4
7.4559999 -1.204 -0.75400001 4
7.527 -1.202 -0.755 4
7.6149998 -1.2029999 -0.75800002 4
7.7329998 -1.2079999 -0.764 4
7.8140001 -1.207 -0.76599997 4
7.9219999 -1.21 -0.76999998 4
8.0129995 -1.209 -0.77200001 4
8.1389999 -1.214 -0.778 4
8.2309999 -1.2130001 -0.77999997 4
8.3509998 -1.216 -0.78399998 4
8.5010004 -1.223 -0.79100001 4
8.6120005 -1.224 -0.79500002 4
8.7530003 -1.228 -0.80000001 3
8.8610001 -1.228 -0.80299997 4
9.0039997 -1.232 -0.80800003 3
9.1499996 -1.235 -0.81300002 3
9.2819996 -1.2359999 -0.81699997 3
9.46 -1.243 -0.824 3
9.6429996 -1.25 -0.83200002 2
9.8280001 -1.257 -0.83899999 2
10.134 -1.278 -0.85600001 3
10.408 -1.294 -0.86900002 6
10.632 -1.303 -0.87800002 7
10.785 -1.302 -0.88099998 10
10.991 -1.307 -0.88700002 13
11.134 -1.3049999 -0.88800001 15
11.318 -1.306 -0.89200002 13
11.54 -1.311 -0.89899999 6
11.802 -1.3200001 -0.90799999 6
12.04 -1.325 -0.91500002 6
12.3 -1.331 -0.92199999 4
12.535 -1.335 -0.92799997 3
12.807 -1.34 -0.935 3
13.091 -1.347 -0.94300002 3
13.505 -1.3660001 -0.95899999 3
13.881 -1.3789999 -0.972 3
14.328 -1.397 -0.98799998 3
14.732 -1.411 -1.001 2
15.177 -1.426 -1.016 2
15.559 -1.4349999 -1.025 2
15.984 -1.4450001 -1.036 3
16.361 -1.45 -1.043 3
16.929001 -1.471 -1.062 2
17.582001 -1.495 -1.084 2
18.155001 -1.512 -1.099 2
18.627001 -1.517 -1.107 2
18.407 -1.466 -1.074 1
0 0 0 1
20.136999 -1.533 -1.131 1
21.098 -1.5700001 -1.1619999 1
0 0 0 0
0 0 0 5
0 0 0 0
0 0 0 3
28.368 -1.8609999 -1.403 3
28.422001 -1.8150001 -1.373 119
28.528999 -1.771 -1.345 40
28.601999 -1.725 -1.3150001 30
0 0 0 3
42.381001 -2.4070001 -1.848 22
40.52 -2.23 -1.719 6
40.347 -2.1489999 -1.663 19
0 0 0 150
33.117001 -1.648 -1.285 172
33.132999 -1.591 -1.245 194
33.146999 -1.534 -1.206 180
33.173 -1.478 -1.166 15
0 0 0 54
44.771999 -1.839 -1.4630001 44
44.985001 -1.771 -1.415 42
45.220001 -1.7029999 -1.367 42
45.598999 -1.638 -1.3200001 36
45.924999 -1.5700001 -1.271 43
46.087002 -1.498 -1.2180001 40
46.138 -1.42 -1.161 42
46.108002 -1.341 -1.101 25
46.233002 -1.265 -1.044 16
0 0 0 39
68.952003 -1.653 -1.3789999 76
68.913002 -1.533 -1.2869999 79
0 0 0 0
0 0 0 133
74.367996 -1.278 -1.096 99
75.438004 -1.1720001 -1.013 29
0 0 0 36
135.843 -1.656 -1.462 43
0 0 0 0
0 0 0 27
75.276001 -0.54400003 -0.50800002 9
0 0 0 72
135.847 -0.53500003 -0.54699999 42
0 0 0 0
0 0 0 0
0 0 0 0
0 0 0 0
0 0 0 0
0 0 0 0
0 0 0 25
0 0 0 25
0 0 0 0
0 0 0 0
0 0 0 0
0 0 0 0
0 0 0 0
0 0 0 0
0 0 0 14
92.681999 2.0050001 1.697 17
92.533997 2.145 1.827 15
0 0 0 0
0 0 0 17
90.037003 2.5009999 2.164 18
0 0 0 0
0 0 0 38
0 0 0 0
0 0 0 0
0 0 0 15
91.078003 3.3559999 2.984 25
90.633003 3.471 3.0999999 31
90.109001 3.585 3.2149999 33
89.824997 3.7049999 3.335 27
0 0 0 0
0 0 0 27
94.120003 4.2950001 3.911 16
92.575996 4.3590002 3.9849999 21
90.232002 4.3800001 4.0190001 15
0 0 0 0
0 0 0 12
0 0 0 74
119.455 6.48 6.033 40
0 0 0 17
90.848999 5.1830001 4.8600001 15
0 0 0 0
0 0 0 16
91.568001 5.605 5.3099999 27
0 0 0 0
0 0 0 21
92.536003 6.04 5.7839999 27
92.055 6.1339998 5.8940001 40
92.010002 6.2540002 6.0279999 30
0 0 0 25
119.599 8.4490004 8.1999998 43
119.602 8.6059999 8.3800001 43
119.778 8.776 8.5749998 64
119.901 8.941 8.7639999 26
119.658 9.0790005 8.9289999 33
119.588 9.2290001 9.1059999 45
119.56 9.3800001 9.2869997 33
119.384 9.5190001 9.4560003 25
0 0 0 0
0 0 0 0
0 0 0 0
0 0 0 49
129.58701 11.145 11.251 41
129.619 11.307 11.452 42
129.63 11.467 11.652 29
0 0 0 0
0 0 0 44
119.16 10.976 11.261 79
119.158 11.118 11.443 110
119.149 11.255 11.624 111
119.148 11.394 11.803 80
119.136 11.536 11.986 69
119.159 11.676 12.17 76
119.159 11.813 12.353 82
119.11 11.945 12.53 72
119.119 12.077 12.709 50
119.163 12.219 12.897 32
0 0 0 0
0 0 0 0
0 0 0 0
0 0 0 26
119.292 12.889 13.821 22
0 0 0 0
0 0 0 0
0 0 0 0
0 0 0 0
0 0 0 0
0 0 0 32
119.406 13.778 15.092 29
119.283 13.886 15.257 37
119.249 13.998 15.431 37
119.086 14.098 15.586 41
119.096 14.217 15.763 56
119.08 14.332 15.939 63
119.014 14.44 16.108999 70
119.028 14.556 16.289 72
119.056 14.674 16.469999 73
119.022 14.782 16.639 62
119.046 14.897 16.823 48
119.024 15.005 16.993 33
0 0 0 0
0 0 0 31
119.059 15.335 17.521999 26
119.219 15.462 17.725 26
119.172 15.562 17.889 36
119.123 15.66 18.056 26
119.096 15.76 18.226 28
119.138 15.868 18.406 26
119.211 15.979 18.587 24
119.14 16.069 18.749001 30
119.205 16.177 18.931 27
119.028 16.250999 19.070999 24
119.187 16.370001 19.268 23
119.185 16.466 19.434999 24
119.081 16.547001 19.587999 29
118.999 16.629 19.743999 38
118.935 16.712999 19.902 69
118.925 16.802999 20.065001 62
118.956 16.895 20.238001 67
118.913 16.982 20.398001 53
118.93 17.069 20.563 61
118.944 17.158001 20.732 58
118.922 17.240999 20.893 62
118.885 17.325001 21.052 59
118.933 17.416 21.224001 51
118.938 17.5 21.389 57
118.937 17.582001 21.548 52
118.912 17.659 21.705 57
118.949 17.743999 21.874001 48
118.888 17.813999 22.024 49
118.925 17.896999 22.191 49
118.906 17.971001 22.347 48
118.871 18.041 22.499001 73
118.909 18.124001 22.664 54
118.95 18.201 22.826 53
118.918 18.268 22.976 54
118.881 18.334 23.121 52
118.92 18.41 23.284 62
118.883 18.474001 23.427 48
118.861 18.539 23.576 53
118.902 18.612 23.737 54
118.902 18.677999 23.889 53
118.87 18.737 24.034 50
118.896 18.805 24.190001 46
118.937 18.874001 24.347 50
118.918 18.934999 24.492001 45
118.88 18.987 24.629 54
118.892 19.048 24.778 55
118.889 19.107 24.92 57
118.867 19.16 25.061001 49
118.896 19.221001 25.211 54
118.918 19.278999 25.358999 71
118.873 19.326 25.493 79
118.839 19.374001 25.622999 44
0 0 0 0
0 0 0 0
0 0 0 0
0 0 0 0
0 0 0 0
0 0 0 0
0 0 0 0
0 0 0 0
0 0 0 0
0 0 0 0
0 0 0 0
0 0 0 0
0 0 0 28
119.145 20.055 27.563 28
119.224 20.103001 27.712 27
119.179 20.132999 27.823999 31
119.02 20.139999 27.912001 35
118.903 20.153999 28.007999 40
118.916 20.188 28.134001 54
118.926 20.221001 28.257999 56
118.946 20.256001 28.379999 62
118.887 20.275 28.486 66
118.924 20.309 28.613001 64
118.948 20.341999 28.733 53
118.868 20.354 28.83 48
118.911 20.386999 28.955 39
118.895 20.407 29.065001 29
118.831 20.421 29.159 25
0 0 0 0
0 0 0 0
0 0 0 0
0 0 0 29
119.462 20.627001 29.857 27
119.393 20.632 29.945999 34
119.325 20.636 30.034 27
119.261 20.641001 30.118 26
0 0 0 0
0 0 0 0
0 0 0 0
0 0 0 0
0 0 0 0
0 0 0 0
0 0 0 0
0 0 0 0
0 0 0 0
0 0 0 0
0 0 0 0
0 0 0 0
0 0 0 0
0 0 0 0
0 0 0 0
0 0 0 0
0 0 0 27
119.239 20.726999 31.75 25
119.158 20.708 31.806999 30
119.119 20.695 31.875 31
119.1 20.684 31.947001 33
119.017 20.660999 32 39
118.994 20.650999 32.064999 43
119.04 20.648001 32.150002 42
119.012 20.632 32.214001 53
118.973 20.613001 32.272999 49
119.005 20.605 32.349998 61
119.011 20.594 32.417 55
118.918 20.563 32.457001 59
119.001 20.561001 32.543999 55
118.964 20.540001 32.594002 62
118.975 20.523001 32.659 61
119.042 20.516001 32.737999 53
118.992 20.487 32.783001 49
119.008 20.471001 32.841999 58
119.012 20.450001 32.898998 45
119.091 20.440001 32.976002 42
119.058 20.41 33.02 34
119.008 20.377001 33.057999 31
119.113 20.371 33.134998 30
0 0 0 0
0 0 0 24
0 0 0 0
0 0 0 0
0 0 0 0
0 0 0 0
0 0 0 0
0 0 0 0
0 0 0 0
0 0 0 0
0 0 0 0
0 0 0 0
0 0 0 0
0 0 0 0
0 0 0 0
0 0 0 0
0 0 0 27
0 0 0 0
0 0 0 0
0 0 0 24
0 0 0 0
0 0 0 26
119.184 19.545 33.903999 25
0 0 0 0
0 0 0 0
0 0 0 0
0 0 0 0
0 0 0 0
0 0 0 0
0 0 0 30
119.209 19.148001 33.988998 55
119.158 19.086 33.978001 73
119.173 19.033001 33.985001 61
119.226 18.988001 33.998001 43
119.166 18.921 33.98 39
119.242 18.875 33.999001 42
119.227 18.816999 33.988998 43
119.261 18.763 33.993 47
119.25 18.698 33.985001 37
119.274 18.646 33.98 49
119.278 18.582001 33.972 43
119.254 18.518 33.952999 43
119.189 18.445 33.921001 44
119.24 18.388 33.921001 43
119.269 18.327 33.912998 42
119.237 18.257 33.886002 47
119.287 18.201 33.880001 44
119.284 18.132999 33.858002 39
119.187 18.051001 33.810001 41
119.27 17.997 33.806999 43
119.27 17.924999 33.784 45
119.283 17.860001 33.759998 42
119.272 17.787001 33.729 55
119.331 17.724001 33.715 59
119.284 17.648001 33.669998 42
119.245 17.569 33.625999 43
119.31 17.507999 33.609001 44
119.314 17.434 33.575001 48
119.322 17.360001 33.540001 44
119.321 17.284 33.5 44
119.324 17.207001 33.460999 50
119.362 17.135 33.429001 44
119.399 17.063 33.396 56
119.374 16.983999 33.344002 46
119.376 16.905001 33.298 48
119.402 16.827999 33.257 48
119.376 16.743999 33.200001 54
119.294 16.650999 33.125999 42
119.417 16.59 33.108002 49
119.384 16.503 33.044998 47
119.37 16.417999 32.985001 62
119.354 16.336 32.923 65
119.347 16.25 32.862999 38
119.38 16.17 32.812 47
119.402 16.087 32.757 38
119.399 16.004 32.693001 49
119.4 15.918 32.629002 45
119.413 15.832 32.566002 56
119.448 15.749 32.507999 54
119.413 15.656 32.43 65
119.43 15.572 32.361 57
119.446 15.484 32.293999 56
119.448 15.396 32.223999 60
119.425 15.305 32.139999 54
119.486 15.221 32.080002 61
119.433 15.123 31.988001 48
119.477 15.038 31.923 42
119.469 14.944 31.84 39
119.562 14.863 31.783001 29
119.56 14.769 31.698999 33
119.595 14.681 31.620001 34
119.696 14.599 31.559999 30
0 0 0 0
0 0 0 27
0 0 0 0
0 0 0 0
0 0 0 0
0 0 0 0
0 0 0 30
119.881 13.853 30.865999 29
119.934 13.762 30.775999 29
0 0 0 0
0 0 0 28
119.811 13.454 30.437 23
119.955 13.37 30.368 25
0 0 0 0
0 0 0 0
0 0 0 0
0 0 0 25
0 0 0 0
0 0 0 0
0 0 0 28
119.798 12.547 29.437 24
119.771 12.442 29.312 27
119.794 12.341 29.198 26
119.793 12.237 29.077 31
119.525 12.106 28.891001 28
119.745 12.028 28.820999 33
119.671 11.917 28.679001 39
119.57 11.802 28.528999 54
119.663 11.707 28.424 59
119.658 11.605 28.295 67
119.628 11.497 28.158001 67
119.692 11.398 28.042 60
119.66 11.29 27.902 61
119.66 11.184 27.768 41
119.794 11.091 27.663 46
119.696 10.976 27.504 35
119.923 10.894 27.419001 31
119.955 10.792 27.284 29
0 0 0 0
0 0 0 0
0 0 0 0
0 0 0 0
0 0 0 0
0 0 0 0
0 0 0 0
0 0 0 0
0 0 0 0
0 0 0 0
0 0 0 34
0 0 0 0
0 0 0 0
0 0 0 0
0 0 0 0
0 0 0 0
0 0 0 34
119.739 8.849 24.51 45
119.783 8.7449999 24.356001 59
119.753 8.6350002 24.184999 70
119.807 8.533 24.028 65
119.781 8.4239998 23.856001 68
119.825 8.3199997 23.697001 49
119.856 8.2150002 23.534 50
119.952 8.1169996 23.384001 36
120.16 8.0240002 23.253 25
120.165 7.9200001 23.083 25
0 0 0 0
0 0 0 0
0 0 0 24
0 0 0 0
0 0 0 0
0 0 0 0
0 0 0 0
0 0 0 0
0 0 0 0
0 0 0 25
0 0 0 0
0 0 0 0
0 0 0 41
119.9 6.4239998 20.503 61
119.849 6.3200002 20.308001 57
119.867 6.2160001 20.121 77
119.849 6.1110001 19.927 69
119.869 6.0110002 19.74 62
119.853 5.9070001 19.545 51
119.954 5.8080001 19.370001 36
119.994 5.7090001 19.184 30
120.011 5.6069999 18.99 28
120.007 5.507 18.795 33
120.093 5.408 18.610001 34
120.313 5.316 18.444 35
120.323 5.217 18.247 39
0 0 0 0
0 0 0 0
0 0 0 0
0 0 0 0
0 0 0 25
122.642 4.7010002 17.351999 30
122.541 4.5970001 17.122999 30
122.462 4.493 16.9 33
122.439 4.3920002 16.684 39
122.442 4.2940001 16.473 46
122.366 4.1919999 16.249001 64
122.401 4.0939999 16.038 66
122.422 3.9979999 15.827 70
122.415 3.8989999 15.613 67
122.411 3.8039999 15.397 61
122.56 3.711 15.196 44
122.751 3.622 15.003 26
0 0 0 0
0 0 0 0
0 0 0 0
0 0 0 26
0 0 0 0
0 0 0 0
0 0 0 0
0 0 0 0
0 0 0 0
0 0 0 0
0 0 0 40
122.448 2.4909999 12.271 54
122.448 2.4030001 12.044 80
122.453 2.313 11.814 80
122.409 2.223 11.578 77
122.404 2.1340001 11.346 101
122.443 2.049 11.119 87
122.432 1.959 10.882 59
122.547 1.876 10.661 30
122.548 1.79 10.425 38
122.611 1.705 10.195 34
122.617 1.622 9.9619999 38
122.556 1.536 9.7200003 34
122.502 1.45 9.4750004 39
122.525 1.369 9.2410002 39
122.448 1.285 8.993 51
122.506 1.204 8.7620001 45
122.603 1.125 8.5310001 43
122.597 1.044 8.29 33
122.732 0.96700001 8.0609999 32
122.655 0.88499999 7.8099999 34
122.584 0.80800003 7.5669999 31
122.716 0.73100001 7.3309999 31
122.715 0.653 7.0869999 25
0 0 0 0
0 0 0 41
122.469 0.42699999 6.3499999 53
122.451 0.35299999 6.1040001 69
122.424 0.27900001 5.8530002 69
122.39 0.206 5.605 50
0 0 0 18
86.109001 0.044 3.598 30
0 0 0 0
0 0 0 20
87.997002 -0.105 3.142 32
0 0 0 0
0 0 0 0
0 0 0 31
0 0 0 0
0 0 0 36
85.818001 -0.38100001 2.0220001 22
88.349998 -0.43799999 1.9 22
88.749001 -0.486 1.726 23
0 0 0 0
0 0 0 0
0 0 0 0
0 0 0 39
74.940002 -0.597 0.68599999 62
74.383003 -0.62800002 0.52700001 26
78.691002 -0.70200002 0.39399999 10
78.766998 -0.73799998 0.233 11
75.271004 -0.741 0.064000003 21
75.263 -0.77499998 -0.093000002 51
75.259003 -0.80800003 -0.24600001 74
75.257004 -0.84100002 -0.40200001 75
75.266998 -0.87400001 -0.56199998 38
0 0 0 45
135.918 -1.694 -1.5779999 30
136.058 -1.752 -1.865 56
136.086 -1.808 -2.1500001 32
0 0 0 13
75.397003 -1.0599999 -1.502 32
75.413002 -1.09 -1.661 46
75.342003 -1.117 -1.817 42
74.466003 -1.132 -1.952 57
74.332001 -1.158 -2.1070001 49
0 0 0 7
48.208 -0.78500003 -1.566 16
48.191002 -0.801 -1.666 13
0 0 0 0
0 0 0 0
0 0 0 9
0 0 0 0
0 0 0 0
0 0 0 1
0 0 0 0
0 0 0 4
23.048 -0.44800001 -1.232 4
0 0 0 0
0 0 0 1
0 0 0 3
16.877001 -0.34599999 -1.043 4
0 0 0 3
14.844 -0.31200001 -0.98000002 2
14.015 -0.29699999 -0.95499998 2
13.292 -0.285 -0.93300003 3
12.63 -0.27399999 -0.91299999 3
12.077 -0.264 -0.898 3
11.484 -0.25400001 -0.87900001 2
10.896 -0.243 -0.85600001 2
10.378 -0.234 -0.838 2
9.9099998 -0.22499999 -0.81999999 3
9.4759998 -0.21699999 -0.80400002 4
9.0930004 -0.20900001 -0.79000002 5
8.7189999 -0.20200001 -0.77600002 4
8.3629999 -0.19499999 -0.76099998 5
8.0810003 -0.19 -0.75300002 5
7.7729998 -0.184 -0.74000001 8
7.5040002 -0.17900001 -0.73000002 12
7.336 -0.176 -0.72899997 12
7.1659999 -0.17299999 -0.727 10
6.8670001 -0.16599999 -0.71100003 4
6.6589999 -0.162 -0.70300001 3
6.474 -0.15800001 -0.69700003 3
6.2979999 -0.154 -0.69099998 3
6.1479998 -0.15099999 -0.68699998 3
5.9759998 -0.148 -0.68000001 3
5.8379998 -0.145 -0.676 3
5.6859999 -0.141 -0.67000002 3
5.5450001 -0.138 -0.66500002 3
5.4250002 -0.13600001 -0.662 3
5.2979999 -0.133 -0.65700001 4
5.1719999 -0.13 -0.65200001 4
5.073 -0.12800001 -0.64999998 2
4.9530001 -0.125 -0.64399999 2
4.8699999 -0.123 -0.64300001 3
4.7859998 -0.121 -0.64200002 3
4.678 -0.118 -0.63700002 2
4.5960002 -0.116 -0.63499999 2
4.5089998 -0.114 -0.63200003 2
4.4239998 -0.112 -0.62900001 2
4.388 -0.111 -0.63200003 2
4.2810001 -0.108 -0.625 2
4.1750002 -0.105 -0.61799997 2
4.1609998 -0.105 -0.62400001 2
4.0229998 -0.101 -0.61199999 2
4.0380001 -0.101 -0.62199998 2
3.9630001 -0.098999999 -0.61799997 2
3.9860001 -0.1 -0.62900001 2
3.7709999 -0.093999997 -0.60299999 4
3.733 -0.093000002 -0.60399997 5
3.697 -0.092 -0.60500002 4
3.618 -0.090000004 -0.60000002 3
3.5639999 -0.088 -0.597 3
3.5179999 -0.086999997 -0.597 3
3.4630001 -0.085000001 -0.59399998 2
3.503 -0.086000003 -0.60799998 2
3.3670001 -0.082000002 -0.59100002 2
3.3280001 -0.081 -0.58999997 3
3.283 -0.079000004 -0.588 3
3.243 -0.078000002 -0.58700001 2
3.1900001 -0.075999998 -0.58399999 2
3.151 -0.075000003 -0.583 2
3.1199999 -0.074000001 -0.583 2
3.0829999 -0.071999997 -0.58200002 2
3.046 -0.071000002 -0.57999998 2
3.098 -0.071999997 -0.59600002 2
3.0869999 -0.071000002 -0.60000002 2
3.0209999 -0.068999998 -0.59299999 1
3.027 -0.068999998 -0.59899998 2
2.869 -0.064999998 -0.57300001 1
2.839 -0.063000001 -0.57200003 2
2.809 -0.061999999 -0.57200003 2
2.783 -0.061000001 -0.57099998 2
2.7579999 -0.059999999 -0.57099998 2
2.737 -0.059 -0.57200003 2
2.697 -0.057999998 -0.56800002 2
2.671 -0.057 -0.56800002 1
2.6949999 -0.056000002 -0.57700002 1
2.674 -0.055 -0.57800001 1
2.592 -0.052999999 -0.565 1
2.5639999 -0.052000001 -0.56300002 1
2.5339999 -0.050999999 -0.56099999 1
2.5190001 -0.050000001 -0.56199998 1
2.4979999 -0.048999999 -0.56199998 1
2.474 -0.048 -0.56099999 1
2.45 -0.046999998 -0.55900002 1
2.431 -0.046 -0.55900002 1
2.4089999 -0.045000002 -0.55800003 1
2.3829999 -0.044 -0.55599999 1
2.3710001 -0.043000001 -0.55699998 1
2.346 -0.041999999 -0.55500001 1
2.326 -0.041000001 -0.55500001 1
2.309 -0.039999999 -0.55400002 1
2.2969999 -0.039000001 -0.55500001 1
2.276 -0.037999999 -0.55400002 1
2.2520001 -0.037 -0.55199999 1
2.2479999 -0.035999998 -0.55400002 1
2.223 -0.035 -0.55199999 1
2.207 -0.034000002 -0.55199999 1
2.1830001 -0.033 -0.54900002 1
2.171 -0.032000002 -0.54900002 1
2.152 -0.030999999 -0.54799998 1
2.1370001 -0.029999999 -0.54799998 1
2.1229999 -0.029999999 -0.54699999 1
2.1059999 -0.028999999 -0.546 1
2.085 -0.028000001 -0.54400003 1
2.0739999 -0.027000001 -0.54400003 1
2.0699999 -0.026000001 -0.546 1
2.062 -0.025 -0.54699999 1
2.052 -0.024 -0.54799998 1
2.0380001 -0.024 -0.54699999 1
2.029 -0.023 -0.54699999 1
2.0090001 -0.022 -0.54500002 1
2.0009999 -0.021 -0.546 1
1.987 -0.02 -0.54500002 1
1.979 -0.018999999 -0.546 1
1.9680001 -0.018999999 -0.54500002 1
1.959 -0.017999999 -0.546 1
1.9450001 -0.017000001 -0.54400003 1
1.928 -0.016000001 -0.54299998 1
1.921 -0.015 -0.54299998 1
1.911 -0.014 -0.54299998 1
1.8940001 -0.014 -0.54100001 1
1.877 -0.013 -0.53799999 1
1.873 -0.012 -0.54000002 1
1.857 -0.011 -0.53799999 1
1.85 -0.0099999998 -0.53799999 1
1.844 -0.0099999998 -0.53899997 1
1.837 -0.0089999996 -0.53899997 1
1.823 -0.0080000004 -0.537 1
1.818 -0.0070000002 -0.53799999 1
1.811 -0.0070000002 -0.53799999 1
1.793 -0.0060000001 -0.53500003 1
1.7920001 -0.0049999999 -0.537 1
1.78 -0.0040000002 -0.53600001 1
1.772 -0.0040000002 -0.53500003 1
1.768 -0.003 -0.53600001 1
1.765 -0.0020000001 -0.53799999 1
1.75 -0.001 -0.53500003 1
1.743 -0.001 -0.53500003 1
1.735 0 -0.53399998 1
1.733 0 -0.53600001 1
1.721 0.001 -0.53399998 1
1.7180001 0.001 -0.53500003 1
1.714 0.0020000001 -0.53600001 1
1.705 0.003 -0.53500003 1
1.689 0.003 -0.53200001 1
1.682 0.0040000002 -0.53100002 1
1.676 0.0049999999 -0.53100002 1
1.6720001 0.0060000001 -0.53200001 1
1.661 0.0060000001 -0.52999997 1
1.659 0.0070000002 -0.53100002 1
1.653 0.0080000004 -0.53100002 1
1.647 0.0080000004 -0.52999997 1
1.641 0.0089999996 -0.52999997 1
1.641 0.0099999998 -0.53200001 1
1.6289999 0.0099999998 -0.52899998 1
1.628 0.011 -0.52999997 1
1.625 0.012 -0.53100002 1
1.614 0.012 -0.52899998 1
1.609 0.013 -0.52899998 1
1.603 0.014 -0.528 1
1.6 0.014 -0.52899998 1
1.598 0.015 -0.52899998 1
1.5880001 0.016000001 -0.52700001 1
1.596 0.016000001 -0.53100002 1
1.585 0.017000001 -0.52899998 1
1.576 0.017999999 -0.52700001 1
1.574 0.017999999 -0.528 1
1.5700001 0.018999999 -0.528 1
1.571 0.02 -0.52899998 1
1.559 0.02 -0.52600002 1
1.556 0.021 -0.52600002 1
1.558 0.022 -0.528 1
1.552 0.022 -0.52700001 1
1.545 0.023 -0.52600002 1
1.548 0.024 -0.528 1
1.541 0.024 -0.52700001 1
1.54 0.025 -0.528 1
1.54 0.026000001 -0.528 1
1.539 0.026000001 -0.52899998 1
1.523 0.027000001 -0.52499998 1
1.5319999 0.027000001 -0.52899998 1
1.521 0.028000001 -0.52600002 1
1.52 0.028999999 -0.52600002 1
1.518 0.028999999 -0.52600002 1
1.512 0.029999999 -0.52499998 1
1.5190001 0.030999999 -0.528 1
1.502 0.030999999 -0.523 1
1.511 0.032000002 -0.52700001 1
1.511 0.032000002 -0.528 1
1.498 0.033 -0.52399999 1
1.501 0.034000002 -0.52600002 1
1.501 0.034000002 -0.52600002 1
1.503 0.035 -0.528 1
1.5 0.035999998 -0.52700001 1
1.501 0.035999998 -0.528 1
1.49 0.037 -0.52499998 1
1.493 0.037 -0.52600002 1
1.503 0.037999999 -0.53100002 1
1.488 0.039000001 -0.52600002 1
1.484 0.039000001 -0.52499998 1
1.483 0.039999999 -0.52499998 1
1.483 0.039999999 -0.52499998 1
1.47 0.041000001 -0.52100003 1
1.48 0.041999999 -0.52499998 1
1.48 0.041999999 -0.52600002 1
1.482 0.043000001 -0.52700001 1
1.483 0.044 -0.52700001 1
1.477 0.044 -0.52600002 1
1.484 0.045000002 -0.528 1
1.482 0.045000002 -0.528 1
1.478 0.046 -0.52700001 1
1.469 0.046 -0.52399999 1
1.469 0.046999998 -0.52399999 1
1.476 0.048 -0.52700001 1
1.478 0.048 -0.528 1
1.474 0.048999999 -0.52600002 1
1.48 0.050000001 -0.528 1
1.459 0.050000001 -0.52100003 1
1.4630001 0.050000001 -0.523 1
1.4680001 0.050999999 -0.52399999 1
1.479 0.052000001 -0.528 1
1.47 0.052000001 -0.52499998 1
1.473 0.052999999 -0.52600002 1
1.471 0.054000001 -0.52600002 1
1.477 0.054000001 -0.528 1
1.4630001 0.054000001 -0.52200001 1
1.476 0.055 -0.52700001 1
1.465 0.056000002 -0.523 1
1.471 0.056000002 -0.52499998 1
1.471 0.057 -0.52499998 1
1.459 0.057 -0.51999998 1
1.471 0.057999998 -0.52399999 1
1.48 0.059 -0.52700001 1
1.465 0.059 -0.52200001 1
1.471 0.059999999 -0.52399999 1
1.484 0.061000001 -0.528 1
1.479 0.061000001 -0.52600002 1
1.474 0.061999999 -0.52399999 1
1.482 0.061999999 -0.52600002 1
1.478 0.063000001 -0.52399999 1
1.4809999 0.063000001 -0.52499998 1
1.48 0.064000003 -0.52399999 1
1.484 0.064999998 -0.52499998 1
1.483 0.064999998 -0.52399999 1
1.482 0.066 -0.52399999 1
1.494 0.067000002 -0.52700001 1
1.484 0.067000002 -0.523 1
1.492 0.068000004 -0.52600002 1
1.4910001 0.068000004 -0.52499998 1
1.494 0.068999998 -0.52499998 1
1.503 0.07 -0.528 1
1.499 0.07 -0.52600002 1
1.512 0.071000002 -0.52899998 1
1.499 0.071000002 -0.52399999 1
1.5089999 0.071999997 -0.52700001 1
1.5140001 0.072999999 -0.528 1
1.5089999 0.072999999 -0.52499998 1
1.51 0.072999999 -0.52499998 1
1.507 0.074000001 -0.523 1
1.53 0.075000003 -0.52999997 1
1.52 0.075000003 -0.52600002 1
1.529 0.075999998 -0.528 1
1.527 0.075999998 -0.52700001 1
1.533 0.077 -0.528 1
1.536 0.078000002 -0.528 1
1.536 0.078000002 -0.52700001 1
1.541 0.079000004 -0.52700001 1
1.5470001 0.079999998 -0.528 1
1.544 0.079999998 -0.52700001 1
1.5420001 0.079999998 -0.52499998 1
1.554 0.081 -0.528 1
1.55 0.081 -0.52499998 1
1.5549999 0.082000002 -0.52600002 1
1.564 0.082999997 -0.528 1
1.5650001 0.082999997 -0.52700001 1
1.563 0.083999999 -0.52499998 1
1.567 0.083999999 -0.52499998 1
1.569 0.085000001 -0.52499998 1
1.584 0.086000003 -0.528 1
1.587 0.086999997 -0.528 1
1.5880001 0.086999997 -0.52700001 1
1.587 0.086999997 -0.52499998 1
1.595 0.088 -0.52700001 1
1.6 0.089000002 -0.52700001 1
1.601 0.089000002 -0.52600002 1
1.607 0.090000004 -0.52600002 1
1.6160001 0.090999998 -0.528 1
1.617 0.090999998 -0.52700001 1
1.6210001 0.090999998 -0.52600002 1
1.633 0.093000002 -0.52899998 1
1.638 0.093000002 -0.52899998 1
1.6390001 0.093000002 -0.528 1
1.648 0.093999997 -0.52899998 1
1.655 0.094999999 -0.52899998 1
1.665 0.096000001 -0.53100002 1
1.664 0.096000001 -0.52899998 1
1.674 0.097000003 -0.52999997 1
1.677 0.097000003 -0.52899998 1
1.678 0.097999997 -0.528 1
1.682 0.097999997 -0.52700001 1
1.698 0.098999999 -0.52999997 1
1.6950001 0.098999999 -0.528 1
1.7180001 0.101 -0.53299999 1
1.71 0.101 -0.52899998 1
1.732 0.102 -0.53399998 1
1.74 0.103 -0.53399998 1
1.7460001 0.103 -0.53399998 1
1.752 0.104 -0.53399998 1
1.767 0.105 -0.53600001 1
1.767 0.105 -0.53399998 1
1.777 0.106 -0.53500003 1
1.781 0.106 -0.53399998 1
1.7869999 0.107 -0.53399998 1
1.8 0.108 -0.53500003 1
1.8049999 0.108 -0.53399998 1
1.814 0.109 -0.53500003 1
1.826 0.11 -0.53600001 1
1.834 0.11 -0.53600001 1
1.847 0.111 -0.537 1
1.851 0.111 -0.53600001 1
1.863 0.112 -0.537 1
1.878 0.113 -0.53899997 1
1.887 0.114 -0.53899997 1
1.898 0.114 -0.54000002 1
1.906 0.115 -0.53899997 1
1.921 0.116 -0.54100001 1
1.931 0.117 -0.54100001 1
1.934 0.117 -0.53899997 1
1.954 0.118 -0.542 1
1.972 0.119 -0.54400003 1
1.976 0.119 -0.54299998 1
1.992 0.12 -0.54400003 1
1.998 0.121 -0.54299998 1
2.0079999 0.121 -0.54299998 1
2.02 0.122 -0.54299998 1
2.0439999 0.123 -0.54699999 1
2.0439999 0.123 -0.54400003 1
2.0539999 0.123 -0.54299998 1
2.0669999 0.124 -0.54400003 1
2.0769999 0.125 -0.54299998 1
2.099 0.126 -0.546 1
2.118 0.127 -0.54699999 1
2.131 0.127 -0.54699999 1
2.1429999 0.12800001 -0.54699999 1
2.158 0.12899999 -0.54799998 1
2.175 0.12899999 -0.54900002 1
2.1930001 0.13 -0.55000001 1
2.2019999 0.13 -0.54900002 1
2.22 0.131 -0.54900002 1
2.234 0.132 -0.54900002 1
2.2520001 0.133 -0.55000001 1
2.2780001 0.134 -0.55299997 1
2.29 0.134 -0.55199999 1
2.3139999 0.13500001 -0.55400002 1
2.3280001 0.13600001 -0.55400002 1
2.345 0.13600001 -0.55400002 1
2.365 0.13699999 -0.55500001 1
2.388 0.138 -0.55599999 1
2.405 0.139 -0.55599999 1
2.4289999 0.139 -0.55800003 1
2.45 0.14 -0.55800003 2
2.4679999 0.141 -0.55800003 2
2.494 0.142 -0.56 2
2.516 0.142 -0.56099999 2
2.5350001 0.14300001 -0.56099999 1
2.562 0.14399999 -0.56199998 2
2.582 0.14399999 -0.56199998 2
2.6170001 0.146 -0.565 2
2.638 0.146 -0.565 2
2.6670001 0.147 -0.56699997 2
2.681 0.147 -0.565 2
2.7149999 0.148 -0.56699997 2
2.7390001 0.149 -0.56800002 2
2.7639999 0.149 -0.56800002 2
2.7980001 0.15000001 -0.56999999 2
2.823 0.15099999 -0.56999999 2
2.8559999 0.152 -0.57200003 2
2.8859999 0.153 -0.57200003 2
2.9189999 0.153 -0.574 2
2.944 0.154 -0.57300001 2
2.9749999 0.154 -0.574 2
3.0120001 0.155 -0.57599998 2
3.0450001 0.156 -0.57700002 2
3.0910001 0.15700001 -0.57999998 2
3.1270001 0.15800001 -0.58099997 3
3.1700001 0.15899999 -0.583 3
3.2090001 0.16 -0.58399999 3
3.244 0.16 -0.58499998 3
3.2939999 0.161 -0.588 3
3.3269999 0.162 -0.58700001 3
3.368 0.162 -0.588 3
3.4119999 0.163 -0.58999997 3
3.4530001 0.163 -0.58999997 2
3.598 0.169 -0.60799998 2
3.549 0.16500001 -0.59299999 3
3.655 0.168 -0.60399997 2
3.7260001 0.17 -0.60900003 2
3.7479999 0.169 -0.60500002 2
3.8469999 0.17200001 -0.61400002 3
3.914 0.17299999 -0.61799997 3
3.9159999 0.171 -0.61000001 2
3.9560001 0.171 -0.60900003 2
4.0190001 0.17200001 -0.611 2
4.092 0.17299999 -0.61400002 3
4.1929998 0.175 -0.62199998 2
4.3249998 0.178 -0.63300002 2
4.3449998 0.177 -0.62800002 3
4.3850002 0.176 -0.625 2
4.4549999 0.177 -0.62599999 3
4.5430002 0.178 -0.63 3
4.638 0.17900001 -0.634 2
4.7189999 0.18000001 -0.63599998 3
4.789 0.17900001 -0.63599998 3
4.8930001 0.18099999 -0.64099997 3
4.9879999 0.18099999 -0.64300001 3
5.0999999 0.182 -0.648 3
5.2049999 0.183 -0.65100002 3
5.322 0.184 -0.65600002 3
5.4369998 0.185 -0.65899998 4
5.5669999 0.186 -0.66399997 4
5.6820002 0.186 -0.667 4
5.8239999 0.18700001 -0.67299998 4
5.96 0.18799999 -0.67699999 4
6.119 0.189 -0.68300003 4
6.2919998 0.19 -0.69 4
6.4619999 0.191 -0.69599998 4
6.6279998 0.191 -0.70099998 4
6.8189998 0.192 -0.708 4
7.0089998 0.193 -0.71399999 5
7.2600002 0.19499999 -0.72500002 4
7.4829998 0.19599999 -0.73299998 6
7.6830001 0.19499999 -0.73699999 6
7.9239998 0.19599999 -0.745 5
8.1859999 0.19599999 -0.75300002 5
8.5089998 0.198 -0.76599997 3
8.8360004 0.199 -0.778 3
9.1859999 0.2 -0.79100001 3
9.6120005 0.20299999 -0.81 3
10.024 0.204 -0.82499999 2
10.507 0.205 -0.84299999 3
11.015 0.207 -0.86299998 2
11.559 0.208 -0.88300002 2
12.091 0.208 -0.89899999 2
12.665 0.208 -0.91799998 3
13.364 0.20900001 -0.94199997 3
0 0 0 4
14.852 0.208 -0.98900002 7
15.276 0.20200001 -0.98699999 4
15.345 0.19 -0.96100003 4
0 0 0 2
0 0 0 2
18.476 0.182 -1.05 1
0 0 0 1
21.948999 0.17900001 -1.161 1
0 0 0 0
0 0 0 0
0 0 0 0
0 0 0 0
0 0 0 0
0 0 0 61
63.005001 0.123 -2.4779999 155
63.013 0.066 -2.3570001 155
63.112 0.0080000004 -2.24 15
0 0 0 24
0 0 0 25
0 0 0 25
0 0 0 25
0 0 0 38
119.273 -0.66100001 -2.8540001 59
0 0 0 0
0 0 0 0
0 0 0 0
0 0 0 0
0 0 0 0
0 0 0 0
0 0 0 48
0 0 0 40
75.332001 -1.091 -0.51300001 84
75.290001 -1.1670001 -0.37 76
74.400002 -1.229 -0.227 111
0 0 0 30
69.626999 -1.295 0.048 47
69.973999 -1.375 0.18000001 20
69.483002 -1.439 0.308 7
68.987999 -1.502 0.435 150
68.960999 -1.575 0.56300002 100
0 0 0 0
0 0 0 0
0 0 0 0
0 0 0 0
0 0 0 0
0 0 0 0
0 0 0 0
0 0 0 0
0 0 0 5
54.146 -1.829 1.434 20
53.470001 -1.867 1.513 34
53.216 -1.919 1.604 34
53.174 -1.977 1.697 16
0 0 0 0
0 0 0 0
0 0 0 0
0 0 0 0
0 0 0 0
0 0 0 19
49.081001 -2.221 2.178 83
0 0 0 18
45.460999 -2.165 2.177 43
45.230999 -2.207 2.2449999 41
45.174999 -2.257 2.3199999 22
44.304001 -2.267 2.352 30
43.959 -2.302 2.4100001 39
43.478001 -2.329 2.4579999 22
42.873001 -2.3469999 2.497 16
42.707001 -2.3900001 2.5599999 7
42.335999 -2.4200001 2.6099999 3
0 0 0 0
0 0 0 5
41.032001 -2.4960001 2.7379999 3
40.710999 -2.526 2.7850001 2
42.783001 -2.707 2.9979999 30
42.779999 -2.76 3.069 44
42.196999 -2.7750001 3.0969999 25
41.419998 -2.7739999 3.108 54
41.419998 -2.826 3.1760001 57
41.238998 -2.8640001 3.2279999 48
40.095001 -2.835 3.2049999 60
40.087002 -2.885 3.27 65
40.098 -2.9360001 3.336 63
39.125 -2.914 3.3180001 30
38.749001 -2.934 3.348 51
38.73 -2.9820001 3.408 59
38.305 -2.9979999 3.431 18
37.251999 -2.9630001 3.395 10
36.924999 -2.984 3.424 46
36.928001 -3.03 3.4809999 56
36.93 -3.0769999 3.539 57
36.932999 -3.1240001 3.5969999 58
36.941002 -3.1730001 3.655 58
36.945 -3.22 3.711 58
36.943001 -3.267 3.7679999 56
36.945 -3.3150001 3.8239999 59
36.952 -3.3629999 3.881 59
36.960999 -3.4119999 3.938 59
36.970001 -3.461 3.994 62
36.962002 -3.5079999 4.0489998 58
36.976002 -3.5569999 4.105 58
36.98 -3.605 4.1599998 56
36.991001 -3.654 4.2150002 55
36.987999 -3.7019999 4.2690001 57
36.984001 -3.7490001 4.322 58
37.005001 -3.799 4.3769999 57
36.991001 -3.8469999 4.4299998 59
37.018002 -3.8970001 4.4860001 59
37.007 -3.944 4.5370002 57
37.006001 -3.993 4.5890002 58
37.027 -4.0440001 4.6440001 59
37.025002 -4.0910001 4.6950002 55
37.141998 -4.1529999 4.7610002 7
37.166 -4.2049999 4.816 4
37.289001 -4.2670002 4.8829999 3
37.236 -4.3099999 4.927 2
0 0 0 0
0 0 0 0
0 0 0 0
0 0 0 0
0 0 0 0
0 0 0 0
0 0 0 0
0 0 0 2
0 0 0 0
0 0 0 0
0 0 0 0
0 0 0 0
0 0 0 7
29.339001 -3.9330001 4.414 18
29.271 -3.9619999 4.4400001 26
29.229 -3.994 4.4679999 30
29.165001 -4.0229998 4.4949999 34
29.143999 -4.0580001 4.527 39
29.105 -4.0910001 4.5549998 38
29.087999 -4.1259999 4.5869999 41
29.077999 -4.1620002 4.6199999 44
29.034 -4.1939998 4.6469998 46
29.037001 -4.2319999 4.6810002 50
29.018 -4.2670002 4.711 51
29.007999 -4.303 4.7420001 54
29 -4.3390002 4.7750001 50
29.018999 -4.3779998 4.8099999 41
29.01 -4.414 4.8410001 46
29.018999 -4.4530001 4.8730001 39
29.016001 -4.4899998 4.9050002 47
29.034 -4.5289998 4.9390001 44
29.059 -4.5700002 4.974 44
29.063999 -4.6069999 5.006 39
29.08 -4.6459999 5.039 37
29.107 -4.6869998 5.0739999 34
29.146 -4.73 5.1110001 29
29.191999 -4.7740002 5.1490002 25
29.271 -4.8239999 5.1919999 14
29.410999 -4.8839998 5.2470002 4
0 0 0 27
35.104 -5.9159999 6.3319998 27
34.974998 -5.9380002 6.342 26
34.799999 -5.9510002 6.3429999 26
34.631001 -5.9640002 6.3460002 26
34.493999 -5.9829998 6.3530002 26
34.356998 -6.0019999 6.3610001 25
34.217999 -6.02 6.3660002 25
34.073002 -6.0349998 6.3699999 25
33.938 -6.0510001 6.375 25
33.797001 -6.0669999 6.3790002 25
33.661999 -6.0840001 6.3839998 25
33.542999 -6.1030002 6.3899999 24
33.384998 -6.1129999 6.388 24
33.238998 -6.1259999 6.388 23
33.117001 -6.1430001 6.3940001 24
33.013 -6.1630001 6.401 23
32.889 -6.178 6.4029999 23
32.776001 -6.1950002 6.408 24
32.638 -6.2080002 6.4070001 23
32.522999 -6.223 6.4099998 23
32.432999 -6.2420001 6.4180002 25
32.341 -6.2620001 6.4250002 23
32.237999 -6.2789998 6.4289999 26
32.119999 -6.2930002 6.4299998 23
32.016998 -6.3099999 6.4330001 23
31.903 -6.323 6.4330001 23
31.822001 -6.342 6.4400001 23
31.726 -6.3590002 6.4429998 25
31.620001 -6.3730001 6.4439998 23
0 0 0 3
21.316 -4.3429999 4.3730001 16
21.264 -4.3559999 4.3759999 18
21.212999 -4.369 4.3800001 21
21.184 -4.3850002 4.388 26
21.142 -4.3990002 4.3930001 28
21.122999 -4.4180002 4.402 32
21.097 -4.4349999 4.4089999 32
21.072001 -4.4520001 4.4159999 33
21.045 -4.4679999 4.4239998 35
21.031 -4.4879999 4.4330001 38
21.014 -4.506 4.4419999 38
20.976 -4.52 4.4450002 43
20.966 -4.539 4.4549999 44
20.971001 -4.5609999 4.467 34
20.944 -4.5760002 4.473 46
20.93 -4.5949998 4.4809999 46
20.944 -4.619 4.494 38
20.919001 -4.6339998 4.4990001 54
20.92 -4.6550002 4.5100002 54
20.913 -4.6739998 4.5180001 54
20.917 -4.6939998 4.5289998 54
20.905001 -4.7119999 4.5359998 57
20.896999 -4.73 4.5440001 54
20.906 -4.7519999 4.5549998 53
20.902 -4.7709999 4.5630002 40
20.917999 -4.7940001 4.5760002 40
20.893 -4.8070002 4.579 55
20.892 -4.8270001 4.5869999 49
20.875999 -4.842 4.5910001 42
20.893 -4.8649998 4.6030002 43
20.893999 -4.8839998 4.6100001 47
20.892 -4.901 4.6170001 46
20.91 -4.9239998 4.6279998 37
20.908001 -4.941 4.6350002 46
20.908001 -4.9590001 4.6409998 45
20.914 -4.9790001 4.6490002 46
20.926001 -4.9990001 4.658 43
20.955999 -5.0229998 4.671 40
20.952 -5.04 4.6760001 37
20.965 -5.0599999 4.684 37
20.969 -5.0780001 4.691 34
20.983999 -5.099 4.6989999 32
21.002001 -5.119 4.7080002 30
21.023001 -5.1409998 4.7179999 28
21.028 -5.158 4.723 27
21.052999 -5.1799998 4.7329998 23
21.087 -5.204 4.7449999 21
21.129999 -5.23 4.7579999 19
21.146999 -5.25 4.7659998 16
21.171 -5.2709999 4.7740002 9
21.235001 -5.303 4.7919998 3
0 0 0 24
28.799 -7.2319999 6.506 28
28.784 -7.2480001 6.507 27
28.785999 -7.2680001 6.5110002 23
28.754999 -7.2800002 6.506 25
28.747999 -7.296 6.507 23
28.728001 -7.3099999 6.5050001 27
28.731001 -7.329 6.507 23
28.724001 -7.3460002 6.507 24
28.711 -7.3600001 6.506 26
28.705 -7.3769999 6.5050001 27
28.694 -7.3909998 6.5029998 26
28.708 -7.4109998 6.507 24
28.686001 -7.4219999 6.5019999 24
28.688999 -7.4390001 6.5029998 24
28.690001 -7.4559999 6.5019999 23
28.687 -7.4699998 6.5009999 27
28.691999 -7.487 6.5009999 26
28.686001 -7.5009999 6.4980001 27
28.693001 -7.5180001 6.4980001 26
28.698999 -7.533 6.4980001 27
28.702999 -7.5489998 6.4959998 27
28.719 -7.5669999 6.4970002 26
28.728001 -7.5840001 6.4959998 25
28.747 -7.6020002 6.4970002 26
28.757 -7.618 6.4959998 23
28.761 -7.631 6.493 26
28.764999 -7.645 6.4899998 26
28.801001 -7.6669998 6.494 23
28.809 -7.6810002 6.4899998 24
28.841 -7.7020001 6.493 22
28.864 -7.7189999 6.4920001 23
28.900999 -7.7399998 6.4949999 23
28.886 -7.7470002 6.4860001 25
28.923 -7.7670002 6.4879999 24
28.945 -7.783 6.487 23
28.974001 -7.8000002 6.487 28
28.999001 -7.8169999 6.4850001 23
29.024 -7.8330002 6.4829998 25
29.054001 -7.8499999 6.4819999 26
29.080999 -7.8660002 6.48 25
29.120001 -7.8850002 6.4809999 24
29.15 -7.901 6.4790001 22
29.165001 -7.9120002 6.473 25
29.218 -7.934 6.4770002 21
29.232 -7.9450002 6.4689999 24
29.280001 -7.9640002 6.4710002 23
29.308001 -7.9790001 6.467 23
29.367001 -8.0010004 6.4699998 23
29.386999 -8.0120001 6.4629998 23
29.433001 -8.0299997 6.4619999 26
29.475 -8.0469999 6.46 21
29.52 -8.0640001 6.4590001 22
29.573 -8.0830002 6.4590001 24
29.634001 -8.1040001 6.46 22
29.677 -8.1190004 6.4569998 23
29.724001 -8.1350002 6.454 26
29.768 -8.1499996 6.4510002 23
29.83 -8.1700001 6.4510002 23
29.871 -8.184 6.4460001 23
29.922001 -8.1999998 6.4429998 23
29.969999 -8.2150002 6.4390001 23
30.035 -8.2349997 6.4380002 22
30.091 -8.2510004 6.4359999 22
30.143 -8.2659998 6.4320002 22
30.222 -8.2880001 6.4330001 21
30.274 -8.302 6.4289999 21
30.343 -8.3210001 6.427 21
30.407 -8.3380003 6.4239998 20
30.482 -8.3579998 6.4239998 21
30.533001 -8.3710003 6.4169998 20
30.612 -8.3909998 6.4159999 22
30.688 -8.4099998 6.415 23
30.739 -8.4219999 6.408 23
30.774 -8.4289999 6.3969998 27
30.837 -8.4420004 6.3920002 26
30.886 -8.4519997 6.3829999 26
30.893 -8.4499998 6.3649998 26
30.921 -8.4540005 6.3520002 26
30.957001 -8.46 6.3390002 26
30.975 -8.46 6.323 25
30.974001 -8.4540005 6.302 24
30.987 -8.4519997 6.2849998 24
31.011 -8.4530001 6.2690001 24
31.007999 -8.4460001 6.2480001 25
31.014999 -8.441 6.2280002 25
31.042999 -8.441 6.2129998 26
31.01 -8.4250002 6.184 26
30.941999 -8.3990002 6.1490002 22
30.868 -8.3710003 6.1110001 22
30.806999 -8.3459997 6.0770001 21
30.782 -8.3299999 6.0489998 21
30.733 -8.3079996 6.0170002 21
30.698999 -8.2889996 5.9879999 21
30.677999 -8.2740002 5.96 20
30.674 -8.2620001 5.9369998 21
30.729 -8.2670002 5.9239998 23
30.815001 -8.2790003 5.9159999 23
30.908001 -8.2930002 5.9099998 23
31.021999 -8.3129997 5.9060001 24
31.112 -8.3249998 5.8990002 22
31.215 -8.3400002 5.8940001 22
31.327 -8.3570004 5.8889999 23
31.445 -8.3760004 5.8850002 25
31.569 -8.3950005 5.882 24
31.716 -8.4200001 5.8839998 21
31.801001 -8.4280005 5.8730001 23
