# .PCD v0.7 - Point Cloud Data file format
VERSION 0.7
FIELDS x y z intensity
SIZE 4 4 4 4
TYPE F F F F
COUNT 1 1 1 1
WIDTH 1831
HEIGHT 1
VIEWPOINT 0 0 0 1 0 0 0
POINTS 1831
DATA ascii
39.337002 -2.8570001 5.0419998 53
39.341999 -2.8970001 5.1090002 52
39.323002 -2.934 5.1719999 50
38.325001 -2.8970001 5.1040001 31
37.963001 -2.908 5.119 47
37.973 -2.9460001 5.1820002 49
37.973999 -2.984 5.244 50
37.618999 -2.994 5.2579999 17
36.625 -2.9519999 5.1789999 9
36.269001 -2.9590001 5.1859999 12
36.167999 -2.9879999 5.23 49
36.175999 -3.0250001 5.289 57
36.181 -3.062 5.3470001 59
36.172001 -3.098 5.4029999 57
36.185001 -3.1359999 5.4629998 59
36.187 -3.1730001 5.52 59
36.189999 -3.211 5.5770001 56
36.200001 -3.2479999 5.6339998 54
36.209999 -3.286 5.6919999 55
36.196999 -3.322 5.7459998 56
36.220001 -3.362 5.8049998 57
36.216 -3.3989999 5.8590002 57
36.208 -3.4360001 5.9130001 58
36.217999 -3.474 5.9689999 57
36.215 -3.5109999 6.0229998 56
36.220001 -3.5480001 6.0770001 56
36.217999 -3.586 6.1300001 55
36.242001 -3.6259999 6.1869998 55
36.222 -3.661 6.2360001 53
36.166 -3.6930001 6.2789998 47
36.022999 -3.7160001 6.3060002 34
35.810001 -3.7309999 6.3200002 27
35.574001 -3.744 6.329 26
35.345001 -3.756 6.3379998 26
35.098 -3.767 6.3429999 26
34.882999 -3.779 6.3530002 26
34.666 -3.7920001 6.3610001 24
34.452999 -3.803 6.369 23
34.231998 -3.8150001 6.375 24
34.014 -3.826 6.3800001 25
33.805 -3.8380001 6.3870001 24
33.606998 -3.8499999 6.3940001 23
33.417999 -3.8640001 6.4029999 24
33.237999 -3.8770001 6.4120002 24
33.048 -3.8889999 6.4180002 22
32.855 -3.9000001 6.4229999 23
32.681999 -3.914 6.4310002 23
32.497002 -3.924 6.4359999 23
32.330002 -3.938 6.4439998 21
32.148998 -3.9489999 6.448 22
31.979 -3.961 6.454 21
31.792999 -3.9719999 6.4549999 21
31.629999 -3.984 6.461 23
31.466 -3.9960001 6.4650002 25
31.311001 -4.0079999 6.4710002 27
31.153999 -4.0190001 6.4759998 28
31.002001 -4.0320001 6.4819999 25
30.870001 -4.046 6.4899998 24
30.729 -4.059 6.4959998 23
30.566999 -4.0689998 6.4970002 24
30.419001 -4.0799999 6.5 25
30.287001 -4.0929999 6.506 25
29.024 -3.951 6.2680001 17
28.655001 -3.9300001 6.2199998 14
28.547001 -3.9449999 6.2280002 20
28.509001 -3.9679999 6.2509999 25
28.462999 -3.99 6.2709999 30
28.448 -4.0159998 6.2979999 32
28.403999 -4.039 6.3179998 33
28.371 -4.0619998 6.3400002 36
28.356001 -4.0879998 6.3660002 39
28.348 -4.1139998 6.3930001 41
28.327 -4.1389999 6.4169998 43
28.316 -4.1659999 6.4429998 45
28.306 -4.1919999 6.4679999 45
28.290001 -4.217 6.4920001 46
28.281 -4.243 6.5180001 46
28.245001 -4.2649999 6.5359998 45
28.207001 -4.2870002 6.5539999 42
28.17 -4.3080001 6.572 38
28.089001 -4.323 6.579 28
28 -4.336 6.5840001 32
27.906 -4.348 6.5869999 27
27.822001 -4.362 6.592 26
27.704 -4.3699999 6.5879998 27
27.634001 -4.3850002 6.5949998 25
27.521 -4.3930001 6.592 29
27.447001 -4.4070001 6.5970001 29
27.371 -4.4200001 6.6020002 24
27.282 -4.4320002 6.6030002 25
27.208 -4.4450002 6.6069999 26
27.105 -4.4530001 6.6040001 28
27.035 -4.4660001 6.6079998 23
26.958 -4.4780002 6.6100001 24
26.882999 -4.4899998 6.612 28
26.82 -4.5029998 6.6160002 31
26.754 -4.5159998 6.6199999 27
26.683001 -4.5279999 6.6220002 27
26.608 -4.539 6.6220002 32
26.542 -4.5510001 6.625 25
26.471001 -4.5619998 6.625 25
26.396 -4.572 6.6240001 24
26.323999 -4.5819998 6.6240001 28
26.264 -4.5949998 6.6259999 29
26.200001 -4.6059999 6.6269999 31
26.146999 -4.618 6.6300001 30
26.098 -4.6329999 6.6339998 32
26.049999 -4.645 6.6370001 32
25.993999 -4.6570001 6.6389999 32
25.952999 -4.6719999 6.6430001 33
25.91 -4.6859999 6.6469998 33
25.844 -4.6950002 6.645 30
25.785 -4.7049999 6.6440001 30
25.747999 -4.7189999 6.6490002 25
25.698 -4.7309999 6.6490002 25
25.645 -4.7410002 6.6479998 29
25.594 -4.7519999 6.6479998 30
25.563 -4.7659998 6.6529999 26
25.51 -4.776 6.651 26
25.462 -4.7870002 6.651 30
25.431999 -4.8010001 6.6539998 26
25.385 -4.8109999 6.6529999 31
25.354 -4.8249998 6.6550002 26
25.308001 -4.836 6.6539998 30
25.273001 -4.8470001 6.6550002 28
25.235001 -4.8579998 6.6550002 31
25.204 -4.8709998 6.6560001 31
25.164 -4.881 6.6550002 31
25.128 -4.8920002 6.6539998 26
25.091 -4.902 6.6529999 31
25.076 -4.9169998 6.658 30
25.031 -4.9260001 6.6539998 31
25.011 -4.9390001 6.6560001 31
24.989 -4.9510002 6.658 32
24.962999 -4.9629998 6.658 30
24.936001 -4.974 6.6570001 27
24.913 -4.9860001 6.658 31
24.893 -4.9980001 6.658 32
24.878 -5.0110002 6.6609998 33
24.849001 -5.0219998 6.658 31
24.837 -5.0349998 6.6599998 31
24.825001 -5.0469999 6.6620002 31
24.804001 -5.0580001 6.6609998 30
24.799999 -5.072 6.665 32
24.783001 -5.0840001 6.6630001 31
24.778 -5.0970001 6.6659999 27
24.764 -5.1090002 6.6659999 30
24.757 -5.1209998 6.6669998 31
24.746 -5.1329999 6.6669998 31
24.73 -5.145 6.665 30
24.712999 -5.1539998 6.6630001 31
24.726999 -5.171 6.6680002 27
0 0 0 1
20.594 -4.329 5.5560002 7
20.58 -4.336 5.553 16
20.559999 -4.3429999 5.5479999 20
20.530001 -4.3470001 5.54 18
20.49 -4.349 5.5300002 19
20.466 -4.3540001 5.5229998 21
20.448999 -4.3600001 5.5180001 21
20.438 -4.368 5.5139999 23
20.424999 -4.3740001 5.5089998 25
20.393999 -4.3769999 5.5 25
20.398001 -4.3870001 5.5 22
20.361 -4.388 5.4879999 27
20.371 -4.3990002 5.4889998 28
20.349001 -4.402 5.4809999 29
20.330999 -4.4070001 5.474 30
20.323 -4.414 5.4689999 31
20.306999 -4.4180002 5.4619999 29
20.294001 -4.4229999 5.4549999 32
20.296 -4.4310002 5.4520001 31
20.299999 -4.4390001 5.4499998 32
20.292999 -4.4450002 5.4439998 34
20.277 -4.4489999 5.4359999 31
20.264 -4.4530001 5.428 35
20.264999 -4.46 5.4239998 32
20.24 -4.461 5.4130001 34
20.236 -4.467 5.4060001 36
20.238001 -4.474 5.402 35
20.226999 -4.4770002 5.3930001 37
20.214001 -4.48 5.3839998 37
20.225 -4.4889998 5.381 38
20.226 -4.494 5.375 36
20.212999 -4.4970002 5.3649998 30
20.212999 -4.5019999 5.3590002 40
20.194 -4.5019999 5.3470001 37
20.194 -4.507 5.3400002 42
20.193001 -4.5120001 5.3319998 38
20.183001 -4.5139999 5.322 39
20.183001 -4.5180001 5.3150001 41
20.181 -4.5209999 5.3060002 41
20.184999 -4.526 5.2989998 41
20.183001 -4.5289998 5.29 43
20.177 -4.5320001 5.2789998 42
20.188 -4.5380001 5.2729998 32
20.162001 -4.5349998 5.2579999 41
20.174999 -4.5409999 5.2519999 42
20.16 -4.54 5.2379999 40
20.165001 -4.5440001 5.23 43
20.155001 -4.5440001 5.217 39
20.16 -4.5469999 5.2080002 40
20.146 -4.546 5.1939998 39
20.17 -4.553 5.1890001 32
20.149 -4.5500002 5.1729999 41
20.152 -4.552 5.1630001 40
20.15 -4.552 5.151 42
20.150999 -4.5539999 5.1399999 42
20.139999 -4.552 5.125 41
20.148001 -4.5549998 5.1149998 42
20.163 -4.559 5.1059999 41
20.157 -4.5570002 5.0929999 46
20.149 -4.5549998 5.0780001 44
20.165001 -4.559 5.0689998 34
20.158001 -4.5580001 5.0549998 47
20.149 -4.5549998 5.039 46
20.152 -4.5539999 5.026 46
20.163 -4.5560002 5.0149999 33
20.155001 -4.553 4.9990001 46
20.150999 -4.5510001 4.9840002 46
20.153 -4.5500002 4.9699998 45
20.16 -4.5500002 4.9580002 46
20.153 -4.546 4.941 43
20.157 -4.5450001 4.927 49
20.156 -4.5430002 4.9120002 44
20.181999 -4.546 4.9029999 35
20.162001 -4.539 4.882 46
20.163 -4.5359998 4.8670001 46
20.153 -4.5310001 4.849 44
20.158001 -4.5289998 4.8340001 45
20.158001 -4.526 4.8169999 44
20.166 -4.5240002 4.803 44
20.156 -4.5180001 4.7839999 43
20.173 -4.5180001 4.7709999 43
20.162001 -4.5110002 4.7519999 43
20.167 -4.5079999 4.7350001 42
20.177 -4.5050001 4.7199998 44
20.179001 -4.5009999 4.7030001 43
20.184999 -4.4970002 4.6869998 41
20.165001 -4.4879999 4.664 43
20.169001 -4.4829998 4.6469998 40
20.176001 -4.4790001 4.6300001 40
20.198 -4.4780002 4.6170001 41
20.181 -4.4679999 4.5939999 39
20.190001 -4.4640002 4.5770001 39
20.195999 -4.4590001 4.5599999 39
20.215 -4.4559999 4.5440001 41
20.205999 -4.447 4.5229998 39
20.225 -4.4439998 4.5079999 29
20.225 -4.4369998 4.487 37
20.239 -4.4330001 4.4699998 37
20.23 -4.4229999 4.4489999 35
20.247999 -4.4190001 4.4320002 27
20.249001 -4.4109998 4.4120002 33
20.273001 -4.408 4.3959999 34
20.275999 -4.4000001 4.3769999 34
20.278999 -4.3930001 4.3559999 26
20.298 -4.388 4.3390002 26
20.297001 -4.3790002 4.3169999 34
20.309999 -4.3720002 4.2979999 32
20.313 -4.3639998 4.277 31
20.313999 -4.3540001 4.2550001 27
20.334 -4.349 4.237 29
20.341999 -4.3400002 4.217 27
20.372999 -4.336 4.2020001 28
20.382 -4.3280001 4.1810002 25
20.405001 -4.323 4.1630001 24
20.429001 -4.3169999 4.1440001 22
20.443001 -4.309 4.125 21
20.459999 -4.3010001 4.105 18
20.492001 -4.296 4.0879998 16
20.540001 -4.2940001 4.0739999 11
20.580999 -4.29 4.0580001 4
0 0 0 23
32.556 -6.7490001 6.3439999 23
32.733002 -6.7659998 6.3400002 24
32.883999 -6.776 6.3299999 24
33.073002 -6.7940001 6.3270001 24
33.23 -6.8039999 6.3169999 24
33.412998 -6.8210001 6.3130002 24
33.592999 -6.836 6.3060002 25
33.759998 -6.8470001 6.2979999 25
33.914001 -6.855 6.2849998 25
34.130001 -6.875 6.283 26
34.318001 -6.8889999 6.276 26
34.507999 -6.9029999 6.2680001 26
34.707001 -6.9180002 6.2610002 26
34.904999 -6.9320002 6.2529998 27
35.092999 -6.9429998 6.243 27
35.301998 -6.9580002 6.2360001 27
35.501999 -6.9710002 6.2270002 28
35.695 -6.9809999 6.2150002 28
35.894001 -6.993 6.204 27
36.063 -6.9970002 6.1869998 23
36.212002 -6.9970002 6.1659999 21
36.379002 -6.9990001 6.1469998 16
36.519001 -6.9970002 6.1240001 9
36.648998 -6.993 6.098 4
36.801998 -6.9910002 6.0749998 3
36.783001 -6.9569998 6.0250001 3
36.693001 -6.9070001 5.9619999 2
0 0 0 0
0 0 0 0
0 0 0 0
0 0 0 7
36.438999 -6.7010002 5.6789999 21
36.425999 -6.664 5.6279998 20
36.451 -6.6350002 5.5830002 9
36.527 -6.6149998 5.546 3
0 0 0 0
0 0 0 0
0 0 0 0
0 0 0 0
0 0 0 0
0 0 0 3
36.487 -6.3639998 5.1939998 4
36.431 -6.3179998 5.1370001 5
36.452999 -6.2849998 5.0900002 4
36.310001 -6.2249999 5.0209999 2
0 0 0 0
0 0 0 0
0 0 0 0
0 0 0 8
28.374001 -4.7150002 3.727 17
28.323 -4.6760001 3.681 23
28.287001 -4.6399999 3.6370001 29
28.254 -4.6040001 3.5929999 31
28.236 -4.5700002 3.5510001 34
28.209999 -4.5349998 3.5079999 40
28.176001 -4.4970002 3.464 39
28.181 -4.4660001 3.425 41
28.167 -4.4320002 3.385 43
28.15 -4.3969998 3.3429999 47
28.146999 -4.3649998 3.303 49
28.132999 -4.3299999 3.2620001 44
28.134001 -4.2969999 3.2219999 56
28.141001 -4.2659998 3.184 60
28.136999 -4.2319999 3.1440001 60
28.129 -4.198 3.1029999 60
28.141001 -4.1659999 3.0639999 55
28.16 -4.1350002 3.026 54
28.174 -4.1030002 2.9890001 51
28.188999 -4.0700002 2.9489999 50
28.208 -4.0380001 2.911 47
28.219999 -4.0050001 2.8729999 47
28.252001 -3.974 2.836 43
28.27 -3.9400001 2.7980001 39
28.322001 -3.9130001 2.763 36
28.356001 -3.881 2.727 30
28.413 -3.8529999 2.6919999 26
28.459 -3.822 2.6559999 17
28.579 -3.8010001 2.6259999 3
0 0 0 0
0 0 0 4
0 0 0 0
0 0 0 0
0 0 0 0
0 0 0 7
36.223999 -4.4819999 2.971 18
36.191002 -4.428 2.9170001 39
36.169998 -4.3769999 2.865 62
36.158001 -4.3260002 2.813 72
36.116001 -4.2709999 2.7579999 89
36.125999 -4.2220001 2.7090001 93
36.123001 -4.171 2.658 71
36.105999 -4.119 2.6059999 94
36.110001 -4.0689998 2.556 88
36.091999 -4.0159998 2.5039999 90
36.094002 -3.9649999 2.4530001 89
36.091999 -3.9130001 2.404 87
36.084 -3.8599999 2.352 88
36.077999 -3.8069999 2.3010001 88
36.015999 -3.7479999 2.247 83
36.019001 -3.697 2.198 77
36.064999 -3.6489999 2.151 71
36.025002 -3.592 2.099 83
35.877998 -3.5239999 2.04 103
35.799 -3.4630001 1.9859999 68
36.014999 -3.4300001 1.948 33
36.044998 -3.3789999 1.9 58
36.028999 -3.323 1.849 105
36.07 -3.2720001 1.803 35
36.085999 -3.2190001 1.7539999 19
36.147999 -3.1689999 1.7079999 14
36.223999 -3.1210001 1.6619999 10
36.219002 -3.0650001 1.613 12
36.210999 -3.0090001 1.564 12
36.195999 -2.951 1.5140001 12
36.202999 -2.895 1.465 10
36.207001 -2.8380001 1.416 8
0 0 0 0
0 0 0 4
40.666 -2.9949999 1.427 7
41.155998 -2.9660001 1.388 5
41.654999 -2.9349999 1.35 9
42.064999 -2.8959999 1.307 5
43.507 -2.925 1.294 17
43.652 -2.8629999 1.239 55
43.946999 -2.813 1.191 49
44.381001 -2.7690001 1.1440001 4
44.882999 -2.727 1.098 8
46.514 -2.75 1.0779999 21
44.839001 -2.5769999 0.98100001 30
44.848 -2.5039999 0.92199999 32
44.862 -2.4300001 0.86400002 34
44.855999 -2.355 0.80599999 32
44.851002 -2.279 0.74800003 31
44.855 -2.204 0.69 23
44.855 -2.1300001 0.63300002 12
44.852001 -2.0539999 0.57599998 4
0 0 0 28
52.747002 -2.2379999 0.54400003 22
52.683998 -2.1459999 0.477 33
52.695999 -2.0569999 0.41100001 36
0 0 0 39
60.098999 -2.1400001 0.31799999 57
60.125 -2.0369999 0.243 115
60.148998 -1.933 0.168 99
60.208 -1.831 0.093999997 41
60.820999 -1.744 0.02 11
60.775002 -1.637 -0.052999999 19
0 0 0 133
68.165001 -1.599 -0.22499999 101
68.140999 -1.479 -0.30700001 73
68.257004 -1.363 -0.389 40
68.486 -1.2460001 -0.47299999 16
0 0 0 24
74.000999 -1.087 -0.68599999 58
74.486 -0.963 -0.778 22
0 0 0 0
0 0 0 28
94.588997 -0.71600002 -1.321 61
94.596001 -0.54699999 -1.431 49
94.482002 -0.37799999 -1.538 32
94.302002 -0.208 -1.643 16
0 0 0 0
0 0 0 14
94.132004 0.296 -1.9579999 17
94.308998 0.46700001 -2.0680001 24
94.316002 0.63700002 -2.1730001 50
94.292999 0.80800003 -2.277 63
94.264 0.97799999 -2.3800001 100
94.278999 1.149 -2.484 150
94.251999 1.318 -2.585 152
94.237 1.487 -2.6849999 154
94.226997 1.656 -2.7850001 166
94.223999 1.832 -2.888 153
94.237999 2.0020001 -2.9879999 143
94.238998 2.175 -3.0880001 93
94.238998 2.3469999 -3.187 67
94.244003 2.5150001 -3.2820001 80
94.231003 2.688 -3.3800001 82
0 0 0 37
0 0 0 76
0 0 0 0
0 0 0 22
0 0 0 0
0 0 0 0
0 0 0 0
0 0 0 0
0 0 0 0
0 0 0 0
0 0 0 0
0 0 0 0
0 0 0 0
0 0 0 0
0 0 0 0
0 0 0 0
0 0 0 0
0 0 0 5
0 0 0 0
0 0 0 2
0 0 0 0
0 0 0 1
18.747 1.33 -1.084 2
18.361 1.337 -1.077 2
17.677 1.3200001 -1.052 2
17.268999 1.321 -1.043 2
16.936001 1.3279999 -1.0369999 2
16.488001 1.323 -1.024 3
16.075001 1.319 -1.011 3
15.688 1.317 -1 3
15.278 1.3099999 -0.986 2
14.983 1.313 -0.97899997 2
14.692 1.3150001 -0.972 2
14.371 1.312 -0.96200001 2
14.077 1.311 -0.954 3
13.804 1.311 -0.94599998 3
13.565 1.314 -0.94 3
13.283 1.311 -0.93099999 3
12.942 1.301 -0.917 3
12.619 1.2920001 -0.903 4
12.38 1.29 -0.89600003 7
12.157 1.289 -0.88800001 12
11.99 1.293 -0.88499999 12
11.861 1.301 -0.884 15
11.719 1.307 -0.88200003 17
11.579 1.312 -0.87900001 17
11.421 1.3150001 -0.875 17
11.23 1.314 -0.86900002 22
11.002 1.307 -0.85900003 8
10.809 1.304 -0.85100001 4
10.689 1.309 -0.84899998 6
10.564 1.313 -0.84600002 8
10.458 1.319 -0.84399998 7
10.38 1.3279999 -0.84500003 8
10.274 1.3329999 -0.84299999 6
10.094 1.3279999 -0.83399999 4
9.8780003 1.317 -0.82300001 3
9.6920004 1.3099999 -0.81300002 3
9.5570002 1.309 -0.80800003 3
9.4040003 1.304 -0.80000001 4
9.3100004 1.308 -0.79799998 3
9.1520004 1.302 -0.79000002 3
9.04 1.302 -0.78500003 3
8.9630003 1.307 -0.78399998 5
8.8280001 1.303 -0.77700001 5
8.7290001 1.304 -0.773 5
8.6029997 1.3 -0.76700002 9
8.5290003 1.304 -0.76499999 11
8.4650002 1.309 -0.764 9
8.3439999 1.3049999 -0.75700003 10
8.342 1.319 -0.76099998 9
8.2819996 1.324 -0.75999999 7
8.2069998 1.326 -0.75700003 6
8.073 1.319 -0.74900001 4
7.9780002 1.317 -0.74400002 5
7.9000001 1.318 -0.741 4
7.8239999 1.318 -0.73699999 4
7.7449999 1.319 -0.73400003 4
7.7069998 1.325 -0.73400003 4
7.6139998 1.322 -0.72799999 4
7.5640001 1.326 -0.727 4
7.5949998 1.345 -0.73299998 7
7.5630002 1.352 -0.73299998 10
7.4369998 1.342 -0.72399998 4
7.3699999 1.342 -0.72100002 3
7.309 1.3430001 -0.71799999 3
7.2610002 1.346 -0.71600002 3
7.2069998 1.348 -0.71399999 3
7.177 1.354 -0.71399999 3
7.131 1.357 -0.71200001 3
7.0869999 1.36 -0.70999998 3
7.0320001 1.3609999 -0.70700002 3
7.013 1.369 -0.708 3
6.9699998 1.372 -0.70599997 3
6.9390001 1.377 -0.70499998 3
6.908 1.382 -0.704 3
6.8720002 1.386 -0.70300001 2
6.8119998 1.385 -0.699 3
6.7989998 1.392 -0.69999999 3
6.7779999 1.399 -0.699 2
6.7449999 1.403 -0.69800001 3
6.7129998 1.406 -0.69700003 3
6.658 1.405 -0.69300002 3
6.6290002 1.41 -0.69199997 4
6.6240001 1.419 -0.69300002 4
6.5960002 1.423 -0.69199997 3
6.5679998 1.426 -0.69099998 3
6.5430002 1.431 -0.69 3
6.5190001 1.436 -0.68900001 3
6.4850001 1.438 -0.68699998 3
6.4780002 1.446 -0.68800002 3
6.4499998 1.449 -0.68599999 3
6.427 1.454 -0.685 3
6.4099998 1.459 -0.685 3
6.3969998 1.466 -0.685 3
6.375 1.47 -0.68400002 3
6.3569999 1.475 -0.68300003 3
6.342 1.48 -0.68300003 3
6.3210001 1.484 -0.68099999 4
6.3039999 1.489 -0.68099999 3
6.289 1.495 -0.68000001 3
6.27 1.499 -0.67900002 3
6.27 1.508 -0.68000001 3
6.2509999 1.512 -0.67900002 3
6.2319999 1.516 -0.67799997 3
6.2319999 1.524 -0.67900002 3
6.2020001 1.525 -0.676 3
6.2080002 1.535 -0.67799997 3
6.2090001 1.543 -0.67900002 3
6.1750002 1.543 -0.67500001 3
6.1570001 1.5470001 -0.67400002 3
6.1479998 1.552 -0.67400002 3
6.1370001 1.558 -0.67299998 4
6.145 1.568 -0.67500001 3
6.1339998 1.573 -0.67400002 3
6.1240001 1.5779999 -0.67299998 3
6.1139998 1.5829999 -0.67199999 3
6.1079998 1.589 -0.67199999 3
6.1160002 1.599 -0.67299998 3
6.1079998 1.604 -0.67299998 3
6.085 1.605 -0.67000002 3
6.0949998 1.6160001 -0.67199999 3
6.0929999 1.622 -0.67199999 3
6.0780001 1.626 -0.67000002 3
6.0890002 1.636 -0.671 3
6.0689998 1.637 -0.66900003 3
6.0819998 1.648 -0.671 3
6.0869999 1.656 -0.671 3
6.0900002 1.664 -0.671 3
6.072 1.666 -0.66900003 3
6.072 1.6720001 -0.66900003 3
6.079 1.681 -0.67000002 3
6.072 1.686 -0.66900003 3
6.0739999 1.693 -0.66900003 3
6.0809999 1.701 -0.66900003 3
6.072 1.705 -0.66799998 3
6.0739999 1.712 -0.66799998 3
6.086 1.722 -0.66900003 3
6.1009998 1.732 -0.67000002 3
6.0830002 1.733 -0.66799998 3
6.098 1.743 -0.66900003 3
6.0949998 1.749 -0.66799998 4
6.1020002 1.757 -0.66799998 4
6.1240001 1.7690001 -0.67000002 3
6.138 1.778 -0.671 3
6.1300001 1.7819999 -0.67000002 3
6.131 1.788 -0.66900003 3
6.1560001 1.801 -0.671 3
6.1669998 1.809 -0.67199999 3
6.1599998 1.813 -0.67000002 3
6.1750002 1.823 -0.671 4
6.177 1.8279999 -0.67000002 4
6.1729999 1.8329999 -0.66900003 4
6.184 1.841 -0.66900003 3
6.2150002 1.855 -0.671 4
6.223 1.863 -0.671 4
6.2280002 1.869 -0.671 4
6.257 1.883 -0.67299998 4
6.2540002 1.887 -0.671 4
6.2659998 1.895 -0.671 4
6.2919998 1.908 -0.67299998 4
6.2940001 1.913 -0.67199999 4
6.3130002 1.923 -0.67299998 4
6.3260002 1.932 -0.67299998 4
6.348 1.943 -0.67400002 4
6.388 1.96 -0.67699999 4
6.3769999 1.96 -0.67500001 4
6.4050002 1.974 -0.676 4
6.4289999 1.985 -0.67699999 3
6.454 1.997 -0.67799997 4
6.4809999 2.0090001 -0.68000001 4
6.5040002 2.02 -0.68000001 4
6.5300002 2.0320001 -0.68099999 4
6.573 2.05 -0.68400002 5
6.6040001 2.063 -0.68599999 6
6.6420002 2.0780001 -0.68800002 7
6.664 2.089 -0.68900001 8
6.6810002 2.098 -0.68900001 9
6.6929998 2.105 -0.68800002 10
6.71 2.1129999 -0.68800002 10
6.7340002 2.1240001 -0.68900001 10
6.7459998 2.131 -0.68800002 11
6.7550001 2.1370001 -0.68699998 11
6.7649999 2.1429999 -0.68599999 11
6.7750001 2.1489999 -0.685 11
6.7930002 2.158 -0.685 11
6.8150001 2.168 -0.685 11
6.8400002 2.178 -0.685 11
6.868 2.1900001 -0.685 11
6.8990002 2.2019999 -0.68599999 12
6.9239998 2.2130001 -0.68699998 12
6.9400001 2.22 -0.68599999 12
6.9770002 2.234 -0.68699998 12
7.0209999 2.2509999 -0.68900001 12
7.0570002 2.2639999 -0.69099998 12
7.0949998 2.2780001 -0.69199997 12
7.1389999 2.2939999 -0.69400001 11
7.1830001 2.3099999 -0.69499999 10
7.23 2.3269999 -0.69700003 10
7.2779999 2.3440001 -0.699 6
7.3319998 2.3629999 -0.70200002 8
7.3850002 2.382 -0.704 6
7.4200001 2.3940001 -0.70499998 6
7.4689999 2.411 -0.70700002 7
7.5190001 2.4289999 -0.708 7
7.5669999 2.4449999 -0.70999998 7
7.6139998 2.461 -0.71200001 8
7.6700001 2.48 -0.71399999 8
7.7119999 2.4949999 -0.71499997 8
7.789 2.52 -0.71899998 6
7.8109999 2.5280001 -0.71799999 6
7.8829999 2.5510001 -0.72100002 6
7.9219999 2.5639999 -0.72100002 8
7.9759998 2.582 -0.72299999 7
8.0139999 2.5940001 -0.72299999 7
8.0959997 2.6210001 -0.727 6
8.1309996 2.632 -0.727 6
8.1969995 2.6530001 -0.72899997 4
8.257 2.6719999 -0.73100001 6
8.3120003 2.6900001 -0.73299998 5
8.4029999 2.7179999 -0.73699999 6
8.4989996 2.7490001 -0.74199998 7
8.5740004 2.7720001 -0.74400002 6
8.6350002 2.7909999 -0.74599999 6
8.6739998 2.802 -0.745 10
8.7550001 2.8269999 -0.74800003 8
8.8290005 2.849 -0.75099999 7
8.9090004 2.8740001 -0.75400001 7
9.0190001 2.908 -0.759 9
9.092 2.9289999 -0.76099998 8
9.1429996 2.944 -0.76099998 7
9.1820002 2.954 -0.75999999 10
9.2480001 2.973 -0.76099998 9
9.3430004 3.0009999 -0.76499999 8
9.4320002 3.027 -0.76700002 7
9.5389996 3.059 -0.77200001 5
9.6499996 3.092 -0.77600002 4
9.7370005 3.1170001 -0.778 3
9.8120003 3.1370001 -0.77999997 4
9.9519997 3.1789999 -0.78600001 4
10.104 3.224 -0.79299998 5
10.237 3.2620001 -0.79900002 6
10.377 3.303 -0.80400002 5
10.492 3.335 -0.80800003 4
10.592 3.3629999 -0.81 5
10.694 3.391 -0.81300002 6
10.789 3.4159999 -0.815 6
10.879 3.4389999 -0.81599998 5
10.968 3.4619999 -0.81699997 5
11.046 3.4809999 -0.81800002 5
11.13 3.5020001 -0.81800002 5
11.235 3.53 -0.82099998 6
11.332 3.5539999 -0.82200003 5
11.411 3.573 -0.82099998 5
11.481 3.5880001 -0.82099998 6
11.573 3.6110001 -0.82099998 5
11.624 3.6199999 -0.81900001 5
11.671 3.628 -0.81599998 8
11.697 3.628 -0.81099999 8
11.712 3.6259999 -0.80699998 8
11.696 3.6140001 -0.79900002 6
11.67 3.598 -0.792 5
11.643 3.582 -0.78399998 5
11.64 3.573 -0.778 4
11.627 3.5610001 -0.77100003 4
11.618 3.55 -0.764 4
11.622 3.543 -0.75800002 4
11.622 3.5350001 -0.75199997 4
11.618 3.5250001 -0.745 4
11.627 3.5190001 -0.74000001 4
11.588 3.4979999 -0.73100001 3
0 0 0 0
0 0 0 1
10.135 3.0350001 -0.62300003 1
10.096 3.0150001 -0.616 1
10.129 3.016 -0.61199999 3
10.139 3.0109999 -0.60699999 4
10.087 2.9860001 -0.59899998 4
10.128 2.99 -0.59600002 5
10.16 2.99 -0.59200001 3
10.151 2.9790001 -0.58600003 5
10.144 2.967 -0.58099997 5
10.141 2.957 -0.57499999 5
10.139 2.947 -0.56900001 6
10.144 2.9389999 -0.56400001 7
10.147 2.9300001 -0.55900002 7
10.152 2.921 -0.55400002 7
10.14 2.908 -0.54799998 6
10.163 2.904 -0.54299998 6
10.17 2.8959999 -0.53899997 5
10.18 2.888 -0.53399998 5
10.191 2.881 -0.52899998 5
10.199 2.872 -0.52399999 4
10.218 2.8670001 -0.51899999 3
10.245 2.8629999 -0.51499999 3
10.252 2.8540001 -0.50999999 2
10.262 2.846 -0.505 2
10.281 2.839 -0.5 2
10.302 2.8340001 -0.49599999 1
10.317 2.826 -0.491 1
10.346 2.822 -0.48699999 2
10.419 2.829 -0.48500001 22
10.407 2.8139999 -0.479 19
10.43 2.8080001 -0.47499999 9
10.408 2.79 -0.46799999 3
10.421 2.7809999 -0.463 5
10.411 2.7650001 -0.458 4
10.419 2.7550001 -0.45199999 5
10.423 2.743 -0.447 18
10.421 2.7290001 -0.442 26
10.614 2.766 -0.44499999 6
10.834 2.8099999 -0.44800001 4
10.863 2.803 -0.44400001 2
10.938 2.8080001 -0.44100001 2
10.844 2.77 -0.43200001 2
10.815 2.7479999 -0.42500001 2
10.866 2.747 -0.42199999 2
10.921 2.7460001 -0.41800001 2
10.969 2.743 -0.41499999 2
10.955 2.724 -0.40900001 2
10.875 2.6889999 -0.40000001 3
10.728 2.638 -0.389 108
10.762 2.631 -0.38600001 150
10.861 2.6400001 -0.384 150
10.935 2.6429999 -0.38100001 151
11.028 2.6489999 -0.37900001 150
11.116 2.654 -0.37599999 150
11.171 2.651 -0.373 4
0 0 0 5
12.744 2.987 -0.41299999 5
12.761 2.9719999 -0.40799999 4
12.778 2.957 -0.40200001 5
12.815 2.9460001 -0.39700001 4
12.847 2.934 -0.39199999 4
12.898 2.9260001 -0.38800001 2
12.949 2.918 -0.38299999 1
13.057 2.9219999 -0.38100001 1
13.218 2.937 -0.37900001 2
13.225 2.918 -0.37400001 37
13.389 2.9330001 -0.37200001 7
13.455 2.9260001 -0.368 9
0 0 0 0
0 0 0 6
32.640999 6.9419999 -0.85000002 5
32.612999 6.8829999 -0.83499998 5
32.626999 6.8330002 -0.82200003 4
32.625999 6.7789998 -0.80800003 5
32.633999 6.7280002 -0.79500002 5
32.636002 6.6739998 -0.78100002 5
32.662998 6.625 -0.76800001 4
32.641998 6.566 -0.75400001 4
32.598 6.5029998 -0.74000001 2
32.596001 6.447 -0.727 25
32.659 6.4050002 -0.71600002 3
32.589001 6.336 -0.70200002 3
32.625999 6.2859998 -0.68900001 3
32.637001 6.2319999 -0.67699999 2
32.638 6.1760001 -0.66500002 3
32.645 6.1199999 -0.65200001 2
32.780998 6.0879998 -0.64300001 2
32.673 6.0110002 -0.62800002 2
32.696999 5.9569998 -0.61699998 2
32.657001 5.8920002 -0.60399997 3
32.66 5.835 -0.59299999 6
32.719002 5.7870002 -0.583 2
32.745998 5.7329998 -0.57200003 2
32.702999 5.6680002 -0.56 1
0 0 0 0
0 0 0 0
0 0 0 0
0 0 0 0
0 0 0 0
0 0 0 8
0 0 0 0
0 0 0 0
0 0 0 0
0 0 0 18
44.355999 6.7880001 -0.60699999 111
44.294998 6.6950002 -0.59399998 156
44.278 6.6079998 -0.58099997 151
44.368 6.5380001 -0.57099998 15
0 0 0 0
0 0 0 0
0 0 0 17
0 0 0 0
0 0 0 0
0 0 0 0
0 0 0 0
0 0 0 0
0 0 0 0
0 0 0 0
0 0 0 0
0 0 0 22
117.864 14.395 -1.161 26
118.019 14.18 -1.14 23
0 0 0 31
0 0 0 0
0 0 0 0
0 0 0 0
0 0 0 97
0 0 0 0
0 0 0 0
0 0 0 0
0 0 0 0
0 0 0 2
0 0 0 0
0 0 0 0
0 0 0 0
0 0 0 0
0 0 0 0
0 0 0 0
0 0 0 0
0 0 0 0
0 0 0 0
0 0 0 0
0 0 0 0
0 0 0 0
0 0 0 0
0 0 0 0
0 0 0 0
0 0 0 0
0 0 0 0
0 0 0 0
0 0 0 28
0 0 0 18
0 0 0 37
118.439 6.474 -0.81099999 49
0 0 0 0
0 0 0 51
0 0 0 0
0 0 0 104
134.438 5.934 -0.94400001 121
134.45799 5.6539998 -0.95200002 95
134.47099 5.3699999 -0.95999998 86
134.511 5.086 -0.96899998 85
134.552 4.802 -0.98000002 92
0 0 0 0
0 0 0 63
0 0 0 32
0 0 0 102
134.662 3.375 -1.046 88
134.694 3.089 -1.062 94
134.688 2.802 -1.079 87
134.698 2.5150001 -1.097 78
134.726 2.2249999 -1.1160001 96
134.74899 1.938 -1.136 81
134.76199 1.655 -1.1569999 83
134.85699 1.368 -1.179 91
134.86 1.081 -1.202 81
134.821 0.79299998 -1.225 78
134.869 0.505 -1.25 75
134.90199 0.22499999 -1.275 89
134.95 -0.066 -1.302 84
134.94901 -0.34999999 -1.329 83
135.009 -0.63800001 -1.358 79
0 0 0 18
0 0 0 0
0 0 0 0
0 0 0 31
73.524002 -1.1289999 -0.824 76
0 0 0 27
68.157997 -1.335 -0.79799998 64
68.126999 -1.484 -0.81599998 75
68.107002 -1.628 -0.83399999 150
68.132004 -1.772 -0.85299999 122
0 0 0 16
60.077999 -1.818 -0.787 99
60.069 -1.9450001 -0.80500001 117
0 0 0 12
45.971001 -1.683 -0.64499998 19
0 0 0 6
0 0 0 15
45.344002 -1.948 -0.68000001 25
45.275002 -2.0409999 -0.69499999 38
44.922001 -2.1199999 -0.70499998 15
45.48 -2.2420001 -0.73000002 19
44.880001 -2.306 -0.736 31
44.118999 -2.3599999 -0.74000001 40
43.737 -2.431 -0.75 51
43.584 -2.513 -0.76300001 41
43.860001 -2.6210001 -0.78500003 33
43.810001 -2.71 -0.801 39
43.835999 -2.803 -0.81900001 97
43.876999 -2.898 -0.838 87
43.882 -2.9890001 -0.85600001 96
0 0 0 4
40.431 -2.9219999 -0.82300001 5
39.834999 -2.9619999 -0.82800001 21
0 0 0 2
0 0 0 0
0 0 0 0
0 0 0 0
0 0 0 1
21.341 -1.851 -0.50099999 1
20.99 -1.863 -0.50300002 1
20.9 -1.898 -0.51099998 3
20.844999 -1.936 -0.51999998 6
20.368 -1.934 -0.51800001 1
0 0 0 0
0 0 0 25
0 0 0 1
20.065001 -2.0680001 -0.551 2
20.044001 -2.1059999 -0.56099999 2
19.864 -2.128 -0.56599998 1
19.848 -2.165 -0.57599998 1
19.84 -2.204 -0.58700001 1
19.816 -2.2409999 -0.597 2
19.778 -2.2750001 -0.60600001 3
19.729 -2.309 -0.616 3
19.724001 -2.348 -0.62699997 4
19.68 -2.382 -0.63599998 4
19.687 -2.4219999 -0.648 5
19.684 -2.46 -0.65899998 6
19.707001 -2.5020001 -0.67199999 3
19.671 -2.536 -0.68199998 16
19.66 -2.573 -0.69300002 115
19.658001 -2.6110001 -0.70499998 11
19.650999 -2.648 -0.71700001 166
19.65 -2.6860001 -0.72799999 164
19.656 -2.7249999 -0.74000001 161
19.646 -2.7620001 -0.75300002 160
19.688 -2.8050001 -0.76599997 159
19.625999 -2.8340001 -0.77600002 154
19.608 -2.868 -0.787 150
19.632999 -2.9089999 -0.801 69
19.799999 -2.9719999 -0.81999999 10
19.827 -3.013 -0.83399999 8
19.846001 -3.0539999 -0.84799999 9
19.882999 -3.0969999 -0.86299998 8
19.895 -3.1359999 -0.87599999 10
19.799 -3.158 -0.88499999 3
19.823999 -3.1989999 -0.89999998 2
19.872999 -3.244 -0.91500002 2
19.913 -3.2869999 -0.93099999 2
19.937 -3.3280001 -0.94499999 2
20.048 -3.3829999 -0.96399999 2
20.177 -3.441 -0.98400003 6
20.216 -3.4849999 -1 4
20.212 -3.5209999 -1.0140001 4
20.261 -3.566 -1.03 4
20.249001 -3.6010001 -1.044 4
20.612 -3.7019999 -1.077 5
21.384001 -3.8789999 -1.133 31
22.462999 -4.1139998 -1.206 49
22.475 -4.1560001 -1.223 49
22.450001 -4.191 -1.238 49
22.455999 -4.2309999 -1.2539999 47
22.469 -4.2729998 -1.271 58
22.469999 -4.3119998 -1.2869999 52
22.504 -4.3569999 -1.306 11
22.597 -4.414 -1.3279999 2
0 0 0 1
20.421 -4.0580001 -1.23 1
19.962999 -4.0009999 -1.217 1
19.459 -3.9330001 -1.201 2
0 0 0 0
0 0 0 0
0 0 0 1
17.388 -3.6300001 -1.125 1
17.115999 -3.6010001 -1.1210001 2
16.753 -3.552 -1.11 2
17.247 -3.6849999 -1.156 2
0 0 0 0
0 0 0 2
15.857 -3.464 -1.099 2
15.481 -3.4070001 -1.085 2
15.103 -3.3469999 -1.0700001 2
14.858 -3.316 -1.064 2
14.542 -3.2690001 -1.053 2
14.282 -3.2320001 -1.045 2
14.014 -3.1930001 -1.036 3
13.764 -3.1570001 -1.028 3
13.492 -3.115 -1.0190001 3
13.251 -3.0799999 -1.011 3
12.943 -3.027 -0.99699998 3
12.743 -3 -0.99199998 3
12.493 -2.9590001 -0.98299998 3
12.301 -2.9319999 -0.977 3
12.08 -2.8970001 -0.96899998 3
11.84 -2.8570001 -0.95899999 2
11.653 -2.8280001 -0.95300001 2
11.441 -2.793 -0.94499999 2
11.211 -2.753 -0.93400002 2
10.988 -2.714 -0.92500001 2
10.78 -2.678 -0.91600001 2
10.593 -2.6459999 -0.90799999 3
10.429 -2.619 -0.90200001 3
10.279 -2.596 -0.898 3
10.124 -2.5699999 -0.89200002 4
9.9860001 -2.549 -0.88800001 4
9.8660002 -2.5309999 -0.88499999 5
9.7259998 -2.5079999 -0.88 8
9.5979996 -2.4879999 -0.87599999 13
9.5249996 -2.4820001 -0.87699997 9
9.4200001 -2.4660001 -0.875 7
9.2770004 -2.441 -0.86900002 6
9.1409998 -2.4170001 -0.86299998 6
8.9879999 -2.3870001 -0.85600001 6
8.8299999 -2.3559999 -0.84799999 5
8.698 -2.332 -0.84200001 4
8.5710001 -2.3080001 -0.83700001 4
8.4619999 -2.289 -0.833 4
8.3520002 -2.27 -0.82800001 4
8.2200003 -2.244 -0.82200003 5
8.1239996 -2.227 -0.81900001 4
8.0170002 -2.207 -0.81400001 4
7.9099998 -2.187 -0.80900002 5
7.7880001 -2.1619999 -0.80299997 5
7.7059999 -2.148 -0.80000001 5
7.6030002 -2.128 -0.796 4
7.527 -2.115 -0.79400003 3
7.4260001 -2.095 -0.78899997 5
7.342 -2.079 -0.78600001 3
7.2550001 -2.062 -0.78200001 3
7.177 -2.0480001 -0.77899998 3
7.098 -2.033 -0.77600002 4
7.0380001 -2.023 -0.77499998 2
6.928 -1.998 -0.76800001 3
6.8530002 -1.984 -0.76499999 3
6.789 -1.972 -0.76300001 3
6.711 -1.956 -0.75999999 4
6.652 -1.9450001 -0.75800002 3
6.5700002 -1.928 -0.75300002 3
6.493 -1.9119999 -0.75 4
6.4250002 -1.897 -0.74699998 3
6.3759999 -1.8890001 -0.74599999 4
6.2969999 -1.872 -0.741 3
6.2509999 -1.863 -0.74000001 3
6.1830001 -1.849 -0.73699999 4
6.1240001 -1.837 -0.73400003 4
6.0599999 -1.823 -0.73100001 3
6.0219998 -1.816 -0.73100001 4
5.9689999 -1.8049999 -0.72899997 3
5.9089999 -1.7920001 -0.72600001 3
5.8439999 -1.778 -0.722 3
5.8239999 -1.776 -0.72399998 3
5.7639999 -1.762 -0.72100002 3
5.7069998 -1.749 -0.71799999 3
5.665 -1.7410001 -0.71600002 3
5.6030002 -1.726 -0.713 2
5.5580001 -1.716 -0.71100003 2
5.513 -1.706 -0.70899999 3
5.4710002 -1.697 -0.70700002 3
5.428 -1.688 -0.70599997 3
5.3930001 -1.681 -0.70499998 3
5.3520002 -1.6720001 -0.70300001 3
5.3039999 -1.66 -0.70099998 3
5.2639999 -1.651 -0.699 3
5.244 -1.648 -0.69999999 3
5.1960001 -1.636 -0.69700003 3
5.1589999 -1.628 -0.69499999 3
5.1269999 -1.6210001 -0.69400001 3
5.0900002 -1.612 -0.69300002 3
5.0560002 -1.604 -0.69199997 3
5.0079999 -1.592 -0.68800002 5
4.987 -1.5880001 -0.68900001 3
4.96 -1.582 -0.68800002 3
4.9229999 -1.573 -0.68599999 3
4.8860002 -1.563 -0.68400002 3
4.8569999 -1.557 -0.68300003 2
4.823 -1.548 -0.68199998 2
4.7859998 -1.539 -0.67900002 5
4.757 -1.531 -0.67799997 3
4.7340002 -1.526 -0.67799997 3
4.7189999 -1.523 -0.67900002 3
4.6729999 -1.51 -0.67500001 3
4.6490002 -1.5039999 -0.67400002 3
4.625 -1.498 -0.67299998 3
4.5910001 -1.489 -0.671 3
4.572 -1.485 -0.671 3
4.5489998 -1.479 -0.67000002 3
4.5240002 -1.472 -0.66900003 3
4.5029998 -1.467 -0.66900003 3
4.4819999 -1.461 -0.66799998 3
4.4629998 -1.456 -0.66799998 3
4.434 -1.448 -0.66600001 3
4.4099998 -1.442 -0.66500002 2
4.3909998 -1.436 -0.66399997 3
4.3649998 -1.429 -0.66299999 4
4.3509998 -1.425 -0.66299999 2
4.3319998 -1.42 -0.662 3
4.309 -1.413 -0.66100001 2
4.2839999 -1.406 -0.65899998 3
4.276 -1.404 -0.66000003 3
4.2509999 -1.396 -0.65899998 3
4.2399998 -1.393 -0.65899998 2
4.2080002 -1.3839999 -0.65600002 2
4.197 -1.38 -0.65700001 2
4.1849999 -1.377 -0.65700001 2
4.1609998 -1.369 -0.65499997 3
4.1500001 -1.3660001 -0.65499997 2
4.1560001 -1.368 -0.65799999 2
4.1139998 -1.355 -0.653 4
4.0939999 -1.348 -0.65200001 2
4.1339998 -1.3609999 -0.66000003 4
4.0560002 -1.336 -0.64999998 2
4.0370002 -1.329 -0.648 2
4.0170002 -1.323 -0.64700001 2
3.9960001 -1.316 -0.64499998 2
4.0120001 -1.321 -0.64899999 2
3.9760001 -1.309 -0.64499998 2
3.9990001 -1.316 -0.65100002 2
3.997 -1.3150001 -0.65200001 2
4.052 -1.3329999 -0.662 4
3.9460001 -1.2970001 -0.64700001 2
3.921 -1.289 -0.64399999 2
3.9089999 -1.284 -0.64300001 2
3.882 -1.274 -0.63999999 2
4.0019999 -1.313 -0.662 4
3.8789999 -1.272 -0.64300001 2
3.835 -1.257 -0.63700002 2
3.8870001 -1.273 -0.64700001 2
3.835 -1.255 -0.639 2
3.8239999 -1.251 -0.639 2
3.8369999 -1.2539999 -0.64200002 2
3.8410001 -1.255 -0.64399999 3
3.7880001 -1.2359999 -0.63599998 2
3.816 -1.244 -0.64200002 2
3.77 -1.228 -0.63499999 2
3.777 -1.229 -0.63800001 2
3.7850001 -1.2309999 -0.63999999 2
3.7590001 -1.221 -0.63700002 2
3.7950001 -1.2309999 -0.64399999 3
3.773 -1.223 -0.64099997 2
3.7679999 -1.22 -0.64099997 2
3.7620001 -1.216 -0.64099997 2
3.75 -1.211 -0.63999999 3
3.7460001 -1.2079999 -0.63999999 3
3.7360001 -1.2029999 -0.639 3
3.7190001 -1.196 -0.63700002 3
3.7279999 -1.197 -0.639 2
3.655 -1.1720001 -0.62800002 1
3.6689999 -1.175 -0.63099998 3
3.734 -1.194 -0.64300001 3
3.6630001 -1.169 -0.63099998 1
3.6949999 -1.177 -0.63700002 3
3.651 -1.1619999 -0.63 1
3.6960001 -1.174 -0.639 3
3.7390001 -1.1849999 -0.64700001 3
3.697 -1.17 -0.63999999 3
3.6689999 -1.159 -0.63599998 3
3.7820001 -1.192 -0.65499997 3
3.697 -1.163 -0.64099997 3
3.6719999 -1.153 -0.63700002 3
3.6400001 -1.141 -0.63200003 3
3.6730001 -1.149 -0.63800001 3
3.632 -1.133 -0.63099998 3
3.6329999 -1.131 -0.63200003 1
3.6819999 -1.1440001 -0.64099997 3
3.6619999 -1.135 -0.63700002 3
3.641 -1.126 -0.634 3
3.608 -1.114 -0.62900001 3
3.6589999 -1.127 -0.63800001 3
3.6400001 -1.118 -0.634 3
3.6110001 -1.1059999 -0.62900001 3
3.6440001 -1.114 -0.63499999 3
3.6270001 -1.1059999 -0.63200003 3
3.6459999 -1.108 -0.63599998 3
3.6470001 -1.1059999 -0.63599998 3
3.6070001 -1.091 -0.62900001 1
3.6340001 -1.096 -0.63300002 3
3.635 -1.0930001 -0.634 3
3.6210001 -1.086 -0.63099998 2
3.6329999 -1.086 -0.63300002 3
3.599 -1.073 -0.62699997 1
3.608 -1.073 -0.62800002 3
3.651 -1.082 -0.63499999 3
3.6570001 -1.081 -0.63599998 3
3.6110001 -1.064 -0.62800002 2
3.612 -1.061 -0.62800002 2
3.6240001 -1.061 -0.63 2
3.635 -1.061 -0.63099998 3
3.661 -1.0650001 -0.63499999 2
3.6600001 -1.061 -0.63499999 3
3.632 -1.049 -0.62900001 3
3.6789999 -1.059 -0.63700002 2
3.6570001 -1.049 -0.63200003 1
3.727 -1.0650001 -0.64399999 3
3.727 -1.062 -0.64300001 3
3.668 -1.041 -0.63300002 3
3.648 -1.031 -0.62800002 1
3.671 -1.034 -0.63200003 2
3.74 -1.05 -0.64300001 3
3.6919999 -1.0319999 -0.634 3
3.7279999 -1.038 -0.639 3
3.783 -1.049 -0.648 3
3.75 -1.036 -0.64099997 3
3.6860001 -1.0140001 -0.63 3
3.756 -1.029 -0.64099997 3
3.7409999 -1.021 -0.63700002 3
3.72 -1.011 -0.63300002 1
3.7839999 -1.024 -0.64300001 3
3.825 -1.031 -0.648 3
3.707 -0.995 -0.62699997 1
3.723 -0.99400002 -0.62900001 1
3.8340001 -1.0190001 -0.64700001 3
3.747 -0.99199998 -0.63099998 2
3.7780001 -0.99599999 -0.63499999 3
3.8210001 -1.002 -0.64099997 3
3.858 -1.007 -0.64600003 3
3.7920001 -0.98500001 -0.63300002 2
3.8440001 -0.99400002 -0.64099997 3
3.8210001 -0.98299998 -0.63599998 3
3.813 -0.97600001 -0.63300002 2
3.8699999 -0.986 -0.64099997 3
3.8540001 -0.977 -0.63700002 2
3.8740001 -0.977 -0.63800001 2
3.905 -0.98000002 -0.64200002 2
3.8870001 -0.97000003 -0.63700002 2
3.9059999 -0.97000003 -0.639 2
3.8840001 -0.95899999 -0.634 2
3.9790001 -0.977 -0.64700001 2
3.9389999 -0.96200001 -0.639 2
3.9219999 -0.95300001 -0.63499999 2
3.967 -0.95899999 -0.63999999 3
3.987 -0.958 -0.64200002 3
3.994 -0.954 -0.64099997 2
4.1110001 -0.977 -0.65799999 4
4.0089998 -0.94700003 -0.639 2
4.0450001 -0.94999999 -0.64300001 2
4.0370002 -0.94199997 -0.63999999 2
4.0679998 -0.94400001 -0.64200002 2
4.1030002 -0.94599998 -0.64600003 2
4.25 -0.97399998 -0.667 4
4.0879998 -0.93099999 -0.639 2
4.1300001 -0.935 -0.64300001 2
4.125 -0.92799997 -0.63999999 2
4.1440001 -0.926 -0.64099997 2
4.177 -0.92699999 -0.64300001 2
4.2379999 -0.93400002 -0.65100002 2
4.257 -0.93199998 -0.65100002 2
4.2859998 -0.93300003 -0.653 2
4.2719998 -0.92299998 -0.648 2
4.296 -0.92199999 -0.64899999 4
4.3150001 -0.92000002 -0.64899999 2
4.3400002 -0.91799998 -0.64999998 2
4.3670001 -0.91799998 -0.65100002 2
4.3940001 -0.917 -0.653 2
4.4159999 -0.91500002 -0.653 4
4.4419999 -0.91399997 -0.65399998 3
4.4790001 -0.91399997 -0.65600002 2
4.506 -0.91299999 -0.65700001 3
4.527 -0.91000003 -0.65700001 3
4.5489998 -0.90799999 -0.65700001 3
4.5999999 -0.91100001 -0.66100001 2
4.6139998 -0.90700001 -0.66000003 2
4.651 -0.90700001 -0.662 2
4.6739998 -0.90399998 -0.662 2
4.7199998 -0.90499997 -0.66500002 2
4.7529998 -0.90399998 -0.66600001 2
4.757 -0.898 -0.66299999 3
4.8260002 -0.903 -0.66900003 2
4.8460002 -0.89899999 -0.66799998 2
4.8909998 -0.89999998 -0.67000002 2
4.934 -0.89999998 -0.67199999 2
4.974 -0.89899999 -0.67299998 2
5.0100002 -0.898 -0.67400002 4
5.0560002 -0.898 -0.676 2
5.0970001 -0.89700001 -0.67799997 2
5.1479998 -0.898 -0.68000001 2
5.1799998 -0.89499998 -0.68000001 4
5.23 -0.89499998 -0.68199998 4
5.2839999 -0.89600003 -0.685 4
5.348 -0.898 -0.68800002 4
5.3889999 -0.89600003 -0.68900001 3
5.4320002 -0.89499998 -0.69 2
5.4780002 -0.89300001 -0.69 2
5.5289998 -0.89300001 -0.69199997 2
5.5809999 -0.89200002 -0.69400001 3
5.6459999 -0.89300001 -0.69599998 2
5.711 -0.89399999 -0.699 2
5.77 -0.89399999 -0.70099998 2
5.8499999 -0.89700001 -0.70499998 2
5.9039998 -0.89499998 -0.70599997 2
5.9809999 -0.89700001 -0.70999998 3
6.0570002 -0.89899999 -0.713 3
6.1079998 -0.89600003 -0.713 3
6.1789999 -0.89600003 -0.71499997 3
6.2670002 -0.89899999 -0.71899998 3
6.348 -0.89999998 -0.722 3
6.4349999 -0.90200001 -0.72600001 3
6.5409999 -0.90600002 -0.73100001 3
6.6170001 -0.90499997 -0.73299998 3
6.71 -0.90700001 -0.736 3
6.8010001 -0.90799999 -0.73900002 3
6.8800001 -0.90700001 -0.74000001 3
6.974 -0.90799999 -0.74299997 3
7.085 -0.91100001 -0.74800003 3
7.1960001 -0.91299999 -0.75199997 5
7.2909999 -0.91299999 -0.75400001 5
7.4320002 -0.91799998 -0.75999999 4
7.5689998 -0.92299998 -0.76599997 4
7.7090001 -0.92699999 -0.77200001 4
7.8169999 -0.92699999 -0.77399999 4
7.9699998 -0.93199998 -0.77999997 5
8.1110001 -0.935 -0.78500003 4
8.2709999 -0.93900001 -0.79100001 5
8.4460001 -0.94499999 -0.79799998 3
8.632 -0.95099998 -0.80599999 4
8.8109999 -0.95700002 -0.81300002 3
8.9969997 -0.96200001 -0.81900001 4
9.2119999 -0.96899998 -0.82800001 3
9.4449997 -0.97799999 -0.838 2
9.6920004 -0.98699999 -0.84799999 3
9.9309998 -0.995 -0.85799998 4
10.153 -1.001 -0.86500001 3
10.402 -1.008 -0.87300003 3
10.667 -1.016 -0.88300002 3
11.026 -1.0319999 -0.89899999 3
11.389 -1.0470001 -0.91500002 6
11.678 -1.054 -0.92400002 7
11.896 -1.054 -0.926 7
12.084 -1.051 -0.926 8
12.383 -1.057 -0.93300003 3
12.894 -1.079 -0.95599997 2
13.325 -1.094 -0.97100002 3
13.649 -1.098 -0.977 3
14.103 -1.1109999 -0.99199998 3
14.573 -1.124 -1.006 3
15.057 -1.137 -1.02 2
15.636 -1.155 -1.039 2
16.035 -1.158 -1.045 4
16.902 -1.193 -1.079 2
17.827 -1.23 -1.115 3
18.694 -1.2589999 -1.1440001 3
19.288 -1.268 -1.155 6
19.788 -1.268 -1.158 2
20.025 -1.252 -1.145 1
0 0 0 0
0 0 0 2
26.75 -1.5420001 -1.421 4
26.982 -1.512 -1.396 3
27.698999 -1.508 -1.395 2
0 0 0 1
32.207001 -1.65 -1.533 3
32.231998 -1.6 -1.49 30
32.238998 -1.549 -1.4450001 152
32.251999 -1.499 -1.401 152
32.299 -1.45 -1.357 151
0 0 0 61
43.632 -1.821 -1.71 52
43.841 -1.76 -1.655 60
43.839001 -1.692 -1.5930001 55
43.984001 -1.6289999 -1.534 44
44.091999 -1.564 -1.474 46
44.474998 -1.508 -1.4220001 41
45.001999 -1.455 -1.373 42
45.278999 -1.395 -1.316 47
45.251999 -1.324 -1.249 41
45.308998 -1.256 -1.183 28
45.396 -1.188 -1.118 23
45.426998 -1.119 -1.052 7
0 0 0 81
68.111 -1.47 -1.373 77
68.082001 -1.367 -1.272 36
71.342003 -1.324 -1.225 22
71.32 -1.216 -1.117 50
73.523003 -1.1440001 -1.041 114
74.561996 -1.048 -0.94199997 33
0 0 0 0
0 0 0 22
74.410004 -0.71200001 -0.59799999 47
74.401001 -0.60399997 -0.48500001 63
74.413002 -0.49399999 -0.37 58
0 0 0 0
0 0 0 0
0 0 0 0
0 0 0 31
87.060997 0.056000002 0.242 32
87.365997 0.182 0.38 21
87.139 0.30700001 0.51700002 31
86.869003 0.43099999 0.65200001 32
86.597 0.55299997 0.787 28
0 0 0 0
0 0 0 0
0 0 0 0
0 0 0 0
0 0 0 16
0 0 0 0
0 0 0 15
0 0 0 0
0 0 0 16
89.200996 1.8099999 2.2360001 19
88.823997 1.92 2.3670001 37
88.651001 2.036 2.506 25
0 0 0 0
0 0 0 0
0 0 0 20
89.941002 2.5450001 3.1270001 32
89.755997 2.658 3.267 18
0 0 0 0
0 0 0 24
92.157997 3.0929999 3.8099999 16
91.593002 3.1889999 3.934 25
91.371002 3.299 4.0749998 31
91.311996 3.4130001 4.223 27
91.126999 3.523 4.3649998 21
90.988998 3.632 4.5089998 26
90.363998 3.723 4.6300001 23
90.176003 3.8280001 4.77 16
0 0 0 0
0 0 0 26
91.814003 4.2340002 5.3070002 24
90.765999 4.2979999 5.4000001 27
90.601997 4.4000001 5.5419998 27
0 0 0 0
0 0 0 20
0 0 0 0
0 0 0 24
118.856 6.48 8.2589998 22
0 0 0 13
0 0 0 24
118.769 6.8889999 8.8459997 44
118.727 7.0209999 9.0380001 38
118.861 7.165 9.2480001 38
119.063 7.3080001 9.4580002 24
0 0 0 0
0 0 0 0
0 0 0 0
0 0 0 0
0 0 0 0
0 0 0 0
0 0 0 0
0 0 0 60
118.565 8.4449997 11.203 107
118.52 8.566 11.394 107
118.525 8.6899996 11.593 92
118.573 8.8199997 11.798 80
118.562 8.9420004 11.995 83
118.49 9.0570002 12.186 80
118.526 9.1809998 12.388 74
118.583 9.3050003 12.592 43
118.516 9.4180002 12.782 30
0 0 0 0
0 0 0 0
0 0 0 23
0 0 0 0
0 0 0 40
118.964 10.146 14.015 31
0 0 0 0
0 0 0 0
0 0 0 0
0 0 0 0
0 0 0 25
118.788 10.789 15.169 26
118.636 10.881 15.345 54
118.575 10.98 15.532 58
118.507 11.081 15.719 66
118.455 11.176 15.905 71
118.48 11.28 16.101999 75
118.494 11.383 16.297001 71
118.488 11.486 16.490999 60
118.399 11.572 16.666 47
118.608 11.691 16.888 33
118.641 11.792 17.084999 22
118.701 11.894 17.285999 22
118.655 11.988 17.472 23
118.575 12.074 17.650999 34
118.651 12.175 17.853001 27
118.649 12.267 18.042999 31
118.597 12.353 18.224001 32
118.594 12.443 18.413 32
118.512 12.523 18.589001 35
118.604 12.621 18.792 34
118.619 12.71 18.982 26
118.614 12.799 19.169001 32
118.6 12.883 19.354 41
118.496 12.956 19.523001 46
118.465 13.035 19.702999 53
118.434 13.114 19.879999 67
118.45 13.197 20.066999 65
118.417 13.274 20.245001 64
118.452 13.357 20.438 64
118.344 13.423 20.598 48
118.486 13.517 20.801001 41
118.669 13.613 21.018999 41
118.728 13.696 21.207001 35
118.746 13.772 21.391001 31
118.749 13.847 21.568001 34
118.819 13.927 21.76 34
118.844 14.001 21.947001 32
118.637 14.047 22.087 26
118.61 14.113 22.259001 33
118.587 14.179 22.427 34
118.6 14.248 22.606001 29
118.667 14.323 22.792999 32
118.582 14.378 22.951 30
118.634 14.448 23.135 24
118.637 14.513 23.305 30
118.542 14.564 23.458 35
118.478 14.614 23.612 35
118.437 14.67 23.775 43
118.477 14.734 23.952 55
118.431 14.787 24.112 65
118.433 14.845 24.275999 75
118.418 14.9 24.440001 68
118.457 14.96 24.615 54
118.43 15.011 24.775 46
118.47 15.073 24.948 32
118.497 15.125 25.117001 26
118.536 15.183 25.285 25
118.632 15.246 25.466999 33
118.676 15.301 25.638 30
0 0 0 0
0 0 0 0
0 0 0 23
0 0 0 0
0 0 0 0
0 0 0 0
0 0 0 0
0 0 0 0
0 0 0 0
0 0 0 0
0 0 0 26
118.696 15.829 27.507 32
118.596 15.849 27.632 31
118.533 15.88 27.764999 37
118.482 15.91 27.896999 49
118.443 15.937 28.035999 52
118.468 15.972 28.183001 60
118.483 16.009001 28.33 61
118.439 16.034 28.462 66
118.445 16.065001 28.605 58
118.467 16.097 28.75 37
118.411 16.118 28.875999 30
0 0 0 0
0 0 0 0
0 0 0 0
0 0 0 0
0 0 0 0
0 0 0 0
0 0 0 0
0 0 0 0
0 0 0 0
0 0 0 0
0 0 0 0
0 0 0 0
0 0 0 0
0 0 0 0
0 0 0 0
0 0 0 31
118.577 16.48 31.1 40
118.589 16.496 31.219999 43
118.462 16.489 31.302999 50
118.458 16.497 31.415001 52
118.565 16.52 31.558001 57
118.434 16.513 31.635 67
118.437 16.521 31.747999 62
118.469 16.531 31.867001 66
118.467 16.535999 31.975 62
118.488 16.542999 32.088001 57
118.496 16.549 32.194 63
118.457 16.546 32.289001 67
118.555 16.561001 32.418999 64
118.444 16.546 32.491001 65
118.501 16.556 32.605 61
118.52 16.558001 32.709999 63
118.443 16.541 32.787998 57
118.532 16.552999 32.907001 58
118.518 16.547001 32.999001 66
118.538 16.545 33.098999 59
118.561 16.542999 33.198002 61
118.554 16.535 33.287998 67
118.487 16.518999 33.359001 65
118.542 16.518 33.464001 66
118.51 16.507 33.539001 68
118.574 16.51 33.643002 75
118.547 16.492001 33.722 76
118.571 16.487 33.810001 89
118.56 16.473 33.888 66
118.577 16.462 33.973999 65
118.583 16.451 34.051998 61
118.587 16.436001 34.131001 51
118.608 16.421 34.215 48
118.515 16.393999 34.261002 43
118.631 16.392 34.367001 28
0 0 0 0
0 0 0 0
0 0 0 0
0 0 0 0
0 0 0 0
0 0 0 0
0 0 0 0
0 0 0 0
0 0 0 0
0 0 0 0
0 0 0 0
0 0 0 0
0 0 0 0
0 0 0 0
0 0 0 0
0 0 0 0
0 0 0 27
118.865 15.977 35.494999 31
118.933 15.956 35.558998 27
118.834 15.909 35.571999 31
118.905 15.881 35.637001 27
118.841 15.838 35.658001 26
118.689 15.782 35.651001 32
118.888 15.775 35.747002 31
118.735 15.717 35.736 33
118.722 15.677 35.765999 33
118.682 15.633 35.786999 33
118.735 15.6 35.833 41
118.772 15.568 35.873001 41
118.793 15.53 35.907001 44
118.793 15.488 35.932999 43
118.729 15.437 35.938 52
118.785 15.401 35.978001 46
118.763 15.357 35.991001 54
118.759 15.312 36.009998 47
118.741 15.264 36.022999 48
118.716 15.215 36.033001 47
118.707 15.167 36.044998 52
118.746 15.125 36.070999 53
118.797 15.083 36.098 55
118.798 15.038 36.108002 65
118.779 14.986 36.111 53
118.771 14.935 36.116001 52
118.739 14.88 36.112 51
118.763 14.835 36.122002 54
118.802 14.788 36.137001 57
118.798 14.734 36.136002 54
118.833 14.685 36.146999 56
118.838 14.632 36.145 56
118.895 14.584 36.159 57
118.778 14.514 36.118 64
118.817 14.466 36.122002 54
118.865 14.412 36.127998 53
118.814 14.352 36.102001 46
118.867 14.297 36.106998 50
118.821 14.237 36.078999 63
118.892 14.186 36.084999 52
118.844 14.121 36.054001 53
118.877 14.064 36.046001 50
118.857 14.001 36.02 49
118.886 13.946 36.007 54
118.931 13.889 35.997002 50
118.832 13.819 35.942001 54
118.929 13.767 35.945 59
118.929 13.703 35.917 47
118.878 13.633 35.873001 49
118.874 13.571 35.84 52
118.946 13.514 35.828999 47
118.923 13.442 35.789001 42
119.009 13.385 35.778999 40
119.025 13.323 35.745998 37
118.929 13.244 35.678001 32
119.048 13.19 35.673 29
119.071 13.123 35.638 33
119.116 13.059 35.608002 37
119.079 12.985 35.550999 36
119.239 12.936 35.551998 29
119.204 12.862 35.493 32
119.215 12.795 35.445999 30
119.289 12.731 35.416 27
119.207 12.65 35.339001 25
0 0 0 0
0 0 0 0
0 0 0 0
0 0 0 25
0 0 0 0
0 0 0 0
0 0 0 0
0 0 0 0
0 0 0 0
0 0 0 0
0 0 0 0
0 0 0 0
0 0 0 29
0 0 0 0
0 0 0 0
0 0 0 0
0 0 0 0
0 0 0 0
0 0 0 0
0 0 0 0
0 0 0 0
0 0 0 0
0 0 0 0
0 0 0 0
0 0 0 28
119.209 10.639 33.409 26
119.188 10.557 33.306 26
0 0 0 0
0 0 0 26
119.179 10.307 33.009998 27
119.155 10.222 32.902 30
119.154 10.141 32.799999 35
119.119 10.054 32.687 41
119.125 9.9700003 32.583 43
119.132 9.8859997 32.479 51
119.093 9.7980003 32.360001 61
119.104 9.7139997 32.252998 57
119.121 9.6339998 32.147999 53
119.083 9.5430002 32.028 58
119.118 9.4639997 31.924 62
119.129 9.3789997 31.812 54
119.13 9.2969999 31.695999 60
119.172 9.21 31.587999 43
119.24 9.1330004 31.487 41
119.256 9.0509996 31.371 40
119.441 8.9759998 31.299999 24
119.432 8.8879995 31.173 28
0 0 0 0
0 0 0 0
0 0 0 0
0 0 0 0
0 0 0 0
0 0 0 0
0 0 0 0
0 0 0 0
0 0 0 24
119.359 8.0179996 29.84 23
0 0 0 0
0 0 0 27
119.402 7.7579999 29.433001 26
119.44 7.6750002 29.299999 24
0 0 0 0
0 0 0 0
0 0 0 25
119.26 7.3150001 28.672001 33
119.196 7.223 28.507 40
119.221 7.1360002 28.362 55
119.218 7.0500002 28.212999 61
119.213 6.961 28.059 54
119.184 6.8740001 27.893999 55
119.229 6.7880001 27.747999 52
119.249 6.7020001 27.596001 46
119.334 6.6220002 27.458 38
119.447 6.5380001 27.327 40
119.487 6.4530001 27.174999 28
119.515 6.3670001 27.018 24
0 0 0 0
0 0 0 0
0 0 0 0
0 0 0 0
0 0 0 31
119.535 5.8499999 26.024 33
119.636 5.7690001 25.879 32
119.52 5.677 25.681999 28
119.427 5.5869999 25.485001 26
119.547 5.506 25.336 27
119.689 5.427 25.188999 24
119.566 5.336 24.990999 25
119.488 5.2470002 24.797001 41
119.375 5.1560001 24.594 45
119.289 5.0689998 24.393 55
119.272 4.9829998 24.208 58
119.304 4.9000001 24.032 66
119.257 4.8130002 23.839001 67
119.305 4.7309999 23.664 59
119.315 4.6469998 23.48 28
0 0 0 0
0 0 0 0
0 0 0 0
0 0 0 0
0 0 0 59
161.549 5.6199999 30.252001 82
