# .PCD v0.7 - Point Cloud Data file format
VERSION 0.7
FIELDS x y z intensity
SIZE 4 4 4 4
TYPE F F F F
COUNT 1 1 1 1
WIDTH 1881
HEIGHT 1
VIEWPOINT 0 0 0 1 0 0 0
POINTS 1881
DATA ascii
66.903999 7.6090002 6.355 19
68.278999 7.8530002 6.5819998 57
69.491997 8.0780001 6.7940001 52
70.872002 8.3269997 7.0279999 57
72.276001 8.585 7.2690001 61
73.691002 8.8450003 7.5170002 63
0 0 0 79
118.117 14.467 12.376 75
118.118 14.61 12.542 79
118.046 14.744 12.699 83
118.049 14.886 12.864 69
118.003 15.02 13.024 56
118.003 15.16 13.189 43
118.004 15.298 13.354 35
0 0 0 0
0 0 0 0
0 0 0 0
0 0 0 0
0 0 0 0
0 0 0 0
0 0 0 0
0 0 0 0
0 0 0 0
0 0 0 0
0 0 0 0
0 0 0 0
0 0 0 0
0 0 0 0
0 0 0 29
117.66 17.315001 15.904 43
117.707 17.441 16.070999 49
117.581 17.545 16.214001 59
117.514 17.649 16.364 67
117.506 17.768 16.521999 80
117.462 17.875999 16.671 70
117.422 17.983999 16.823999 75
117.446 18.101 16.985001 77
117.438 18.212 17.141001 53
117.452 18.325001 17.299999 43
117.482 18.438999 17.462 48
117.477 18.544001 17.614 31
117.386 18.636999 17.756001 32
117.476 18.757999 17.924999 31
117.464 18.861 18.075001 30
117.449 18.966 18.231001 30
117.351 19.054001 18.365999 33
117.423 19.164 18.531 32
117.421 19.264 18.68 30
117.432 19.365999 18.834 30
117.281 19.440001 18.958 26
117.414 19.559 19.135 34
117.292 19.635 19.266001 32
117.275 19.728001 19.41 28
117.257 19.819 19.556999 32
117.175 19.898001 19.691999 32
117.297 20.01 19.858 26
117.297 20.101 20.006001 26
117.094 20.156 20.115 38
117.06 20.238001 20.26 23
0 0 0 0
0 0 0 0
0 0 0 28
114.494 20.129 20.379999 36
114.572 20.219999 20.531 59
114.45 20.278 20.649 69
114.49 20.364 20.795 69
114.486 20.441 20.93 66
114.433 20.507999 21.058001 61
114.42 20.580999 21.191999 63
114.434 20.658001 21.330999 52
114.443 20.735001 21.468 50
114.523 20.822001 21.618 39
114.485 20.885 21.745001 32
114.557 20.968 21.893 27
114.694 21.059 22.049 24
114.648 21.118 22.173 27
114.512 21.159 22.278 26
114.524 21.23 22.41 24
0 0 0 0
0 0 0 27
0 0 0 0
0 0 0 0
0 0 0 0
0 0 0 0
0 0 0 0
0 0 0 0
0 0 0 0
0 0 0 0
0 0 0 0
0 0 0 27
114.405 21.952 24.004 25
114.419 22.004 24.125999 26
114.314 22.031 24.221001 32
114.226 22.061001 24.32 40
114.228 22.108 24.433001 47
114.165 22.141001 24.535 47
114.185 22.188 24.653 54
114.191 22.232 24.768 65
114.149 22.264999 24.871 61
114.151 22.305 24.983 65
114.119 22.337999 25.087 65
114.159 22.382999 25.205 58
114.119 22.412001 25.304001 47
114.116 22.450001 25.41 47
114.09 22.476999 25.509001 34
114.105 22.514 25.618 27
0 0 0 0
0 0 0 0
0 0 0 0
0 0 0 0
0 0 0 0
0 0 0 0
0 0 0 0
0 0 0 0
0 0 0 0
0 0 0 0
0 0 0 0
0 0 0 0
0 0 0 0
0 0 0 0
0 0 0 0
0 0 0 0
0 0 0 0
0 0 0 0
0 0 0 0
0 0 0 0
0 0 0 0
0 0 0 0
0 0 0 0
0 0 0 0
0 0 0 0
0 0 0 0
0 0 0 22
114.428 23.063999 28.212 26
114.276 23.037001 28.246 31
114.223 23.025999 28.306 33
114.248 23.025999 28.386 40
114.157 23.007999 28.431 43
114.139 23 28.496 40
114.076 22.983 28.549 45
114.059 22.976 28.608 47
114.09 22.976 28.681999 58
114.073 22.964001 28.740999 58
114.087 22.958 28.808001 56
114.067 22.944 28.865 50
114.066 22.934999 28.924 53
114.112 22.934 28.993 56
114.097 22.917999 29.047001 60
114.163 22.917 29.121 65
114.085 22.886 29.157 58
114.127 22.881001 29.219999 55
114.121 22.862 29.273001 50
114.098 22.839001 29.319 48
114.076 22.816 29.364 46
114.116 22.802999 29.424 40
114.174 22.792999 29.488001 40
114.222 22.780001 29.547001 38
114.211 22.754 29.59 32
114.176 22.722 29.625999 29
114.164 22.694 29.666 28
114.094 22.653 29.690001 28
114.284 22.666 29.778 26
114.127 22.606001 29.777 25
0 0 0 0
0 0 0 0
0 0 0 0
0 0 0 0
0 0 0 0
0 0 0 0
0 0 0 0
0 0 0 0
0 0 0 0
0 0 0 0
0 0 0 0
0 0 0 0
0 0 0 24
0 0 0 0
0 0 0 0
0 0 0 0
0 0 0 25
114.58 22.009001 30.377001 25
0 0 0 0
0 0 0 0
0 0 0 23
114.569 21.812 30.422001 24
114.695 21.784 30.464001 23
0 0 0 0
0 0 0 0
0 0 0 0
0 0 0 0
0 0 0 0
0 0 0 0
0 0 0 0
0 0 0 0
0 0 0 0
0 0 0 0
0 0 0 0
0 0 0 0
0 0 0 0
0 0 0 0
0 0 0 0
0 0 0 25
0 0 0 0
0 0 0 27
114.747 20.646999 30.384001 26
114.69 20.566 30.351 24
114.819 20.518999 30.365 25
115.044 20.487 30.403999 24
114.965 20.400999 30.362 29
115.008 20.336 30.349001 26
115.05 20.271999 30.334 29
115.09 20.204 30.318001 30
115.037 20.118999 30.275999 27
115.254 20.079 30.302 27
0 0 0 0
0 0 0 0
0 0 0 0
0 0 0 0
0 0 0 0
0 0 0 33
123.296 20.885 32.152 60
123.385 20.811001 32.132 77
123.407 20.725 32.092999 78
123.467 20.645 32.062 74
123.424 20.549999 32.001999 61
123.444 20.461 31.958 58
123.52 20.381001 31.927 47
123.479 20.280001 31.864 44
123.566 20.204 31.832001 38
0 0 0 0
0 0 0 26
126.475 20.384001 32.407001 30
126.47 20.284 32.345001 31
0 0 0 0
0 0 0 0
0 0 0 0
0 0 0 0
0 0 0 0
0 0 0 0
0 0 0 33
129.50101 19.929001 32.563 45
129.536 19.826 32.494999 56
129.60201 19.729 32.431 59
129.694 19.634001 32.376999 57
129.70599 19.525 32.299 59
129.76401 19.42 32.228001 54
129.89 19.329 32.178001 50
129.98801 19.23 32.116001 42
0 0 0 0
0 0 0 43
132.05701 19.191 32.356998 54
132.05701 19.073999 32.263 68
132.177 18.976999 32.198002 93
132.205 18.862 32.108002 99
132.214 18.743999 32.012001 82
132.19299 18.621 31.908001 64
132.284 18.513 31.829 72
132.33099 18.398001 31.738001 69
132.28799 18.274 31.622999 56
132.35699 18.160999 31.534 41
0 0 0 0
0 0 0 31
135.408 18.205 31.927999 31
135.451 18.082001 31.827999 33
0 0 0 0
0 0 0 48
138.278 18.066999 32.129002 77
138.32401 17.941 32.016998 66
138.345 17.811001 31.896999 64
138.45399 17.691999 31.796 58
138.495 17.563999 31.677999 46
0 0 0 0
0 0 0 0
0 0 0 0
0 0 0 0
0 0 0 39
141.532 17.121 31.552999 35
144.06599 17.285 31.974001 49
144.136 17.150999 31.844 63
144.218 17.021999 31.716 62
144.336 16.892 31.591999 60
144.438 16.76 31.464001 48
147.091 16.92 31.886999 51
147.17799 16.787001 31.750999 65
147.258 16.648001 31.610001 78
147.319 16.502001 31.462 71
0 0 0 0
0 0 0 0
0 0 0 43
150.12801 16.214001 31.396 82
150.133 16.061001 31.226 92
150.25101 15.921 31.077999 62
150.203 15.767 30.895 50
0 0 0 0
0 0 0 0
0 0 0 0
0 0 0 0
0 0 0 0
0 0 0 0
0 0 0 0
0 0 0 0
0 0 0 0
0 0 0 0
0 0 0 0
0 0 0 0
0 0 0 0
0 0 0 0
0 0 0 0
0 0 0 0
0 0 0 8
49.525002 4.2849998 9.0710001 33
49.514 4.2319999 9.0030003 42
48.659 4.1100001 8.7819996 39
48.57 4.0510001 8.698 37
48.174999 3.9679999 8.5609999 29
47.213001 3.8410001 8.3269997 35
47.237999 3.7939999 8.2650003 40
46.202999 3.6630001 8.0179996 34
45.874001 3.5899999 7.8969998 35
45.891998 3.543 7.835 36
44.735001 3.408 7.5739999 43
44.541 3.348 7.4770002 42
44.341 3.2869999 7.3790002 22
43.098 3.152 7.1100001 9
42.758999 3.0829999 6.9920001 8
42.305 3.007 6.855 10
41.917999 2.9360001 6.73 8
41.509998 2.865 6.6020002 23
41.498001 2.822 6.539 54
41.444 2.7750001 6.467 51
40.566002 2.6760001 6.2690001 40
40.512001 2.631 6.1989999 47
40.516998 2.5899999 6.1370001 49
40.117001 2.5239999 6.0149999 34
39.201 2.427 5.8169999 47
39.213001 2.3870001 5.7579999 49
39.200001 2.348 5.6960001 48
38.827999 2.286 5.579 32
37.847 2.1889999 5.3779998 37
37.814999 2.1500001 5.3140001 47
37.834999 2.1129999 5.256 46
37.813999 2.0739999 5.1919999 43
36.589001 1.97 4.9640002 27
36.506001 1.929 4.8940001 56
36.514999 1.8940001 4.8369999 48
36.521 1.859 4.7779999 53
36.174 1.8049999 4.6729999 39
35.165001 1.72 4.4850001 45
35.151001 1.6849999 4.4239998 53
35.161999 1.65 4.3670001 56
35.131001 1.614 4.3039999 50
34.050999 1.5319999 4.1149998 12
33.700001 1.483 4.0149999 9
33.379002 1.437 3.9200001 24
33.335999 1.403 3.858 52
33.342999 1.3710001 3.802 58
33.342999 1.339 3.744 56
33.358002 1.308 3.6889999 58
33.362999 1.276 3.631 60
33.359001 1.245 3.573 60
33.368 1.214 3.516 61
33.375 1.182 3.4579999 61
33.396999 1.151 3.401 59
33.383999 1.12 3.3410001 58
33.383999 1.0880001 3.2809999 59
33.366001 1.057 3.221 64
33.369999 1.027 3.161 68
33.344002 0.995 3.099 87
33.380001 0.96499997 3.0420001 87
33.366001 0.935 2.9809999 103
33.362 0.90399998 2.9200001 102
33.367001 0.87400001 2.859 89
33.396999 0.84500003 2.8010001 85
33.367001 0.81400001 2.737 95
33.375999 0.78500003 2.6760001 70
33.395 0.75599998 2.6170001 83
33.384998 0.72600001 2.5539999 89
33.398998 0.69700003 2.493 69
33.384998 0.667 2.4300001 50
33.417 0.639 2.3699999 72
33.438 0.611 2.3099999 83
33.438 0.58200002 2.247 85
33.403 0.55299997 2.181 91
33.436001 0.52499998 2.1199999 89
33.423 0.49599999 2.056 94
33.43 0.46799999 1.993 93
33.423 0.44100001 1.929 94
33.452999 0.41299999 1.868 106
33.456001 0.38600001 1.8049999 115
33.443001 0.359 1.74 106
33.445999 0.331 1.676 99
33.442001 0.30399999 1.6109999 102
33.443001 0.27700001 1.546 99
33.460999 0.25099999 1.482 109
33.460999 0.22400001 1.4170001 99
33.465 0.198 1.353 103
33.477001 0.17200001 1.288 75
33.473 0.146 1.222 109
33.480999 0.12 1.158 97
33.515999 0.094999999 1.0930001 48
33.530998 0.07 1.028 11
0 0 0 1
18.936001 0.011 0.50599998 1
0 0 0 0
0 0 0 0
0 0 0 0
0 0 0 0
0 0 0 0
0 0 0 0
0 0 0 1
18.306 -0.093999997 0.197 1
18.016001 -0.105 0.15800001 1
17.705999 -0.116 0.12 1
17.473 -0.126 0.082999997 1
0 0 0 0
0 0 0 1
17.205999 -0.15899999 -0.021 2
17.195999 -0.17 -0.055 2
17.201 -0.18099999 -0.090000004 2
17.122999 -0.191 -0.124 1
17.035 -0.20100001 -0.15899999 1
17.070999 -0.213 -0.19400001 1
17.112 -0.22400001 -0.229 1
17.142 -0.235 -0.26499999 1
17.107 -0.245 -0.29899999 1
17.084 -0.255 -0.33399999 1
17.052 -0.26499999 -0.368 1
17.014999 -0.27399999 -0.40200001 72
17.018 -0.28400001 -0.43700001 47
17.058001 -0.29499999 -0.47299999 7
17.052999 -0.30399999 -0.50700003 4
17.152 -0.31600001 -0.546 4
17.198999 -0.32600001 -0.58200002 10
17.242001 -0.33700001 -0.61900002 10
17.200001 -0.345 -0.653 5
17.200001 -0.354 -0.68800002 3
17.386 -0.368 -0.73100001 3
17.789 -0.38600001 -0.78600001 2
18.181 -0.40400001 -0.84100002 1
0 0 0 0
0 0 0 1
0 0 0 2
0 0 0 2
0 0 0 0
0 0 0 2
0 0 0 2
14.507 -0.37900001 -0.91000003 3
13.797 -0.366 -0.89300001 3
13.265 -0.35800001 -0.88599998 5
12.633 -0.347 -0.87 3
11.948 -0.333 -0.84799999 3
11.417 -0.32300001 -0.83399999 2
10.943 -0.31400001 -0.82200003 3
10.522 -0.30700001 -0.81199998 3
10.112 -0.29899999 -0.801 3
9.7399998 -0.292 -0.79100001 4
9.4090004 -0.28600001 -0.78399998 3
9.0019999 -0.27700001 -0.76899999 4
8.6850004 -0.27000001 -0.75999999 4
8.3830004 -0.264 -0.75 6
8.0670004 -0.257 -0.73799998 14
7.8400002 -0.25299999 -0.73400003 14
7.6479998 -0.249 -0.73100001 14
7.4819999 -0.24600001 -0.73100001 12
7.322 -0.243 -0.73000002 12
7.0359998 -0.236 -0.71600002 5
6.8010001 -0.23100001 -0.70599997 4
6.5799999 -0.22499999 -0.69700003 3
6.4089999 -0.221 -0.69199997 3
6.2379999 -0.21699999 -0.68599999 3
6.099 -0.214 -0.68300003 3
5.9390001 -0.211 -0.67699999 3
5.7810001 -0.207 -0.671 3
5.6539998 -0.204 -0.66799998 4
5.4860001 -0.199 -0.65899998 3
5.3720002 -0.19599999 -0.65600002 3
5.27 -0.19400001 -0.65399998 4
5.1360002 -0.19 -0.648 3
5.0359998 -0.18799999 -0.64499998 3
4.9000001 -0.184 -0.63800001 5
4.7589998 -0.18000001 -0.62900001 9
4.7119999 -0.17900001 -0.63200003 8
4.6669998 -0.178 -0.63599998 6
4.5479999 -0.175 -0.62800002 3
4.4780002 -0.17299999 -0.62800002 2
4.4029999 -0.171 -0.62599999 4
4.2989998 -0.168 -0.61900002 2
4.2210002 -0.16500001 -0.61699998 3
4.1459999 -0.163 -0.61400002 2
4.1030002 -0.162 -0.616 2
4.0419998 -0.16 -0.61400002 2
4.0209999 -0.16 -0.61900002 2
3.937 -0.15700001 -0.61400002 2
3.832 -0.154 -0.60500002 2
3.789 -0.153 -0.60600001 1
3.7119999 -0.15000001 -0.60000002 1
3.6659999 -0.149 -0.60000002 1
3.6059999 -0.147 -0.597 2
3.5469999 -0.145 -0.59399998 1
3.49 -0.14300001 -0.59100002 2
3.447 -0.141 -0.59100002 1
3.4519999 -0.142 -0.59799999 1
3.3959999 -0.14 -0.59500003 2
3.3499999 -0.138 -0.59399998 2
3.316 -0.13699999 -0.59399998 1
3.3789999 -0.14 -0.611 2
3.2360001 -0.134 -0.59200001 1
3.22 -0.134 -0.59500003 1
3.161 -0.131 -0.58999997 1
3.165 -0.132 -0.597 1
3.0780001 -0.12800001 -0.58600003 1
3.079 -0.12800001 -0.59200001 1
3.0020001 -0.125 -0.583 1
3.05 -0.127 -0.59799999 1
2.9389999 -0.123 -0.58099997 1
2.9960001 -0.125 -0.59799999 1
2.881 -0.12 -0.57999998 1
2.8369999 -0.118 -0.57700002 1
2.878 -0.12 -0.58999997 1
2.723 -0.114 -0.56400001 1
2.7539999 -0.115 -0.57499999 1
2.7620001 -0.115 -0.58200002 1
2.7409999 -0.114 -0.58200002 1
2.688 -0.112 -0.57599998 1
2.628 -0.109 -0.56699997 1
2.5969999 -0.108 -0.565 1
2.631 -0.109 -0.57700002 1
2.5840001 -0.107 -0.57200003 1
2.526 -0.105 -0.56300002 1
2.4949999 -0.103 -0.56099999 1
2.4749999 -0.102 -0.56 1
2.4579999 -0.101 -0.56099999 1
2.434 -0.1 -0.56 1
2.414 -0.098999999 -0.55900002 1
2.3940001 -0.097999997 -0.55900002 1
2.3659999 -0.096000001 -0.55599999 1
2.3499999 -0.096000001 -0.55599999 1
2.332 -0.094999999 -0.55599999 1
2.3139999 -0.093999997 -0.55500001 1
2.2939999 -0.092 -0.55400002 1
2.277 -0.092 -0.55400002 1
2.2539999 -0.090000004 -0.55199999 1
2.234 -0.089000002 -0.551 1
2.2160001 -0.088 -0.55000001 1
2.2019999 -0.086999997 -0.55000001 1
2.1889999 -0.086999997 -0.55000001 1
2.1730001 -0.086000003 -0.55000001 1
2.164 -0.085000001 -0.551 1
2.1459999 -0.083999999 -0.55000001 1
2.1359999 -0.082999997 -0.551 1
2.1099999 -0.082000002 -0.54699999 1
2.0969999 -0.081 -0.54699999 1
2.085 -0.079999998 -0.54699999 1
2.059 -0.079000004 -0.54400003 1
2.046 -0.078000002 -0.54299998 1
2.0350001 -0.077 -0.54400003 1
2.0209999 -0.075999998 -0.54299998 1
2.016 -0.075000003 -0.54500002 1
1.993 -0.074000001 -0.54100001 1
1.985 -0.072999999 -0.542 1
1.979 -0.072999999 -0.54299998 1
1.967 -0.071999997 -0.54299998 1
1.959 -0.071000002 -0.54400003 1
1.943 -0.07 -0.542 1
1.938 -0.07 -0.54299998 1
1.916 -0.068000004 -0.54000002 1
1.911 -0.068000004 -0.54100001 1
1.896 -0.067000002 -0.54000002 1
1.8890001 -0.066 -0.54000002 1
1.882 -0.064999998 -0.54100001 1
1.863 -0.064000003 -0.53799999 1
1.859 -0.064000003 -0.53899997 1
1.847 -0.063000001 -0.53799999 1
1.8430001 -0.061999999 -0.54000002 1
1.836 -0.061000001 -0.54000002 1
1.829 -0.061000001 -0.54000002 1
1.8150001 -0.059999999 -0.53899997 1
1.803 -0.059 -0.537 1
1.795 -0.057999998 -0.537 1
1.784 -0.057 -0.53600001 1
1.7819999 -0.057 -0.53799999 1
1.775 -0.056000002 -0.53799999 1
1.7640001 -0.055 -0.537 1
1.756 -0.054000001 -0.537 1
1.752 -0.054000001 -0.537 1
1.743 -0.052999999 -0.537 1
1.7359999 -0.052000001 -0.53600001 1
1.728 -0.050999999 -0.53600001 1
1.709 -0.050000001 -0.53200001 1
1.702 -0.048999999 -0.53200001 1
1.697 -0.048999999 -0.53200001 1
1.697 -0.048 -0.53399998 1
1.688 -0.046999998 -0.53299999 1
1.675 -0.046999998 -0.53100002 1
1.675 -0.046 -0.53299999 1
1.663 -0.045000002 -0.53100002 1
1.66 -0.044 -0.53100002 1
1.652 -0.044 -0.53100002 1
1.645 -0.043000001 -0.52999997 1
1.633 -0.041999999 -0.528 1
1.6390001 -0.041999999 -0.53200001 1
1.635 -0.041000001 -0.53200001 1
1.622 -0.039999999 -0.52899998 1
1.619 -0.039999999 -0.52999997 1
1.6109999 -0.039000001 -0.52899998 1
1.603 -0.037999999 -0.528 1
1.604 -0.037 -0.52899998 1
1.597 -0.037 -0.52899998 1
1.586 -0.035999998 -0.52600002 1
1.585 -0.035 -0.528 1
1.586 -0.035 -0.52899998 1
1.576 -0.034000002 -0.52700001 1
1.576 -0.033 -0.52899998 1
1.568 -0.033 -0.52700001 1
1.568 -0.032000002 -0.52899998 1
1.563 -0.030999999 -0.528 1
1.556 -0.030999999 -0.52700001 1
1.5549999 -0.029999999 -0.528 1
1.551 -0.028999999 -0.528 1
1.546 -0.028999999 -0.52700001 1
1.5470001 -0.028000001 -0.52899998 1
1.539 -0.027000001 -0.52700001 1
1.536 -0.027000001 -0.52700001 1
1.539 -0.026000001 -0.52899998 1
1.533 -0.026000001 -0.528 1
1.524 -0.025 -0.52600002 1
1.52 -0.024 -0.52600002 1
1.523 -0.024 -0.528 1
1.517 -0.023 -0.52700001 1
1.512 -0.022 -0.52600002 1
1.503 -0.022 -0.52399999 1
1.517 -0.021 -0.52999997 1
1.5039999 -0.02 -0.52600002 1
1.505 -0.02 -0.52700001 1
1.502 -0.018999999 -0.52700001 1
1.4960001 -0.018999999 -0.52499998 1
1.495 -0.017999999 -0.52600002 1
1.4910001 -0.017000001 -0.52499998 1
1.494 -0.017000001 -0.52700001 1
1.485 -0.016000001 -0.52499998 1
1.49 -0.015 -0.52700001 1
1.4910001 -0.015 -0.528 1
1.4859999 -0.014 -0.52700001 1
1.482 -0.014 -0.52600002 1
1.475 -0.013 -0.52399999 1
1.467 -0.012 -0.52200001 1
1.4680001 -0.012 -0.523 1
1.469 -0.011 -0.52399999 1
1.469 -0.011 -0.52399999 1
1.456 -0.0099999998 -0.51999998 1
1.462 -0.0089999996 -0.523 1
1.456 -0.0089999996 -0.52100003 1
1.464 -0.0080000004 -0.52399999 1
1.457 -0.0080000004 -0.52200001 1
1.457 -0.0070000002 -0.52200001 1
1.462 -0.0060000001 -0.52499998 1
1.454 -0.0060000001 -0.52200001 1
1.455 -0.0049999999 -0.523 1
1.454 -0.0049999999 -0.523 1
1.454 -0.0040000002 -0.523 1
1.454 -0.003 -0.523 1
1.448 -0.003 -0.52100003 1
1.451 -0.0020000001 -0.523 1
1.451 -0.0020000001 -0.523 1
1.452 -0.001 -0.523 1
1.45 -0.001 -0.523 1
1.454 0 -0.52399999 1
1.449 0 -0.523 1
1.45 0 -0.523 1
1.457 0.001 -0.52499998 1
1.456 0.001 -0.52499998 1
1.448 0.0020000001 -0.52200001 1
1.446 0.003 -0.52200001 1
1.452 0.003 -0.52399999 1
1.4579999 0.0040000002 -0.52600002 1
1.456 0.0040000002 -0.52499998 1
1.4630001 0.0049999999 -0.52700001 1
1.459 0.0049999999 -0.52600002 1
1.449 0.0060000001 -0.52200001 1
1.449 0.0070000002 -0.52200001 1
1.456 0.0070000002 -0.52399999 1
1.448 0.0080000004 -0.52100003 1
1.459 0.0080000004 -0.52499998 1
1.459 0.0089999996 -0.52499998 1
1.454 0.0089999996 -0.523 1
1.4680001 0.0099999998 -0.52700001 1
1.4680001 0.011 -0.52700001 1
1.455 0.011 -0.52200001 1
1.459 0.012 -0.523 1
1.454 0.012 -0.52100003 1
1.457 0.013 -0.52100003 1
1.469 0.014 -0.52499998 1
1.469 0.014 -0.52499998 1
1.46 0.015 -0.52100003 1
1.469 0.015 -0.52399999 1
1.48 0.016000001 -0.52700001 1
1.469 0.016000001 -0.523 1
1.482 0.017000001 -0.52700001 1
1.4809999 0.017999999 -0.52600002 1
1.4809999 0.017999999 -0.52499998 1
1.475 0.018999999 -0.523 1
1.476 0.018999999 -0.52200001 1
1.4859999 0.02 -0.52499998 1
1.478 0.02 -0.52200001 1
1.489 0.021 -0.52499998 1
1.493 0.021 -0.52600002 1
1.494 0.022 -0.52499998 1
1.494 0.023 -0.52399999 1
1.5039999 0.023 -0.52700001 1
1.494 0.024 -0.523 1
1.503 0.024 -0.52499998 1
1.507 0.025 -0.52600002 1
1.506 0.025 -0.52399999 1
1.506 0.026000001 -0.523 1
1.513 0.027000001 -0.52499998 1
1.522 0.027000001 -0.52700001 1
1.525 0.028000001 -0.52700001 1
1.524 0.028000001 -0.52600002 1
1.538 0.028999999 -0.52999997 1
1.535 0.029999999 -0.52700001 1
1.536 0.029999999 -0.52700001 1
1.5369999 0.030999999 -0.52600002 1
1.5470001 0.030999999 -0.528 1
1.554 0.032000002 -0.52899998 1
1.5549999 0.032000002 -0.528 1
1.5470001 0.033 -0.52499998 1
1.558 0.034000002 -0.52700001 1
1.559 0.034000002 -0.52600002 1
1.559 0.034000002 -0.52499998 1
1.559 0.035 -0.52399999 1
1.572 0.035999998 -0.52700001 1
1.5700001 0.035999998 -0.52499998 1
1.573 0.037 -0.52399999 1
1.581 0.037 -0.52499998 1
1.59 0.037999999 -0.52700001 1
1.603 0.039000001 -0.52999997 1
1.6 0.039000001 -0.528 1
1.604 0.039999999 -0.52700001 1
1.609 0.039999999 -0.52700001 1
1.618 0.041000001 -0.52899998 1
1.618 0.041000001 -0.52700001 1
1.62 0.041999999 -0.52600002 1
1.631 0.043000001 -0.528 1
1.6390001 0.043000001 -0.52899998 1
1.649 0.044 -0.53100002 1
1.651 0.045000002 -0.52999997 1
1.655 0.045000002 -0.52899998 1
1.665 0.046 -0.53100002 1
1.6720001 0.046 -0.53100002 1
1.669 0.046999998 -0.528 1
1.683 0.046999998 -0.53100002 1
1.6849999 0.048 -0.52999997 1
1.699 0.048999999 -0.53200001 1
1.711 0.048999999 -0.53399998 1
1.716 0.050000001 -0.53299999 1
1.723 0.050999999 -0.53399998 1
1.732 0.050999999 -0.53399998 1
1.734 0.052000001 -0.53299999 1
1.742 0.052000001 -0.53299999 1
1.756 0.052999999 -0.53500003 1
1.758 0.054000001 -0.53399998 1
1.7640001 0.054000001 -0.53299999 1
1.781 0.055 -0.537 1
1.79 0.055 -0.537 1
1.793 0.056000002 -0.53600001 1
1.802 0.057 -0.53600001 1
1.809 0.057 -0.53600001 1
1.824 0.057999998 -0.53799999 1
1.83 0.057999998 -0.537 1
1.841 0.059 -0.53799999 1
1.846 0.059999999 -0.537 1
1.863 0.059999999 -0.53899997 1
1.8710001 0.061000001 -0.53899997 1
1.878 0.061000001 -0.53799999 1
1.892 0.061999999 -0.54000002 1
1.897 0.063000001 -0.53899997 1
1.9069999 0.063000001 -0.53899997 1
1.915 0.064000003 -0.53799999 1
1.927 0.064000003 -0.53899997 1
1.947 0.064999998 -0.542 1
1.949 0.066 -0.54000002 1
1.962 0.066 -0.54000002 1
1.98 0.067000002 -0.542 1
1.99 0.068000004 -0.542 1
2.0050001 0.068000004 -0.54299998 1
2.0109999 0.068999998 -0.542 1
2.0190001 0.068999998 -0.54100001 1
2.0320001 0.07 -0.54100001 1
2.056 0.071000002 -0.54500002 1
2.073 0.071000002 -0.546 1
2.085 0.071999997 -0.546 1
2.0999999 0.072999999 -0.54699999 1
2.1140001 0.072999999 -0.54699999 1
2.1289999 0.074000001 -0.54699999 1
2.1429999 0.075000003 -0.54799998 1
2.1630001 0.075000003 -0.54900002 1
2.171 0.075999998 -0.54799998 1
2.1919999 0.075999998 -0.55000001 1
2.2130001 0.077 -0.551 1
2.2279999 0.078000002 -0.551 1
2.2390001 0.078000002 -0.55000001 1
2.2550001 0.079000004 -0.551 1
2.2739999 0.079999998 -0.55199999 1
2.2909999 0.079999998 -0.55199999 1
2.3110001 0.081 -0.55299997 1
2.326 0.081 -0.55299997 1
2.348 0.082000002 -0.55400002 1
2.3729999 0.082999997 -0.55599999 1
2.3889999 0.082999997 -0.55500001 1
2.4059999 0.083999999 -0.55500001 1
2.431 0.085000001 -0.55699998 1
2.4530001 0.085000001 -0.55800003 1
2.4790001 0.086000003 -0.55900002 1
2.5 0.086999997 -0.56 1
2.516 0.086999997 -0.55900002 1
2.5450001 0.088 -0.56099999 1
2.5699999 0.088 -0.56199998 1
2.595 0.089000002 -0.56300002 1
2.6070001 0.089000002 -0.56099999 1
2.631 0.090000004 -0.56099999 1
2.6619999 0.090999998 -0.56300002 1
2.688 0.090999998 -0.56400001 2
2.714 0.092 -0.56400001 1
2.7490001 0.093000002 -0.56699997 1
2.7969999 0.093999997 -0.57099998 2
2.8340001 0.094999999 -0.574 5
2.8540001 0.094999999 -0.57300001 7
2.8770001 0.094999999 -0.57200003 9
2.904 0.096000001 -0.57200003 8
2.9449999 0.097000003 -0.57499999 9
2.974 0.097000003 -0.57499999 9
3.0050001 0.097999997 -0.57499999 9
3.0409999 0.097999997 -0.57599998 8
3.0769999 0.098999999 -0.57800001 7
3.1099999 0.098999999 -0.57800001 4
3.148 0.1 -0.579 3
3.1900001 0.101 -0.58099997 2
3.2950001 0.103 -0.59399998 2
3.437 0.107 -0.61299998 2
3.3429999 0.103 -0.58999997 2
3.398 0.104 -0.59299999 2
3.5190001 0.107 -0.60699999 2
3.471 0.105 -0.59200001 2
3.5209999 0.105 -0.59399998 2
3.5469999 0.105 -0.59200001 2
3.681 0.108 -0.60699999 2
3.707 0.108 -0.60399997 2
3.779 0.109 -0.60900003 2
3.8380001 0.11 -0.611 3
3.8840001 0.11 -0.61000001 2
3.9319999 0.11 -0.61000001 2
3.95 0.109 -0.60500002 2
4.0149999 0.11 -0.60799998 2
4.0700002 0.11 -0.60799998 1
4.1440001 0.111 -0.611 3
4.1929998 0.111 -0.61000001 1
4.322 0.112 -0.62 2
4.4180002 0.113 -0.625 3
4.46 0.113 -0.62199998 5
4.5250001 0.113 -0.62300003 4
4.6090002 0.113 -0.625 4
4.7129998 0.114 -0.63 4
4.802 0.114 -0.63200003 4
4.9029999 0.115 -0.63599998 4
5.0219998 0.116 -0.64099997 3
5.145 0.116 -0.64700001 4
5.243 0.116 -0.648 4
5.3639998 0.117 -0.65200001 4
5.5019999 0.118 -0.65799999 4
5.6230001 0.118 -0.662 4
5.789 0.119 -0.67000002 4
5.9289999 0.119 -0.67400002 4
6.072 0.119 -0.67799997 3
6.2290001 0.119 -0.68300003 4
6.3959999 0.119 -0.68900001 4
6.585 0.12 -0.69599998 4
6.7680001 0.12 -0.70200002 4
6.9520001 0.12 -0.70700002 5
7.1960001 0.12 -0.71700001 4
7.4029999 0.12 -0.72299999 4
7.612 0.12 -0.72799999 5
7.8460002 0.119 -0.73500001 4
8.1049995 0.119 -0.74299997 4
8.4420004 0.119 -0.75599998 4
8.7449999 0.119 -0.76599997 16
8.9549999 0.117 -0.76599997 18
9.2360001 0.115 -0.77200001 13
9.5799999 0.114 -0.78100002 7
9.9069996 0.113 -0.78799999 5
10.364 0.112 -0.80299997 3
10.807 0.11 -0.81599998 3
11.278 0.108 -0.82800001 2
11.789 0.106 -0.84200001 3
12.497 0.105 -0.86699998 5
12.939 0.101 -0.87199998 3
13.572 0.097000003 -0.88599998 3
14.323 0.093000002 -0.90600002 3
0 0 0 4
16.041 0.083999999 -0.949 5
15.939 0.072999999 -0.91100001 3
0 0 0 2
0 0 0 1
0 0 0 1
22.194 0.043000001 -1.09 1
0 0 0 1
17.636 0.0099999998 -0.79500002 3
17.544001 -0.0020000001 -0.75599998 4
17.379 -0.014 -0.71399999 4
17.167 -0.026000001 -0.67000002 3
17.108999 -0.037999999 -0.63300002 3
17.099001 -0.050999999 -0.59799999 3
17.070999 -0.063000001 -0.56300002 2
17.076 -0.075999998 -0.52899998 1
17.031 -0.088 -0.49399999 1
17.065001 -0.101 -0.46000001 1
17.052 -0.114 -0.426 4
17.046 -0.127 -0.391 8
17.051001 -0.14 -0.35800001 7
17.051001 -0.154 -0.324 1
17.077999 -0.168 -0.28999999 1
17.129 -0.182 -0.257 1
17.157 -0.19599999 -0.223 1
17.063 -0.208 -0.18799999 1
17.065001 -0.222 -0.154 1
17.091 -0.237 -0.121 1
17.149 -0.252 -0.086999997 3
17.162001 -0.266 -0.052999999 3
17.165001 -0.28 -0.02 1
0 0 0 0
0 0 0 0
0 0 0 1
17.990999 -0.35600001 0.12 1
18.031 -0.37200001 0.156 1
0 0 0 0
0 0 0 0
0 0 0 0
0 0 0 0
0 0 0 0
0 0 0 0
0 0 0 0
0 0 0 0
0 0 0 1
19.25 -0.57200003 0.54100001 1
0 0 0 24
25.521 -0.80599999 0.81400001 53
25.518 -0.82999998 0.86299998 74
25.523001 -0.85500002 0.912 71
25.546 -0.88 0.96100003 56
25.537001 -0.90399998 1.008 70
25.524 -0.92799997 1.0549999 58
25.521 -0.95300001 1.103 52
25.558001 -0.97899997 1.152 56
25.556999 -1.0039999 1.199 53
25.551001 -1.029 1.247 56
25.586 -1.056 1.296 53
25.606001 -1.082 1.345 49
25.621 -1.109 1.3940001 46
25.645 -1.136 1.443 43
25.674999 -1.163 1.4910001 40
25.68 -1.189 1.538 36
25.715 -1.217 1.587 33
25.750999 -1.245 1.636 29
25.777 -1.273 1.6849999 25
25.830999 -1.302 1.735 20
25.923 -1.334 1.788 11
0 0 0 57
33.928001 -1.817 2.4619999 49
33.922001 -1.852 2.5220001 57
33.946999 -1.89 2.5840001 48
33.946999 -1.926 2.6440001 59
33.946999 -1.962 2.7049999 57
33.960999 -1.998 2.7650001 58
33.964001 -2.0350001 2.825 53
33.983002 -2.073 2.885 56
33.988998 -2.109 2.944 48
33.987999 -2.1459999 3.003 52
34.035 -2.187 3.066 51
34.046001 -2.2249999 3.1259999 52
34.060001 -2.2620001 3.1849999 39
34.07 -2.3 3.2449999 17
34.104 -2.3399999 3.3050001 4
0 0 0 0
0 0 0 0
0 0 0 0
0 0 0 0
0 0 0 0
0 0 0 0
0 0 0 0
0 0 0 0
0 0 0 0
0 0 0 0
0 0 0 0
0 0 0 0
0 0 0 0
0 0 0 0
0 0 0 0
0 0 0 0
0 0 0 0
0 0 0 0
0 0 0 0
0 0 0 0
0 0 0 0
0 0 0 0
0 0 0 0
0 0 0 0
0 0 0 0
0 0 0 0
0 0 0 0
0 0 0 0
0 0 0 2
34.370998 -3.5339999 4.9650002 6
34.367001 -3.573 5.0139999 15
34.368 -3.6129999 5.0640001 14
0 0 0 7
17.988001 -1.933 2.7019999 19
17.948999 -1.95 2.7219999 23
17.882 -1.964 2.7379999 26
17.851 -1.9809999 2.757 29
17.839001 -2.0009999 2.7809999 34
17.804001 -2.0179999 2.8 35
17.775 -2.0350001 2.8199999 40
17.771 -2.056 2.8440001 36
17.761999 -2.075 2.8659999 40
17.738001 -2.0929999 2.8870001 38
17.716 -2.1110001 2.9070001 43
17.714001 -2.132 2.9300001 46
17.698999 -2.151 2.951 48
17.688999 -2.1700001 2.973 49
17.676001 -2.1889999 2.994 46
17.666 -2.2079999 3.0150001 46
17.656 -2.2279999 3.036 49
17.653999 -2.2479999 3.0580001 52
17.65 -2.2679999 3.079 52
17.648001 -2.2880001 3.1010001 35
17.635 -2.3069999 3.1210001 58
17.625 -2.3269999 3.141 62
17.632 -2.348 3.164 55
17.629999 -2.368 3.1860001 55
17.622 -2.3870001 3.2049999 57
17.618 -2.4070001 3.2260001 55
17.629999 -2.4289999 3.2490001 59
17.648001 -2.4519999 3.273 52
17.645 -2.4719999 3.293 51
17.639999 -2.4920001 3.313 45
17.643999 -2.513 3.3340001 41
17.658001 -2.5350001 3.3570001 46
17.667 -2.556 3.3789999 52
17.66 -2.575 3.3970001 44
17.68 -2.599 3.421 45
17.684 -2.619 3.441 44
17.701 -2.642 3.464 42
17.708 -2.6630001 3.484 38
17.725 -2.6849999 3.507 26
17.735001 -2.707 3.527 35
17.756001 -2.7309999 3.55 24
17.761999 -2.7509999 3.569 31
17.773001 -2.773 3.5910001 28
17.833 -2.802 3.6210001 25
17.862 -2.826 3.645 21
17.902 -2.8529999 3.671 17
17.969 -2.8829999 3.7030001 13
18.034 -2.914 3.734 3
0 0 0 26
29.291 -4.7979999 6.1209998 30
29.183001 -4.8119998 6.1259999 27
29.049999 -4.8210001 6.125 29
28.957001 -4.8369999 6.1329999 27
28.841999 -4.849 6.1350002 31
28.733 -4.862 6.138 28
28.634001 -4.8759999 6.1420002 26
28.521 -4.888 6.1430001 26
28.421 -4.901 6.1469998 25
28.32 -4.9130001 6.1490002 27
28.225 -4.9260001 6.1529999 29
28.125 -4.9390001 6.1539998 27
28.047001 -4.9549999 6.1609998 25
27.931 -4.9629998 6.158 26
27.841 -4.9759998 6.1609998 27
27.75 -4.9879999 6.1630001 27
27.669001 -5.0019999 6.1659999 31
27.594 -5.0170002 6.171 28
27.531 -5.033 6.178 28
27.441 -5.0440001 6.1789999 31
27.365 -5.059 6.1810002 26
27.285999 -5.0710001 6.1830001 26
27.208 -5.0840001 6.1849999 27
27.111 -5.0929999 6.1820002 25
27.039 -5.1059999 6.1859999 27
26.974001 -5.1199999 6.1890001 26
26.896999 -5.132 6.1900001 25
26.844999 -5.1479998 6.1960001 30
26.771 -5.1599998 6.1960001 27
26.702999 -5.1719999 6.197 27
26.618999 -5.1820002 6.1950002 30
26.562 -5.1950002 6.198 26
26.506001 -5.2090001 6.2010002 27
26.433001 -5.2199998 6.1999998 30
26.381001 -5.2340002 6.2030001 32
26.327 -5.2480001 6.2059999 31
26.275 -5.2620001 6.2080002 26
26.219 -5.2750001 6.2090001 30
26.164 -5.2870002 6.21 26
26.106001 -5.2989998 6.21 25
26.058001 -5.3130002 6.2119999 26
26.000999 -5.3239999 6.211 31
25.934999 -5.3330002 6.2090001 30
25.896 -5.348 6.2119999 27
25.849001 -5.3600001 6.2129998 28
25.792 -5.3699999 6.2119999 31
25.766001 -5.3870001 6.217 33
25.715 -5.3979998 6.2160001 27
25.674999 -5.4109998 6.217 30
25.642 -5.4250002 6.2199998 26
25.593 -5.4359999 6.2179999 26
25.573 -5.4530001 6.223 26
25.518999 -5.461 6.2199998 30
25.493 -5.4759998 6.223 25
25.451 -5.4879999 6.2220001 29
25.415001 -5.5 6.2220001 25
25.385 -5.5120001 6.223 24
25.355 -5.526 6.224 25
25.326 -5.539 6.2249999 24
25.280001 -5.5479999 6.2210002 25
25.266001 -5.5640001 6.2249999 24
25.238001 -5.5760002 6.2249999 29
25.207001 -5.5869999 6.224 25
25.186001 -5.6009998 6.2249999 30
25.155001 -5.612 6.224 30
25.141001 -5.6259999 6.2270002 25
25.097 -5.6339998 6.2210002 30
25.101999 -5.6529999 6.2280002 30
25.079 -5.665 6.2270002 27
25.076 -5.6810002 6.2309999 26
25.052 -5.6919999 6.2290001 31
25.047001 -5.7069998 6.2319999 26
25.02 -5.717 6.2290001 31
25.009001 -5.7309999 6.23 29
24.997 -5.744 6.23 28
24.99 -5.7589998 6.2309999 30
24.975 -5.7709999 6.23 25
24.969999 -5.7839999 6.2309999 29
24.968 -5.7989998 6.2329998 31
24.952 -5.8099999 6.2309999 31
24.941 -5.8210001 6.23 30
24.958 -5.8400002 6.2350001 26
24.944 -5.8499999 6.2329998 30
24.948 -5.8649998 6.2340002 31
24.924 -5.8730001 6.2290001 31
24.938999 -5.8899999 6.2329998 26
24.934999 -5.902 6.2309999 31
24.938 -5.915 6.2319999 30
24.934 -5.927 6.23 31
24.945 -5.9429998 6.2309999 27
24.938999 -5.9530001 6.2290001 31
24.950001 -5.9679999 6.23 26
24.957001 -5.9809999 6.23 26
24.965 -5.9949999 6.23 32
24.969 -6.007 6.2280002 27
24.98 -6.0209999 6.2280002 26
24.993 -6.0349998 6.2280002 27
24.981001 -6.0419998 6.2220001 27
25.000999 -6.0570002 6.224 31
25.011 -6.0700002 6.2220001 32
25.035999 -6.086 6.224 30
25.049 -6.099 6.223 29
25.048 -6.1079998 6.2179999 30
25.083 -6.1259999 6.2220001 25
25.094999 -6.1370001 6.2199998 29
25.118999 -6.152 6.2199998 24
25.128 -6.1630001 6.217 24
25.156 -6.178 6.217 25
25.160999 -6.1869998 6.2119999 25
25.184999 -6.2010002 6.211 25
25.205999 -6.2129998 6.21 26
25.214001 -6.223 6.204 29
25.257999 -6.2389998 6.2090001 28
25.301001 -6.257 6.211 25
25.301001 -6.2639999 6.2030001 28
25.337 -6.2779999 6.204 23
25.375999 -6.2940001 6.2049999 25
25.400999 -6.3060002 6.2020001 24
25.424999 -6.3179998 6.198 24
25.459 -6.3309999 6.197 27
25.5 -6.3460002 6.198 28
25.542 -6.3610001 6.198 24
25.576 -6.3740001 6.1960001 30
25.629 -6.3920002 6.198 26
25.67 -6.4060001 6.197 26
25.708 -6.4190001 6.1960001 29
25.75 -6.4330001 6.1929998 30
25.792 -6.447 6.1919999 29
25.839001 -6.461 6.1919999 27
25.877001 -6.473 6.1890001 24
25.913 -6.4850001 6.184 28
25.957001 -6.4980001 6.1830001 27
26.01 -6.513 6.1820002 28
26.07 -6.5300002 6.1830001 24
26.122999 -6.5440001 6.1810002 28
26.16 -6.5539999 6.1760001 28
26.211 -6.5679998 6.1739998 24
26.275999 -6.585 6.1750002 25
26.34 -6.6009998 6.1750002 24
26.385 -6.612 6.1700001 29
26.441999 -6.6259999 6.1680002 29
26.507999 -6.6420002 6.1680002 28
26.565001 -6.6550002 6.165 28
26.615 -6.6669998 6.1599998 27
26.679001 -6.6810002 6.158 27
26.754999 -6.6989999 6.1589999 25
26.808001 -6.71 6.1539998 27
26.871 -6.723 6.151 27
26.936001 -6.737 6.1479998 28
27.02 -6.7550001 6.1490002 24
27.082001 -6.7670002 6.145 26
27.158001 -6.783 6.1430001 26
27.246 -6.8010001 6.1440001 27
27.302999 -6.8109999 6.1370001 26
27.364 -6.822 6.131 26
27.433001 -6.8340001 6.1269999 26
27.537001 -6.8540001 6.1300001 26
27.6 -6.8649998 6.1230001 23
27.688999 -6.881 6.1220002 28
27.789 -6.9000001 6.1230001 24
27.864 -6.9130001 6.118 25
27.952999 -6.928 6.1149998 27
28.032 -6.941 6.1110001 23
28.115 -6.954 6.1059999 23
28.233 -6.9759998 6.1090002 21
28.308001 -6.9860001 6.1030002 24
28.406 -7.0019999 6.0999999 24
28.514 -7.02 6.0999999 25
28.598 -7.0320001 6.0929999 28
28.691999 -7.046 6.0890002 23
28.764 -7.0539999 6.0799999 23
28.884001 -7.0739999 6.0799999 25
28.976999 -7.086 6.0749998 23
29.091 -7.1030002 6.073 23
29.207001 -7.1209998 6.0710001 22
29.32 -7.1370001 6.0679998 25
29.417999 -7.1490002 6.0619998 21
29.532 -7.165 6.0580001 24
29.632999 -7.177 6.0510001 24
29.76 -7.1950002 6.0510001 22
29.875 -7.2090001 6.046 23
30.004999 -7.2280002 6.0440001 24
30.114 -7.2389998 6.0359998 24
30.226 -7.2519999 6.0310001 24
30.341 -7.2649999 6.0240002 23
30.490999 -7.2859998 6.0240002 22
30.610001 -7.2989998 6.0180001 22
30.737 -7.3140001 6.0120001 23
30.848 -7.3239999 6.0029998 25
31.000999 -7.3439999 6.0009999 22
31.136999 -7.3590002 5.9970002 23
31.261 -7.3709998 5.9889998 21
31.41 -7.388 5.9850001 21
31.548 -7.4029999 5.9790001 21
31.705999 -7.421 5.9770002 21
31.862 -7.4390001 5.9720001 22
32.042 -7.461 5.973 23
32.192001 -7.4749999 5.9660001 23
32.324001 -7.4860001 5.9569998 23
32.497002 -7.5050001 5.954 23
32.659 -7.5209999 5.9489999 24
32.799999 -7.5320001 5.9390001 24
32.974998 -7.5500002 5.9349999 24
33.141998 -7.566 5.9289999 24
33.306999 -7.5799999 5.9229999 24
33.5 -7.6009998 5.9200001 25
33.650002 -7.612 5.9089999 24
33.839001 -7.6300001 5.9050002 24
34.025002 -7.6459999 5.8990002 25
34.216999 -7.664 5.895 26
34.368 -7.6729999 5.882 25
34.513 -7.678 5.8670001 23
34.662998 -7.684 5.8530002 22
34.824001 -7.6929998 5.8400002 20
34.931 -7.6890001 5.8179998 15
35.070999 -7.6919999 5.8010001 10
35.283001 -7.7090001 5.7950001 5
35.199001 -7.6620002 5.7410002 7
35.118999 -7.6160002 5.6859999 12
35.131001 -7.5879998 5.6469998 11
35.152 -7.5640001 5.6090002 9
0 0 0 0
0 0 0 0
0 0 0 0
0 0 0 0
0 0 0 0
0 0 0 0
0 0 0 0
0 0 0 0
0 0 0 0
0 0 0 0
0 0 0 0
0 0 0 0
0 0 0 0
0 0 0 0
0 0 0 0
0 0 0 0
0 0 0 0
0 0 0 0
0 0 0 0
0 0 0 0
0 0 0 0
0 0 0 0
0 0 0 0
0 0 0 0
0 0 0 0
0 0 0 0
0 0 0 0
0 0 0 0
0 0 0 0
0 0 0 0
0 0 0 0
0 0 0 0
0 0 0 0
0 0 0 3
34.824001 -6.2379999 4.0469999 16
34.827 -6.197 4.0019999 13
0 0 0 0
0 0 0 0
0 0 0 0
0 0 0 0
0 0 0 0
0 0 0 0
0 0 0 0
0 0 0 0
0 0 0 0
0 0 0 0
0 0 0 0
0 0 0 0
0 0 0 0
0 0 0 0
0 0 0 5
17.868999 -2.816 1.6849999 16
17.806999 -2.783 1.656 23
17.74 -2.7479999 1.627 24
17.725 -2.7219999 1.602 27
17.697001 -2.6930001 1.577 33
17.673 -2.664 1.552 35
17.663 -2.6389999 1.528 41
17.643999 -2.612 1.5039999 43
17.627001 -2.5840001 1.48 41
17.627001 -2.559 1.457 31
17.612 -2.5320001 1.433 42
17.596001 -2.5050001 1.409 43
17.601999 -2.4809999 1.387 44
17.59 -2.454 1.363 39
17.583 -2.427 1.34 46
17.573999 -2.4000001 1.317 49
17.577999 -2.375 1.294 35
17.565001 -2.3469999 1.271 55
17.566 -2.3210001 1.248 55
17.577999 -2.2969999 1.227 39
17.576 -2.27 1.204 37
17.583 -2.2449999 1.182 55
17.591 -2.2190001 1.16 35
17.601 -2.194 1.1390001 52
17.620001 -2.1689999 1.117 53
17.622999 -2.142 1.095 31
17.632 -2.1159999 1.074 41
17.664 -2.0929999 1.053 28
17.676001 -2.0669999 1.0319999 28
17.684 -2.0409999 1.01 38
17.711 -2.0150001 0.98900002 34
17.725 -1.989 0.96799999 32
17.754999 -1.964 0.94700003 29
17.791 -1.9400001 0.92699999 27
17.853001 -1.918 0.90799999 23
17.914 -1.896 0.88800001 20
18.007999 -1.877 0.87099999 6
0 0 0 105
34.166 -3.451 1.568 115
34.155998 -3.3940001 1.526 107
34.144001 -3.3380001 1.483 110
34.113998 -3.2780001 1.4400001 106
34.119999 -3.2219999 1.398 107
34.094002 -3.1630001 1.3559999 104
34.064999 -3.1040001 1.313 104
34.073002 -3.0480001 1.273 107
34.076 -2.9909999 1.2309999 82
34.081001 -2.934 1.1900001 82
34.063999 -2.8759999 1.149 48
34.200001 -2.829 1.112 18
34.342999 -2.7820001 1.076 9
34.43 -2.7309999 1.038 6
0 0 0 8
0 0 0 0
0 0 0 0
0 0 0 0
0 0 0 0
0 0 0 0
0 0 0 0
0 0 0 39
34.164001 -2.178 0.67000002 23
34.215 -2.1210001 0.63200003 28
34.223999 -2.0610001 0.59299999 5
0 0 0 7
0 0 0 1
18.813 -1.033 0.26199999 1
0 0 0 0
0 0 0 0
0 0 0 0
0 0 0 0
0 0 0 1
17.923 -0.79000002 0.13 1
17.825001 -0.75400001 0.109 1
17.625 -0.713 0.089000002 1
0 0 0 0
0 0 0 0
0 0 0 0
0 0 0 0
0 0 0 1
17.129999 -0.505 -0.023 2
17.135 -0.47400001 -0.039999999 9
17.139 -0.44299999 -0.057999998 10
17.111 -0.41100001 -0.075999998 12
17.127001 -0.38 -0.093000002 20
17.202999 -0.34900001 -0.112 8
17.228001 -0.31799999 -0.12899999 9
17.222 -0.28600001 -0.147 5
17.108999 -0.252 -0.163 1
17.106001 -0.22 -0.18000001 1
17.121 -0.18799999 -0.197 1
17.150999 -0.156 -0.215 1
0 0 0 0
0 0 0 0
0 0 0 0
0 0 0 0
0 0 0 0
0 0 0 1
17.243 0.07 -0.333 1
17.288 0.103 -0.34999999 1
17.318001 0.13600001 -0.36700001 25
17.344999 0.169 -0.38299999 74
17.343 0.20200001 -0.39899999 66
17.150999 0.233 -0.41100001 1
0 0 0 0
0 0 0 1
17.604 0.33899999 -0.46900001 3
17.591 0.373 -0.484 3
17.599001 0.40700001 -0.5 3
17.628 0.44100001 -0.51700002 3
18.025 0.486 -0.54400003 1
18.655001 0.53899997 -0.579 2
18.889 0.58200002 -0.60299999 2
19.127001 0.62599999 -0.62699997 2
19.417999 0.67299998 -0.65200001 1
19.813999 0.72399998 -0.68199998 2
20.158001 0.77600002 -0.71100003 3
20.243999 0.81800002 -0.73000002 4
20.705 0.87599999 -0.764 7
20.773001 0.91900003 -0.78299999 4
0 0 0 25
36.182999 1.742 -1.423 23
37.015999 1.852 -1.484 16
0 0 0 15
24.862 1.34 -1.036 79
24.855 1.3890001 -1.0549999 29
24.806 1.433 -1.071 15
24.768999 1.48 -1.089 6
24.791 1.529 -1.108 3
24.763 1.575 -1.125 3
24.16 1.5829999 -1.115 4
24.006001 1.619 -1.126 5
0 0 0 3
0 0 0 0
0 0 0 0
0 0 0 0
0 0 0 1
0 0 0 0
0 0 0 1
18.507999 1.533 -0.97000003 1
18.027 1.528 -0.95700002 2
17.642 1.529 -0.94800001 2
0 0 0 3
16.959999 1.536 -0.93400002 2
16.643 1.539 -0.92699999 2
16.278 1.536 -0.91600001 2
15.853 1.526 -0.90200001 2
15.588 1.53 -0.89600003 2
15.278 1.529 -0.88800001 2
14.959 1.526 -0.87800002 2
14.731 1.53 -0.87300003 2
14.318 1.515 -0.85699999 2
14.058 1.5140001 -0.85000002 4
14.082 1.544 -0.85900003 2
13.869 1.546 -0.85399997 2
13.668 1.55 -0.84899998 3
13.439 1.549 -0.84200001 3
13.269 1.5549999 -0.83899999 3
13.069 1.556 -0.833 3
12.913 1.562 -0.82999998 3
12.702 1.561 -0.82300001 3
12.559 1.566 -0.81999999 3
12.389 1.569 -0.815 3
12.226 1.571 -0.81099999 3
12.103 1.5779999 -0.80800003 2
11.984 1.585 -0.80599999 2
11.856 1.59 -0.80299997 2
11.763 1.599 -0.80199999 3
11.651 1.605 -0.80000001 2
11.508 1.607 -0.79500002 2
11.399 1.613 -0.79299998 3
11.25 1.612 -0.787 3
11.177 1.622 -0.787 8
11.175 1.643 -0.792 17
11.117 1.654 -0.792 13
11.045 1.664 -0.792 12
10.971 1.6720001 -0.79100001 9
10.884 1.679 -0.78899997 11
10.712 1.6720001 -0.78100002 18
10.608 1.675 -0.77700001 10
10.501 1.677 -0.773 3
10.44 1.686 -0.77200001 3
10.362 1.692 -0.76999998 4
10.274 1.6950001 -0.76700002 2
10.182 1.698 -0.764 2
10.084 1.699 -0.75999999 3
10.018 1.706 -0.75800002 3
9.9429998 1.711 -0.75599998 3
9.8730001 1.716 -0.75400001 4
9.8030005 1.721 -0.75099999 4
9.7810001 1.734 -0.75300002 2
9.7220001 1.7410001 -0.75099999 3
9.6660004 1.748 -0.75 3
9.5970001 1.752 -0.74699998 3
9.5710001 1.763 -0.74800003 3
9.4969997 1.766 -0.745 3
9.4449997 1.772 -0.74299997 3
9.4049997 1.781 -0.74199998 3
9.3710003 1.791 -0.74199998 3
9.3260002 1.798 -0.741 2
9.2749996 1.803 -0.73900002 3
9.2309999 1.8099999 -0.73699999 3
9.1940002 1.818 -0.736 3
9.1470003 1.824 -0.73500001 3
9.1219997 1.834 -0.73400003 3
9.0679998 1.8380001 -0.73199999 3
9.0410004 1.847 -0.73199999 3
9.0100002 1.8559999 -0.73100001 4
8.9729996 1.863 -0.73000002 4
8.9530001 1.874 -0.73000002 3
8.9069996 1.878 -0.727 4
8.8760004 1.886 -0.72600001 3
8.8629999 1.897 -0.727 4
8.8479996 1.908 -0.727 4
8.8129997 1.914 -0.72500002 4
8.7799997 1.921 -0.72399998 4
8.7700005 1.932 -0.72399998 3
8.7229996 1.936 -0.72100002 4
8.7069998 1.9450001 -0.72100002 4
8.7119999 1.96 -0.722 3
8.684 1.967 -0.72100002 3
8.6870003 1.9809999 -0.722 3
8.6759996 1.992 -0.722 3
8.6450005 1.998 -0.72000003 3
8.6300001 2.007 -0.72000003 3
8.618 2.017 -0.72000003 3
8.6190004 2.03 -0.72000003 3
8.6269999 2.0450001 -0.722 3
8.5760002 2.0450001 -0.71799999 3
8.573 2.0569999 -0.71799999 3
8.5530005 2.0650001 -0.71700001 3
8.5509996 2.076 -0.71700001 3
8.54 2.086 -0.71600002 3
8.5279999 2.095 -0.71600002 3
8.507 2.102 -0.71399999 3
8.5229998 2.118 -0.71600002 2
8.4940004 2.122 -0.713 2
8.4919996 2.1340001 -0.713 2
8.4899998 2.145 -0.713 3
8.4860001 2.155 -0.713 2
8.5010004 2.1700001 -0.71399999 3
8.4870005 2.178 -0.713 3
8.5050001 2.194 -0.71399999 3
8.4919996 2.2019999 -0.713 3
8.4890003 2.2119999 -0.71200001 3
8.4949999 2.2249999 -0.713 3
8.4870005 2.234 -0.71200001 3
8.4960003 2.247 -0.71200001 3
8.4820004 2.2539999 -0.70999998 3
8.5039997 2.2709999 -0.71200001 3
8.5229998 2.2869999 -0.713 3
8.5229998 2.2969999 -0.71200001 3
8.5430002 2.313 -0.713 4
8.6479998 2.352 -0.722 7
8.6870003 2.3729999 -0.72399998 16
8.6669998 2.378 -0.72100002 18
8.6190004 2.375 -0.71700001 18
8.5649996 2.3699999 -0.71100003 22
8.526 2.369 -0.70700002 25
8.5209999 2.3770001 -0.70599997 24
8.5039997 2.382 -0.704 22
8.5310001 2.3989999 -0.70499998 21
8.5710001 2.4200001 -0.70700002 18
8.5839996 2.4330001 -0.70700002 18
8.6120005 2.451 -0.708 18
8.6230001 2.4630001 -0.708 18
8.6260004 2.473 -0.70700002 18
8.6190004 2.48 -0.70499998 18
8.625 2.4909999 -0.704 18
8.6269999 2.5 -0.70300001 18
8.6499996 2.5150001 -0.704 18
8.6630001 2.5280001 -0.70300001 16
8.7270002 2.556 -0.70700002 8
8.7749996 2.5780001 -0.70899999 7
8.8240004 2.6010001 -0.71200001 5
8.8529997 2.618 -0.713 4
8.8699999 2.632 -0.71200001 4
8.9020004 2.6489999 -0.713 4
8.9110003 2.6600001 -0.71200001 5
8.9490004 2.6800001 -0.713 4
8.9809999 2.697 -0.71399999 4
8.9940004 2.7090001 -0.713 5
9.026 2.727 -0.71399999 4
9.0649996 2.7460001 -0.71499997 4
9.1009998 2.7650001 -0.71600002 5
9.1090002 2.7750001 -0.71399999 5
9.1669998 2.8 -0.71700001 4
9.1949997 2.816 -0.71700001 3
9.2159996 2.8299999 -0.71700001 4
9.2489996 2.8469999 -0.71700001 4
9.2889996 2.8659999 -0.71700001 4
9.309 2.8800001 -0.71700001 5
9.3509998 2.8989999 -0.71799999 5
9.3999996 2.921 -0.71899998 4
9.408 2.931 -0.71700001 4
9.4589996 2.9530001 -0.71799999 5
9.4879999 2.9690001 -0.71799999 5
9.552 2.9949999 -0.72000003 3
9.5909996 3.0139999 -0.72100002 3
9.651 3.039 -0.72299999 4
9.6969995 3.0599999 -0.72299999 4
9.7580004 3.085 -0.72500002 3
9.809 3.1070001 -0.72600001 4
9.8540001 3.1270001 -0.72600001 3
9.8990002 3.1470001 -0.727 4
9.9540005 3.1700001 -0.72799999 4
10.011 3.194 -0.72899997 3
10.057 3.214 -0.72899997 3
10.117 3.2379999 -0.73000002 4
10.156 3.256 -0.73000002 4
10.21 3.2780001 -0.73000002 4
10.27 3.302 -0.73100001 3
10.326 3.325 -0.73199999 3
10.369 3.3440001 -0.73199999 4
10.43 3.368 -0.73299998 4
10.5 3.395 -0.73400003 3
10.54 3.4130001 -0.73299998 3
10.603 3.437 -0.73400003 3
10.665 3.461 -0.73500001 3
10.746 3.4920001 -0.73699999 3
10.791 3.51 -0.736 2
10.886 3.5450001 -0.73799998 2
10.926 3.5610001 -0.73799998 2
10.992 3.586 -0.73799998 2
11.066 3.6140001 -0.73900002 2
11.13 3.638 -0.73900002 2
11.19 3.6600001 -0.73900002 2
11.291 3.6960001 -0.74199998 2
11.368 3.724 -0.74299997 2
11.472 3.7609999 -0.745 3
11.553 3.79 -0.74599999 3
11.667 3.8299999 -0.74900001 3
11.74 3.8559999 -0.74900001 3
11.848 3.8929999 -0.75199997 3
11.925 3.9200001 -0.75199997 2
12.052 3.964 -0.755 2
12.14 3.994 -0.75599998 2
12.229 4.0250001 -0.75599998 2
12.359 4.0689998 -0.759 2
12.442 4.098 -0.75999999 2
12.567 4.1399999 -0.76300001 3
12.66 4.171 -0.76300001 2
12.776 4.21 -0.76499999 2
12.969 4.2740002 -0.77100003 3
13.154 4.335 -0.77700001 3
13.325 4.3909998 -0.78200001 3
13.463 4.4359999 -0.78399998 4
13.619 4.487 -0.787 4
13.734 4.5250001 -0.78799999 4
13.855 4.5640001 -0.79000002 4
13.931 4.5879998 -0.78799999 4
14.027 4.618 -0.78799999 4
14.093 4.638 -0.78500003 4
14.182 4.6659999 -0.78399998 4
14.308 4.7059999 -0.78500003 4
14.384 4.7280002 -0.78299999 4
14.542 4.7779999 -0.78600001 4
14.672 4.8179998 -0.78600001 4
14.807 4.8600001 -0.787 4
14.251 4.6739998 -0.75099999 2
14.552 4.77 -0.76099998 2
14.624 4.79 -0.759 2
0 0 0 0
0 0 0 2
15.842 5.177 -0.801 3
15.899 5.191 -0.796 3
16.393999 5.3470001 -0.81400001 3
16.179001 5.2719998 -0.796 3
0 0 0 0
0 0 0 0
0 0 0 0
0 0 0 3
17.490999 5.6680002 -0.82200003 3
17.816999 5.7659998 -0.829 3
18.047001 5.8330002 -0.83200002 3
0 0 0 0
0 0 0 3
0 0 0 0
0 0 0 4
20.316999 6.52 -0.89099997 4
20.507 6.5710001 -0.88999999 3
0 0 0 0
0 0 0 0
0 0 0 2
21.018 6.6900001 -0.87400001 1
0 0 0 3
0 0 0 0
0 0 0 0
0 0 0 2
28.059 8.8470001 -1.102 2
28.459999 8.9540005 -1.104 2
28.701 9.0109997 -1.101 3
28.884001 9.0500002 -1.095 6
28.847 9.0179996 -1.081 9
28.864 9.0030003 -1.067 15
28.900999 8.9949999 -1.056 18
28.950001 8.9890003 -1.045 11
29.028999 8.9919996 -1.034 9
29.068001 8.9820004 -1.022 9
29.051001 8.9549999 -1.008 9
28.995001 8.9139996 -0.99400002 23
28.933001 8.8730001 -0.977 122
28.921 8.8459997 -0.96399999 134
28.945999 8.8299999 -0.95099998 73
28.965 8.8109999 -0.93900001 32
28.985001 8.7930002 -0.92699999 30
28.979 8.7659998 -0.91399997 32
28.955 8.7340002 -0.89999998 28
28.989 8.7180004 -0.88800001 9
28.992001 8.6940002 -0.87400001 4
29.009001 8.6719999 -0.86199999 4
29.197001 8.7010002 -0.85399997 5
29.313999 8.7080002 -0.84500003 10
29.101 8.618 -0.82599998 19
28.992001 8.5570002 -0.81 28
29.002001 8.5319996 -0.79799998 25
29.018 8.5089998 -0.78500003 18
29.049999 8.4890003 -0.773 11
29.066999 8.4639997 -0.76099998 6
29.108 8.4460001 -0.74900001 3
29.16 8.4309998 -0.73799998 39
29.188999 8.408 -0.72500002 40
29.223 8.3879995 -0.71399999 44
29.25 8.3649998 -0.70200002 37
29.275999 8.3400002 -0.69 27
29.358 8.3299999 -0.67900002 11
29.382999 8.3050003 -0.667 7
29.374001 8.2690001 -0.65499997 2
0 0 0 0
0 0 0 0
0 0 0 0
0 0 0 0
0 0 0 33
29.827999 8.1890001 -0.58999997 56
30.089001 8.224 -0.58200002 8
0 0 0 10
34.398998 9.3190002 -0.63700002 7
34.423 9.2810001 -0.62300003 2
0 0 0 81
46.195999 12.34 -0.80000001 99
46.205002 12.283 -0.78200001 98
46.220001 12.226 -0.76200002 97
46.245998 12.174 -0.745 105
46.226002 12.109 -0.727 150
46.243999 12.052 -0.70999998 153
46.272999 11.997 -0.69099998 139
46.293999 11.94 -0.67299998 119
46.319 11.884 -0.65700001 93
46.335999 11.825 -0.639 82
46.335999 11.761 -0.62199998 72
46.366001 11.704 -0.60500002 49
46.409 11.649 -0.58899999 28
0 0 0 2
38.734001 9.6129999 -0.46200001 3
38.695 9.5480003 -0.447 4
38.678001 9.4890003 -0.43399999 4
0 0 0 0
0 0 0 0
0 0 0 3
0 0 0 20
82.050003 19.527 -0.77899998 22
0 0 0 2
0 0 0 0
0 0 0 0
0 0 0 0
0 0 0 0
0 0 0 0
0 0 0 0
0 0 0 0
0 0 0 0
0 0 0 0
0 0 0 0
0 0 0 0
0 0 0 0
0 0 0 0
0 0 0 0
0 0 0 0
0 0 0 0
0 0 0 0
0 0 0 3
37.575001 7.7449999 -0.13 6
37.549 7.6760001 -0.121 8
37.488998 7.5999999 -0.111 13
37.449001 7.5279999 -0.102 21
37.455002 7.4660001 -0.093000002 16
37.547001 7.4190001 -0.083999999 7
37.625999 7.3699999 -0.075999998 4
37.729 7.3249998 -0.066 2
37.945999 7.3010001 -0.057999998 7
37.924999 7.2290001 -0.050000001 15
0 0 0 0
0 0 0 26
0 0 0 0
0 0 0 32
0 0 0 25
0 0 0 73
129.668 23.099001 0.0060000001 102
129.75999 22.884001 0.027000001 116
129.806 22.658001 0.052999999 112
129.83299 22.424999 0.075000003 96
129.922 22.205 0.093999997 98
129.96201 21.972 0.115 97
0 0 0 24
0 0 0 85
0 0 0 0
0 0 0 32
0 0 0 90
130.27299 20.562 0.222 103
130.299 20.32 0.23800001 81
130.362 20.083 0.25299999 75
130.40199 19.841 0.26699999 70
130.423 19.594999 0.28 62
130.511 19.362 0.29100001 61
130.528 19.121 0.30399999 56
130.558 18.874001 0.315 54
130.67 18.638 0.32499999 53
130.69299 18.391001 0.333 48
130.80901 18.153999 0.34200001 53
130.86099 17.906 0.34999999 44
130.87199 17.648001 0.35499999 40
130.959 17.403999 0.36199999 36
131.069 17.160999 0.368 42
131.103 16.907 0.37200001 40
131.185 16.659 0.37599999 45
0 0 0 0
0 0 0 64
71.073997 8.6049995 0.206 65
71.120003 8.4680004 0.207 67
71.174004 8.3330002 0.207 73
70.411003 8.1020002 0.204 82
68.092003 7.6989999 0.19599999 33
65.185997 7.2389998 0.186 28
64.931 7.0819998 0.183 64
64.964996 6.9549999 0.18099999 70
64.960999 6.823 0.178 150
65.007004 6.698 0.17399999 70
0 0 0 2
36.473 3.612 0.093999997 5
36.497002 3.54 0.090999998 5
0 0 0 81
55.979 5.2010002 0.131 86
55.983002 5.086 0.126 133
0 0 0 7
0 0 0 12
42.369999 3.589 0.082000002 8
42.379002 3.5020001 0.077 3
0 0 0 89
