# .PCD v0.7 - Point Cloud Data file format
VERSION 0.7
FIELDS x y z intensity
SIZE 4 4 4 4
TYPE F F F F
COUNT 1 1 1 1
WIDTH 1775
HEIGHT 1
VIEWPOINT 0 0 0 1 0 0 0
POINTS 1775
DATA ascii
12.227 0.70200002 -0.83999997 3
11.828 0.69800001 -0.82700002 2
11.513 0.699 -0.81900001 2
11.222 0.69999999 -0.81199998 2
10.984 0.704 -0.80699998 3
10.764 0.708 -0.80400002 4
10.496 0.708 -0.796 2
10.237 0.708 -0.78799999 2
10.02 0.70899999 -0.78299999 3
9.8079996 0.71100003 -0.77700001 2
9.5769997 0.70999998 -0.76999998 3
9.3929996 0.71200001 -0.76599997 3
9.2159996 0.71399999 -0.76200002 4
9.0159998 0.71399999 -0.755 4
8.8540001 0.71600002 -0.75099999 4
8.6719999 0.71600002 -0.745 4
8.5609999 0.72100002 -0.745 4
8.4099998 0.722 -0.741 3
8.2869997 0.72500002 -0.73900002 3
8.1420002 0.72600001 -0.73500001 3
7.9879999 0.72600001 -0.73000002 3
7.8569999 0.727 -0.72600001 3
7.7410002 0.72899997 -0.72299999 3
7.5809999 0.727 -0.71600002 3
7.4419999 0.72600001 -0.71100003 3
7.329 0.72799999 -0.70700002 3
7.2319999 0.73000002 -0.70499998 3
7.1290002 0.73100001 -0.70200002 3
7.026 0.73299998 -0.699 3
6.921 0.73299998 -0.69599998 3
6.829 0.73500001 -0.69300002 3
6.7090001 0.73299998 -0.68699998 3
6.6040001 0.73299998 -0.68300003 3
6.5120001 0.73299998 -0.68000001 3
6.4439998 0.73699999 -0.67900002 4
6.3470001 0.736 -0.67500001 5
6.2340002 0.73299998 -0.66900003 7
6.1479998 0.73299998 -0.66500002 8
6.1009998 0.73799998 -0.66600001 10
6.04 0.741 -0.66500002 11
5.9829998 0.74400002 -0.66399997 12
5.915 0.745 -0.66100001 12
5.8559999 0.74699998 -0.66000003 11
5.8340001 0.75400001 -0.66299999 7
5.7800002 0.75599998 -0.66100001 3
5.691 0.75400001 -0.65600002 2
5.6209998 0.75400001 -0.653 3
5.5669999 0.75599998 -0.65100002 2
5.507 0.75700003 -0.64899999 3
5.447 0.75700003 -0.64700001 2
5.4039998 0.75999999 -0.64600003 3
5.3439999 0.75999999 -0.64300001 2
5.289 0.76099998 -0.64099997 4
5.2519999 0.764 -0.63999999 4
5.197 0.76499999 -0.63800001 2
5.1459999 0.76599997 -0.63599998 2
5.086 0.76499999 -0.63200003 3
5.0489998 0.76700002 -0.63099998 2
4.9460001 0.75999999 -0.62199998 5
4.9169998 0.76300001 -0.62199998 5
4.9169998 0.77100003 -0.62599999 3
4.8870001 0.77399999 -0.62599999 2
4.8540001 0.77600002 -0.625 2
4.823 0.77899998 -0.625 3
4.7789998 0.77899998 -0.62199998 2
4.756 0.78299999 -0.62300003 2
4.7150002 0.78399998 -0.62099999 2
4.6869998 0.78600001 -0.62 2
4.658 0.78899997 -0.61900002 2
4.6170001 0.78899997 -0.61699998 2
4.5869999 0.79100001 -0.616 2
4.5430002 0.79100001 -0.61299998 3
4.5120001 0.792 -0.61199999 3
4.5089998 0.79900002 -0.61500001 2
4.4720001 0.79900002 -0.61199999 2
4.448 0.801 -0.61199999 4
4.421 0.80299997 -0.611 2
4.3829999 0.80299997 -0.60799998 2
4.355 0.80400002 -0.60699999 2
4.3390002 0.80800003 -0.60699999 2
4.3460002 0.81599998 -0.611 2
4.2810001 0.81 -0.60399997 2
4.27 0.81400001 -0.60500002 4
4.2600002 0.81900001 -0.60600001 2
4.1859999 0.81 -0.59799999 2
4.1609998 0.81199998 -0.59600002 3
4.1389999 0.81400001 -0.59500003 5
4.1459999 0.82099998 -0.59799999 6
4.1220002 0.82200003 -0.597 5
4.1030002 0.824 -0.597 5
4.0890002 0.82700002 -0.597 3
4.1020002 0.83600003 -0.60100001 3
4.1360002 0.84799999 -0.60699999 3
4.0710001 0.84100002 -0.60000002 3
4.0900002 0.85100001 -0.60500002 3
4.0539999 0.84899998 -0.60100001 3
3.9920001 0.84100002 -0.59399998 4
3.977 0.84399998 -0.59299999 4
3.961 0.84600002 -0.59299999 3
3.9419999 0.847 -0.59100002 4
3.9300001 0.85000002 -0.59100002 4
3.924 0.85399997 -0.59200001 4
3.9030001 0.85399997 -0.58999997 3
3.895 0.85799998 -0.59100002 3
3.8989999 0.86400002 -0.59299999 2
3.902 0.87 -0.59500003 2
3.947 0.88499999 -0.60299999 3
3.9909999 0.89999998 -0.611 3
3.875 0.87900001 -0.59500003 2
3.974 0.90700001 -0.611 3
3.8929999 0.89300001 -0.60000002 2
3.901 0.89999998 -0.60299999 2
3.855 0.89399999 -0.597 2
3.8199999 0.89099997 -0.59299999 2
3.8139999 0.89399999 -0.59299999 2
3.928 0.926 -0.61199999 3
3.822 0.90499997 -0.59600002 2
3.757 0.89499998 -0.58700001 2
3.779 0.90499997 -0.59200001 2
3.8050001 0.91500002 -0.597 2
3.753 0.90700001 -0.58999997 2
3.809 0.92500001 -0.60000002 2
3.767 0.92000002 -0.59399998 2
3.737 0.917 -0.58999997 2
3.77 0.92900002 -0.59600002 2
3.76 0.93099999 -0.59500003 2
3.714 0.92400002 -0.58899999 2
3.7479999 0.93699998 -0.59500003 2
3.7260001 0.935 -0.59200001 2
3.737 0.94199997 -0.59500003 3
3.687 0.93400002 -0.58700001 2
3.7160001 0.94499999 -0.59299999 2
3.7019999 0.94499999 -0.59100002 2
3.7130001 0.95200002 -0.59399998 2
3.753 0.96600002 -0.60000002 2
3.7290001 0.96399999 -0.597 2
3.6359999 0.94400001 -0.583 2
3.7090001 0.96700001 -0.59500003 2
3.615 0.94599998 -0.57999998 3
3.6270001 0.95300001 -0.583 2
3.6159999 0.95300001 -0.58099997 2
3.723 0.98500001 -0.59899998 3
3.6659999 0.97399998 -0.58999997 2
3.678 0.98100001 -0.59200001 3
3.5940001 0.96200001 -0.579 3
3.5929999 0.96499997 -0.579 3
3.5910001 0.96799999 -0.579 3
3.5929999 0.972 -0.579 3
3.595 0.97500002 -0.57999998 3
3.5829999 0.97500002 -0.57800001 3
3.6010001 0.98400003 -0.58099997 3
3.596 0.98500001 -0.57999998 3
3.592 0.98699999 -0.57999998 3
3.596 0.991 -0.57999998 3
3.5940001 0.99400002 -0.57999998 3
3.598 0.99800003 -0.58099997 4
3.589 0.99900001 -0.579 3
3.595 1.003 -0.57999998 4
3.5940001 1.006 -0.57999998 4
3.595 1.0089999 -0.57999998 4
3.5910001 1.01 -0.579 3
3.5910001 1.013 -0.579 3
3.595 1.017 -0.579 3
3.602 1.022 -0.57999998 3
3.5969999 1.023 -0.579 3
3.592 1.024 -0.57800001 3
3.596 1.028 -0.57800001 3
3.6070001 1.033 -0.57999998 3
3.599 1.033 -0.57800001 3
3.6070001 1.038 -0.579 4
3.6229999 1.045 -0.58099997 4
3.628 1.049 -0.58200002 4
3.625 1.05 -0.58099997 4
3.6170001 1.05 -0.579 4
3.6300001 1.056 -0.57999998 4
3.619 1.0549999 -0.57800001 3
3.674 1.074 -0.58600003 2
3.694 1.081 -0.58899999 3
3.6819999 1.08 -0.58600003 3
3.6919999 1.085 -0.58700001 3
3.7030001 1.09 -0.588 3
3.721 1.097 -0.58999997 3
3.721 1.099 -0.58999997 3
3.6949999 1.0930001 -0.58499998 3
3.7030001 1.098 -0.58499998 3
3.6889999 1.095 -0.58200002 2
3.71 1.103 -0.58499998 3
3.6889999 1.098 -0.57999998 2
3.7639999 1.123 -0.59100002 2
3.6919999 1.103 -0.579 2
3.694 1.105 -0.57800001 1
3.737 1.119 -0.58399999 2
3.71 1.112 -0.579 1
3.7179999 1.1160001 -0.579 1
3.7639999 1.131 -0.58499998 3
3.744 1.127 -0.58099997 2
3.7390001 1.126 -0.579 1
3.809 1.148 -0.58899999 3
3.7650001 1.136 -0.58099997 2
3.799 1.148 -0.58499998 3
3.7839999 1.1440001 -0.58200002 3
3.7720001 1.142 -0.579 2
3.8440001 1.164 -0.588 3
3.8299999 1.161 -0.58499998 3
3.8510001 1.168 -0.58700001 3
3.8740001 1.176 -0.58899999 3
3.8759999 1.178 -0.588 3
3.885 1.181 -0.588 2
3.878 1.179 -0.58600003 2
3.888 1.183 -0.58600003 2
3.994 1.216 -0.60000002 3
3.921 1.194 -0.588 4
3.9389999 1.2 -0.58899999 4
3.9579999 1.206 -0.58999997 5
3.9619999 1.2079999 -0.58899999 6
3.973 1.212 -0.58899999 7
3.9760001 1.2130001 -0.588 9
3.9820001 1.215 -0.58700001 10
3.9849999 1.216 -0.58600003 11
3.9879999 1.217 -0.58499998 12
3.99 1.2180001 -0.583 12
3.99 1.2180001 -0.58099997 13
3.9920001 1.2180001 -0.57999998 13
3.9990001 1.22 -0.579 13
4.006 1.222 -0.57800001 13
4.0079999 1.222 -0.57700002 12
4.0139999 1.224 -0.57599998 12
4.0209999 1.226 -0.57499999 10
4.046 1.233 -0.57599998 9
4.0549998 1.235 -0.57599998 6
4.0770001 1.2410001 -0.57700002 5
4.2259998 1.286 -0.59600002 4
4.2969999 1.307 -0.60399997 4
4.217 1.2819999 -0.58999997 3
4.257 1.294 -0.59399998 3
4.2820001 1.3 -0.59500003 3
4.309 1.308 -0.597 3
4.335 1.3150001 -0.59799999 3
4.362 1.322 -0.59899998 3
4.382 1.327 -0.60000002 3
4.4039998 1.332 -0.60000002 3
4.428 1.3380001 -0.60100001 3
4.448 1.3430001 -0.602 3
4.4660001 1.347 -0.602 3
4.4860001 1.352 -0.602 5
4.5149999 1.359 -0.60299999 3
4.5380001 1.365 -0.60399997 3
4.5669999 1.3710001 -0.60500002 3
4.5869999 1.376 -0.60500002 3
4.6199999 1.3839999 -0.60699999 3
4.6430001 1.3890001 -0.60699999 3
4.6750002 1.397 -0.60799998 3
4.7010002 1.402 -0.60900003 3
4.7249999 1.4069999 -0.60900003 3
4.7600002 1.416 -0.611 3
4.776 1.418 -0.61000001 3
4.822 1.4299999 -0.61299998 3
4.8330002 1.431 -0.61199999 4
4.8769999 1.441 -0.61400002 3
4.9050002 1.447 -0.61500001 3
4.934 1.4529999 -0.61500001 3
4.9590001 1.4579999 -0.61500001 3
5.0040002 1.4680001 -0.61799997 3
5.0289998 1.473 -0.61699998 3
5.0770001 1.484 -0.62 3
5.1090002 1.49 -0.62099999 4
5.158 1.501 -0.62400001 2
5.1919999 1.508 -0.62400001 4
5.244 1.52 -0.62699997 4
5.2810001 1.527 -0.62800002 3
5.3150001 1.533 -0.62900001 5
5.3670001 1.545 -0.63099998 3
5.4060001 1.552 -0.63200003 3
5.4359999 1.557 -0.63200003 3
5.4860001 1.568 -0.634 4
5.5110002 1.571 -0.634 4
5.559 1.58 -0.63499999 4
5.6059999 1.589 -0.63700002 4
5.6459999 1.597 -0.63800001 4
5.6929998 1.6059999 -0.639 4
5.7459998 1.6160001 -0.64099997 4
5.7880001 1.623 -0.64200002 4
5.8330002 1.631 -0.64300001 4
5.8870001 1.641 -0.64499998 4
5.9559999 1.655 -0.648 4
5.993 1.661 -0.648 4
6.0749998 1.678 -0.653 4
6.1230001 1.686 -0.65399998 4
6.197 1.701 -0.65700001 5
6.2420001 1.7079999 -0.65799999 4
6.3150001 1.722 -0.66100001 4
6.3740001 1.732 -0.66299999 4
6.4359999 1.743 -0.66399997 4
6.506 1.756 -0.667 4
6.5710001 1.767 -0.66900003 4
6.6370001 1.778 -0.671 5
6.7210002 1.794 -0.67500001 5
6.7979999 1.808 -0.67799997 5
6.8800001 1.823 -0.68099999 5
6.96 1.837 -0.68400002 5
7.0339999 1.849 -0.68599999 4
7.0890002 1.8559999 -0.68599999 4
7.1760001 1.872 -0.68900001 4
7.2529998 1.8839999 -0.69099998 4
7.316 1.892 -0.69199997 4
7.3979998 1.905 -0.69400001 4
7.4699998 1.916 -0.69599998 4
7.54 1.925 -0.69700003 4
7.6209998 1.937 -0.699 4
7.6859999 1.9450001 -0.699 4
7.7589998 1.955 -0.69999999 4
7.8460002 1.967 -0.70200002 4
7.961 1.987 -0.70700002 3
8.052 2 -0.70899999 3
8.165 2.0190001 -0.713 3
8.2539997 2.0309999 -0.71499997 3
8.3590002 2.046 -0.71799999 2
8.4560003 2.0599999 -0.72000003 3
8.5740004 2.0780001 -0.72299999 3
8.658 2.0869999 -0.72399998 3
8.7740002 2.1040001 -0.72799999 3
8.8649998 2.115 -0.72899997 3
8.9350004 2.1199999 -0.72799999 5
9.0430002 2.1340001 -0.73000002 4
9.198 2.158 -0.736 3
9.2869997 2.1670001 -0.736 3
9.4289999 2.188 -0.741 3
9.5380001 2.2 -0.74199998 3
9.6809998 2.22 -0.74599999 2
9.8129997 2.237 -0.74900001 2
9.967 2.2579999 -0.75300002 2
10.129 2.2809999 -0.75800002 2
10.278 2.3 -0.76200002 3
10.406 2.3139999 -0.764 3
10.575 2.3369999 -0.76899999 2
10.711 2.352 -0.77100003 3
10.869 2.3710001 -0.77399999 2
11.026 2.3889999 -0.778 2
11.157 2.402 -0.77899998 2
11.332 2.4230001 -0.78299999 2
11.483 2.438 -0.78500003 2
11.632 2.4519999 -0.787 2
11.871 2.4849999 -0.79500002 3
12.076 2.51 -0.80000001 3
12.281 2.5339999 -0.80400002 3
12.508 2.5610001 -0.81 2
12.676 2.5769999 -0.81199998 3
12.903 2.6029999 -0.81800002 3
13.138 2.6300001 -0.824 3
13.337 2.6489999 -0.82700002 3
13.543 2.668 -0.82999998 3
13.814 2.7 -0.83700001 3
14.073 2.7279999 -0.84299999 2
14.33 2.7550001 -0.84799999 2
14.884 2.8380001 -0.87 5
14.8 2.7980001 -0.85500002 4
15.305 2.868 -0.87400001 2
15.742 2.924 -0.88800001 3
15.221 2.802 -0.84799999 2
0 0 0 3
16.621 3.0050001 -0.90399998 3
16.106001 2.885 -0.86500001 4
16.461 2.9219999 -0.87300003 3
16.916 2.974 -0.88599998 2
17.205999 2.9960001 -0.88999999 2
0 0 0 1
18.039 3.0799999 -0.90899998 1
18.844999 3.1849999 -0.93800002 2
19.045 3.1860001 -0.935 3
19.216999 3.181 -0.93099999 1
0 0 0 0
0 0 0 2
0 0 0 0
0 0 0 0
0 0 0 1
25.288 3.9189999 -1.1289999 1
0 0 0 0
0 0 0 2
0 0 0 1
0 0 0 0
0 0 0 1
0 0 0 0
0 0 0 0
0 0 0 0
0 0 0 0
0 0 0 0
0 0 0 0
0 0 0 0
0 0 0 5
0 0 0 0
0 0 0 0
0 0 0 4
49.98 6.1739998 -1.73 165
49.977001 6.0760002 -1.7029999 183
0 0 0 155
0 0 0 7
44.082001 5.1059999 -1.431 183
0 0 0 12
36.327 4.0669999 -1.141 28
36.284 3.994 -1.1210001 53
36.313999 3.925 -1.103 52
36.509998 3.8759999 -1.09 5
36.632999 3.8169999 -1.075 22
36.421001 3.7219999 -1.051 18
36.452999 3.6530001 -1.034 3
0 0 0 4
0 0 0 28
41.963001 3.9560001 -1.13 36
41.405998 3.8210001 -1.095 38
41.159 3.7160001 -1.0700001 35
41.063999 3.6259999 -1.049 33
41.118 3.5480001 -1.031 35
41.125999 3.4660001 -1.013 33
0 0 0 4
38.59 3.096 -0.917 17
38.528 3.013 -0.89899999 30
0 0 0 153
29.32 2.174 -0.65899998 156
29.285 2.112 -0.64600003 29
0 0 0 16
37.098 2.5250001 -0.78899997 14
37.207001 2.4560001 -0.77700001 4
38.164001 2.4400001 -0.78200001 5
38.512001 2.3840001 -0.77499998 13
0 0 0 6
35.705002 2.063 -0.69199997 16
0 0 0 1
24.806 1.33 -0.46200001 3
0 0 0 58
35.619999 1.762 -0.63999999 100
35.695999 1.692 -0.62900001 50
36.921001 1.673 -0.63800001 74
36.925999 1.598 -0.62699997 73
0 0 0 2
20.67 0.80699998 -0.338 11
20 0.73900002 -0.31999999 1
0 0 0 0
0 0 0 1
0 0 0 0
0 0 0 0
0 0 0 1
18.247999 0.44400001 -0.26199999 1
17.985001 0.40000001 -0.25299999 2
17.983999 0.36199999 -0.249 5
18.006001 0.32300001 -0.244 5
17.382 0.27500001 -0.23199999 1
0 0 0 0
0 0 0 0
0 0 0 0
0 0 0 1
17.104 0.089000002 -0.20999999 1
17.113001 0.052999999 -0.206 1
0 0 0 0
0 0 0 0
0 0 0 0
0 0 0 0
0 0 0 0
0 0 0 0
0 0 0 1
16.993999 -0.237 -0.182 1
16.936001 -0.273 -0.17900001 1
16.926001 -0.308 -0.177 1
17.042 -0.347 -0.176 2
17.062 -0.384 -0.175 15
17.042 -0.41999999 -0.17200001 11
17.042999 -0.456 -0.171 8
17.059999 -0.493 -0.169 8
17.062 -0.52999997 -0.168 7
17.066999 -0.56599998 -0.167 6
17.083 -0.60299999 -0.16599999 5
17.045 -0.63800001 -0.164 6
16.938999 -0.671 -0.162 2
16.959 -0.708 -0.161 2
16.957001 -0.74400002 -0.161 1
16.931 -0.77899998 -0.16 11
17.098 -0.82300001 -0.161 7
17.143 -0.86199999 -0.161 4
17.152 -0.89899999 -0.161 5
17.150999 -0.93599999 -0.16 7
17.179001 -0.97399998 -0.161 6
17.017 -1 -0.15899999 3
17.097 -1.0420001 -0.16 2
17.104 -1.079 -0.161 2
17.115999 -1.1160001 -0.161 1
17.107 -1.152 -0.162 1
17.216 -1.196 -0.163 1
17.245001 -1.234 -0.164 1
17.351 -1.278 -0.16599999 2
17.362 -1.316 -0.167 2
17.455 -1.359 -0.169 1
0 0 0 0
0 0 0 0
0 0 0 0
0 0 0 1
0 0 0 53
33.873001 -3.069 -0.347 54
33.884998 -3.141 -0.35100001 52
33.896999 -3.214 -0.35499999 51
33.924 -3.2869999 -0.36000001 54
33.917999 -3.358 -0.36399999 52
33.931999 -3.4289999 -0.36899999 51
33.945999 -3.5020001 -0.37400001 53
33.959999 -3.573 -0.37900001 53
33.957001 -3.6429999 -0.384 50
0 0 0 17
17.636999 -1.964 -0.205 22
17.573 -1.994 -0.208 28
17.545 -2.026 -0.20999999 36
17.492001 -2.0569999 -0.213 37
17.465 -2.089 -0.21600001 38
17.438999 -2.122 -0.219 42
17.402 -2.1530001 -0.223 49
17.4 -2.188 -0.226 33
17.382999 -2.2219999 -0.23 53
17.368 -2.256 -0.234 57
17.357 -2.289 -0.23800001 63
17.346001 -2.323 -0.242 68
0 0 0 0
0 0 0 34
15.727 -2.2019999 -0.23100001 4
15.7 -2.2290001 -0.235 27
15.597 -2.2460001 -0.237 56
15.521 -2.2650001 -0.23999999 31
15.471 -2.289 -0.244 51
15.353 -2.302 -0.24600001 48
15.244 -2.3150001 -0.249 54
15.129 -2.3280001 -0.25099999 53
15.097 -2.3529999 -0.255 47
15.055 -2.3759999 -0.259 52
15.085 -2.4100001 -0.264 53
15.159 -2.4519999 -0.271 27
14.98 -2.451 -0.27200001 40
15.009 -2.4860001 -0.278 52
15.049 -2.5209999 -0.28299999 53
15.017 -2.5450001 -0.28799999 50
15.147 -2.596 -0.29499999 51
15.058 -2.6099999 -0.29899999 53
15.126 -2.6500001 -0.30599999 53
15.192 -2.691 -0.31200001 54
15.172 -2.7160001 -0.31799999 54
15.066 -2.7249999 -0.32100001 48
15.057 -2.7520001 -0.32600001 47
15.062 -2.7820001 -0.33199999 35
15.036 -2.8039999 -0.33700001 35
15.026 -2.8299999 -0.34299999 31
15.038 -2.8599999 -0.34900001 6
0 0 0 0
0 0 0 1
30.177 -5.9060001 -0.73699999 5
30.080999 -5.9439998 -0.74699998 11
30.066999 -5.9959998 -0.759 23
30.08 -6.053 -0.77200001 34
0 0 0 3
13.208 -2.7049999 -0.34999999 8
13.145 -2.7160001 -0.354 9
13.105 -2.73 -0.359 13
13.001 -2.7320001 -0.361 11
12.955 -2.7460001 -0.366 10
12.882 -2.753 -0.37 13
12.817 -2.7620001 -0.37400001 12
12.68 -2.7539999 -0.375 12
12.709 -2.783 -0.382 11
12.653 -2.7920001 -0.38600001 11
12.59 -2.8 -0.38999999 19
12.537 -2.8099999 -0.39399999 13
12.484 -2.819 -0.39899999 11
12.418 -2.825 -0.403 15
12.386 -2.839 -0.40799999 10
12.319 -2.8440001 -0.41100001 20
12.314 -2.8629999 -0.417 22
12.312 -2.8829999 -0.42300001 24
12.31 -2.9030001 -0.42899999 27
12.318 -2.925 -0.435 27
12.32 -2.9460001 -0.442 24
12.323 -2.967 -0.44800001 27
12.325 -2.987 -0.454 25
12.326 -3.007 -0.461 24
12.34 -3.03 -0.46700001 24
12.341 -3.05 -0.47400001 24
12.338 -3.069 -0.47999999 26
12.341 -3.089 -0.48699999 27
12.346 -3.109 -0.493 24
12.351 -3.1300001 -0.5 37
12.362 -3.151 -0.50700003 24
12.351 -3.1670001 -0.51300001 37
12.356 -3.187 -0.51999998 24
12.356 -3.2049999 -0.52600002 37
12.367 -3.227 -0.53299999 25
12.39 -3.2509999 -0.54100001 15
12.402 -3.273 -0.54799998 1
0 0 0 40
30.974001 -8.2650003 -1.404 32
30.969999 -8.3079996 -1.421 40
30.973 -8.3529997 -1.437 40
30.975 -8.3979998 -1.454 38
30.997999 -8.448 -1.473 35
31.01 -8.4960003 -1.49 7
0 0 0 5
6.6830001 -1.849 -0.32800001 32
6.7160001 -1.867 -0.33399999 151
6.7249999 -1.8789999 -0.338 156
6.7129998 -1.8839999 -0.34099999 156
6.6830001 -1.885 -0.34299999 156
6.6989999 -1.898 -0.34799999 156
6.6869998 -1.904 -0.35100001 156
6.6999998 -1.916 -0.35499999 161
6.6929998 -1.923 -0.359 164
6.6690001 -1.925 -0.361 160
6.6599998 -1.9299999 -0.36500001 158
6.6420002 -1.934 -0.36700001 156
6.651 -1.9450001 -0.37200001 153
6.5960002 -1.937 -0.373 41
6.5770001 -1.939 -0.375 20
6.698 -1.983 -0.38600001 107
6.684 -1.987 -0.389 155
6.6739998 -1.9910001 -0.39199999 156
6.684 -2.0020001 -0.39700001 156
6.6700001 -2.006 -0.39899999 158
6.6830001 -2.017 -0.40400001 158
6.6810002 -2.0250001 -0.40799999 159
6.7080002 -2.04 -0.41299999 159
6.6869998 -2.0409999 -0.41600001 159
6.6859999 -2.0480001 -0.41999999 156
6.6750002 -2.052 -0.42300001 156
6.6539998 -2.053 -0.42500001 151
6.6669998 -2.0639999 -0.43000001 54
6.6149998 -2.0550001 -0.43000001 2
6.632 -2.0669999 -0.435 1
0 0 0 1
15.331 -4.8099999 -1.024 1
14.943 -4.7030001 -1.007 2
14.627 -4.618 -0.99400002 2
14.602 -4.6240001 -1.001 2
14.461 -4.5939999 -1 2
14.115 -4.4970002 -0.98400003 2
13.789 -4.4060001 -0.96899998 2
0 0 0 2
12.861 -4.1329999 -0.91900003 3
12.776 -4.1170001 -0.91900003 3
12.697 -4.1030002 -0.921 3
13.349 -4.3249998 -0.97600001 4
13.25 -4.3039999 -0.97600001 4
13.109 -4.27 -0.97299999 3
12.907 -4.2150002 -0.96499997 3
12.746 -4.1729999 -0.96100003 3
12.585 -4.1300001 -0.95599997 3
12.367 -4.0679998 -0.94599998 3
12.168 -4.0120001 -0.93800002 2
12.004 -3.967 -0.93099999 2
11.788 -3.905 -0.921 3
11.605 -3.852 -0.91299999 3
11.431 -3.803 -0.90600002 3
11.219 -3.7409999 -0.89499998 2
11.06 -3.6949999 -0.889 2
10.899 -3.6489999 -0.88200003 2
10.782 -3.6170001 -0.87800002 2
10.642 -3.5769999 -0.87300003 2
10.547 -3.552 -0.87 2
10.443 -3.523 -0.86799997 3
10.345 -3.4960001 -0.86500001 4
10.253 -3.471 -0.86299998 4
10.15 -3.4419999 -0.86000001 6
10.071 -3.421 -0.85799998 7
9.9569998 -3.388 -0.85399997 11
9.8549995 -3.359 -0.85000002 16
9.7819996 -3.339 -0.84899998 13
9.7320004 -3.3269999 -0.85000002 17
9.684 -3.3150001 -0.85100001 13
9.6210003 -3.2980001 -0.85000002 11
9.5550003 -3.28 -0.85000002 9
9.4700003 -3.2550001 -0.847 7
9.3850002 -3.23 -0.84399998 8
9.3009996 -3.2049999 -0.84100002 6
9.2089996 -3.177 -0.83700001 5
9.1049995 -3.145 -0.83200002 3
8.9750004 -3.1040001 -0.82499999 3
8.8310003 -3.0569999 -0.81599998 3
8.7440004 -3.03 -0.81300002 3
8.6420002 -2.9979999 -0.80699998 3
8.5780001 -2.9790001 -0.80599999 4
8.5080004 -2.957 -0.80299997 4
8.4510002 -2.9400001 -0.80199999 3
8.3579998 -2.9089999 -0.79699999 4
8.3039999 -2.8929999 -0.796 4
8.2329998 -2.8710001 -0.79299998 5
8.1689997 -2.8499999 -0.79100001 4
8.1280003 -2.8380001 -0.79000002 6
8.073 -2.8199999 -0.78899997 5
8.0139999 -2.8010001 -0.787 5
7.9580002 -2.783 -0.78500003 6
7.9239998 -2.7720001 -0.78500003 4
7.8860002 -2.76 -0.78500003 4
7.8109999 -2.7349999 -0.78100002 5
7.7670002 -2.721 -0.77999997 5
7.698 -2.697 -0.77600002 5
7.6680002 -2.688 -0.77700001 4
7.6079998 -2.6670001 -0.77399999 4
7.5749998 -2.6559999 -0.77399999 4
7.5180001 -2.6370001 -0.77100003 5
7.4790001 -2.6229999 -0.77100003 5
7.4299998 -2.6059999 -0.76899999 5
7.401 -2.596 -0.76800001 5
7.3569999 -2.5810001 -0.76700002 5
7.3260002 -2.569 -0.76700002 5
7.2820001 -2.5539999 -0.76499999 5
7.2459998 -2.5409999 -0.764 5
7.1999998 -2.5239999 -0.76200002 5
7.1729999 -2.5139999 -0.76200002 4
7.1230001 -2.4960001 -0.75999999 4
7.0799999 -2.48 -0.75800002 4
7.052 -2.47 -0.75800002 4
7.013 -2.4549999 -0.75599998 4
6.987 -2.4449999 -0.75599998 4
6.9489999 -2.4300001 -0.75400001 4
6.9130001 -2.4170001 -0.75300002 4
6.8699999 -2.4000001 -0.75099999 4
6.8509998 -2.392 -0.75099999 4
6.8099999 -2.3759999 -0.74900001 4
6.7849998 -2.3659999 -0.74800003 4
6.7610002 -2.3559999 -0.74800003 4
6.7340002 -2.345 -0.74699998 4
6.6900001 -2.3280001 -0.745 4
6.6680002 -2.3180001 -0.74400002 4
6.6329999 -2.3039999 -0.74299997 5
6.6030002 -2.2909999 -0.741 4
6.5830002 -2.2820001 -0.741 4
6.559 -2.2709999 -0.74000001 4
6.5289998 -2.2590001 -0.73900002 4
6.5089998 -2.2490001 -0.73900002 4
6.4829998 -2.2379999 -0.73799998 4
6.4720001 -2.2309999 -0.73799998 3
6.434 -2.2149999 -0.736 4
6.4089999 -2.204 -0.73500001 4
6.4039998 -2.2 -0.736 4
6.3860002 -2.1900001 -0.736 4
6.3559999 -2.177 -0.73400003 4
6.3239999 -2.1630001 -0.73199999 4
6.3179998 -2.158 -0.73299998 4
6.3039999 -2.1500001 -0.73299998 4
6.3049998 -2.1470001 -0.73400003 5
6.2880001 -2.138 -0.73400003 5
6.2639999 -2.1259999 -0.73199999 5
6.2579999 -2.1199999 -0.73299998 5
6.2420001 -2.1110001 -0.73299998 5
6.21 -2.0969999 -0.73000002 5
6.1789999 -2.0829999 -0.72799999 5
6.1570001 -2.0710001 -0.72600001 4
6.131 -2.0580001 -0.72500002 4
6.1030002 -2.0450001 -0.72299999 4
6.0929999 -2.0380001 -0.72299999 4
6.072 -2.026 -0.72100002 4
6.0640001 -2.02 -0.72100002 4
6.0510001 -2.0109999 -0.72100002 5
6.0159998 -1.995 -0.71799999 5
6.0019999 -1.9859999 -0.71700001 5
5.9860001 -1.976 -0.71600002 5
5.9720001 -1.967 -0.71499997 5
5.9559999 -1.9579999 -0.71399999 6
5.9330001 -1.9450001 -0.71200001 7
5.9260001 -1.938 -0.71200001 8
5.9089999 -1.928 -0.71100003 8
5.9060001 -1.9220001 -0.71100003 8
5.882 -1.909 -0.70899999 7
5.881 -1.904 -0.70999998 8
5.8639998 -1.893 -0.708 8
5.849 -1.8839999 -0.70700002 8
5.8530002 -1.88 -0.708 8
5.8309999 -1.867 -0.70599997 8
5.8270001 -1.8609999 -0.70599997 8
5.8379998 -1.859 -0.708 9
5.8189998 -1.848 -0.70599997 10
5.809 -1.839 -0.70499998 10
5.8179998 -1.836 -0.70700002 11
5.823 -1.832 -0.708 11
5.8390002 -1.831 -0.70999998 11
5.8179998 -1.819 -0.708 10
5.8330002 -1.818 -0.70999998 10
5.8189998 -1.807 -0.708 11
5.8460002 -1.8099999 -0.71200001 11
5.842 -1.803 -0.71100003 11
5.8579998 -1.801 -0.713 11
5.8569999 -1.795 -0.713 11
5.855 -1.788 -0.713 10
5.8610001 -1.783 -0.713 10
5.8559999 -1.775 -0.713 9
5.8610001 -1.77 -0.713 9
5.8439999 -1.7589999 -0.71100003 8
5.8639998 -1.758 -0.713 8
5.8579998 -1.75 -0.71200001 8
5.8670001 -1.745 -0.713 8
5.881 -1.743 -0.71499997 8
5.8800001 -1.735 -0.71399999 8
5.888 -1.7309999 -0.71499997 8
5.8730001 -1.719 -0.713 8
5.8870001 -1.716 -0.71399999 8
5.8870001 -1.709 -0.713 8
5.8870001 -1.702 -0.713 8
5.902 -1.699 -0.71399999 8
5.9099998 -1.694 -0.71499997 8
5.914 -1.687 -0.71399999 8
5.9229999 -1.682 -0.71499997 8
5.9200001 -1.674 -0.71399999 8
5.9289999 -1.669 -0.71399999 8
5.928 -1.661 -0.713 7
5.927 -1.653 -0.71200001 6
5.9400001 -1.648 -0.713 6
5.9369998 -1.64 -0.71100003 5
5.9299998 -1.63 -0.70999998 5
5.941 -1.625 -0.70999998 4
5.9549999 -1.62 -0.71100003 5
5.961 -1.614 -0.70999998 5
5.9660001 -1.607 -0.70999998 4
5.9749999 -1.601 -0.70999998 4
5.9790001 -1.594 -0.70899999 4
6.0009999 -1.592 -0.70999998 4
6.02 -1.5880001 -0.71100003 4
6.0229998 -1.58 -0.70999998 4
6.0320001 -1.574 -0.70999998 4
6.0539999 -1.571 -0.71100003 4
6.0630002 -1.564 -0.70999998 4
6.0910001 -1.563 -0.71200001 4
6.0970001 -1.5549999 -0.71100003 4
6.1160002 -1.551 -0.71200001 4
6.1329999 -1.5470001 -0.71200001 4
6.1479998 -1.541 -0.71200001 4
6.1760001 -1.539 -0.71399999 3
6.198 -1.535 -0.71499997 4
6.224 -1.5319999 -0.71600002 4
6.2540002 -1.53 -0.71700001 4
6.2490001 -1.5190001 -0.71499997 4
6.29 -1.5190001 -0.71700001 4
6.3080001 -1.5140001 -0.71700001 3
6.3260002 -1.508 -0.71700001 3
6.3670001 -1.508 -0.72000003 4
6.3920002 -1.5039999 -0.72100002 4
6.4099998 -1.498 -0.72000003 4
6.4530001 -1.498 -0.72299999 4
6.4720001 -1.492 -0.722 4
6.5040002 -1.489 -0.72299999 4
6.5409999 -1.487 -0.72500002 5
6.5780001 -1.485 -0.72600001 4
6.6009998 -1.479 -0.72600001 4
6.6560001 -1.4809999 -0.73000002 4
6.6890001 -1.477 -0.73100001 5
6.7249999 -1.474 -0.73199999 5
6.737 -1.466 -0.73000002 5
6.7859998 -1.465 -0.73199999 6
6.8439999 -1.466 -0.736 5
6.8790002 -1.462 -0.736 6
6.914 -1.4579999 -0.73699999 6
6.9520001 -1.455 -0.73799998 6
7.0180001 -1.457 -0.741 7
7.0669999 -1.455 -0.74299997 7
7.138 -1.457 -0.74699998 7
7.1750002 -1.4529999 -0.74699998 8
7.2329998 -1.452 -0.75 7
7.2620001 -1.446 -0.74900001 6
7.3280001 -1.447 -0.75199997 7
7.3860002 -1.4450001 -0.75400001 9
7.4330001 -1.442 -0.755 9
7.4879999 -1.439 -0.75700003 9
7.5349998 -1.4349999 -0.75700003 10
7.5780001 -1.431 -0.75700003 12
7.6240001 -1.426 -0.75800002 13
7.6900001 -1.425 -0.75999999 14
7.7410002 -1.421 -0.75999999 14
7.809 -1.42 -0.76200002 14
7.8670001 -1.416 -0.76300001 14
7.9289999 -1.414 -0.76499999 14
7.98 -1.408 -0.76499999 15
8.0229998 -1.402 -0.764 15
8.0970001 -1.4 -0.76599997 15
8.1529999 -1.396 -0.76599997 15
8.2259998 -1.393 -0.76800001 15
8.3140001 -1.3940001 -0.77100003 16
8.4090004 -1.3940001 -0.77399999 11
8.4790001 -1.391 -0.77499998 11
8.566 -1.39 -0.77700001 9
8.7080002 -1.397 -0.78399998 8
8.8030005 -1.396 -0.78600001 7
8.9130001 -1.397 -0.79000002 8
9.026 -1.399 -0.79400003 6
9.1199999 -1.397 -0.79500002 6
9.2259998 -1.396 -0.79799998 5
9.3369999 -1.396 -0.801 5
9.4689999 -1.398 -0.80500001 5
9.6160002 -1.403 -0.81099999 3
9.7530003 -1.405 -0.815 4
9.8559999 -1.402 -0.81599998 4
9.9870005 -1.402 -0.81900001 4
10.141 -1.406 -0.82499999 4
10.279 -1.406 -0.82800001 3
10.427 -1.4069999 -0.83200002 3
10.593 -1.41 -0.83700001 3
10.748 -1.411 -0.83999997 3
10.888 -1.41 -0.84200001 4
11.065 -1.4119999 -0.847 2
11.283 -1.419 -0.85500002 3
11.484 -1.424 -0.86000001 4
11.677 -1.426 -0.86500001 3
11.867 -1.427 -0.86900002 3
12.049 -1.427 -0.87199998 3
12.268 -1.4299999 -0.87800002 3
12.478 -1.432 -0.88200003 3
12.781 -1.443 -0.89200002 3
13.047 -1.449 -0.89999998 3
13.342 -1.457 -0.90799999 3
13.677 -1.4680001 -0.91900003 3
13.99 -1.476 -0.92699999 3
14.332 -1.4859999 -0.93699998 3
14.687 -1.495 -0.94700003 3
15.018 -1.502 -0.954 3
15.381 -1.51 -0.963 3
15.81 -1.522 -0.97500002 3
16.226 -1.5319999 -0.98500001 3
15.763 -1.46 -0.94199997 2
16.437 -1.492 -0.96700001 2
17.112 -1.522 -0.99000001 1
0 0 0 0
0 0 0 18
19.757999 -1.648 -1.086 22
0 0 0 2
17.743999 -1.415 -0.94 3
17.701 -1.3789999 -0.92000002 4
17.67 -1.344 -0.89999998 4
17.655001 -1.311 -0.88200003 4
17.639 -1.277 -0.86299998 4
17.606001 -1.242 -0.84299999 4
17.606001 -1.21 -0.82499999 4
17.525999 -1.173 -0.80299997 4
17.487 -1.138 -0.78200001 4
17.68 -1.119 -0.77200001 5
17.325001 -1.064 -0.73799998 2
17.177999 -1.024 -0.71399999 2
17.136999 -0.99000001 -0.69300002 3
17.169001 -0.96200001 -0.67699999 8
17.136 -0.92900002 -0.65700001 6
17.156 -0.89899999 -0.639 9
17.143999 -0.86699998 -0.61900002 10
17.089001 -0.833 -0.59799999 10
16.892 -0.79299998 -0.57200003 27
16.893999 -0.76300001 -0.55299997 152
16.893 -0.73199999 -0.53399998 159
16.916 -0.70300001 -0.51599997 174
16.851 -0.67000002 -0.495 184
16.865999 -0.63999999 -0.47499999 184
16.862 -0.61000001 -0.456 184
16.879999 -0.57999998 -0.43700001 184
16.885 -0.55000001 -0.417 184
16.865999 -0.51899999 -0.39700001 159
16.93 -0.49200001 -0.37900001 8
16.927999 -0.461 -0.35800001 11
16.989 -0.433 -0.33899999 9
16.964001 -0.403 -0.31900001 2
16.922001 -0.37099999 -0.29699999 1
16.903999 -0.34200001 -0.27700001 1
16.951 -0.31299999 -0.257 1
16.945 -0.28299999 -0.236 1
16.938999 -0.25299999 -0.215 1
16.999001 -0.22499999 -0.19599999 1
16.914 -0.19499999 -0.17399999 1
17.049 -0.167 -0.154 1
17.096001 -0.138 -0.133 1
17.135 -0.109 -0.112 1
17.183001 -0.079999998 -0.090999998 3
17.181 -0.050000001 -0.07 3
17.235001 -0.021 -0.048 4
17.309999 0.0080000004 -0.026000001 129
17.372999 0.037999999 -0.0040000002 156
17.302 0.067000002 0.017000001 6
17.337 0.097000003 0.039999999 1
17.388 0.127 0.063000001 1
0 0 0 25
0 0 0 0
0 0 0 0
0 0 0 3
18.356001 0.287 0.186 3
18.356001 0.317 0.20999999 2
18.337999 0.347 0.234 1
18.417 0.38 0.25999999 2
0 0 0 0
0 0 0 1
20.27 0.51700002 0.368 1
0 0 0 79
33.334 0.95899999 0.69499999 9
33.716999 1.024 0.74800003 8
34.125 1.092 0.80400002 10
34.487 1.158 0.85900003 10
34.846001 1.226 0.91500002 9
35.157001 1.293 0.972 7
36.999001 1.419 1.074 77
36.990002 1.476 1.124 106
36.991001 1.535 1.175 81
36.973 1.592 1.226 83
37.18 1.658 1.283 6
37.625999 1.7359999 1.351 6
38.066002 1.816 1.42 5
38.692001 1.905 1.498 4
38.647999 1.962 1.55 39
40.577999 2.122 1.684 27
40.206001 2.1630001 1.725 8
40.351002 2.2320001 1.788 60
40.862999 2.322 1.869 5
0 0 0 0
0 0 0 2
0 0 0 0
0 0 0 2
38.240002 2.4579999 2.0209999 11
38.580002 2.5350001 2.0929999 32
39.077 2.625 2.1760001 28
39.838001 2.734 2.2750001 14
40.147999 2.813 2.3510001 60
40.561001 2.901 2.4330001 34
41.262001 3.0090001 2.5339999 45
41.452 3.0810001 2.6040001 34
41.998001 3.1819999 2.7 12
0 0 0 29
46.810001 3.677 3.1440001 46
47.266998 3.777 3.2409999 46
48.247002 3.9219999 3.378 62
48.688 4.0250001 3.48 49
49.57 4.165 3.6140001 75
50.519001 4.3140001 3.756 53
50.905998 4.4159999 3.859 71
52.175999 4.5970001 4.0310001 58
52.292999 4.6760001 4.1149998 54
53.59 4.8639998 4.2950001 61
54.097 4.9809999 4.414 42
54.924999 5.1290002 4.5609999 69
56.249001 5.3260002 4.7529998 65
56.584 5.4320002 4.8639998 52
57.615002 5.605 5.0370002 52
58.924 5.8080001 5.2379999 59
59.011002 5.8909998 5.3299999 43
60.304001 6.0970001 5.5349998 72
61.618999 6.3080001 5.7459998 58
62.831001 6.5100002 5.9510002 41
63.066002 6.6110001 6.0630002 17
64.144997 6.803 6.2600002 8
65.252998 7 6.4619999 9
66.943001 7.263 6.7270002 43
68.269997 7.4889998 6.9590001 61
69.595001 7.7179999 7.1950002 57
70.947998 7.9520001 7.4390001 60
72.260002 8.1829996 7.6789999 63
73.609001 8.4239998 7.9299998 51
0 0 0 69
118.13 13.794 13.071 58
118.075 13.919 13.233 45
118.252 14.076 13.425 40
0 0 0 0
0 0 0 0
0 0 0 0
0 0 0 0
0 0 0 0
0 0 0 0
0 0 0 0
0 0 0 0
0 0 0 0
0 0 0 27
117.984 15.457 15.263 23
0 0 0 0
0 0 0 0
0 0 0 34
117.865 15.927 15.918 41
117.742 16.028999 16.069 57
117.68 16.136999 16.228001 61
117.613 16.243999 16.385 77
117.592 16.355 16.549 84
117.567 16.465 16.711 73
117.542 16.573999 16.870001 80
117.562 16.688 17.038 73
117.497 16.785999 17.190001 47
117.583 16.907 17.367001 43
117.579 17.014999 17.531 34
117.717 17.142 17.715 26
117.553 17.224001 17.85 33
117.578 17.333 18.017 31
117.558 17.434 18.176001 31
117.644 17.549 18.348 24
117.624 17.648001 18.506001 33
117.48 17.726999 18.645 30
117.525 17.833 18.812 32
117.624 17.947001 18.989 28
117.389 18.007999 19.110001 31
117.379 18.103001 19.263 38
117.478 18.212999 19.438 31
117.416 18.298 19.586 29
117.505 18.403999 19.757999 30
117.353 18.476 19.889 36
117.258 18.551001 20.028999 39
117.227 18.636 20.179001 45
117.206 18.721001 20.326 46
117.169 18.802 20.474001 70
117.122 18.881001 20.618999 75
117.119 18.965 20.771 74
117.086 19.044001 20.917 66
117.09 19.128 21.066 69
117.076 19.207001 21.214001 67
117.072 19.287001 21.364 75
117.028 19.358999 21.504999 74
117.006 19.433001 21.65 84
116.94 19.497 21.782 60
0 0 0 0
0 0 0 22
0 0 0 0
0 0 0 0
0 0 0 0
0 0 0 0
0 0 0 28
114.866 19.721001 22.533001 33
114.898 19.796 22.677 34
114.816 19.846001 22.799 35
114.772 19.9 22.924999 30
114.651 19.944 23.040001 29
114.639 20 23.17 30
114.606 20.055 23.298 30
114.63 20.118 23.436001 38
114.534 20.163 23.549 28
114.606 20.233 23.695999 29
114.621 20.291 23.83 25
114.596 20.341999 23.955999 25
114.521 20.382 24.069 29
114.497 20.431 24.190001 34
114.402 20.466 24.297001 50
114.394 20.514999 24.422001 47
114.322 20.551001 24.533001 46
114.291 20.593 24.650999 61
114.323 20.646999 24.778999 60
114.299 20.688999 24.896 63
114.283 20.732 25.011999 68
114.279 20.775 25.132 59
114.292 20.82 25.254999 52
114.334 20.868999 25.384001 38
114.221 20.889 25.476999 28
114.236 20.931 25.598 23
0 0 0 0
0 0 0 0
0 0 0 0
0 0 0 0
0 0 0 0
0 0 0 0
0 0 0 0
0 0 0 0
0 0 0 0
0 0 0 24
114.635 21.370001 26.91 28
114.654 21.4 27.021 28
114.698 21.434 27.135 26
114.587 21.437 27.212999 28
114.626 21.469 27.320999 22
0 0 0 0
0 0 0 0
0 0 0 0
0 0 0 0
0 0 0 0
0 0 0 0
0 0 0 0
0 0 0 22
114.501 21.610001 28.157 25
114.362 21.598 28.209999 34
114.358 21.608 28.299999 36
114.288 21.605 28.371 40
114.218 21.601 28.441 47
114.22 21.610001 28.528 45
114.22 21.617001 28.613001 48
114.199 21.621 28.693001 57
114.209 21.625999 28.777 57
114.189 21.625999 28.854 60
114.182 21.631001 28.931 55
114.219 21.639999 29.018999 53
114.199 21.636999 29.091999 57
114.144 21.628 29.152 68
114.206 21.639 29.243999 57
114.185 21.632 29.312 49
114.188 21.629999 29.386 42
114.208 21.629 29.462999 38
114.18 21.618 29.527 30
114.144 21.607 29.584 34
114.209 21.612 29.669001 25
114.24 21.608999 29.743999 24
0 0 0 0
0 0 0 0
0 0 0 0
0 0 0 0
0 0 0 0
0 0 0 0
0 0 0 0
0 0 0 24
0 0 0 0
0 0 0 25
0 0 0 0
0 0 0 0
0 0 0 0
0 0 0 0
0 0 0 0
0 0 0 0
0 0 0 0
0 0 0 0
0 0 0 0
0 0 0 26
114.746 21.299999 30.98 25
114.845 21.287001 31.045 27
114.752 21.239 31.058001 25
0 0 0 0
0 0 0 0
0 0 0 0
0 0 0 0
0 0 0 0
0 0 0 0
0 0 0 0
0 0 0 0
0 0 0 0
0 0 0 0
0 0 0 0
0 0 0 0
0 0 0 0
0 0 0 0
0 0 0 0
0 0 0 0
0 0 0 0
0 0 0 0
0 0 0 0
0 0 0 0
0 0 0 0
0 0 0 0
0 0 0 0
0 0 0 25
114.874 20.177 31.563 25
114.949 20.134001 31.584999 26
0 0 0 0
0 0 0 26
114.844 19.945999 31.549 26
0 0 0 0
0 0 0 0
0 0 0 24
114.955 19.726999 31.552 26
115.056 19.679001 31.572001 29
115.051 19.615 31.559 32
115.125 19.566 31.565001 30
115.104 19.497999 31.545 33
115.065 19.424999 31.518 28
0 0 0 0
0 0 0 0
0 0 0 0
0 0 0 0
0 0 0 0
0 0 0 0
0 0 0 25
117.318 19.242001 31.952 33
117.34 19.174999 31.927999 54
117.413 19.111 31.917 60
117.421 19.037001 31.886999 51
117.427 18.961 31.855 40
117.425 18.886 31.818001 51
117.471 18.816 31.794001 39
117.508 18.743 31.767 39
117.518 18.664 31.73 31
117.548 18.591999 31.697001 25
117.543 18.51 31.653 28
117.627 18.441999 31.632 23
0 0 0 0
0 0 0 0
0 0 0 0
0 0 0 0
0 0 0 0
0 0 0 0
0 0 0 0
0 0 0 0
0 0 0 0
0 0 0 51
123.484 18.372 32.598999 69
123.623 18.298 32.570999 67
123.64 18.205 32.509998 83
123.682 18.115 32.453999 98
123.73 18.025 32.397999 89
123.785 17.936001 32.341999 90
123.746 17.836 32.259998 93
123.794 17.740999 32.200001 89
123.798 17.646 32.125999 88
123.846 17.552999 32.062 88
123.916 17.466 32.001999 74
123.958 17.371 31.934 71
123.964 17.27 31.855 64
123.991 17.171 31.778999 47
124.138 17.091999 31.733 37
0 0 0 0
0 0 0 0
0 0 0 0
0 0 0 0
0 0 0 29
0 0 0 0
0 0 0 0
0 0 0 36
130.04401 16.912001 32.383999 58
130.069 16.806 32.287998 74
130.114 16.698 32.194 63
130.224 16.599001 32.118999 57
130.229 16.487 32.008999 51
0 0 0 0
0 0 0 52
132.56 16.427999 32.243 59
132.524 16.306999 32.123001 87
132.57899 16.198 32.019001 93
132.59 16.079 31.903 79
132.591 15.959 31.783001 77
132.675 15.849 31.681 78
132.642 15.727 31.551001 58
132.724 15.616 31.445 41
133.02 15.528 31.389 33
0 0 0 0
0 0 0 0
0 0 0 0
0 0 0 49
138.556 15.536 32.013 60
138.68401 15.42 31.900999 62
138.701 15.292 31.761999 53
138.771 15.17 31.632999 47
141.312 15.314 32.063999 39
141.472 15.202 31.950001 59
141.55299 15.077 31.816999 65
141.61 14.949 31.676001 69
141.87199 14.841 31.579 44
141.80099 14.699 31.406 33
0 0 0 0
0 0 0 0
0 0 0 0
0 0 0 0
0 0 0 55
147.485 14.446 31.649 59
147.46201 14.302 31.469999 60
147.505 14.164 31.302999 41
150.189 14.276 31.691999 55
150.243 14.136 31.521 70
0 0 0 0
0 0 0 0
0 0 0 0
0 0 0 0
0 0 0 0
0 0 0 0
0 0 0 0
0 0 0 42
50.148998 4.2820001 9.9499998 39
50.237999 4.2399998 9.901 30
50.264 4.1939998 9.8400002 13
49.953999 4.118 9.7119999 7
49.414001 4.026 9.5389996 22
49.372002 3.974 9.4639997 42
48.879002 3.8870001 9.3030005 30
48.444 3.806 9.1540003 36
48.426998 3.7590001 9.0860004 38
47.226002 3.6199999 8.7930002 34
47.083 3.562 8.6999998 36
47.053001 3.5150001 8.6289997 43
45.794998 3.3759999 8.3339996 42
45.743 3.3280001 8.2600002 36
45.719002 3.2820001 8.1879997 45
44.486 3.151 7.9050002 42
44.401001 3.102 7.8239999 45
44.397999 3.0599999 7.7600002 45
43.479 2.9549999 7.5349998 32
43.013 2.881 7.3899999 28
42.363998 2.7980001 7.2160001 11
41.922001 2.7279999 7.0780001 8
41.448002 2.658 6.9349999 13
41.333 2.6099999 6.8530002 45
41.347 2.572 6.7919998 60
40.964001 2.5079999 6.6659999 35
40.368 2.4330001 6.507 45
40.375 2.3959999 6.4460001 47
40.377998 2.3570001 6.381 48
39.689999 2.28 6.2119999 28
39.039001 2.2060001 6.0489998 46
39.040001 2.1689999 5.987 48
39.056 2.1329999 5.927 47
38.785 2.0829999 5.8239999 35
37.717999 1.99 5.6030002 34
37.675999 1.952 5.5359998 45
37.665001 1.916 5.473 45
37.68 1.882 5.4130001 44
37.007 1.814 5.256 24
36.354 1.749 5.1030002 43
36.363998 1.715 5.0440001 44
36.355 1.681 4.9819999 53
36.358002 1.649 4.9229999 54
35.137001 1.562 4.6999998 23
35.002998 1.524 4.6220002 48
34.998001 1.492 4.5619998 54
35 1.461 4.5029998 55
34.984001 1.428 4.441 54
34.223 1.3660001 4.2859998 12
33.584 1.3099999 4.1479998 9
33.327999 1.27 4.0580001 10
33.179001 1.2359999 3.983 52
33.188 1.206 3.9260001 52
33.189999 1.177 3.868 58
33.182999 1.147 3.8080001 53
33.187 1.119 3.75 54
33.195 1.09 3.6919999 57
33.212002 1.062 3.635 57
33.198002 1.0319999 3.5739999 57
33.210999 1.005 3.516 59
33.212002 0.97600001 3.4560001 57
33.213001 0.94700003 3.395 57
33.223 0.92000002 3.3369999 57
33.212002 0.89099997 3.2750001 61
33.212002 0.86400002 3.2160001 55
33.208 0.83600003 3.155 81
33.206001 0.80800003 3.0940001 72
33.205002 0.78100002 3.0320001 85
33.182999 0.75300002 2.9690001 97
33.195999 0.72600001 2.9089999 102
33.194 0.699 2.8469999 94
33.203999 0.67199999 2.7850001 95
33.206001 0.64499998 2.723 94
33.203999 0.61900002 2.661 96
33.202999 0.59200001 2.598 95
33.233002 0.56699997 2.5380001 83
33.228001 0.54000002 2.474 73
33.243999 0.514 2.4119999 61
33.243 0.48800001 2.348 72
33.216999 0.463 2.283 93
33.251999 0.43799999 2.2219999 87
33.255001 0.412 2.158 76
33.238998 0.38699999 2.0929999 91
33.230999 0.361 2.0280001 89
33.245998 0.33700001 1.964 90
33.234001 0.31200001 1.898 98
33.258999 0.287 1.834 80
33.251999 0.26300001 1.77 118
33.262001 0.23899999 1.705 112
33.268002 0.215 1.64 107
33.259998 0.191 1.574 116
33.275002 0.168 1.5089999 112
33.272999 0.145 1.4450001 106
33.278999 0.121 1.378 120
33.279999 0.097999997 1.312 115
33.290001 0.075000003 1.2460001 87
33.289001 0.052000001 1.1799999 109
33.306999 0.029999999 1.1160001 58
33.313999 0.0080000004 1.049 12
0 0 0 0
0 0 0 1
0 0 0 0
0 0 0 0
0 0 0 0
0 0 0 0
0 0 0 0
0 0 0 0
0 0 0 0
0 0 0 25
0 0 0 1
17.684999 -0.12899999 0.12800001 1
17.393 -0.13699999 0.090000004 1
0 0 0 0
0 0 0 1
17.120001 -0.164 -0.015 2
17.111 -0.17399999 -0.050000001 3
17.093 -0.183 -0.085000001 2
16.986 -0.192 -0.12 1
16.954 -0.20100001 -0.155 1
16.951 -0.20999999 -0.189 1
0 0 0 0
0 0 0 0
0 0 0 1
16.888 -0.244 -0.329 1
16.881001 -0.25299999 -0.36300001 9
16.874001 -0.26100001 -0.398 8
16.888 -0.27000001 -0.433 1
16.926001 -0.278 -0.46900001 1
16.893999 -0.28600001 -0.50300002 2
16.851999 -0.29300001 -0.53600001 9
16.878 -0.30199999 -0.57200003 7
16.908001 -0.31 -0.60799998 3
16.951 -0.31799999 -0.64499998 3
17.079 -0.32800001 -0.685 3
17.323 -0.34099999 -0.73100001 3
17.611 -0.354 -0.77999997 1
0 0 0 16
0 0 0 1
0 0 0 1
0 0 0 2
18.555 -0.41100001 -1.016 2
0 0 0 2
16.143 -0.37 -0.94999999 2
0 0 0 3
14.245 -0.33700001 -0.898 4
13.735 -0.33000001 -0.89399999 3
13.056 -0.31900001 -0.87699997 3
0 0 0 2
11.772 -0.29499999 -0.83899999 3
11.269 -0.28600001 -0.82599998 2
10.771 -0.27700001 -0.81199998 3
10.392 -0.271 -0.80500001 3
9.9680004 -0.26300001 -0.79299998 4
9.6110001 -0.257 -0.78399998 4
9.2379999 -0.249 -0.773 3
8.8979998 -0.243 -0.76300001 7
8.6260004 -0.23800001 -0.75700003 8
8.3269997 -0.23199999 -0.74800003 11
8.0190001 -0.226 -0.73699999 14
7.7880001 -0.221 -0.73199999 13
7.631 -0.219 -0.73299998 13
7.4499998 -0.215 -0.73100001 11
7.1459999 -0.208 -0.71600002 4
6.9369998 -0.204 -0.70899999 4
6.7270002 -0.199 -0.70099998 4
6.539 -0.19499999 -0.69499999 3
6.3540001 -0.191 -0.68800002 3
6.1880002 -0.18700001 -0.68300003 3
6.0370002 -0.184 -0.67900002 3
5.888 -0.18099999 -0.67400002 3
5.7680001 -0.178 -0.67199999 3
5.605 -0.17399999 -0.66399997 3
5.46 -0.171 -0.65799999 3
5.3270001 -0.167 -0.653 3
5.211 -0.16500001 -0.64899999 3
5.0939999 -0.162 -0.64499998 3
4.9949999 -0.15899999 -0.64300001 3
4.888 -0.15700001 -0.639 3
4.7979999 -0.154 -0.63700002 3
4.7080002 -0.152 -0.634 3
4.619 -0.15000001 -0.63200003 2
4.52 -0.147 -0.62699997 2
4.4310002 -0.145 -0.62400001 2
4.3629999 -0.14300001 -0.62300003 3
4.296 -0.141 -0.62199998 2
4.2360001 -0.14 -0.62199998 2
4.1560001 -0.13699999 -0.61799997 2
4.0580001 -0.13500001 -0.611 2
4.0419998 -0.134 -0.61699998 2
3.937 -0.131 -0.60900003 2
3.911 -0.13 -0.61199999 3
3.8989999 -0.13 -0.61799997 3
3.7550001 -0.126 -0.60299999 1
3.6989999 -0.124 -0.60100001 2
3.6440001 -0.122 -0.59899998 3
3.632 -0.122 -0.60399997 3
3.5439999 -0.119 -0.59600002 2
3.4990001 -0.118 -0.59600002 2
3.447 -0.116 -0.59399998 1
3.4530001 -0.116 -0.60100001 1
3.381 -0.114 -0.59500003 1
3.3740001 -0.114 -0.60000002 2
3.3529999 -0.113 -0.60299999 2
3.273 -0.11 -0.59500003 1
3.2909999 -0.111 -0.60399997 1
3.293 -0.111 -0.611 1
3.125 -0.105 -0.58600003 1
3.142 -0.105 -0.59500003 1
3.1010001 -0.104 -0.59299999 1
3.036 -0.101 -0.58600003 1
3.0220001 -0.101 -0.58899999 1
2.9319999 -0.097999997 -0.57700002 1
2.9489999 -0.097999997 -0.58600003 1
2.8870001 -0.096000001 -0.579 1
2.822 -0.093000002 -0.57099998 1
2.819 -0.093000002 -0.57599998 1
2.819 -0.093000002 -0.58099997 1
2.849 -0.093999997 -0.59200001 1
2.763 -0.090000004 -0.579 1
2.675 -0.086999997 -0.565 1
2.6440001 -0.086000003 -0.56400001 1
2.6949999 -0.086999997 -0.57999998 1
2.6860001 -0.086999997 -0.58200002 1
2.632 -0.085000001 -0.57499999 1
2.5510001 -0.082000002 -0.56199998 1
2.529 -0.081 -0.56199998 1
2.503 -0.079000004 -0.56 1
2.4949999 -0.079000004 -0.56300002 1
2.46 -0.077 -0.55900002 1
2.437 -0.075999998 -0.55800003 1
2.4189999 -0.075000003 -0.55800003 1
2.3989999 -0.074000001 -0.55800003 1
2.3789999 -0.072999999 -0.55699998 1
2.355 -0.071999997 -0.55500001 1
2.3399999 -0.071000002 -0.55599999 1
2.325 -0.07 -0.55599999 1
2.309 -0.068999998 -0.55599999 1
2.283 -0.068000004 -0.55400002 1
2.2679999 -0.067000002 -0.55400002 1
2.2509999 -0.066 -0.55299997 1
2.234 -0.064999998 -0.55299997 1
2.2190001 -0.064999998 -0.55299997 1
2.2 -0.064000003 -0.55199999 1
2.1860001 -0.063000001 -0.551 1
2.1689999 -0.061999999 -0.551 1
2.1589999 -0.061000001 -0.551 1
2.1440001 -0.059999999 -0.551 1
2.1110001 -0.059 -0.546 1
2.1070001 -0.057999998 -0.54799998 1
2.089 -0.057 -0.54699999 1
2.076 -0.056000002 -0.546 1
2.0550001 -0.055 -0.54400003 1
2.0409999 -0.054000001 -0.54299998 1
2.039 -0.052999999 -0.546 1
2.0190001 -0.052000001 -0.54400003 1
2.0150001 -0.052000001 -0.546 1
2.003 -0.050999999 -0.54500002 1
1.995 -0.050000001 -0.546 1
1.979 -0.048999999 -0.54500002 1
1.9680001 -0.048 -0.54400003 1
1.96 -0.048 -0.54500002 1
1.943 -0.046999998 -0.54299998 1
1.933 -0.046 -0.54299998 1
1.9170001 -0.045000002 -0.54100001 1
1.908 -0.044 -0.54100001 1
1.892 -0.043000001 -0.53899997 1
1.883 -0.043000001 -0.53899997 1
1.877 -0.041999999 -0.54000002 1
1.864 -0.041000001 -0.53899997 1
1.857 -0.039999999 -0.54000002 1
1.849 -0.039000001 -0.54000002 1
1.8329999 -0.037999999 -0.537 1
1.826 -0.037999999 -0.537 1
1.816 -0.037 -0.537 1
1.8150001 -0.035999998 -0.53899997 1
1.806 -0.035999998 -0.53899997 1
1.79 -0.035 -0.53600001 1
1.783 -0.034000002 -0.53600001 1
1.773 -0.033 -0.53500003 1
1.767 -0.032000002 -0.53600001 1
1.761 -0.032000002 -0.53600001 1
1.756 -0.030999999 -0.537 1
1.74 -0.029999999 -0.53399998 1
1.7359999 -0.028999999 -0.53500003 1
1.729 -0.028999999 -0.53500003 1
1.722 -0.028000001 -0.53500003 1
1.714 -0.027000001 -0.53399998 1
1.711 -0.027000001 -0.53500003 1
1.689 -0.026000001 -0.52999997 1
1.684 -0.025 -0.52999997 1
1.682 -0.024 -0.53200001 1
1.679 -0.024 -0.53200001 1
1.666 -0.023 -0.52999997 1
1.663 -0.022 -0.53100002 1
1.658 -0.021 -0.53100002 1
1.649 -0.021 -0.52999997 1
1.646 -0.02 -0.53100002 1
1.637 -0.018999999 -0.52899998 1
1.63 -0.018999999 -0.52899998 1
1.622 -0.017999999 -0.528 1
1.6160001 -0.017000001 -0.52700001 1
1.619 -0.017000001 -0.52999997 1
1.6109999 -0.016000001 -0.52899998 1
1.608 -0.015 -0.52899998 1
1.596 -0.014 -0.52700001 1
1.595 -0.014 -0.528 1
1.584 -0.013 -0.52600002 1
1.584 -0.012 -0.52700001 1
1.572 -0.012 -0.52399999 1
1.5779999 -0.011 -0.528 1
1.572 -0.0099999998 -0.52700001 1
1.568 -0.0099999998 -0.52700001 1
1.566 -0.0089999996 -0.528 1
1.559 -0.0080000004 -0.52600002 1
1.558 -0.0080000004 -0.528 1
1.557 -0.0070000002 -0.528 1
1.548 -0.0070000002 -0.52600002 1
1.543 -0.0060000001 -0.52600002 1
1.545 -0.0049999999 -0.528 1
1.5369999 -0.0049999999 -0.52600002 1
1.535 -0.0040000002 -0.52600002 1
1.529 -0.003 -0.52499998 1
1.525 -0.003 -0.52499998 1
1.526 -0.0020000001 -0.52600002 1
1.52 -0.001 -0.52499998 1
1.5190001 -0.001 -0.52600002 1
1.5039999 0 -0.52200001 1
1.516 0 -0.52700001 1
1.506 0 -0.52399999 1
1.506 0.001 -0.52499998 1
1.505 0.001 -0.52600002 1
1.503 0.0020000001 -0.52600002 1
1.501 0.003 -0.52600002 1
1.495 0.003 -0.52399999 1
1.494 0.0040000002 -0.52499998 1
1.4960001 0.0040000002 -0.52600002 1
1.495 0.0049999999 -0.52700001 1
1.487 0.0060000001 -0.52399999 1
1.4859999 0.0060000001 -0.52499998 1
1.49 0.0070000002 -0.52700001 1
1.488 0.0080000004 -0.52700001 1
1.484 0.0080000004 -0.52600002 1
1.483 0.0089999996 -0.52600002 1
1.482 0.0089999996 -0.52600002 1
1.4809999 0.0099999998 -0.52600002 1
1.466 0.0099999998 -0.52200001 1
1.4630001 0.011 -0.52100003 1
1.485 0.012 -0.52899998 1
1.466 0.012 -0.523 1
1.4630001 0.013 -0.52200001 1
1.467 0.014 -0.52399999 1
1.4630001 0.014 -0.523 1
1.462 0.015 -0.523 1
1.4529999 0.015 -0.51999998 1
1.455 0.016000001 -0.52100003 1
1.464 0.017000001 -0.52499998 1
1.455 0.017000001 -0.52200001 1
1.454 0.017999999 -0.52200001 1
1.454 0.017999999 -0.52200001 1
1.454 0.018999999 -0.52200001 1
1.447 0.018999999 -0.51999998 1
1.4529999 0.02 -0.52200001 1
1.454 0.021 -0.523 1
1.455 0.021 -0.523 1
1.444 0.022 -0.51899999 1
1.454 0.022 -0.523 1
1.45 0.023 -0.52100003 1
1.4450001 0.023 -0.51899999 1
1.454 0.024 -0.523 1
1.448 0.025 -0.52100003 1
1.452 0.025 -0.52200001 1
1.454 0.026000001 -0.523 1
1.448 0.026000001 -0.52100003 1
1.454 0.027000001 -0.523 1
1.454 0.028000001 -0.52200001 1
1.455 0.028000001 -0.523 1
1.454 0.028999999 -0.52200001 1
1.454 0.028999999 -0.52200001 1
1.454 0.029999999 -0.52200001 1
1.452 0.029999999 -0.52100003 1
1.45 0.030999999 -0.51999998 1
1.452 0.030999999 -0.51999998 1
1.46 0.032000002 -0.523 1
1.46 0.033 -0.523 1
1.464 0.033 -0.52399999 1
1.461 0.034000002 -0.52200001 1
1.455 0.034000002 -0.51999998 1
1.461 0.035 -0.52100003 1
1.4630001 0.035999998 -0.52200001 1
1.466 0.035999998 -0.52200001 1
1.462 0.037 -0.51999998 1
1.4680001 0.037 -0.52200001 1
1.469 0.037999999 -0.52200001 1
1.469 0.037999999 -0.52100003 1
1.475 0.039000001 -0.523 1
1.476 0.039999999 -0.523 1
1.469 0.039999999 -0.51899999 1
1.476 0.041000001 -0.52100003 1
1.489 0.041999999 -0.52499998 1
1.485 0.041999999 -0.523 1
1.487 0.043000001 -0.523 1
1.489 0.043000001 -0.523 1
1.4960001 0.044 -0.52499998 1
1.498 0.044 -0.52499998 1
1.497 0.045000002 -0.52399999 1
1.503 0.046 -0.52499998 1
1.497 0.046 -0.52200001 1
1.5140001 0.046999998 -0.52700001 1
1.505 0.046999998 -0.523 1
1.506 0.048 -0.52200001 1
1.518 0.048 -0.52600002 1
1.524 0.048999999 -0.52700001 1
1.521 0.050000001 -0.52499998 1
1.526 0.050000001 -0.52499998 1
1.525 0.050999999 -0.52399999 1
1.525 0.050999999 -0.523 1
1.531 0.052000001 -0.52399999 1
1.536 0.052000001 -0.52499998 1
1.544 0.052999999 -0.52700001 1
1.5420001 0.052999999 -0.52499998 1
1.548 0.054000001 -0.52499998 1
1.548 0.055 -0.52399999 1
1.5650001 0.056000002 -0.52899998 1
1.5549999 0.056000002 -0.52399999 1
1.564 0.056000002 -0.52600002 1
1.576 0.057 -0.52899998 1
1.575 0.057999998 -0.52700001 1
1.5779999 0.057999998 -0.52700001 1
1.574 0.059 -0.52399999 1
1.586 0.059 -0.52700001 1
1.595 0.059999999 -0.528 1
1.5930001 0.059999999 -0.52600002 1
1.598 0.061000001 -0.52600002 1
