# .PCD v0.7 - Point Cloud Data file format
VERSION 0.7
FIELDS x y z intensity
SIZE 4 4 4 4
TYPE F F F F
COUNT 1 1 1 1
WIDTH 1729
HEIGHT 1
VIEWPOINT 0 0 0 1 0 0 0
POINTS 1729
DATA ascii
88.544998 8.9589996 5.5250001 19
88.514999 8.8000002 5.4439998 14
0 0 0 0
0 0 0 17
87.533997 8.2349997 5.1420002 19
87.777 8.1029997 5.0749998 23
87.712997 7.9439998 4.9899998 23
87.935997 7.8049998 4.9200001 25
88.133003 7.6690001 4.848 15
88.330002 7.5289998 4.7740002 15
89.033997 7.4310002 4.7259998 15
88.807999 7.2540002 4.6279998 17
88.898003 7.1030002 4.546 19
88.931 6.948 4.46 24
88.836998 6.783 4.3670001 19
89.276001 6.6599998 4.3000002 26
88.719002 6.461 4.1830001 36
89.787003 6.3790002 4.1420002 23
0 0 0 0
0 0 0 20
91.420998 6.013 3.937 18
0 0 0 45
119.349 7.4260001 4.8889999 26
0 0 0 0
0 0 0 0
0 0 0 0
0 0 0 0
0 0 0 0
0 0 0 0
0 0 0 13
83.667 4.0250001 2.7019999 14
0 0 0 0
0 0 0 29
81.690002 3.4990001 2.3629999 33
82.170998 3.3770001 2.2850001 24
82.836998 3.2609999 2.21 26
0 0 0 0
0 0 0 22
0 0 0 0
0 0 0 34
69.107002 2.1159999 1.441 40
68.864998 1.99 1.355 42
0 0 0 0
0 0 0 17
63.233002 1.497 1.016 25
0 0 0 0
0 0 0 0
0 0 0 150
65.730003 1.104 0.73699999 7
0 0 0 0
0 0 0 0
0 0 0 49
58.411999 0.57800001 0.36300001 19
57.693001 0.47400001 0.28600001 42
57.652 0.375 0.213 115
57.664001 0.27700001 0.14 120
57.481998 0.177 0.064999998 120
56.756001 0.079999998 -0.0070000002 63
54.681999 -0.015 -0.078000002 18
0 0 0 14
0 0 0 12
42.875 -0.229 -0.229 17
0 0 0 39
36.407001 -0.31600001 -0.28999999 32
36.437 -0.37799999 -0.33899999 40
36.488998 -0.43900001 -0.38800001 42
36.589001 -0.50099999 -0.43799999 23
36.626999 -0.56199998 -0.48800001 9
0 0 0 20
41.09 -0.76700002 -0.65899998 33
41.021999 -0.83200002 -0.713 24
40.992001 -0.89899999 -0.76800001 32
41.098 -0.96899998 -0.82700002 33
41.521 -1.046 -0.89099997 11
41.466 -1.112 -0.94800001 101
39.112 -1.113 -0.94800001 12
0 0 0 3
25.224001 -0.79699999 -0.68000001 93
25.268 -0.83999997 -0.71700001 152
25.274 -0.88 -0.75300002 150
25.285 -0.921 -0.78899997 1
0 0 0 7
37.421001 -1.482 -1.273 54
37.405998 -1.541 -1.326 25
36.817001 -1.575 -1.358 58
0 0 0 4
21.087999 -0.96799999 -0.838 13
20.774 -0.986 -0.85500002 4
20.538 -1.007 -0.875 4
20.525 -1.038 -0.90499997 3
20.549 -1.072 -0.93599999 4
20.554001 -1.103 -0.96600002 3
20.58 -1.136 -0.99699998 3
20.636 -1.171 -1.03 3
0 0 0 1
0 0 0 0
0 0 0 0
0 0 0 1
18.257 -1.174 -1.046 5
17.733999 -1.1670001 -1.043 6
17.583 -1.183 -1.0599999 6
0 0 0 5
15.312 -1.075 -0.96899998 2
15.354 -1.101 -0.99400002 2
14.698 -1.075 -0.97399998 2
14.097 -1.051 -0.95499998 2
13.62 -1.036 -0.94300002 3
13.077 -1.013 -0.92500001 3
12.753 -1.006 -0.92199999 3
12.282 -0.98699999 -0.90600002 3
11.885 -0.972 -0.89499998 2
11.471 -0.954 -0.88099998 2
11.126 -0.94099998 -0.87099999 2
10.793 -0.92699999 -0.861 2
10.449 -0.912 -0.85000002 2
10.055 -0.89200002 -0.833 3
9.7919998 -0.88200003 -0.82599998 6
9.5719995 -0.87599999 -0.82300001 7
9.3470001 -0.86799997 -0.81699997 10
9.1070004 -0.85799998 -0.81099999 15
8.8500004 -0.84600002 -0.801 14
8.6990004 -0.84299999 -0.801 12
8.5120001 -0.83600003 -0.79699999 13
8.3210001 -0.829 -0.792 13
8.0900002 -0.81599998 -0.78200001 5
7.8179998 -0.79900002 -0.76800001 4
7.6459999 -0.792 -0.76300001 4
7.4660001 -0.78299999 -0.75700003 4
7.2870002 -0.773 -0.75 4
7.1350002 -0.76599997 -0.745 4
6.9289999 -0.75300002 -0.73400003 3
6.7880001 -0.74599999 -0.73000002 3
6.651 -0.74000001 -0.72500002 3
6.5120001 -0.73199999 -0.72000003 3
6.3959999 -0.727 -0.71700001 3
6.2639999 -0.72000003 -0.71200001 3
6.131 -0.71200001 -0.70700002 4
6.0040002 -0.70499998 -0.70099998 3
5.8889999 -0.699 -0.69700003 3
5.7620001 -0.69099998 -0.69099998 3
5.665 -0.68599999 -0.68800002 3
5.5630002 -0.68000001 -0.68400002 3
5.4660001 -0.67500001 -0.68099999 4
5.3709998 -0.66900003 -0.67699999 4
5.2729998 -0.66299999 -0.67299998 3
5.2069998 -0.66100001 -0.67299998 3
5.1209998 -0.65600002 -0.66900003 2
5.0349998 -0.65100002 -0.66600001 2
4.9419999 -0.64399999 -0.66100001 2
4.8569999 -0.639 -0.65700001 5
4.8010001 -0.63700002 -0.65700001 2
4.7509999 -0.63499999 -0.65799999 2
4.684 -0.63099998 -0.65600002 2
4.5939999 -0.62400001 -0.64999998 3
4.5349998 -0.62099999 -0.64899999 2
4.4679999 -0.61699998 -0.64600003 3
4.4070001 -0.61299998 -0.64399999 3
4.3470001 -0.61000001 -0.64200002 3
4.2659998 -0.60299999 -0.63700002 2
4.243 -0.60399997 -0.63999999 3
4.132 -0.59200001 -0.62900001 2
4.158 -0.60000002 -0.63999999 3
4.0539999 -0.58999997 -0.63 2
4.0089998 -0.58700001 -0.62900001 2
3.9360001 -0.57999998 -0.62300003 1
3.905 -0.57999998 -0.62400001 1
3.8889999 -0.58099997 -0.62800002 2
3.9189999 -0.58999997 -0.639 3
3.8210001 -0.579 -0.62800002 3
3.7539999 -0.57200003 -0.62300003 3
3.6789999 -0.56400001 -0.616 3
3.677 -0.56699997 -0.62099999 2
3.625 -0.56300002 -0.61799997 3
3.622 -0.56599998 -0.62300003 3
3.5050001 -0.55000001 -0.60799998 2
3.4920001 -0.55199999 -0.611 2
3.414 -0.54299998 -0.602 1
3.3840001 -0.54100001 -0.602 1
3.3659999 -0.54100001 -0.60399997 1
3.352 -0.54100001 -0.60600001 2
3.336 -0.542 -0.60799998 1
3.286 -0.53600001 -0.60399997 1
3.244 -0.53200001 -0.60100001 1
3.2279999 -0.53200001 -0.602 1
3.2490001 -0.53899997 -0.611 2
3.142 -0.523 -0.59500003 1
3.1949999 -0.53500003 -0.61000001 1
3.1289999 -0.52600002 -0.602 1
3.0669999 -0.51800001 -0.59500003 1
3.056 -0.51899999 -0.597 1
3.112 -0.53100002 -0.61199999 2
3.029 -0.51899999 -0.60000002 1
2.9820001 -0.51300001 -0.59500003 1
2.9660001 -0.51300001 -0.59600002 1
3.0039999 -0.52200001 -0.60799998 1
2.9200001 -0.509 -0.59500003 1
2.8859999 -0.505 -0.59200001 1
2.9070001 -0.51099998 -0.60000002 1
2.9130001 -0.514 -0.60600001 2
2.845 -0.50400001 -0.59500003 1
2.7639999 -0.49200001 -0.58200002 1
2.7520001 -0.491 -0.583 1
2.8110001 -0.50400001 -0.60000002 1
2.7309999 -0.491 -0.58600003 1
2.7650001 -0.49900001 -0.597 1
2.655 -0.48100001 -0.57700002 1
2.638 -0.47999999 -0.57700002 1
2.6159999 -0.477 -0.57599998 1
2.6059999 -0.477 -0.57700002 1
2.5810001 -0.47400001 -0.57499999 1
2.5669999 -0.47299999 -0.57499999 1
2.54 -0.46900001 -0.57200003 1
2.523 -0.46799999 -0.57200003 1
2.507 -0.46599999 -0.57099998 1
2.4949999 -0.465 -0.57200003 1
2.4749999 -0.463 -0.56999999 1
2.467 -0.463 -0.57200003 1
2.447 -0.461 -0.56999999 1
2.4360001 -0.46000001 -0.57099998 1
2.4159999 -0.45699999 -0.56900001 1
2.4030001 -0.456 -0.56900001 1
2.3859999 -0.454 -0.56800002 1
2.4760001 -0.472 -0.59200001 1
2.461 -0.47099999 -0.59200001 1
2.5320001 -0.48500001 -0.61199999 1
0 0 0 1
2.425 -0.46700001 -0.59200001 1
2.402 -0.46399999 -0.58899999 1
2.2969999 -0.44499999 -0.56599998 1
2.2639999 -0.43900001 -0.56 1
2.2639999 -0.44 -0.56300002 1
2.25 -0.43799999 -0.56199998 1
2.237 -0.43700001 -0.56099999 1
2.2219999 -0.435 -0.56 1
2.2060001 -0.43200001 -0.55900002 1
2.1889999 -0.43000001 -0.55699998 1
2.187 -0.43000001 -0.55900002 1
2.175 -0.42899999 -0.55800003 1
2.164 -0.42699999 -0.55800003 1
2.158 -0.42699999 -0.55800003 1
2.1500001 -0.426 -0.55900002 1
2.1259999 -0.42199999 -0.55500001 1
2.1229999 -0.42199999 -0.55599999 1
2.1210001 -0.42199999 -0.55800003 1
2.1059999 -0.41999999 -0.55599999 1
2.0969999 -0.41800001 -0.55599999 1
2.089 -0.417 -0.55599999 1
2.075 -0.41499999 -0.55400002 1
2.0699999 -0.41499999 -0.55500001 1
2.062 -0.414 -0.55500001 1
2.049 -0.412 -0.55299997 1
2.0450001 -0.41100001 -0.55400002 1
2.0409999 -0.41100001 -0.55500001 1
2.036 -0.41 -0.55599999 1
2.0179999 -0.40700001 -0.55199999 1
2.006 -0.405 -0.551 1
2.0009999 -0.40400001 -0.551 1
1.998 -0.40400001 -0.55299997 1
1.9960001 -0.40400001 -0.55400002 1
1.985 -0.40200001 -0.55199999 1
1.98 -0.40099999 -0.55299997 1
1.973 -0.40000001 -0.55199999 1
1.967 -0.39899999 -0.55199999 1
1.959 -0.398 -0.55199999 1
1.956 -0.39700001 -0.55299997 1
1.947 -0.396 -0.55199999 1
1.942 -0.39500001 -0.55199999 1
1.931 -0.39300001 -0.55000001 1
1.923 -0.391 -0.55000001 1
1.916 -0.38999999 -0.54900002 1
1.913 -0.38999999 -0.55000001 1
1.913 -0.38999999 -0.551 1
1.903 -0.38800001 -0.55000001 1
1.9 -0.38699999 -0.55000001 1
1.885 -0.384 -0.54699999 1
1.885 -0.384 -0.54900002 1
1.876 -0.382 -0.54699999 1
1.874 -0.382 -0.54799998 1
1.874 -0.382 -0.54900002 1
1.868 -0.38 -0.54900002 1
1.8609999 -0.37900001 -0.54799998 1
1.859 -0.37900001 -0.54900002 1
1.853 -0.377 -0.54799998 1
1.848 -0.37599999 -0.54699999 1
1.844 -0.375 -0.54699999 1
1.845 -0.375 -0.54900002 1
1.829 -0.37200001 -0.54500002 1
1.8279999 -0.37099999 -0.546 1
1.827 -0.37099999 -0.546 1
1.823 -0.37 -0.546 1
1.8200001 -0.36899999 -0.54699999 1
1.817 -0.36899999 -0.54699999 1
1.817 -0.368 -0.54799998 1
1.812 -0.36700001 -0.54699999 1
1.809 -0.366 -0.54699999 1
1.804 -0.36500001 -0.546 1
1.798 -0.36300001 -0.54500002 1
1.794 -0.36199999 -0.54500002 1
1.788 -0.361 -0.54400003 1
1.789 -0.36000001 -0.54500002 1
1.781 -0.35800001 -0.54299998 1
1.7869999 -0.359 -0.546 1
1.781 -0.35800001 -0.54500002 1
1.783 -0.35800001 -0.546 1
1.781 -0.35699999 -0.546 1
1.776 -0.35499999 -0.54500002 1
1.777 -0.35499999 -0.546 1
1.77 -0.35299999 -0.54400003 1
1.77 -0.35299999 -0.54500002 1
1.768 -0.352 -0.54500002 1
1.768 -0.35100001 -0.54500002 1
1.767 -0.35100001 -0.546 1
1.771 -0.35100001 -0.54699999 1
1.765 -0.34900001 -0.546 1
1.767 -0.34900001 -0.54699999 1
1.767 -0.34799999 -0.54699999 1
1.756 -0.34599999 -0.54400003 1
1.765 -0.347 -0.54699999 1
1.755 -0.34400001 -0.54500002 1
1.757 -0.34400001 -0.54500002 1
1.749 -0.34200001 -0.54299998 1
1.749 -0.34099999 -0.54400003 1
1.748 -0.34 -0.54400003 1
1.758 -0.34200001 -0.54699999 1
1.747 -0.33899999 -0.54299998 1
1.747 -0.338 -0.54400003 1
1.744 -0.33700001 -0.54299998 1
1.742 -0.336 -0.54299998 1
1.744 -0.33500001 -0.54299998 1
1.748 -0.33500001 -0.54500002 1
1.745 -0.33399999 -0.54400003 1
1.744 -0.333 -0.54400003 1
1.7460001 -0.333 -0.54400003 1
1.7460001 -0.33199999 -0.54400003 1
1.752 -0.33199999 -0.546 1
1.7410001 -0.329 -0.54299998 1
1.747 -0.329 -0.54400003 1
1.743 -0.32800001 -0.54299998 1
1.745 -0.32699999 -0.54299998 1
1.7460001 -0.32699999 -0.54299998 1
1.747 -0.32600001 -0.54400003 1
1.745 -0.32499999 -0.54299998 1
1.743 -0.32300001 -0.542 1
1.753 -0.324 -0.54500002 1
1.747 -0.322 -0.54299998 1
1.757 -0.32300001 -0.546 1
1.753 -0.32100001 -0.54400003 1
1.751 -0.31999999 -0.54299998 1
1.753 -0.31900001 -0.54400003 1
1.7589999 -0.31999999 -0.54500002 1
1.7589999 -0.31799999 -0.54400003 1
1.7589999 -0.317 -0.54400003 1
1.763 -0.317 -0.54500002 1
1.761 -0.31600001 -0.54400003 1
1.7640001 -0.315 -0.54400003 1
1.774 -0.31600001 -0.54699999 1
1.772 -0.31400001 -0.546 1
1.774 -0.31400001 -0.546 1
1.775 -0.31299999 -0.546 1
1.776 -0.31200001 -0.54500002 1
1.776 -0.31099999 -0.54400003 1
1.784 -0.31099999 -0.546 1
1.781 -0.30899999 -0.54500002 1
1.788 -0.30899999 -0.546 1
1.789 -0.308 -0.546 1
1.794 -0.308 -0.546 1
1.798 -0.30700001 -0.54699999 1
1.793 -0.30500001 -0.54500002 1
1.803 -0.30599999 -0.54699999 1
1.806 -0.30500001 -0.54699999 1
1.807 -0.30399999 -0.546 1
1.808 -0.303 -0.546 1
1.8099999 -0.30199999 -0.54500002 1
1.813 -0.301 -0.54500002 1
1.818 -0.301 -0.546 1
1.823 -0.30000001 -0.546 1
1.831 -0.30000001 -0.54799998 1
1.823 -0.29699999 -0.54400003 1
1.837 -0.29800001 -0.54699999 1
1.835 -0.296 -0.546 1
1.845 -0.29699999 -0.54799998 1
1.848 -0.296 -0.54699999 1
1.854 -0.29499999 -0.54799998 1
1.8609999 -0.29499999 -0.54900002 1
1.858 -0.29300001 -0.54699999 1
1.8609999 -0.292 -0.546 1
1.867 -0.292 -0.54699999 1
1.869 -0.28999999 -0.546 1
1.881 -0.29100001 -0.54799998 1
1.89 -0.29100001 -0.54900002 1
1.899 -0.29100001 -0.551 1
1.901 -0.289 -0.55000001 1
1.904 -0.28799999 -0.54900002 1
1.909 -0.287 -0.54900002 1
1.915 -0.287 -0.54900002 1
1.9170001 -0.285 -0.54799998 1
1.9220001 -0.285 -0.54799998 1
1.934 -0.285 -0.55000001 1
1.938 -0.28400001 -0.55000001 1
1.943 -0.28299999 -0.55000001 1
1.949 -0.28200001 -0.54900002 1
1.959 -0.28200001 -0.551 1
1.97 -0.28200001 -0.55199999 1
1.976 -0.28099999 -0.55199999 1
1.979 -0.28 -0.551 1
1.995 -0.28 -0.55299997 1
2.0020001 -0.27900001 -0.55299997 1
2.0120001 -0.27900001 -0.55400002 1
2.0120001 -0.278 -0.55299997 1
2.016 -0.27599999 -0.55199999 1
2.03 -0.27599999 -0.55400002 1
2.0369999 -0.27500001 -0.55299997 1
2.05 -0.27500001 -0.55500001 1
2.056 -0.27399999 -0.55400002 1
2.062 -0.273 -0.55400002 1
2.079 -0.27399999 -0.55599999 1
2.0799999 -0.27200001 -0.55400002 1
2.096 -0.27200001 -0.55599999 1
2.1059999 -0.27200001 -0.55699998 1
2.1129999 -0.271 -0.55599999 1
2.1289999 -0.271 -0.55800003 1
2.1229999 -0.26800001 -0.55400002 1
2.1389999 -0.26800001 -0.55599999 1
2.154 -0.26800001 -0.55800003 1
2.168 -0.26800001 -0.55900002 1
2.178 -0.26699999 -0.55900002 1
2.1860001 -0.266 -0.55900002 1
2.2019999 -0.266 -0.56 1
2.2149999 -0.266 -0.56099999 1
2.2379999 -0.26699999 -0.56400001 1
2.2449999 -0.26499999 -0.56300002 1
2.253 -0.264 -0.56199998 1
2.27 -0.264 -0.56300002 1
2.2750001 -0.26300001 -0.56199998 1
2.2920001 -0.26199999 -0.56300002 1
2.302 -0.26199999 -0.56300002 1
2.322 -0.26199999 -0.565 1
2.3329999 -0.26100001 -0.565 1
2.346 -0.25999999 -0.565 1
2.355 -0.259 -0.56400001 1
2.3800001 -0.259 -0.56699997 1
2.3959999 -0.259 -0.56699997 1
2.4159999 -0.259 -0.56900001 1
2.427 -0.25799999 -0.56800002 1
2.454 -0.259 -0.57099998 1
2.464 -0.257 -0.56999999 1
2.487 -0.257 -0.57200003 1
2.5039999 -0.257 -0.57300001 1
2.5179999 -0.25600001 -0.57300001 1
2.5339999 -0.255 -0.57300001 1
2.553 -0.255 -0.57300001 1
2.573 -0.25400001 -0.574 1
2.5969999 -0.25400001 -0.57599998 1
2.612 -0.25299999 -0.57499999 1
2.6329999 -0.25299999 -0.57599998 1
2.651 -0.252 -0.57599998 1
2.677 -0.252 -0.57800001 2
2.698 -0.252 -0.57800001 1
2.724 -0.252 -0.57999998 1
2.7490001 -0.252 -0.58099997 1
2.7739999 -0.25099999 -0.58200002 2
2.7969999 -0.25099999 -0.583 2
2.8169999 -0.25 -0.583 2
2.9530001 -0.259 -0.60600001 2
3 -0.26100001 -0.611 1
2.9790001 -0.25600001 -0.60299999 1
2.9790001 -0.25299999 -0.59799999 1
3.0190001 -0.25400001 -0.60100001 1
3.0179999 -0.25099999 -0.59600002 1
3.063 -0.252 -0.60000002 1
3.161 -0.257 -0.61500001 2
3.293 -0.26499999 -0.63499999 1
3.2019999 -0.255 -0.61199999 2
3.223 -0.25400001 -0.611 1
3.3139999 -0.25799999 -0.62300003 2
3.2420001 -0.249 -0.60399997 1
3.2709999 -0.249 -0.60399997 1
3.3039999 -0.248 -0.60500002 1
3.378 -0.25099999 -0.61299998 2
3.369 -0.24699999 -0.60500002 1
3.3940001 -0.24600001 -0.60399997 1
3.431 -0.24600001 -0.60500002 1
3.4400001 -0.243 -0.60100001 1
3.5250001 -0.24600001 -0.61000001 1
3.579 -0.24699999 -0.61299998 3
3.575 -0.243 -0.60600001 1
3.7360001 -0.25099999 -0.62699997 3
3.7780001 -0.25099999 -0.62699997 2
3.8199999 -0.25 -0.62800002 2
3.8299999 -0.24699999 -0.62300003 2
3.859 -0.24600001 -0.62099999 2
4.0149999 -0.25299999 -0.639 3
4 -0.248 -0.62900001 2
4.027 -0.24600001 -0.62599999 2
4.0749998 -0.24600001 -0.62599999 2
4.1560001 -0.24699999 -0.63099998 2
4.2329998 -0.248 -0.63599998 2
4.2789998 -0.248 -0.63499999 2
4.3579998 -0.249 -0.639 3
4.4530001 -0.25 -0.64399999 2
4.527 -0.25099999 -0.64700001 2
4.5830002 -0.25 -0.64700001 3
4.6869998 -0.252 -0.653 3
4.7490001 -0.25099999 -0.653 4
4.803 -0.25 -0.65100002 5
4.9060001 -0.252 -0.65600002 4
4.9980001 -0.25299999 -0.65899998 4
5.1100001 -0.25400001 -0.66399997 4
5.2309999 -0.25600001 -0.67000002 4
5.3540001 -0.25799999 -0.676 3
5.4499998 -0.25799999 -0.67799997 4
5.5799999 -0.25999999 -0.68300003 4
5.6919999 -0.26100001 -0.68599999 3
5.8309999 -0.26300001 -0.69199997 3
5.9879999 -0.26499999 -0.699 3
6.1389999 -0.26800001 -0.70499998 3
6.2750001 -0.26899999 -0.70899999 3
6.448 -0.271 -0.71600002 3
6.6350002 -0.27399999 -0.72299999 3
6.8140001 -0.27599999 -0.73000002 4
6.9759998 -0.278 -0.73400003 4
7.1799998 -0.28099999 -0.741 4
7.408 -0.285 -0.75 4
7.652 -0.289 -0.75999999 4
7.8759999 -0.29100001 -0.76700002 4
8.1160002 -0.29499999 -0.77499998 4
8.3690004 -0.29800001 -0.78200001 4
8.6660004 -0.30199999 -0.79299998 3
8.9729996 -0.30700001 -0.80299997 3
9.2849998 -0.31099999 -0.81300002 3
9.5979996 -0.315 -0.82099998 3
9.9709997 -0.32100001 -0.833 4
10.33 -0.32600001 -0.84200001 3
10.77 -0.33199999 -0.85699999 2
11.236 -0.33899999 -0.87099999 3
11.73 -0.34599999 -0.88499999 3
12.197 -0.352 -0.89600003 3
12.824 -0.36199999 -0.917 3
13.469 -0.37200001 -0.935 3
14.074 -0.38 -0.949 4
14.826 -0.391 -0.96899998 3
0 0 0 3
0 0 0 2
17.066999 -0.419 -1.012 2
0 0 0 1
0 0 0 0
0 0 0 0
0 0 0 5
0 0 0 1
0 0 0 0
0 0 0 18
39.033001 -0.77999997 -1.675 31
37.208 -0.72299999 -1.52 10
37.279999 -0.704 -1.4450001 8
37.355999 -0.68599999 -1.372 6
0 0 0 1
0 0 0 0
0 0 0 3
0 0 0 16
37.952 -0.59899998 -0.99900001 16
37.526001 -0.574 -0.90899998 4
36.458 -0.54000002 -0.80699998 2
36.320999 -0.52100003 -0.72799999 4
36.285999 -0.50300002 -0.65100002 5
36.293999 -0.486 -0.57599998 4
36.455002 -0.47099999 -0.50099999 6
36.493 -0.45500001 -0.42500001 34
36.506001 -0.43900001 -0.34799999 48
36.514 -0.42300001 -0.27200001 18
36.530998 -0.40700001 -0.19499999 6
36.542999 -0.39199999 -0.118 4
0 0 0 0
0 0 0 10
46.812 -0.44400001 0.142 5
49.570999 -0.45100001 0.25400001 115
49.573002 -0.43200001 0.35699999 113
49.574001 -0.41299999 0.46200001 116
49.566002 -0.39399999 0.56599998 114
49.613998 -0.37599999 0.671 91
49.641998 -0.35800001 0.77600002 48
49.625999 -0.34 0.88 48
0 0 0 12
42.425999 -0.26199999 0.92900002 30
42.43 -0.248 1.018 48
42.428001 -0.234 1.108 50
42.426998 -0.22 1.198 50
42.438999 -0.206 1.289 80
42.407001 -0.193 1.378 150
42.429001 -0.18099999 1.4680001 106
42.478001 -0.168 1.558 6
0 0 0 0
0 0 0 0
0 0 0 0
0 0 0 0
0 0 0 25
0 0 0 25
0 0 0 25
0 0 0 25
0 0 0 29
50.245998 -0.071999997 2.8940001 70
50.271999 -0.061000001 3.0009999 82
50.257999 -0.050999999 3.1029999 85
50.27 -0.041000001 3.2090001 80
50.263 -0.030999999 3.313 75
50.280998 -0.022 3.4189999 77
50.333 -0.013 3.5280001 52
50.522999 -0.0040000002 3.6459999 50
50.876999 0.0040000002 3.776 46
51.162998 0.012 3.9030001 45
51.490002 0.02 4.033 55
51.627998 0.027000001 4.151 65
51.648998 0.035 4.2589998 67
51.653 0.041000001 4.3629999 68
51.660999 0.046999998 4.4699998 64
51.676998 0.052999999 4.5780001 69
51.664001 0.059999999 4.684 68
51.665001 0.064999998 4.7909999 66
51.683998 0.07 4.8979998 58
51.675999 0.075000003 5.0019999 57
51.730999 0.079000004 5.1129999 55
51.834 0.082999997 5.2280002 56
51.907001 0.086999997 5.3410001 55
52.127998 0.090999998 5.4679999 43
52.304001 0.093999997 5.5929999 33
52.429001 0.097000003 5.711 33
52.549999 0.098999999 5.829 33
52.658001 0.102 5.947 30
52.396 0.103 6.0229998 14
52.109001 0.103 6.0939999 13
51.974998 0.104 6.1830001 9
52.049 0.105 6.2940001 10
52.063999 0.105 6.4000001 11
52.060001 0.106 6.5040002 9
52.069 0.105 6.6069999 9
52.103001 0.104 6.7129998 9
0 0 0 0
0 0 0 50
116.973 0.22499999 15.763 66
117.01 0.221 15.994 64
117.015 0.21600001 16.224001 44
117.055 0.20999999 16.457001 27
116.941 0.204 16.672001 22
0 0 0 0
0 0 0 0
0 0 0 0
0 0 0 0
0 0 0 0
0 0 0 0
0 0 0 0
0 0 0 0
0 0 0 0
0 0 0 0
0 0 0 0
0 0 0 0
0 0 0 0
0 0 0 0
0 0 0 0
0 0 0 0
0 0 0 0
0 0 0 0
0 0 0 0
0 0 0 0
0 0 0 0
0 0 0 0
0 0 0 0
0 0 0 8
50.91 -0.078000002 9.6199999 17
50.887001 -0.088 9.7049999 21
50.842999 -0.098999999 9.7860003 21
50.813999 -0.11 9.868 17
50.724998 -0.121 9.9390001 17
50.645 -0.131 10.013 13
50.484001 -0.14300001 10.067 13
50.330002 -0.154 10.122 20
50.181 -0.164 10.18 24
50.136002 -0.177 10.255 30
50.118 -0.189 10.336 35
50.101002 -0.20100001 10.417 27
50.001999 -0.213 10.479 16
49.778999 -0.22499999 10.516 10
49.568001 -0.237 10.554 10
49.481998 -0.25 10.618 8
49.337002 -0.26300001 10.668 9
49.174 -0.27500001 10.713 8
49.126999 -0.289 10.782 8
48.971001 -0.30199999 10.828 9
48.861 -0.31600001 10.882 9
48.748001 -0.329 10.935 9
48.623001 -0.34200001 10.984 9
48.466999 -0.35600001 11.025 9
48.324001 -0.37 11.069 8
48.233002 -0.384 11.124 8
48.049999 -0.39700001 11.155 9
47.877998 -0.412 11.19 7
0 0 0 0
0 0 0 4
0 0 0 0
0 0 0 0
0 0 0 0
0 0 0 0
0 0 0 58
126.679 -1.427 31.127001 71
126.647 -1.4680001 31.306 91
126.616 -1.513 31.481001 93
126.539 -1.557 31.643999 81
126.346 -1.601 31.775999 53
0 0 0 0
0 0 0 0
0 0 0 47
120.611 -1.704 31.006001 70
120.645 -1.75 31.181 73
120.658 -1.796 31.348 77
120.644 -1.842 31.507 73
120.657 -1.8890001 31.672001 64
120.653 -1.936 31.830999 68
120.685 -1.98 31.997 62
120.663 -2.0280001 32.147999 64
120.71 -2.076 32.317001 49
120.617 -2.1229999 32.446999 37
120.787 -2.174 32.646 26
0 0 0 0
0 0 0 0
0 0 0 0
0 0 0 0
0 0 0 0
0 0 0 0
0 0 0 0
0 0 0 0
0 0 0 0
0 0 0 0
0 0 0 0
0 0 0 0
0 0 0 0
0 0 0 0
0 0 0 25
121.232 -2.987 35.030998 31
121.132 -3.0339999 35.130001 33
121.13 -3.0869999 35.257 37
121.053 -3.135 35.362999 38
121.067 -3.1889999 35.492001 53
120.987 -3.24 35.591 69
120.975 -3.293 35.709 60
120.988 -3.3469999 35.830002 65
120.946 -3.3959999 35.937 63
121.017 -3.4519999 36.075001 66
120.967 -3.5050001 36.175999 64
120.998 -3.5599999 36.299 64
121.02 -3.612 36.416 69
121.009 -3.6659999 36.522999 71
120.986 -3.72 36.625 91
121.073 -3.777 36.758999 73
121.039 -3.8310001 36.855 81
121.086 -3.8840001 36.972 80
121.107 -3.9400001 37.081001 81
121.095 -3.994 37.178001 79
121.083 -4.046 37.272999 88
121.086 -4.1040001 37.369999 92
121.113 -4.1570001 37.477001 74
121.141 -4.2140002 37.577 81
121.094 -4.2670002 37.655998 68
121.105 -4.3200002 37.749001 53
121.038 -4.3730001 37.818001 47
121.105 -4.4310002 37.926998 40
0 0 0 0
0 0 0 0
0 0 0 0
0 0 0 0
0 0 0 0
0 0 0 0
0 0 0 0
0 0 0 0
0 0 0 0
0 0 0 0
0 0 0 35
127.157 -5.3410001 40.796001 29
0 0 0 2
36.120998 -1.55 11.628 3
36.02 -1.562 11.614 5
35.943001 -1.574 11.607 7
35.780998 -1.585 11.572 7
35.674999 -1.596 11.554 7
35.580002 -1.608 11.54 8
35.453999 -1.617 11.515 9
35.323002 -1.627 11.488 8
35.228001 -1.6390001 11.472 10
35.098999 -1.648 11.444 9
35.005001 -1.658 11.427 9
34.911999 -1.67 11.41 9
34.792 -1.679 11.383 9
34.660999 -1.689 11.352 9
34.563999 -1.699 11.332 10
34.466999 -1.71 11.311 10
34.363998 -1.719 11.288 10
34.252998 -1.729 11.261 9
34.120998 -1.738 11.227 9
34.019001 -1.747 11.203 9
33.942001 -1.757 11.186 9
33.834 -1.766 11.159 10
33.703999 -1.775 11.123 9
33.588001 -1.783 11.092 9
33.487 -1.7920001 11.065 9
33.409 -1.802 11.045 10
33.332001 -1.812 11.025 9
33.221001 -1.821 10.993 10
33.150002 -1.831 10.974 12
33.104 -1.8430001 10.962 14
33.029999 -1.853 10.941 15
33.007 -1.864 10.937 17
33.021 -1.8789999 10.944 18
32.979 -1.891 10.932 17
32.993 -1.905 10.938 18
32.987 -1.919 10.938 19
32.983002 -1.931 10.937 19
32.993 -1.9450001 10.94 18
32.986 -1.959 10.938 19
33 -1.973 10.941 19
33.001999 -1.9859999 10.941 19
32.974998 -1.997 10.93 20
32.784 -1.999 10.864 18
32.292999 -1.982 10.699 14
31.809999 -1.965 10.536 19
31.735001 -1.972 10.507 17
31.704 -1.983 10.493 18
31.694 -1.994 10.486 19
31.698999 -2.006 10.482 17
31.707001 -2.02 10.479 18
31.707001 -2.0320001 10.473 17
31.705 -2.0439999 10.467 18
31.698999 -2.0550001 10.458 22
31.708 -2.0680001 10.453 17
31.704 -2.079 10.445 19
31.697001 -2.0899999 10.434 17
31.684999 -2.1010001 10.422 17
31.697001 -2.1129999 10.417 17
31.690001 -2.1240001 10.405 17
31.650999 -2.1329999 10.382 18
31.108 -2.1059999 10.194 13
30.664 -2.0869999 10.038 16
30.403999 -2.0810001 9.9429998 18
30.334999 -2.086 9.9090004 20
30.320999 -2.095 9.8929996 21
30.329 -2.1070001 9.8830004 23
30.32 -2.1159999 9.868 22
30.323 -2.1259999 9.8559999 23
30.325001 -2.1370001 9.8430004 23
30.320999 -2.1470001 9.8280001 24
30.325001 -2.1570001 9.816 23
30.313 -2.1659999 9.7969999 23
30.322001 -2.1760001 9.7849998 25
30.327 -2.1860001 9.7709999 22
30.323 -2.1949999 9.7539997 23
30.319 -2.2030001 9.7370005 22
30.327999 -2.214 9.7229996 24
30.326 -2.223 9.7049999 23
30.343 -2.233 9.6929998 22
30.33 -2.2409999 9.6709995 21
30.327 -2.25 9.6520004 17
30.15 -2.244 9.5780001 20
29.721001 -2.221 9.4219999 11
29.407 -2.2060001 9.3039999 15
29.075001 -2.1889999 9.1800003 19
29.009001 -2.1930001 9.1389999 20
28.973 -2.198 9.1079998 21
28.945999 -2.204 9.0790005 22
28.944 -2.21 9.0579996 23
28.959999 -2.2190001 9.0419998 23
28.940001 -2.2249999 9.0139999 23
28.959 -2.234 8.9980001 23
28.955999 -2.2409999 8.9750004 24
28.951 -2.247 8.9510002 24
28.955999 -2.2550001 8.9300003 24
28.958 -2.2620001 8.9069996 24
28.954 -2.2679999 8.8830004 24
28.938999 -2.2739999 8.8540001 25
28.950001 -2.2820001 8.8330002 24
28.964001 -2.289 8.8129997 23
28.941 -2.293 8.7810001 23
28.941 -2.299 8.7550001 25
28.961 -2.3069999 8.7349997 24
28.948999 -2.312 8.7060003 24
28.951 -2.3180001 8.6800003 24
28.941999 -2.323 8.6499996 24
28.952 -2.329 8.6260004 25
28.952999 -2.335 8.5979996 24
28.954 -2.3399999 8.5710001 24
28.945999 -2.3440001 8.54 24
28.944 -2.349 8.5109997 24
28.955999 -2.3540001 8.4860001 24
28.931999 -2.3570001 8.4490004 22
28.83 -2.3540001 8.3900003 17
28.593 -2.3380001 8.2910004 18
28.396 -2.3269999 8.2040005 14
28.205 -2.3150001 8.1190004 14
27.974001 -2.3 8.0220003 17
27.820999 -2.2909999 7.9489999 17
27.674 -2.283 7.8759999 16
27.643999 -2.2839999 7.8369999 19
27.606001 -2.2839999 7.7950001 22
27.594999 -2.2869999 7.7600002 22
27.582001 -2.289 7.7249999 23
27.570999 -2.2909999 7.6900001 23
27.561001 -2.293 7.6550002 23
27.545 -2.2939999 7.618 20
27.509001 -2.293 7.5760002 13
27.426001 -2.2880001 7.52 13
27.334 -2.283 7.461 10
27.280001 -2.2809999 7.4130001 9
27.273001 -2.2820001 7.3769999 9
27.25 -2.2820001 7.3379998 9
27.240999 -2.283 7.3010001 9
27.240999 -2.2850001 7.2670002 8
27.209999 -2.283 7.224 9
27.223 -2.2850001 7.1929998 10
27.188 -2.2839999 7.1479998 9
27.197001 -2.2850001 7.1149998 9
27.176001 -2.2850001 7.0739999 9
27.173 -2.2850001 7.0370002 9
27.17 -2.2850001 7 9
27.139 -2.283 6.9559999 9
27.15 -2.2839999 6.921 8
27.145 -2.2839999 6.8839998 9
27.143999 -2.2839999 6.8460002 9
27.134001 -2.283 6.8060002 10
27.179001 -2.286 6.7779999 11
27.243999 -2.2909999 6.757 12
27.349001 -2.2980001 6.744 17
27.468 -2.3080001 6.7340002 21
27.591999 -2.3169999 6.7249999 22
27.719 -2.3269999 6.7150002 27
27.85 -2.336 6.7069998 26
28.011999 -2.348 6.7049999 23
28.174 -2.3599999 6.7020001 22
28.329 -2.3710001 6.697 27
28.468 -2.381 6.6869998 21
28.631001 -2.392 6.684 25
28.797001 -2.404 6.6789999 25
28.962999 -2.415 6.6729999 22
29.125 -2.4260001 6.6659999 23
29.313 -2.438 6.664 22
29.483 -2.45 6.658 23
29.683001 -2.4630001 6.6570001 23
29.844999 -2.4719999 6.6459999 22
30.028 -2.484 6.6399999 21
30.214001 -2.4949999 6.6329999 20
30.392 -2.506 6.6240001 20
30.583 -2.517 6.6170001 21
30.785 -2.529 6.6110001 21
30.988001 -2.5409999 6.605 20
31.188 -2.552 6.598 20
31.388 -2.563 6.5890002 21
31.625999 -2.576 6.5869999 21
31.829 -2.5869999 6.5770001 22
32.027 -2.5969999 6.566 22
32.284 -2.612 6.566 22
32.5 -2.6229999 6.5560002 21
32.738998 -2.635 6.5479999 23
32.984001 -2.6470001 6.5419998 23
33.198002 -2.658 6.5279999 23
33.435001 -2.6689999 6.5190001 24
33.654999 -2.678 6.5050001 28
33.806999 -2.6819999 6.4759998 38
33.883999 -2.6800001 6.4330001 45
33.867001 -2.6700001 6.3730001 48
33.877998 -2.6619999 6.316 51
33.879002 -2.6530001 6.2589998 42
33.866001 -2.6429999 6.1989999 48
33.873001 -2.6340001 6.1409998 48
33.875 -2.6240001 6.0819998 51
33.862 -2.6129999 6.0209999 49
33.869999 -2.6040001 5.9629998 48
33.856998 -2.592 5.901 47
33.854 -2.5810001 5.8390002 48
33.852001 -2.569 5.7800002 49
33.844002 -2.5580001 5.7179999 49
33.838001 -2.546 5.6570001 53
33.838001 -2.5350001 5.598 53
33.835999 -2.523 5.5359998 51
33.84 -2.5109999 5.4759998 54
33.820999 -2.497 5.4120002 55
33.830002 -2.4860001 5.3520002 54
33.82 -2.471 5.2880001 54
33.819 -2.4590001 5.2280002 55
33.824001 -2.4460001 5.1669998 54
33.827999 -2.4330001 5.1059999 43
33.812 -2.418 5.0419998 49
33.798 -2.4030001 4.9780002 52
33.807999 -2.3889999 4.9169998 52
33.813 -2.375 4.855 53
33.797001 -2.3599999 4.79 53
33.801998 -2.3440001 4.7280002 53
33.798 -2.329 4.664 53
33.797001 -2.313 4.6020002 54
33.782001 -2.2969999 4.5370002 54
33.776001 -2.28 4.473 52
33.775002 -2.2639999 4.4089999 49
33.778 -2.2479999 4.3460002 49
33.764 -2.2309999 4.2810001 51
33.776001 -2.2149999 4.2189999 51
33.751999 -2.1960001 4.152 54
33.749001 -2.178 4.0879998 54
33.749001 -2.161 4.0250001 56
33.764 -2.1440001 3.9619999 48
33.752998 -2.125 3.8970001 54
33.731998 -2.105 3.8299999 54
33.743999 -2.0869999 3.767 56
33.731998 -2.0680001 3.701 53
33.723999 -2.0480001 3.6359999 53
33.720001 -2.029 3.5710001 55
33.719002 -2.0090001 3.506 54
33.722 -1.99 3.4430001 55
33.707001 -1.969 3.3770001 57
33.727001 -1.95 3.3139999 61
33.710999 -1.928 3.247 58
33.700001 -1.9069999 3.1819999 56
33.676998 -1.885 3.1140001 64
33.68 -1.864 3.05 78
33.660999 -1.842 2.983 90
33.678001 -1.821 2.921 90
33.669998 -1.798 2.8540001 87
33.655998 -1.776 2.789 90
33.643002 -1.752 2.7219999 87
33.645 -1.73 2.6570001 79
33.632999 -1.706 2.5910001 79
33.639999 -1.683 2.526 78
33.618999 -1.659 2.46 79
33.618 -1.635 2.3940001 79
33.596001 -1.6109999 2.329 75
33.613998 -1.587 2.2639999 68
33.626999 -1.564 2.1989999 52
33.625999 -1.539 2.1340001 46
33.615002 -1.5140001 2.069 43
33.641998 -1.49 2.0050001 30
33.703999 -1.4680001 1.944 15
33.778999 -1.446 1.883 10
33.778 -1.42 1.818 12
33.763 -1.393 1.752 11
33.764999 -1.367 1.6849999 12
33.758999 -1.34 1.62 7
0 0 0 0
0 0 0 8
38.485001 -1.4349999 1.623 8
38.695 -1.4119999 1.557 6
38.946999 -1.3890001 1.493 6
39.183998 -1.365 1.425 10
39.217999 -1.3329999 1.35 22
39.313 -1.304 1.279 11
39.326 -1.271 1.204 3
41.551998 -1.308 1.192 91
41.535 -1.272 1.112 107
41.526001 -1.2359999 1.034 112
41.543999 -1.2 0.95200002 89
41.526001 -1.163 0.87199998 111
41.532001 -1.127 0.79400003 73
41.667999 -1.0930001 0.71600002 7
41.959 -1.063 0.63999999 4
42.303001 -1.033 0.56400001 10
42.257999 -0.99299997 0.48300001 59
42.210999 -0.95300001 0.40200001 37
42.229 -0.91500002 0.32100001 37
42.337002 -0.87800002 0.242 62
42.373001 -0.83899999 0.162 45
0 0 0 12
45.672001 -0.81800002 0.001 19
0 0 0 9
42.167 -0.67500001 -0.15700001 26
42.250999 -0.63499999 -0.237 26
0 0 0 28
36.583 -0.47799999 -0.34299999 36
36.483002 -0.44100001 -0.41 27
36.421001 -0.40400001 -0.47799999 76
36.410999 -0.368 -0.546 93
36.409 -0.33199999 -0.61299998 64
36.408001 -0.29499999 -0.68099999 86
36.417 -0.25799999 -0.74900001 53
36.459 -0.222 -0.81599998 10
0 0 0 0
0 0 0 39
36.327999 -0.109 -1.015 40
36.328999 -0.071000002 -1.082 50
36.339001 -0.033 -1.148 52
36.383999 0.0040000002 -1.217 33
36.433998 0.043000001 -1.285 9
0 0 0 48
41.759998 0.138 -1.625 62
41.916 0.184 -1.7079999 44
42.044998 0.23 -1.789 24
0 0 0 0
0 0 0 2
27.747 0.242 -1.331 3
0 0 0 0
0 0 0 0
0 0 0 0
0 0 0 0
0 0 0 1
17.289 0.26699999 -1.015 2
16.290001 0.27000001 -0.98500001 2
15.381 0.27200001 -0.958 2
14.73 0.27700001 -0.94199997 2
14.093 0.28099999 -0.92699999 3
13.463 0.28400001 -0.90899998 3
12.874 0.287 -0.89099997 3
12.395 0.28999999 -0.88 3
11.969 0.294 -0.87 3
11.523 0.29699999 -0.85799998 2
11.106 0.29899999 -0.84600002 3
10.745 0.30199999 -0.83700001 3
10.374 0.30399999 -0.82599998 3
10.059 0.30599999 -0.81800002 4
9.7559996 0.30899999 -0.81 4
9.4350004 0.31 -0.79900002 3
9.1719999 0.31200001 -0.792 4
8.9329996 0.31400001 -0.78600001 5
8.6890001 0.31600001 -0.77899998 6
8.5310001 0.32100001 -0.77899998 8
8.2950001 0.322 -0.77200001 5
7.9949999 0.31999999 -0.75700003 3
7.7690001 0.31999999 -0.74800003 4
7.573 0.32100001 -0.74199998 4
7.362 0.32100001 -0.73299998 4
7.1669998 0.322 -0.72500002 3
7 0.32300001 -0.72000003 3
6.8390002 0.324 -0.71499997 3
6.6890001 0.32499999 -0.70999998 3
6.54 0.32600001 -0.704 3
6.4099998 0.32699999 -0.70099998 3
6.2859998 0.329 -0.69700003 3
6.164 0.33000001 -0.69300002 3
6.0310001 0.33000001 -0.68800002 3
5.9050002 0.331 -0.68300003 3
5.7870002 0.33199999 -0.67799997 3
5.6669998 0.33199999 -0.67299998 3
5.5079999 0.329 -0.66299999 4
5.441 0.33199999 -0.66299999 4
5.3590002 0.33399999 -0.66100001 3
5.2779999 0.336 -0.65899998 4
5.164 0.33500001 -0.653 3
5.0949998 0.33700001 -0.65200001 3
5.0279999 0.33899999 -0.65100002 3
4.9320002 0.33899999 -0.64600003 3
4.8540001 0.33899999 -0.64300001 3
4.7649999 0.33899999 -0.63800001 3
4.6989999 0.34 -0.63599998 3
4.618 0.34 -0.63200003 3
4.5799999 0.34299999 -0.63300002 3
4.5250001 0.345 -0.63200003 3
4.4580002 0.345 -0.62900001 3
4.4039998 0.347 -0.62800002 2
4.375 0.34999999 -0.63 2
4.329 0.352 -0.62900001 2
4.2399998 0.34999999 -0.62199998 2
4.2420001 0.35600001 -0.62900001 2
4.1469998 0.35299999 -0.62 2
4.099 0.354 -0.61900002 2
4.052 0.35499999 -0.61699998 2
4.0640001 0.36199999 -0.625 3
3.9519999 0.35699999 -0.61299998 2
3.984 0.36500001 -0.62300003 2
3.9519999 0.36700001 -0.62300003 3
3.892 0.366 -0.61900002 2
3.8380001 0.366 -0.616 2
3.8540001 0.373 -0.62300003 3
3.7909999 0.37099999 -0.61799997 3
3.7309999 0.37 -0.61299998 3
3.6819999 0.37 -0.61000001 3
3.631 0.37 -0.60600001 3
3.5569999 0.36700001 -0.59799999 2
3.503 0.366 -0.59299999 2
3.497 0.36899999 -0.597 2
3.4219999 0.366 -0.588 1
3.4059999 0.368 -0.58999997 1
3.493 0.382 -0.60900003 2
3.4530001 0.382 -0.60699999 2
3.5450001 0.39700001 -0.62699997 2
3.527 0.39899999 -0.62800002 2
3.3469999 0.38299999 -0.60000002 2
3.3429999 0.38699999 -0.60299999 2
3.27 0.38299999 -0.59399998 1
3.2449999 0.384 -0.59299999 1
3.263 0.38999999 -0.60000002 2
3.201 0.38699999 -0.59200001 1
3.2390001 0.396 -0.60299999 1
3.2090001 0.396 -0.60100001 2
3.2079999 0.40000001 -0.60500002 2
3.0710001 0.38699999 -0.58200002 2
3.0420001 0.38699999 -0.57999998 2
3.0280001 0.389 -0.58099997 2
3.0050001 0.38999999 -0.57999998 2
2.984 0.391 -0.579 2
2.9549999 0.391 -0.57599998 2
2.9460001 0.39300001 -0.57800001 2
2.9219999 0.39300001 -0.57599998 2
2.902 0.39399999 -0.57499999 2
2.881 0.39500001 -0.574 2
2.8570001 0.39500001 -0.57200003 2
2.8540001 0.398 -0.574 2
2.8380001 0.40000001 -0.574 2
2.8180001 0.40000001 -0.57300001 2
2.8099999 0.40200001 -0.574 2
2.789 0.403 -0.57200003 2
2.7639999 0.40200001 -0.56999999 2
2.756 0.405 -0.57099998 2
2.7379999 0.405 -0.56900001 2
2.72 0.40599999 -0.56800002 2
2.71 0.40799999 -0.56900001 2
2.6989999 0.40900001 -0.56900001 2
2.6800001 0.40900001 -0.56699997 2
2.6670001 0.41100001 -0.56699997 2
2.658 0.412 -0.56699997 2
2.641 0.41299999 -0.56599998 2
2.628 0.414 -0.565 2
2.612 0.414 -0.56400001 2
2.6010001 0.41600001 -0.56400001 2
2.5910001 0.417 -0.56400001 2
2.582 0.419 -0.56400001 2
2.5699999 0.41999999 -0.56400001 2
2.562 0.421 -0.56400001 2
2.546 0.421 -0.56199998 2
2.5380001 0.42300001 -0.56300002 2
2.527 0.42399999 -0.56199998 2
2.5139999 0.42500001 -0.56099999 2
2.5079999 0.42699999 -0.56199998 2
2.5 0.428 -0.56199998 2
2.4920001 0.42899999 -0.56199998 2
2.4809999 0.43000001 -0.56099999 2
2.4719999 0.43099999 -0.56099999 2
2.4630001 0.43200001 -0.56 2
2.451 0.433 -0.56 2
2.4349999 0.433 -0.55699998 2
2.4330001 0.435 -0.55900002 2
2.428 0.43700001 -0.55900002 2
2.4200001 0.43799999 -0.55900002 2
2.3989999 0.43700001 -0.55500001 1
2.3970001 0.43900001 -0.55599999 1
2.3940001 0.44100001 -0.55699998 2
2.3870001 0.442 -0.55699998 1
2.3759999 0.442 -0.55599999 1
2.3740001 0.44400001 -0.55699998 1
2.3570001 0.44299999 -0.55400002 1
2.3610001 0.447 -0.55599999 1
2.3469999 0.44600001 -0.55400002 1
2.339 0.447 -0.55400002 1
2.3380001 0.449 -0.55500001 1
2.3269999 0.449 -0.55299997 1
2.332 0.45300001 -0.55599999 1
2.323 0.45300001 -0.55500001 1
2.3069999 0.45199999 -0.55199999 1
2.306 0.454 -0.55299997 1
2.2969999 0.454 -0.55199999 1
2.3050001 0.458 -0.55500001 1
2.29 0.45699999 -0.55199999 1
2.28 0.458 -0.551 1
2.277 0.45899999 -0.551 1
2.277 0.461 -0.55199999 1
2.2720001 0.46200001 -0.55199999 2
2.2609999 0.46200001 -0.55000001 2
2.2579999 0.463 -0.55000001 2
2.2579999 0.465 -0.551 2
2.2550001 0.46700001 -0.551 1
2.247 0.46700001 -0.55000001 2
2.24 0.46700001 -0.54900002 1
2.2449999 0.47 -0.551 1
2.2460001 0.472 -0.55199999 1
2.2360001 0.472 -0.55000001 2
2.2320001 0.47299999 -0.55000001 2
2.2279999 0.47400001 -0.54900002 2
2.2320001 0.477 -0.551 1
2.23 0.47799999 -0.551 2
2.227 0.479 -0.551 1
2.224 0.47999999 -0.551 2
2.2179999 0.48100001 -0.55000001 2
2.2149999 0.48199999 -0.54900002 2
2.2119999 0.48300001 -0.54900002 2
2.2160001 0.48500001 -0.551 2
2.2030001 0.484 -0.54799998 1
2.204 0.486 -0.54799998 1
2.2019999 0.48699999 -0.54799998 1
2.2079999 0.49000001 -0.55000001 1
2.1960001 0.48899999 -0.54699999 2
2.2030001 0.49200001 -0.55000001 1
2.1960001 0.49200001 -0.54799998 1
2.197 0.493 -0.54900002 1
2.1900001 0.493 -0.54699999 1
2.194 0.49599999 -0.54799998 2
2.1889999 0.49599999 -0.54699999 1
2.1930001 0.498 -0.54799998 1
2.188 0.49900001 -0.54699999 2
2.188 0.5 -0.54699999 1
2.1930001 0.50199997 -0.54900002 1
2.1889999 0.50300002 -0.54799998 1
2.1889999 0.50400001 -0.54799998 1
2.1860001 0.505 -0.54699999 1
2.187 0.50599998 -0.54699999 1
2.187 0.50700003 -0.54699999 1
2.187 0.509 -0.54699999 1
2.1849999 0.509 -0.54699999 1
2.1919999 0.51200002 -0.54799998 1
2.187 0.51200002 -0.54699999 1
2.194 0.51499999 -0.54900002 1
2.191 0.51499999 -0.54799998 1
2.1949999 0.51700002 -0.54900002 1
2.1930001 0.51800001 -0.54799998 1
2.194 0.51899999 -0.54799998 1
2.1900001 0.51899999 -0.54699999 1
2.2 0.52200001 -0.54900002 2
2.1989999 0.523 -0.54799998 2
2.198 0.52399999 -0.54799998 2
2.198 0.52499998 -0.54699999 2
2.2060001 0.52700001 -0.54900002 2
2.2019999 0.52700001 -0.54699999 2
2.2049999 0.52899998 -0.54799998 2
2.2130001 0.53200001 -0.54900002 2
2.2130001 0.53200001 -0.54900002 2
2.2060001 0.53200001 -0.54699999 2
2.2149999 0.53399998 -0.54799998 2
2.2149999 0.53500003 -0.54799998 2
2.22 0.537 -0.54900002 2
2.2249999 0.53899997 -0.54900002 2
2.22 0.53899997 -0.54699999 2
2.223 0.54000002 -0.54799998 2
2.227 0.54100001 -0.54799998 2
2.234 0.54400003 -0.54900002 2
2.234 0.54400003 -0.54799998 2
2.244 0.54699999 -0.55000001 2
2.2379999 0.546 -0.54799998 2
2.2460001 0.54900002 -0.54900002 2
2.2509999 0.55000001 -0.54900002 2
2.2620001 0.55400002 -0.551 2
2.256 0.55299997 -0.54900002 2
2.26 0.55400002 -0.54900002 1
2.2620001 0.55500001 -0.54799998 1
2.27 0.55699998 -0.55000001 1
2.27 0.55800003 -0.54900002 2
2.279 0.56 -0.55000001 2
2.2880001 0.56300002 -0.551 2
2.2869999 0.56300002 -0.55000001 2
2.289 0.56300002 -0.54900002 2
2.302 0.56699997 -0.551 2
2.3050001 0.56800002 -0.551 2
2.313 0.56999999 -0.55199999 2
2.319 0.57099998 -0.55199999 2
2.326 0.57300001 -0.55299997 2
2.3310001 0.57499999 -0.55299997 2
2.3369999 0.57599998 -0.55299997 2
2.3440001 0.57800001 -0.55299997 2
2.3499999 0.579 -0.55400002 2
2.3570001 0.58099997 -0.55400002 2
2.3640001 0.583 -0.55400002 2
2.369 0.58399999 -0.55400002 2
2.381 0.58700001 -0.55599999 2
2.3800001 0.58600003 -0.55400002 2
2.395 0.58999997 -0.55599999 2
2.3959999 0.58999997 -0.55500001 2
2.402 0.59100002 -0.55500001 2
2.4059999 0.59200001 -0.55400002 2
2.424 0.59600002 -0.55699998 2
2.4260001 0.59600002 -0.55599999 2
2.4319999 0.597 -0.55599999 2
2.4389999 0.59899998 -0.55599999 2
2.448 0.60100001 -0.55599999 2
2.46 0.60299999 -0.55699998 2
2.4660001 0.60399997 -0.55699998 2
2.474 0.60600001 -0.55699998 2
2.4860001 0.60799998 -0.55800003 2
2.4960001 0.61000001 -0.55800003 2
2.5 0.611 -0.55800003 2
2.5090001 0.61199999 -0.55800003 2
2.52 0.61400002 -0.55900002 2
2.5309999 0.616 -0.55900002 2
2.5409999 0.61799997 -0.55900002 2
2.5539999 0.62 -0.56 2
2.5669999 0.62300003 -0.56099999 2
2.576 0.62400001 -0.56099999 2
2.5840001 0.625 -0.56099999 2
2.596 0.62699997 -0.56199998 2
2.6059999 0.62900001 -0.56199998 2
2.6170001 0.63099998 -0.56199998 2
2.6329999 0.634 -0.56300002 2
2.6440001 0.63499999 -0.56400001 2
2.6570001 0.63700002 -0.56400001 2
2.6670001 0.639 -0.56400001 2
2.6789999 0.63999999 -0.56400001 2
2.6919999 0.64200002 -0.565 2
2.7160001 0.64700001 -0.56800002 2
2.723 0.64700001 -0.56699997 2
2.733 0.648 -0.56699997 2
2.7490001 0.65100002 -0.56800002 2
2.7590001 0.65200001 -0.56699997 2
2.7550001 0.64999998 -0.56400001 2
2.848 0.67000002 -0.58099997 1
2.911 0.68400002 -0.59100002 1
2.915 0.68300003 -0.58899999 1
2.8239999 0.66000003 -0.56800002 2
2.845 0.66399997 -0.56999999 2
2.862 0.66600001 -0.56999999 2
2.872 0.667 -0.56999999 2
2.891 0.67000002 -0.57099998 2
2.911 0.67199999 -0.57200003 2
2.9230001 0.67299998 -0.57200003 2
2.941 0.676 -0.57200003 2
2.96 0.67799997 -0.57300001 2
2.9809999 0.68099999 -0.574 2
2.9990001 0.68300003 -0.57499999 2
3.0150001 0.685 -0.57499999 2
3.039 0.68900001 -0.57700002 2
3.0550001 0.69 -0.57700002 2
3.0639999 0.69 -0.57499999 2
3.095 0.69499999 -0.57800001 2
3.161 0.70700002 -0.58700001 2
3.1800001 0.70899999 -0.588 2
3.194 0.70999998 -0.58700001 1
3.302 0.73199999 -0.60399997 2
3.2309999 0.713 -0.58700001 1
3.418 0.75199997 -0.61799997 2
3.286 0.72100002 -0.58999997 2
3.3150001 0.72399998 -0.59200001 2
3.395 0.73900002 -0.60299999 2
3.3770001 0.73199999 -0.59600002 2
3.4070001 0.736 -0.59799999 2
3.381 0.72799999 -0.58999997 1
3.431 0.736 -0.59500003 2
3.4200001 0.73000002 -0.58899999 2
3.4549999 0.73500001 -0.59200001 1
3.484 0.73799998 -0.59299999 2
3.5220001 0.74299997 -0.59600002 3
3.5480001 0.745 -0.59600002 3
3.5829999 0.74900001 -0.59799999 1
3.632 0.75599998 -0.60299999 2
3.652 0.75700003 -0.602 3
3.678 0.759 -0.602 2
3.723 0.76499999 -0.60500002 2
3.7049999 0.75800002 -0.59799999 2
3.8199999 0.77700001 -0.61299998 2
3.8329999 0.77600002 -0.611 2
3.8940001 0.78500003 -0.616 2
4 0.80199999 -0.62800002 2
3.914 0.78100002 -0.611 2
3.9619999 0.787 -0.61400002 3
3.993 0.78899997 -0.61400002 3
4.2249999 0.82999998 -0.64499998 3
4.072 0.796 -0.61699998 3
4.073 0.792 -0.61299998 2
4.0999999 0.79299998 -0.61199999 2
4.1300001 0.79400003 -0.61199999 2
4.1659999 0.796 -0.61199999 2
4.2129998 0.801 -0.61400002 1
4.2680001 0.80599999 -0.61699998 3
4.3249998 0.81199998 -0.62099999 3
4.382 0.81800002 -0.62400001 2
4.434 0.82300001 -0.62599999 3
4.474 0.82499999 -0.62699997 3
4.5180001 0.82800001 -0.62800002 4
4.5710001 0.83200002 -0.63 2
4.6139998 0.83499998 -0.63 2
4.6669998 0.83899999 -0.63200003 3
4.7080002 0.83999997 -0.63200003 3
4.7719998 0.84600002 -0.63499999 3
4.8299999 0.85000002 -0.63700002 3
4.8709998 0.852 -0.63700002 5
4.9489999 0.85900003 -0.64099997 3
5.027 0.866 -0.64600003 3
5.0780001 0.86900002 -0.64600003 3
5.1490002 0.87400001 -0.64899999 4
5.211 0.87800002 -0.65100002 3
5.2789998 0.88300002 -0.653 3
5.3499999 0.88800001 -0.65600002 4
5.4229999 0.89300001 -0.65799999 4
5.4959998 0.89700001 -0.66000003 4
5.5560002 0.89999998 -0.66100001 4
5.6620002 0.91000003 -0.667 4
5.7540002 0.917 -0.671 3
5.8629999 0.926 -0.67699999 4
5.9349999 0.92900002 -0.67799997 3
6.0450001 0.93800002 -0.68400002 3
6.1240001 0.94199997 -0.685 3
6.2140002 0.94700003 -0.68800002 3
6.3179998 0.954 -0.69199997 3
6.434 0.963 -0.69800001 3
6.5409999 0.97000003 -0.70099998 4
6.6550002 0.977 -0.70599997 4
6.7670002 0.98400003 -0.70999998 4
6.8930001 0.99199998 -0.71499997 4
7.0149999 1 -0.71899998 5
7.1350002 1.006 -0.72299999 5
7.2709999 1.015 -0.72799999 5
7.402 1.022 -0.73299998 4
7.5489998 1.031 -0.73799998 5
7.6929998 1.04 -0.74400002 4
7.8470001 1.049 -0.74900001 5
8.0010004 1.057 -0.755 5
8.1379995 1.063 -0.75800002 5
8.309 1.073 -0.764 5
8.4560003 1.079 -0.76800001 4
8.6239996 1.087 -0.773 4
8.7840004 1.094 -0.778 5
8.9370003 1.099 -0.78100002 5
9.1059999 1.105 -0.78500003 4
9.2860003 1.112 -0.79000002 4
9.4860001 1.1210001 -0.796 4
9.6879997 1.13 -0.80199999 3
9.8959999 1.138 -0.80800003 3
10.117 1.148 -0.81400001 3
10.349 1.1569999 -0.82099998 3
10.549 1.1619999 -0.82499999 3
10.848 1.178 -0.83600003 2
11.124 1.1900001 -0.84500003 2
11.381 1.199 -0.85100001 3
11.582 1.2 -0.85299999 3
11.842 1.2079999 -0.85900003 2
12.143 1.2180001 -0.86699998 3
12.462 1.229 -0.87599999 3
12.805 1.242 -0.88599998 3
13.313 1.2690001 -0.90600002 4
13.524 1.266 -0.90499997 3
13.899 1.277 -0.91500002 3
14.309 1.291 -0.926 3
14.756 1.306 -0.93900001 2
15.209 1.3200001 -0.95099998 2
15.685 1.334 -0.963 3
15.422 1.285 -0.93000001 2
0 0 0 2
16.829 1.344 -0.97899997 3
17.224001 1.344 -0.98299998 3
17.507 1.336 -0.98000002 3
0 0 0 0
0 0 0 3
0 0 0 1
0 0 0 0
0 0 0 1
0 0 0 0
0 0 0 3
0 0 0 0
0 0 0 1
0 0 0 0
0 0 0 0
0 0 0 0
0 0 0 14
0 0 0 0
0 0 0 14
64.365997 3.0539999 -2.536 28
0 0 0 152
59.646999 2.6059999 -2.23 158
0 0 0 23
107.982 4.3169999 -3.825 37
0 0 0 51
50.84 1.841 -1.701 255
0 0 0 30
47.772999 1.549 -1.505 199
0 0 0 10
44.896999 1.286 -1.329 172
44.889999 1.2 -1.286 163
0 0 0 41
68.795998 1.574 -1.841 61
0 0 0 0
0 0 0 33
65.627998 1.122 -1.574 11
0 0 0 16
42.911999 0.56699997 -0.94999999 24
42.798 0.48300001 -0.90899998 20
42.978001 0.40099999 -0.87400001 25
42.904999 0.31799999 -0.83499998 21
43.122002 0.235 -0.801 8
43.473 0.152 -0.76899999 22
43.328999 0.068000004 -0.72899997 42
43.067001 -0.016000001 -0.68800002 36
42.801998 -0.1 -0.64600003 32
0 0 0 17
36.365002 -0.226 -0.48800001 64
36.417999 -0.29899999 -0.458 96
36.445999 -0.37099999 -0.428 72
36.574001 -0.44499999 -0.39899999 24
36.705002 -0.51899999 -0.37 14
0 0 0 39
41.828999 -0.75700003 -0.354 34
41.702999 -0.838 -0.31900001 51
41.750999 -0.92199999 -0.287 34
41.687 -1.0039999 -0.25299999 48
41.444 -1.079 -0.22 91
41.459999 -1.163 -0.18700001 80
39.247002 -1.1799999 -0.147 6
39.284 -1.26 -0.117 5
39.231998 -1.337 -0.086999997 8
38.352001 -1.383 -0.057 7
37.799 -1.438 -0.028000001 6
37.441002 -1.501 0 31
37.469002 -1.577 0.027000001 23
37.497002 -1.653 0.052999999 21
35.691002 -1.646 0.075999998 5
35.273998 -1.698 0.101 8
34.845001 -1.747 0.124 7
0 0 0 1
20.691 -1.1210001 0.102 1
20.544001 -1.154 0.115 1
0 0 0 1
18.815001 -1.132 0.13 1
18.829 -1.171 0.14300001 3
18.864 -1.212 0.156 1
18.997999 -1.2589999 0.169 1
18.898001 -1.291 0.18000001 1
0 0 0 0
0 0 0 1
0 0 0 0
0 0 0 0
0 0 0 0
0 0 0 0
0 0 0 0
0 0 0 0
0 0 0 0
0 0 0 0
0 0 0 0
0 0 0 25
0 0 0 0
0 0 0 25
0 0 0 25
0 0 0 25
0 0 0 25
0 0 0 25
0 0 0 25
0 0 0 25
0 0 0 25
0 0 0 25
0 0 0 25
0 0 0 25
0 0 0 0
0 0 0 1
25.662001 -3.151 0.61799997 1
25.704 -3.2079999 0.63099998 3
25.722 -3.2609999 0.64300001 8
25.722 -3.3139999 0.65399998 26
25.743999 -3.3670001 0.66500002 32
25.782 -3.4230001 0.676 37
25.822001 -3.4790001 0.68800002 32
25.902 -3.5420001 0.69999999 24
26.028999 -3.6110001 0.71399999 8
0 0 0 5
34.273998 -4.8889999 0.96600002 2
34.235001 -4.9520001 0.977 9
34.238998 -5.0180001 0.98900002 12
34.238998 -5.085 1.001 13
34.255001 -5.1550002 1.0140001 6
34.202999 -5.2150002 1.024 31
34.208 -5.283 1.036 36
0 0 0 0
0 0 0 0
0 0 0 0
0 0 0 0
0 0 0 0
0 0 0 7
0 0 0 7
34.296001 -5.8249998 1.1210001 10
34.09 -5.8559999 1.123 28
34.036999 -5.9120002 1.13 47
34.021999 -5.974 1.1390001 119
34.028 -6.039 1.148 125
34.042999 -6.1069999 1.156 89
34.039001 -6.1719999 1.165 127
34.044998 -6.2360001 1.1720001 122
34.043999 -6.3000002 1.1799999 121
34.050999 -6.3660002 1.187 120
34.063 -6.4330001 1.1950001 121
0 0 0 3
18.02 -3.47 0.639 17
17.92 -3.484 0.639 20
17.871 -3.507 0.64099997 29
17.837 -3.533 0.64200002 38
17.806 -3.5599999 0.64399999 40
17.771999 -3.585 0.64600003 28
17.746 -3.612 0.648 42
17.721001 -3.6389999 0.64999998 46
17.698 -3.6670001 0.65100002 52
17.686001 -3.697 0.653 52
17.663 -3.724 0.65499997 58
17.653999 -3.753 0.65700001 65
17.634001 -3.78 0.65799999 64
17.639 -3.812 0.66100001 41
17.620001 -3.8399999 0.662 67
17.618 -3.8699999 0.66299999 64
17.611 -3.8989999 0.66500002 60
17.622999 -3.9330001 0.667 37
17.620001 -3.9630001 0.66799998 57
17.627001 -3.9960001 0.67000002 50
17.625999 -4.026 0.671 47
17.646999 -4.0609999 0.67299998 44
17.657 -4.0939999 0.67500001 33
17.674 -4.1279998 0.676 32
17.676001 -4.1589999 0.67699999 43
17.704 -4.1950002 0.67900002 29
17.724001 -4.23 0.68099999 26
17.739 -4.2639999 0.68199998 30
17.787001 -4.3049998 0.68400002 23
17.862 -4.3530002 0.68699998 17
17.909 -4.3940001 0.68900001 4
0 0 0 4
0 0 0 0
0 0 0 0
0 0 0 0
0 0 0 0
0 0 0 3
38.233002 -9.8140001 1.469 5
38.300999 -9.8929996 1.47 5
38.268002 -9.9440002 1.4680001 5
38.313999 -10.015 1.4680001 5
38.304001 -10.072 1.466 5
38.299999 -10.13 1.464 4
0 0 0 9
34.602001 -9.2580004 1.318 26
34.620998 -9.3170004 1.316 28
34.654999 -9.3780003 1.3150001 3
34.778 -9.4630003 1.317 2
0 0 0 0
0 0 0 0
0 0 0 0
0 0 0 0
0 0 0 0
0 0 0 4
34.772999 -9.816 1.294 16
34.703999 -9.8459997 1.2869999 31
34.624001 -9.8719997 1.28 36
34.465 -9.8760004 1.27 19
34.355 -9.8920002 1.262 16
34.368999 -9.9429998 1.256 64
34.382999 -9.993 1.253 63
34.380001 -10.039 1.247 75
34.373001 -10.084 1.243 76
34.389999 -10.135 1.238 80
34.380001 -10.178 1.232 77
34.394001 -10.227 1.227 74
34.402 -10.273 1.221 78
34.397999 -10.316 1.215 81
34.398998 -10.36 1.21 78
