# .PCD v0.7 - Point Cloud Data file format
VERSION 0.7
FIELDS x y z intensity
SIZE 4 4 4 4
TYPE F F F F
COUNT 1 1 1 1
WIDTH 1756
HEIGHT 1
VIEWPOINT 0 0 0 1 0 0 0
POINTS 1756
DATA ascii
26.957001 -8.493 -0.458 34
26.98 -8.4700003 -0.46799999 31
27.032 -8.4549999 -0.479 28
27.087999 -8.441 -0.48899999 24
27.156 -8.4300003 -0.5 19
27.309999 -8.4460001 -0.51200002 11
27.940001 -8.6070004 -0.53399998 7
27.952999 -8.5769997 -0.54400003 7
27.947001 -8.5419998 -0.55199999 9
0 0 0 1
6.5430002 -1.983 -0.133 4
6.5440001 -1.976 -0.13500001 20
6.5700002 -1.975 -0.138 35
6.6389999 -1.987 -0.142 79
6.6420002 -1.98 -0.14399999 150
6.6659999 -1.978 -0.146 152
6.6550002 -1.966 -0.148 156
6.6729999 -1.9630001 -0.15099999 156
6.6389999 -1.944 -0.152 156
6.619 -1.929 -0.153 156
6.6209998 -1.921 -0.155 156
6.6040001 -1.9069999 -0.15700001 156
6.6079998 -1.899 -0.15899999 156
6.6129999 -1.891 -0.161 156
6.6409998 -1.89 -0.164 151
6.618 -1.874 -0.16500001 52
6.6290002 -1.867 -0.167 38
6.6360002 -1.86 -0.169 16
6.6799998 -1.863 -0.17200001 1
0 0 0 47
27.764999 -7.6620002 -0.73100001 49
27.761999 -7.6199999 -0.73799998 49
27.747999 -7.5749998 -0.745 41
27.746 -7.533 -0.75199997 40
27.712999 -7.4829998 -0.75800002 49
27.708 -7.4400001 -0.76499999 52
27.708 -7.3969998 -0.77100003 44
27.698 -7.3530002 -0.778 49
0 0 0 1
12.309 -3.2290001 -0.35100001 16
12.308 -3.2090001 -0.354 19
12.293 -3.1860001 -0.35600001 21
12.299 -3.168 -0.359 24
12.289 -3.1459999 -0.361 23
12.288 -3.1259999 -0.36399999 23
12.271 -3.102 -0.366 36
12.261 -3.0799999 -0.368 23
12.271 -3.062 -0.37099999 27
12.268 -3.0420001 -0.373 26
12.257 -3.0179999 -0.375 22
12.254 -2.9979999 -0.377 24
12.252 -2.9760001 -0.37900001 24
12.239 -2.9530001 -0.38100001 26
12.239 -2.9319999 -0.38299999 25
12.237 -2.911 -0.38499999 26
12.226 -2.888 -0.38600001 23
12.235 -2.869 -0.38800001 23
12.219 -2.8440001 -0.38999999 23
12.224 -2.825 -0.39199999 23
12.298 -2.8210001 -0.396 9
12.316 -2.8039999 -0.398 14
12.386 -2.7980001 -0.40200001 11
12.426 -2.7850001 -0.405 13
12.497 -2.779 -0.40900001 15
12.539 -2.766 -0.41100001 16
12.618 -2.7609999 -0.41499999 13
12.675 -2.7509999 -0.419 10
12.721 -2.7379999 -0.421 10
12.793 -2.7309999 -0.42500001 12
12.855 -2.72 -0.428 14
12.9 -2.707 -0.43099999 13
12.981 -2.7 -0.43399999 9
13.047 -2.6900001 -0.43700001 7
13.103 -2.678 -0.44 10
13.164 -2.6659999 -0.44299999 6
0 0 0 30
29.979 -5.961 -1.013 39
29.954 -5.9000001 -1.013 43
29.965 -5.8460002 -1.015 44
29.938999 -5.7849998 -1.015 39
29.927999 -5.7270002 -1.015 42
29.913 -5.6669998 -1.015 41
29.900999 -5.6090002 -1.016 41
0 0 0 29
14.911 -2.74 -0.50599998 42
14.901 -2.7090001 -0.50599998 43
14.897 -2.681 -0.50599998 40
14.901 -2.6530001 -0.50599998 24
14.893 -2.6229999 -0.505 37
14.884 -2.592 -0.50400001 34
14.88 -2.563 -0.50300002 35
14.892 -2.536 -0.50300002 25
14.877 -2.5050001 -0.50199997 35
14.867 -2.474 -0.50099999 33
14.855 -2.4430001 -0.5 35
14.85 -2.4130001 -0.49900001 36
14.855 -2.385 -0.498 36
14.871 -2.359 -0.49700001 16
14.96 -2.3429999 -0.49900001 8
15.067 -2.3299999 -0.50099999 13
15.138 -2.3110001 -0.50199997 14
15.234 -2.2950001 -0.50400001 11
15.323 -2.2780001 -0.505 10
15.424 -2.2620001 -0.50700003 11
15.51 -2.244 -0.50800002 9
15.614 -2.2279999 -0.509 10
15.722 -2.211 -0.51099998 11
0 0 0 0
0 0 0 58
17.247999 -2.323 -0.55199999 64
17.274 -2.2909999 -0.551 38
17.26 -2.2550001 -0.54699999 62
17.268999 -2.221 -0.54400003 58
17.287001 -2.1889999 -0.542 56
17.309 -2.1570001 -0.54000002 52
17.34 -2.125 -0.537 31
17.329 -2.0880001 -0.53299999 47
17.365999 -2.0580001 -0.53100002 42
17.391001 -2.0250001 -0.528 38
17.407 -1.992 -0.52499998 34
17.465 -1.9630001 -0.52200001 39
17.538 -1.936 -0.52100003 24
17.614 -1.908 -0.51899999 18
17.731001 -1.8839999 -0.51800001 2
0 0 0 30
33.740002 -3.448 -0.96899998 14
33.615002 -3.3659999 -0.95599997 15
33.528 -3.289 -0.94400001 13
33.469002 -3.214 -0.93300003 16
33.181 -3.118 -0.91600001 46
0 0 0 18
19.805 -1.78 -0.53500003 59
19.802999 -1.739 -0.52899998 49
19.823 -1.7 -0.523 37
0 0 0 1
17.379999 -1.419 -0.447 37
17.332001 -1.3789999 -0.44 55
17.290001 -1.34 -0.43399999 3
17.107 -1.291 -0.42300001 1
17.056 -1.252 -0.41600001 1
17.018999 -1.214 -0.40900001 1
17.006001 -1.178 -0.40200001 1
17.004999 -1.142 -0.396 1
16.921 -1.101 -0.38699999 2
16.940001 -1.067 -0.38100001 1
16.954 -1.033 -0.375 1
16.995001 -1 -0.36899999 2
17.035 -0.96799999 -0.36300001 9
16.886999 -0.92400002 -0.352 152
16.879 -0.889 -0.345 154
16.884001 -0.85399997 -0.338 152
16.836 -0.81599998 -0.33000001 126
16.819 -0.77999997 -0.322 150
16.804001 -0.745 -0.31400001 87
16.813 -0.71100003 -0.30599999 44
16.843 -0.67699999 -0.29899999 19
16.907 -0.64300001 -0.292 10
16.922001 -0.60900003 -0.28400001 8
16.938999 -0.574 -0.27599999 8
16.941999 -0.54000002 -0.26800001 10
16.933001 -0.505 -0.25999999 9
16.909 -0.46900001 -0.25099999 8
16.896 -0.43399999 -0.242 9
16.905001 -0.39899999 -0.233 13
16.907 -0.36399999 -0.22400001 9
16.867001 -0.32800001 -0.215 2
16.849001 -0.29300001 -0.206 1
16.860001 -0.259 -0.197 1
16.848 -0.22499999 -0.18700001 1
16.914 -0.19 -0.178 1
16.927999 -0.155 -0.169 1
0 0 0 0
0 0 0 0
0 0 0 1
16.987 -0.017999999 -0.13 1
16.969 0.016000001 -0.12 1
17.108 0.050000001 -0.111 1
17.25 0.086000003 -0.101 34
17.021 0.12 -0.090000004 1
0 0 0 0
0 0 0 0
0 0 0 0
0 0 0 0
0 0 0 0
0 0 0 0
0 0 0 1
18.218 0.421 -0.0020000001 1
18.400999 0.46200001 0.0089999996 1
0 0 0 0
0 0 0 1
0 0 0 0
0 0 0 1
19.895 0.69800001 0.078000002 1
0 0 0 2
34.938999 1.365 0.186 8
36.891998 1.5140001 0.223 76
36.881001 1.586 0.25 75
36.863998 1.658 0.27700001 94
36.862999 1.73 0.303 49
37.377998 1.827 0.33500001 6
38.140999 1.939 0.37099999 9
38.362999 2.0250001 0.40200001 62
38.540001 2.109 0.43200001 37
38.476002 2.1800001 0.461 6
40.700001 2.385 0.51899999 78
40.799 2.47 0.55199999 45
41.521 2.5929999 0.59399998 26
41.594002 2.677 0.62699997 34
41.623001 2.7590001 0.66000003 34
41.779999 2.8499999 0.69599998 7
0 0 0 32
45.082001 3.2460001 0.82300001 91
45.348999 3.3510001 0.86400002 8
45.683998 3.4619999 0.90799999 21
45.598 3.5409999 0.94300002 54
0 0 0 39
48.912998 3.9820001 1.092 23
49.679001 4.1370001 1.15 5
49.464001 4.21 1.186 14
49.462002 4.302 1.227 6
0 0 0 0
0 0 0 0
0 0 0 4
0 0 0 0
0 0 0 0
0 0 0 0
0 0 0 41
54.226002 5.5079999 1.7180001 36
55.046001 5.691 1.7920001 18
57.210999 6.0170002 1.913 70
57.661999 6.1669998 1.98 23
59.145 6.4330001 2.0829999 17
62.111 6.8660002 2.243 31
62.160999 6.9809999 2.3010001 16
0 0 0 46
69.569 8.059 2.7019999 59
71.842003 8.448 2.8559999 79
73.363998 8.7559996 2.983 62
0 0 0 27
83.792999 10.29 3.5610001 36
0 0 0 0
0 0 0 0
0 0 0 28
83.567001 10.831 3.859 28
86.702003 11.379 4.0830002 21
86.541 11.503 4.1560001 15
81.375999 10.951 3.983 15
0 0 0 0
0 0 0 47
0 0 0 12
84.620003 11.949 4.461 14
0 0 0 0
0 0 0 14
0 0 0 67
117.059 17.283001 6.6170001 84
117.01 17.462 6.7259998 90
116.99 17.645 6.8379998 80
116.959 17.826 6.9489999 71
116.938 18.004999 7.0580001 64
116.914 18.184 7.1690001 63
116.85 18.356001 7.2789998 57
116.812 18.531 7.3899999 37
116.925 18.729 7.5110002 43
0 0 0 33
0 0 0 33
116.935 19.261999 7.8509998 27
0 0 0 14
86.748001 14.548 5.9920001 14
0 0 0 0
0 0 0 22
86.584 14.905 6.2360001 33
86.916 15.087 6.3429999 39
86.702003 15.176 6.4130001 32
86.571999 15.278 6.4879999 25
86.348999 15.359 6.5549998 17
0 0 0 0
0 0 0 0
0 0 0 26
0 0 0 0
0 0 0 0
0 0 0 0
0 0 0 13
0 0 0 21
113.875 21.674999 9.6540003 33
113.797 21.813 9.7600002 40
113.732 21.950001 9.8629999 36
113.75 22.1 9.9779997 35
113.699 22.237 10.083 42
113.749 22.393999 10.2 35
113.778 22.547001 10.314 37
113.87 22.709999 10.435 25
0 0 0 0
0 0 0 0
0 0 0 0
0 0 0 28
123.425 25.384001 11.915 29
123.484 25.546 12.042 34
123.497 25.698 12.164 39
123.491 25.844 12.284 37
123.436 25.979 12.399 32
0 0 0 0
0 0 0 0
0 0 0 0
0 0 0 0
0 0 0 65
113.068 24.573 12.011 67
113.031 24.691 12.116 70
113.022 24.813 12.224 96
112.982 24.931 12.331 98
112.95 25.042 12.434 88
112.918 25.156 12.539 75
112.879 25.264999 12.639 75
112.876 25.382999 12.746 69
112.854 25.495001 12.851 77
112.854 25.610001 12.958 73
112.843 25.725 13.063 68
112.801 25.827999 13.164 69
112.799 25.936001 13.268 72
112.81 26.049 13.376 65
112.785 26.152 13.475 56
112.788 26.261 13.581 43
112.737 26.355 13.676 36
112.705 26.452999 13.777 29
0 0 0 0
0 0 0 0
0 0 0 0
0 0 0 0
0 0 0 0
0 0 0 0
0 0 0 0
0 0 0 0
0 0 0 27
112.858 27.473 14.818 25
0 0 0 0
0 0 0 0
0 0 0 0
0 0 0 0
0 0 0 0
0 0 0 0
0 0 0 0
0 0 0 0
0 0 0 0
0 0 0 0
0 0 0 26
112.651 28.433001 15.958 28
112.711 28.523001 16.061001 25
112.512 28.547001 16.125999 32
112.488 28.613001 16.216 29
112.498 28.687 16.309999 29
112.435 28.740999 16.393 31
112.393 28.798 16.478001 42
112.342 28.851999 16.562 47
112.28 28.902 16.643 56
112.285 28.969999 16.731001 48
112.223 29.017 16.811001 52
112.192 29.068001 16.893999 64
112.203 29.131001 16.983 54
112.196 29.188999 17.066 58
112.17 29.24 17.149 56
112.176 29.297001 17.236 58
112.203 29.358999 17.325001 65
112.171 29.403999 17.405001 58
112.164 29.454 17.488001 61
112.151 29.500999 17.57 48
112.134 29.549 17.648001 44
112.108 29.59 17.726 39
112.112 29.638 17.808001 32
112.07 29.672001 17.882 31
112.159 29.739 17.976 23
112.202 29.792999 18.062 23
0 0 0 0
0 0 0 22
112.318 29.944 18.312 22
112.202 29.950001 18.370001 23
0 0 0 0
0 0 0 22
112.216 30.056 18.598 24
112.305 30.112 18.687 25
112.266 30.132999 18.75 23
112.201 30.143999 18.812 27
112.212 30.174 18.885 28
112.272 30.216999 18.962999 28
112.15 30.209 19.011999 27
112.187 30.242001 19.087999 27
112.198 30.268 19.155001 26
0 0 0 0
0 0 0 23
112.256 30.34 19.368999 24
112.15 30.329 19.413 24
112.266 30.375 19.497999 23
112.127 30.351999 19.537001 23
0 0 0 0
0 0 0 27
112.17 30.396999 19.728001 26
0 0 0 0
0 0 0 23
112.149 30.412001 19.903 24
112.213 30.433001 19.973 23
112.208 30.436001 20.025999 23
112.205 30.436001 20.082001 24
112.17 30.427 20.131001 23
112.229 30.441 20.195999 24
112.218 30.434999 20.247999 25
112.208 30.427999 20.299 25
112.244 30.431999 20.357 26
112.149 30.402 20.389 23
112.034 30.362 20.417999 30
112.136 30.379999 20.485001 30
112.093 30.360001 20.523001 29
112.064 30.339001 20.565001 34
112.093 30.334 20.618 34
112.037 30.302999 20.653 40
112.083 30.299999 20.705999 38
112.051 30.273001 20.743999 41
112.047 30.253 20.785999 49
112.065 30.238001 20.832001 47
112.093 30.224001 20.878 57
112.066 30.195 20.910999 59
112.099 30.177 20.959 56
112.134 30.163 21.000999 57
112.073 30.120001 21.027 69
112.079 30.093 21.065001 54
112.08 30.063 21.1 60
112.099 30.038 21.139 64
112.109 30.007999 21.174 66
112.099 29.973 21.202 59
112.133 29.950001 21.238001 63
112.123 29.910999 21.267 60
112.151 29.881001 21.302 66
112.19 29.854 21.336 68
112.158 29.802999 21.361 74
112.157 29.761999 21.386999 64
112.222 29.736 21.426001 65
112.199 29.686001 21.445999 67
112.213 29.646 21.469999 60
112.263 29.615 21.5 69
112.225 29.556999 21.514999 66
112.199 29.499001 21.534 60
112.211 29.452999 21.554001 58
112.289 29.422001 21.587999 50
112.271 29.364 21.601999 62
112.308 29.319 21.625999 50
112.287 29.261 21.636 53
112.309 29.209999 21.655001 42
112.324 29.155001 21.672001 53
112.371 29.108 21.695 47
112.377 29.049999 21.709 42
112.427 29.000999 21.729 50
112.44 28.941 21.742001 49
112.445 28.881001 21.75 45
112.446 28.815001 21.757999 44
112.426 28.743 21.761 42
112.449 28.684 21.768999 40
112.4 28.601999 21.764999 40
112.49 28.554001 21.785999 37
112.582 28.506001 21.806999 42
112.658 28.455 21.820999 42
112.684 28.386999 21.827 45
112.69 28.315001 21.829 41
112.677 28.236 21.822001 41
112.694 28.16 21.825001 46
112.635 28.069 21.808001 34
112.715 28.009001 21.819 24
112.535 27.884001 21.778999 23
112.643 27.827999 21.792999 27
112.56 27.724001 21.77 29
112.574 27.643 21.764 29
112.603 27.563999 21.76 25
112.645 27.488001 21.757 30
112.706 27.417 21.754999 26
112.718 27.330999 21.745001 28
112.823 27.266001 21.750999 30
112.879 27.188 21.747 45
112.809 27.077999 21.716999 32
112.883 27.004999 21.712 34
112.731 26.874001 21.665001 32
112.859 26.809 21.67 36
112.818 26.702 21.642 36
112.871 26.617001 21.631001 36
112.87 26.517 21.608 38
112.902 26.426001 21.587 37
112.989 26.344 21.582001 42
112.966 26.236 21.552 44
112.971 26.136999 21.525 45
112.973 26.033001 21.497 47
112.973 25.927 21.468 49
112.975 25.820999 21.438 54
113.068 25.736 21.422001 60
113.059 25.625 21.388 68
113.115 25.528 21.365 60
113.069 25.407 21.320999 61
113.19 25.323 21.309 72
113.164 25.208 21.266001 75
113.195 25.1 21.237 69
113.226 24.996 21.202999 72
113.235 24.882 21.165001 68
113.271 24.774 21.129999 75
113.284 24.659 21.091 77
113.275 24.542 21.045 72
113.303 24.424999 21.007 56
113.329 24.313999 20.965 63
113.354 24.198 20.923 70
113.377 24.080999 20.879 73
113.42 23.969999 20.837999 75
113.402 23.843 20.785 76
113.471 23.732 20.746 75
113.502 23.613001 20.700001 83
113.494 23.488001 20.643999 79
113.516 23.365 20.594 78
113.602 23.254999 20.554001 61
113.615 23.131001 20.503 49
113.629 23.004 20.448 53
113.68 22.882999 20.398001 53
113.705 22.757 20.34 54
113.788 22.641001 20.297001 45
113.831 22.516001 20.239 45
113.853 22.386 20.18 39
113.986 22.277 20.139 35
113.963 22.139999 20.073 29
113.959 22.002001 20.004999 30
114.011 21.875 19.944 31
113.978 21.733999 19.872 29
114.091 21.615999 19.822001 34
114.169 21.490999 19.764 28
114.159 21.349001 19.691 26
114.165 21.209 19.615 31
114.215 21.076 19.552999 35
114.222 20.934999 19.475 27
114.187 20.789 19.392 31
114.33 20.671 19.339001 27
114.382 20.535 19.273001 32
114.388 20.391001 19.190001 31
114.352 20.239 19.104 30
114.604 20.136 19.063 38
0 0 0 0
0 0 0 0
0 0 0 0
0 0 0 22
116.951 19.792999 19.018 29
117.054 19.656 18.947001 31
117.167 19.524 18.874001 30
117.154 19.367001 18.775 31
117.171 19.214001 18.688 39
117.184 19.063999 18.594999 31
117.251 18.917999 18.509001 28
117.238 18.761999 18.41 34
117.33 18.618999 18.326 32
117.18 18.441 18.207001 33
117.347 18.308001 18.128 27
117.294 18.136999 18.018999 34
117.405 17.997999 17.933001 29
117.447 17.844 17.834999 27
117.547 17.698 17.745001 27
117.493 17.528999 17.631001 30
117.382 17.354 17.507 31
117.423 17.198 17.405001 42
117.474 17.042999 17.306999 44
117.471 16.879999 17.195999 45
117.446 16.716999 17.080999 62
117.511 16.562 16.978001 73
117.502 16.396999 16.863001 68
117.564 16.245001 16.757 79
117.574 16.080999 16.643 68
117.657 15.927 16.537001 75
117.644 15.76 16.417 74
117.673 15.598 16.302 64
117.753 15.445 16.193001 54
117.759 15.28 16.073 52
117.871 15.13 15.966 44
117.992 14.978 15.859 37
118.179 14.834 15.759 31
118.226 14.672 15.639 27
0 0 0 0
0 0 0 0
0 0 0 0
0 0 0 0
0 0 0 32
72.199997 8.342 9.0760002 56
70.416 8.0349998 8.7720003 30
68.483002 7.7160001 8.4530001 40
67.073997 7.461 8.2030001 45
65.529999 7.1960001 7.9390001 7
0 0 0 0
0 0 0 0
0 0 0 34
0 0 0 0
0 0 0 6
58.209 5.8920002 6.6409998 9
57.18 5.7049999 6.454 9
56.227001 5.5289998 6.2779999 10
55.994999 5.4250002 6.1830001 25
54.877998 5.237 5.9920001 48
53.653999 5.0440001 5.7919998 48
53.442001 4.947 5.7020001 48
52.181 4.7550001 5.5009999 57
51.213001 4.5939999 5.335 41
50.841 4.487 5.2309999 55
49.547001 4.3010001 5.0339999 49
49.331001 4.211 4.948 51
48.186001 4.0430002 4.77 55
47.715 3.9349999 4.6609998 38
46.813 3.793 4.5110002 54
45.540001 3.625 4.329 11
45.129002 3.527 4.2290001 49
45.144001 3.4630001 4.1700001 63
45.16 3.3989999 4.1100001 62
45.174999 3.3369999 4.0510001 67
45.195 3.273 3.9909999 63
0 0 0 7
41.433998 2.882 3.546 9
41.157001 2.803 3.4649999 55
41.112 2.7409999 3.402 48
0 0 0 3
37.111 2.368 2.967 17
36.521999 2.279 2.868 22
36.112999 2.2019999 2.7850001 21
35.687 2.125 2.701 27
35.154999 2.043 2.609 27
34.808998 1.974 2.533 21
34.445999 1.904 2.457 22
34.212002 1.8430001 2.3900001 12
33.859001 1.776 2.316 11
33.473 1.709 2.24 10
33.158001 1.646 2.1700001 9
33.027 1.5930001 2.112 18
33.138 1.552 2.069 12
33.181999 1.508 2.023 11
33.179001 1.461 1.972 12
33.195 1.416 1.923 13
33.195999 1.3710001 1.874 12
33.205002 1.325 1.823 11
33.213001 1.279 1.773 9
33.505001 1.244 1.7359999 6
33.167999 1.1849999 1.6670001 30
33.189999 1.14 1.6160001 26
33.486 1.105 1.579 12
33.345001 1.0549999 1.52 10
33.098 1.001 1.456 37
33.071999 0.95499998 1.402 112
33.076 0.91000003 1.35 112
33.064999 0.86500001 1.2970001 112
33.078999 0.81999999 1.244 109
33.088001 0.77700001 1.192 113
33.096001 0.73299998 1.14 112
33.084999 0.68699998 1.085 101
33.117001 0.64399999 1.033 69
0 0 0 1
19.004 0.31900001 0.53100002 1
0 0 0 0
0 0 0 0
0 0 0 1
18.410999 0.212 0.39300001 1
0 0 0 0
0 0 0 0
0 0 0 0
0 0 0 0
0 0 0 0
0 0 0 1
17.816 0.044 0.171 1
17.729 0.022 0.14 1
17.414 0 0.108 1
0 0 0 0
0 0 0 0
0 0 0 1
17.084999 -0.086000003 -0.0099999998 2
17.049 -0.107 -0.039999999 3
17.051001 -0.12800001 -0.068999998 3
16.993 -0.149 -0.098999999 1
16.895 -0.168 -0.127 1
16.881001 -0.189 -0.15700001 1
16.870001 -0.20999999 -0.186 1
16.846001 -0.23 -0.215 1
16.862 -0.25 -0.245 1
16.836 -0.27000001 -0.27500001 1
16.834999 -0.28999999 -0.30399999 1
16.844 -0.31099999 -0.33399999 1
16.802 -0.33000001 -0.36300001 2
16.802 -0.34999999 -0.39300001 4
16.813999 -0.36899999 -0.42300001 4
16.796 -0.389 -0.45300001 19
16.804001 -0.40799999 -0.48300001 3
16.808001 -0.42699999 -0.51200002 2
16.927 -0.44999999 -0.546 4
16.971001 -0.47099999 -0.579 7
17.01 -0.491 -0.611 10
16.986 -0.509 -0.63999999 6
16.972 -0.528 -0.67000002 4
17.014999 -0.54900002 -0.70300001 3
17.504999 -0.58399999 -0.755 2
17.922001 -0.61799997 -0.80500001 1
17.978001 -0.63999999 -0.84100002 1
0 0 0 4
20.367001 -0.76899999 -1.027 3
20.268999 -0.78799999 -1.0599999 4
19.822001 -0.792 -1.073 3
0 0 0 2
0 0 0 0
0 0 0 2
0 0 0 2
14.601 -0.66000003 -0.92400002 3
13.909 -0.64300001 -0.90499997 3
0 0 0 3
12.607 -0.60900003 -0.86699998 3
12.353 -0.60900003 -0.87199998 8
11.819 -0.59399998 -0.85600001 5
11.341 -0.58200002 -0.84200001 4
10.882 -0.56900001 -0.82800001 3
10.495 -0.55900002 -0.81800002 2
10.09 -0.54699999 -0.80500001 3
9.7580004 -0.53899997 -0.79699999 3
9.4589996 -0.53100002 -0.79000002 4
9.1899996 -0.52499998 -0.78399998 4
8.8839998 -0.51599997 -0.77499998 3
8.5790005 -0.50599998 -0.764 3
8.3269997 -0.49900001 -0.75700003 3
8.0620003 -0.491 -0.74800003 3
7.842 -0.48500001 -0.74199998 3
7.6370001 -0.479 -0.73699999 4
7.4229999 -0.472 -0.73000002 4
7.2249999 -0.46599999 -0.72399998 4
7.0159998 -0.45899999 -0.71600002 10
6.8439999 -0.454 -0.71100003 8
6.7399998 -0.45300001 -0.713 6
6.5869999 -0.44800001 -0.70899999 5
6.3759999 -0.44 -0.69800001 3
6.2270002 -0.435 -0.69300002 3
6.086 -0.43000001 -0.68900001 3
5.9260001 -0.42399999 -0.68199998 3
5.7979999 -0.419 -0.67799997 3
5.6799998 -0.41499999 -0.67400002 3
5.5469999 -0.41 -0.66900003 3
5.4400001 -0.40700001 -0.66600001 3
5.3099999 -0.40099999 -0.65899998 3
5.2119999 -0.398 -0.65700001 3
5.1040001 -0.39399999 -0.653 3
5.026 -0.39199999 -0.65200001 3
4.9130001 -0.38699999 -0.64600003 3
4.822 -0.38299999 -0.64300001 3
4.7509999 -0.38100001 -0.64300001 3
4.665 -0.37799999 -0.63999999 2
4.5929999 -0.37599999 -0.63800001 2
4.506 -0.37200001 -0.634 2
4.4159999 -0.368 -0.63 4
4.3460002 -0.36500001 -0.62800002 2
4.2480001 -0.36000001 -0.62099999 3
4.1890001 -0.35800001 -0.62 3
4.1300001 -0.35600001 -0.61900002 2
4.0739999 -0.354 -0.61799997 2
3.9790001 -0.34799999 -0.611 1
3.973 -0.34999999 -0.61699998 2
4.0089998 -0.35600001 -0.63 3
3.8440001 -0.34400001 -0.611 3
3.862 -0.34799999 -0.62099999 2
3.783 -0.34299999 -0.61500001 3
3.7320001 -0.34099999 -0.61299998 2
3.6340001 -0.33500001 -0.60399997 1
3.5929999 -0.333 -0.60299999 1
3.6370001 -0.33899999 -0.61699998 3
3.5209999 -0.331 -0.60399997 1
3.4679999 -0.32800001 -0.60100001 1
3.4419999 -0.32699999 -0.602 2
3.3889999 -0.324 -0.59899998 1
3.388 -0.32600001 -0.60500002 1
3.2869999 -0.31799999 -0.59299999 1
3.325 -0.324 -0.60500002 1
3.2409999 -0.31799999 -0.59600002 1
3.2850001 -0.324 -0.61000001 2
3.181 -0.315 -0.59600002 1
3.2520001 -0.324 -0.61500001 2
3.2309999 -0.324 -0.61699998 2
3.175 -0.31999999 -0.611 1
3.0439999 -0.308 -0.59100002 1
3.053 -0.31099999 -0.59799999 1
3.0150001 -0.308 -0.59600002 1
2.9560001 -0.30399999 -0.58899999 1
2.9560001 -0.30500001 -0.59500003 1
2.8900001 -0.30000001 -0.58600003 1
2.931 -0.30500001 -0.59899998 1
2.7969999 -0.29300001 -0.57700002 1
2.8570001 -0.30000001 -0.59399998 1
2.756 -0.29100001 -0.57800001 1
2.721 -0.28799999 -0.57499999 1
2.73 -0.29100001 -0.58099997 1
2.6700001 -0.285 -0.57300001 1
2.6500001 -0.28400001 -0.57300001 1
2.6400001 -0.28400001 -0.57499999 1
2.6210001 -0.28299999 -0.57499999 1
2.5899999 -0.28099999 -0.57300001 1
2.5699999 -0.28 -0.57300001 1
2.5699999 -0.28099999 -0.57700002 1
2.661 -0.292 -0.602 1
0 0 0 1
2.5480001 -0.28099999 -0.58399999 1
2.5179999 -0.27900001 -0.58099997 1
2.4890001 -0.27599999 -0.579 1
2.4879999 -0.27700001 -0.58200002 1
2.4330001 -0.27200001 -0.57300001 1
2.4260001 -0.27200001 -0.57499999 1
2.3870001 -0.26800001 -0.56999999 1
2.336 -0.26300001 -0.56099999 1
2.316 -0.26199999 -0.56 1
2.296 -0.25999999 -0.55900002 1
2.283 -0.259 -0.55900002 1
2.2650001 -0.25799999 -0.55800003 1
2.2520001 -0.257 -0.55800003 1
2.24 -0.25600001 -0.55900002 1
2.2130001 -0.25400001 -0.55500001 1
2.2030001 -0.25299999 -0.55599999 1
2.1849999 -0.252 -0.55500001 1
2.1719999 -0.25099999 -0.55500001 1
2.1470001 -0.248 -0.551 1
2.142 -0.248 -0.55299997 1
2.1270001 -0.24699999 -0.55199999 1
2.1159999 -0.24600001 -0.55299997 1
2.0969999 -0.244 -0.55000001 1
2.0829999 -0.243 -0.55000001 1
2.073 -0.242 -0.55000001 1
2.063 -0.242 -0.55000001 1
2.0420001 -0.23999999 -0.54799998 1
2.03 -0.23899999 -0.54699999 1
2.02 -0.23800001 -0.54699999 1
2.013 -0.237 -0.54799998 1
1.997 -0.236 -0.546 1
1.9910001 -0.235 -0.54799998 1
1.9809999 -0.234 -0.54699999 1
1.957 -0.23199999 -0.54299998 1
1.95 -0.23100001 -0.54400003 1
1.943 -0.23100001 -0.54500002 1
1.933 -0.23 -0.54400003 1
1.928 -0.229 -0.54500002 1
1.921 -0.229 -0.546 1
1.904 -0.227 -0.54400003 1
1.903 -0.227 -0.54500002 1
1.8890001 -0.22499999 -0.54400003 1
1.883 -0.22499999 -0.54500002 1
1.87 -0.223 -0.54299998 1
1.8660001 -0.223 -0.54400003 1
1.852 -0.221 -0.542 1
1.8329999 -0.219 -0.53899997 1
1.829 -0.219 -0.54000002 1
1.823 -0.21799999 -0.54000002 1
1.817 -0.21699999 -0.54100001 1
1.803 -0.21600001 -0.53899997 1
1.799 -0.215 -0.53899997 1
1.793 -0.215 -0.54000002 1
1.781 -0.213 -0.53799999 1
1.776 -0.213 -0.53899997 1
1.77 -0.212 -0.53899997 1
1.761 -0.211 -0.53799999 1
1.756 -0.20999999 -0.53799999 1
1.752 -0.20999999 -0.53899997 1
1.745 -0.20900001 -0.53799999 1
1.7359999 -0.208 -0.537 1
1.725 -0.206 -0.53600001 1
1.724 -0.206 -0.537 1
1.717 -0.205 -0.537 1
1.7130001 -0.205 -0.537 1
1.705 -0.204 -0.53600001 1
1.697 -0.20200001 -0.53500003 1
1.692 -0.20200001 -0.53500003 1
1.692 -0.20200001 -0.537 1
1.691 -0.20100001 -0.53799999 1
1.668 -0.198 -0.53200001 1
1.67 -0.198 -0.53399998 1
1.6569999 -0.197 -0.53200001 1
1.652 -0.19599999 -0.53200001 1
1.653 -0.19599999 -0.53399998 1
1.647 -0.19499999 -0.53299999 1
1.641 -0.19400001 -0.53200001 1
1.635 -0.193 -0.53200001 1
1.631 -0.192 -0.53200001 1
1.6289999 -0.192 -0.53200001 1
1.625 -0.191 -0.53200001 1
1.626 -0.191 -0.53399998 1
1.613 -0.189 -0.53100002 1
1.6109999 -0.189 -0.53200001 1
1.609 -0.18799999 -0.53200001 1
1.5930001 -0.186 -0.528 1
1.598 -0.186 -0.53100002 1
1.592 -0.186 -0.52999997 1
1.581 -0.184 -0.52700001 1
1.586 -0.184 -0.52999997 1
1.581 -0.183 -0.52899998 1
1.572 -0.182 -0.52700001 1
1.572 -0.182 -0.528 1
1.571 -0.18099999 -0.52899998 1
1.563 -0.18000001 -0.52700001 1
1.557 -0.17900001 -0.52600002 1
1.557 -0.178 -0.52700001 1
1.548 -0.177 -0.52499998 1
1.551 -0.177 -0.52700001 1
1.548 -0.176 -0.52600002 1
1.55 -0.176 -0.528 1
1.5470001 -0.175 -0.528 1
1.548 -0.175 -0.52899998 1
1.548 -0.175 -0.52999997 1
1.539 -0.17299999 -0.52700001 1
1.536 -0.17200001 -0.52700001 1
1.5319999 -0.17200001 -0.52600002 1
1.539 -0.17200001 -0.52899998 1
1.53 -0.17 -0.52700001 1
1.533 -0.17 -0.528 1
1.529 -0.169 -0.528 1
1.533 -0.169 -0.52899998 1
1.529 -0.168 -0.52899998 1
1.53 -0.168 -0.52899998 1
1.521 -0.167 -0.52700001 1
1.52 -0.16599999 -0.52700001 1
1.521 -0.16599999 -0.528 1
1.521 -0.16500001 -0.528 1
1.518 -0.164 -0.528 1
1.521 -0.164 -0.52899998 1
1.512 -0.163 -0.52600002 1
1.518 -0.163 -0.52899998 1
1.515 -0.162 -0.528 1
1.511 -0.161 -0.52700001 1
1.511 -0.16 -0.52700001 1
1.505 -0.15899999 -0.52499998 1
1.501 -0.15800001 -0.52399999 1
1.511 -0.15899999 -0.528 1
1.506 -0.15700001 -0.52600002 1
1.5 -0.156 -0.52399999 1
1.502 -0.156 -0.52499998 1
1.511 -0.156 -0.528 1
1.5 -0.154 -0.52499998 1
1.5089999 -0.155 -0.528 1
1.501 -0.153 -0.52499998 1
1.512 -0.154 -0.52899998 1
1.508 -0.153 -0.528 1
1.5 -0.15099999 -0.52499998 1
1.5 -0.15099999 -0.52499998 1
1.507 -0.15099999 -0.52700001 1
1.502 -0.15000001 -0.52499998 1
1.5 -0.149 -0.52499998 1
1.507 -0.149 -0.52700001 1
1.5 -0.148 -0.52399999 1
1.512 -0.148 -0.528 1
1.501 -0.146 -0.52399999 1
1.512 -0.147 -0.528 1
1.5089999 -0.146 -0.52700001 1
1.51 -0.145 -0.52700001 1
1.51 -0.14399999 -0.52600002 1
1.518 -0.145 -0.52899998 1
1.513 -0.14300001 -0.52700001 1
1.5190001 -0.14300001 -0.52899998 1
1.513 -0.142 -0.52600002 1
1.513 -0.141 -0.52600002 1
1.523 -0.142 -0.52899998 1
1.5140001 -0.14 -0.52499998 1
1.52 -0.14 -0.52700001 1
1.518 -0.139 -0.52600002 1
1.529 -0.139 -0.52899998 1
1.53 -0.138 -0.52899998 1
1.524 -0.13699999 -0.52600002 1
1.53 -0.13699999 -0.528 1
1.533 -0.13699999 -0.528 1
1.5319999 -0.13600001 -0.52700001 1
1.536 -0.13500001 -0.528 1
1.534 -0.134 -0.52700001 1
1.536 -0.134 -0.52700001 1
1.5420001 -0.133 -0.528 1
1.544 -0.133 -0.528 1
1.545 -0.132 -0.528 1
1.5420001 -0.131 -0.52600002 1
1.552 -0.131 -0.528 1
1.554 -0.13 -0.528 1
1.5549999 -0.13 -0.528 1
1.554 -0.12899999 -0.52700001 1
1.5599999 -0.12899999 -0.528 1
1.564 -0.12800001 -0.528 1
1.567 -0.127 -0.528 1
1.573 -0.127 -0.52899998 1
1.577 -0.127 -0.52999997 1
1.582 -0.126 -0.52999997 1
1.585 -0.126 -0.52999997 1
1.5829999 -0.124 -0.52899998 1
1.59 -0.124 -0.52999997 1
1.598 -0.124 -0.53100002 1
1.5930001 -0.123 -0.52899998 1
1.596 -0.122 -0.528 1
1.604 -0.122 -0.52999997 1
1.613 -0.122 -0.53200001 1
1.607 -0.12 -0.52899998 1
1.617 -0.12 -0.53100002 1
1.623 -0.12 -0.53100002 1
1.626 -0.119 -0.53100002 1
1.631 -0.118 -0.53100002 1
1.635 -0.118 -0.53100002 1
1.638 -0.117 -0.53100002 1
1.651 -0.117 -0.53399998 1
1.651 -0.116 -0.53200001 1
1.661 -0.116 -0.53399998 1
1.663 -0.115 -0.53299999 1
1.668 -0.115 -0.53299999 1
1.677 -0.114 -0.53500003 1
1.6849999 -0.114 -0.53500003 1
1.6849999 -0.113 -0.53399998 1
1.692 -0.112 -0.53500003 1
1.71 -0.113 -0.53899997 1
1.7079999 -0.112 -0.53600001 1
1.719 -0.111 -0.53799999 1
1.723 -0.111 -0.537 1
1.728 -0.11 -0.537 1
1.743 -0.11 -0.54000002 1
1.743 -0.109 -0.53799999 1
1.749 -0.108 -0.53799999 1
1.755 -0.108 -0.53799999 1
1.763 -0.107 -0.53899997 1
1.7690001 -0.107 -0.53899997 1
1.78 -0.106 -0.54000002 1
1.781 -0.105 -0.53799999 1
1.786 -0.105 -0.53799999 1
1.795 -0.104 -0.53899997 1
1.8049999 -0.104 -0.53899997 1
1.813 -0.103 -0.54000002 1
1.818 -0.102 -0.53899997 1
1.831 -0.102 -0.54100001 1
1.848 -0.102 -0.54400003 1
1.851 -0.101 -0.542 1
1.858 -0.101 -0.542 1
1.872 -0.1 -0.54400003 1
1.8789999 -0.1 -0.54299998 1
1.891 -0.098999999 -0.54400003 1
1.898 -0.097999997 -0.54400003 1
1.915 -0.097999997 -0.54699999 1
1.919 -0.097000003 -0.54500002 1
1.925 -0.097000003 -0.54400003 1
1.934 -0.096000001 -0.54400003 1
1.948 -0.096000001 -0.54500002 1
1.956 -0.094999999 -0.54500002 1
1.969 -0.094999999 -0.546 1
1.984 -0.093999997 -0.54799998 1
1.999 -0.093999997 -0.54900002 1
2.0109999 -0.093000002 -0.54900002 1
2.0179999 -0.093000002 -0.54799998 1
2.029 -0.092 -0.54799998 1
2.039 -0.090999998 -0.54799998 1
2.0539999 -0.090999998 -0.55000001 1
2.059 -0.090000004 -0.54799998 1
2.086 -0.090000004 -0.55199999 1
2.0940001 -0.089000002 -0.551 1
2.1110001 -0.089000002 -0.55199999 1
2.122 -0.088 -0.55199999 1
2.135 -0.088 -0.55199999 1
2.1570001 -0.088 -0.55500001 1
2.1700001 -0.086999997 -0.55500001 1
2.184 -0.086000003 -0.55500001 1
2.1930001 -0.086000003 -0.55400002 1
2.2179999 -0.086000003 -0.55699998 1
2.2379999 -0.085000001 -0.55800003 1
2.2490001 -0.083999999 -0.55699998 1
2.263 -0.083999999 -0.55699998 1
2.2750001 -0.082999997 -0.55699998 1
2.2920001 -0.082999997 -0.55699998 1
2.316 -0.082000002 -0.55900002 1
2.3299999 -0.082000002 -0.55900002 1
2.346 -0.081 -0.55900002 1
2.3729999 -0.081 -0.56099999 1
2.3789999 -0.079999998 -0.55900002 1
2.408 -0.079999998 -0.56199998 1
2.428 -0.079000004 -0.56300002 1
2.441 -0.079000004 -0.56199998 1
2.461 -0.078000002 -0.56199998 1
2.4820001 -0.078000002 -0.56300002 1
2.5039999 -0.077 -0.56300002 1
2.5309999 -0.077 -0.565 1
2.5550001 -0.077 -0.56599998 1
2.5769999 -0.075999998 -0.56699997 1
2.5999999 -0.075999998 -0.56699997 1
2.6199999 -0.075000003 -0.56699997 1
2.6470001 -0.075000003 -0.56800002 1
2.783 -0.077 -0.59299999 1
2.721 -0.074000001 -0.57499999 1
2.7490001 -0.074000001 -0.57599998 1
2.799 -0.074000001 -0.58099997 1
2.8340001 -0.074000001 -0.58399999 1
2.8099999 -0.071999997 -0.57300001 1
2.9400001 -0.074000001 -0.59500003 1
2.9619999 -0.074000001 -0.59399998 1
2.9649999 -0.072999999 -0.58899999 2
3.063 -0.074000001 -0.60299999 2
3.0710001 -0.072999999 -0.59899998 1
3.059 -0.071000002 -0.59100002 1
3.2049999 -0.072999999 -0.61299998 1
3.22 -0.072999999 -0.61000001 1
3.1719999 -0.07 -0.59500003 1
3.253 -0.071000002 -0.60399997 2
3.309 -0.071000002 -0.60799998 1
3.3529999 -0.071000002 -0.61000001 1
3.306 -0.068999998 -0.59600002 1
3.3770001 -0.068999998 -0.602 2
3.4219999 -0.068999998 -0.60299999 2
3.483 -0.068999998 -0.60799998 1
3.4579999 -0.067000002 -0.597 1
3.5150001 -0.067000002 -0.60000002 2
3.552 -0.067000002 -0.59899998 2
3.6159999 -0.067000002 -0.60299999 2
3.677 -0.067000002 -0.60600001 3
3.799 -0.068000004 -0.61900002 3
3.783 -0.066 -0.60900003 3
3.938 -0.068000004 -0.62599999 3
3.8800001 -0.066 -0.60900003 2
3.9389999 -0.066 -0.611 2
4.072 -0.067000002 -0.62300003 2
4.099 -0.066 -0.61900002 2
4.1589999 -0.066 -0.62 2
4.2620001 -0.066 -0.62699997 3
4.3330002 -0.066 -0.62900001 3
4.402 -0.066 -0.63 3
4.4520001 -0.066 -0.62800002 4
4.539 -0.066 -0.63200003 4
4.6230001 -0.066 -0.634 6
4.6989999 -0.066 -0.63499999 7
4.7550001 -0.066 -0.63300002 6
4.9089999 -0.067000002 -0.64399999 4
5.0190001 -0.068000004 -0.648 3
5.1149998 -0.068000004 -0.64999998 5
5.2550001 -0.068999998 -0.65700001 3
5.3899999 -0.07 -0.662 3
5.52 -0.07 -0.667 3
5.6719999 -0.071000002 -0.67400002 4
5.803 -0.071999997 -0.67699999 3
5.9429998 -0.071999997 -0.68199998 3
6.099 -0.072999999 -0.68699998 3
6.2529998 -0.074000001 -0.69099998 4
6.4299998 -0.075000003 -0.69800001 4
6.6560001 -0.077 -0.708 4
6.8429999 -0.078000002 -0.71399999 4
7.0240002 -0.079999998 -0.71799999 4
7.2389998 -0.081 -0.72500002 4
7.467 -0.082999997 -0.73199999 4
7.7550001 -0.085000001 -0.745 6
8.04 -0.088 -0.755 14
8.2349997 -0.089000002 -0.75599998 15
8.4709997 -0.090999998 -0.75999999 16
8.8079996 -0.093999997 -0.77200001 17
9.0699997 -0.096000001 -0.77600002 12
9.3999996 -0.098999999 -0.78399998 7
9.8400002 -0.103 -0.80000001 5
10.231 -0.106 -0.81 4
10.625 -0.11 -0.81900001 4
11.116 -0.114 -0.833 4
11.657 -0.12 -0.84899998 3
12.129 -0.124 -0.85699999 3
12.798 -0.131 -0.87800002 3
0 0 0 3
14.386 -0.147 -0.926 6
14.918 -0.152 -0.92799997 4
14.884 -0.152 -0.89499998 2
0 0 0 3
17.353001 -0.178 -0.96899998 2
0 0 0 2
0 0 0 1
0 0 0 1
0 0 0 0
0 0 0 2
17.202 -0.18099999 -0.74000001 4
16.943001 -0.17900001 -0.69300002 3
16.844999 -0.18000001 -0.653 3
16.847 -0.18099999 -0.61699998 4
16.805 -0.182 -0.57999998 3
16.804001 -0.184 -0.54400003 2
16.82 -0.185 -0.50800002 1
16.811001 -0.18700001 -0.472 1
16.806 -0.189 -0.43599999 3
16.788 -0.191 -0.40000001 9
16.799 -0.193 -0.36399999 9
16.785 -0.19599999 -0.32800001 1
16.801001 -0.198 -0.292 1
16.829 -0.20100001 -0.25600001 1
16.822001 -0.204 -0.22 1
16.874001 -0.207 -0.185 1
16.877001 -0.20999999 -0.149 1
16.951 -0.214 -0.114 1
16.975 -0.21799999 -0.077 2
16.978001 -0.221 -0.041000001 3
16.938 -0.22400001 -0.0049999999 1
0 0 0 0
0 0 0 0
0 0 0 1
17.903999 -0.252 0.147 1
18.208 -0.26100001 0.189 1
18.233 -0.266 0.228 1
0 0 0 0
0 0 0 0
0 0 0 0
0 0 0 0
0 0 0 0
0 0 0 1
18.733999 -0.308 0.51200002 1
0 0 0 0
0 0 0 0
0 0 0 4
25.674 -0.454 0.91799998 9
25.662001 -0.46200001 0.972 13
25.636999 -0.47 1.024 18
25.610001 -0.479 1.0779999 21
25.6 -0.48699999 1.1289999 23
25.579 -0.49599999 1.182 23
25.575001 -0.505 1.2359999 24
25.573 -0.514 1.289 26
25.542 -0.523 1.341 27
25.535999 -0.53200001 1.393 29
25.516001 -0.542 1.4450001 30
25.518999 -0.551 1.497 30
25.504 -0.56099999 1.549 33
25.499001 -0.57099998 1.601 33
25.488001 -0.58099997 1.653 35
25.478001 -0.59200001 1.705 35
25.471001 -0.602 1.756 36
25.450001 -0.61199999 1.806 36
25.438999 -0.62300003 1.857 38
25.422001 -0.634 1.908 39
25.431 -0.64499998 1.96 39
25.422001 -0.65600002 2.0090001 39
25.422001 -0.66799998 2.0610001 40
25.410999 -0.67900002 2.112 42
25.393 -0.69 2.161 44
25.393 -0.70200002 2.2119999 44
25.393 -0.71399999 2.263 46
25.379999 -0.72600001 2.312 46
25.372999 -0.73799998 2.362 50
25.364 -0.75099999 2.4119999 46
25.379 -0.764 2.4630001 51
25.375 -0.77700001 2.513 49
25.365999 -0.78899997 2.563 52
25.35 -0.80199999 2.6110001 54
25.343 -0.815 2.6589999 52
25.339001 -0.82800001 2.7090001 52
25.334 -0.84100002 2.7579999 52
25.318001 -0.85500002 2.8050001 53
25.33 -0.86900002 2.8559999 59
25.329 -0.88200003 2.904 62
25.347 -0.89700001 2.9560001 67
25.341999 -0.91100001 3.0039999 64
25.341 -0.92500001 3.052 64
25.337 -0.94 3.0999999 65
25.353001 -0.954 3.1500001 49
25.323999 -0.96799999 3.194 65
25.330999 -0.98299998 3.243 62
25.337 -0.99800003 3.2920001 64
25.346001 -1.0140001 3.3410001 63
25.360001 -1.029 3.3900001 63
25.351 -1.044 3.4360001 61
25.353001 -1.059 3.483 56
25.371 -1.076 3.533 52
25.374001 -1.091 3.5799999 49
25.375 -1.107 3.6270001 53
25.357 -1.122 3.671 57
25.379 -1.1390001 3.721 54
25.398001 -1.156 3.7690001 52
25.402 -1.1720001 3.816 52
25.417 -1.189 3.8640001 46
25.427 -1.206 3.911 45
25.431 -1.223 3.957 46
25.445 -1.239 4.0040002 43
25.452 -1.256 4.0500002 43
25.474001 -1.274 4.099 40
25.471001 -1.291 4.1430001 37
25.49 -1.309 4.191 35
25.509001 -1.327 4.2379999 35
25.514999 -1.345 4.2839999 31
25.542 -1.363 4.3319998 30
25.569 -1.382 4.381 28
25.601999 -1.402 4.4299998 28
25.610001 -1.419 4.4759998 24
25.645 -1.439 4.526 21
25.677999 -1.459 4.5749998 19
25.746 -1.48 4.6300001 11
25.788 -1.501 4.6810002 4
0 0 0 26
33.862 -2.0190001 6.2579999 27
33.853001 -2.0420001 6.3119998 25
33.862999 -2.0669999 6.3699999 28
33.868999 -2.0910001 6.427 26
33.862999 -2.1140001 6.4790001 26
33.77 -2.1329999 6.5149999 24
33.608002 -2.1470001 6.5380001 23
33.375999 -2.1559999 6.546 24
33.186001 -2.168 6.5599999 26
32.983002 -2.178 6.572 27
32.792999 -2.1900001 6.585 26
32.558998 -2.197 6.5879998 25
32.339001 -2.2060001 6.5939999 27
32.118 -2.214 6.599 26
31.906 -2.223 6.6040001 29
31.74 -2.2349999 6.6170001 26
31.541 -2.244 6.6230001 27
31.34 -2.253 6.6269999 26
31.153999 -2.2620001 6.6329999 30
30.976999 -2.273 6.6409998 29
30.802999 -2.2820001 6.6479998 26
30.617001 -2.2909999 6.6529999 30
30.431999 -2.3 6.6570001 25
30.278 -2.3110001 6.6659999 26
30.112 -2.3210001 6.6719999 26
29.912001 -2.3280001 6.671 30
29.76 -2.339 6.678 29
29.607 -2.348 6.6849999 26
29.454 -2.358 6.691 30
29.278 -2.3659999 6.6900001 26
29.129 -2.3759999 6.6950002 28
28.983999 -2.3859999 6.7010002 29
28.854 -2.3959999 6.7090001 26
28.73 -2.408 6.7189999 27
28.576 -2.4159999 6.7199998 30
28.438999 -2.425 6.7249999 27
28.292999 -2.434 6.7270002 30
28.172001 -2.4449999 6.7340002 26
28.031 -2.454 6.7360001 26
27.898001 -2.464 6.7399998 28
27.768 -2.473 6.743 26
27.656 -2.484 6.7509999 26
27.521999 -2.4920001 6.7509999 24
27.400999 -2.5020001 6.7550001 24
27.271999 -2.5109999 6.756 24
27.149 -2.52 6.7589998 26
27.041 -2.5309999 6.7639999 27
26.923 -2.54 6.7659998 28
26.834 -2.5510001 6.7740002 27
26.709999 -2.5599999 6.7740002 26
26.599001 -2.569 6.776 26
26.475 -2.5769999 6.7740002 25
26.375999 -2.5869999 6.7779999 25
26.271 -2.596 6.7800002 30
26.176001 -2.6059999 6.783 30
26.079 -2.6159999 6.7870002 25
25.976 -2.625 6.7870002 24
25.882 -2.6340001 6.79 28
25.795 -2.6440001 6.7940001 27
25.714001 -2.655 6.7989998 28
25.629 -2.665 6.803 24
25.540001 -2.675 6.8049998 28
25.472 -2.6860001 6.8119998 29
25.363001 -2.6930001 6.8070002 28
25.271999 -2.7019999 6.8080001 28
25.209999 -2.7130001 6.8150001 28
25.122 -2.7219999 6.8150001 28
25.028 -2.7309999 6.8130002 29
24.972 -2.7420001 6.8210001 24
24.886 -2.7509999 6.8200002 29
24.825001 -2.7620001 6.8260002 29
24.767 -2.773 6.8319998 28
0 0 0 1
17.872999 -2.027 4.961 5
17.85 -2.036 4.9699998 14
17.815001 -2.0450001 4.974 17
17.771999 -2.053 4.9770002 19
17.739 -2.0610001 4.9819999 20
17.716999 -2.0710001 4.9899998 22
17.698999 -2.0810001 4.9990001 25
17.687 -2.092 5.0089998 26
17.665001 -2.102 5.0159998 26
17.618999 -2.109 5.0159998 29
17.624001 -2.122 5.0300002 31
17.607 -2.131 5.039 31
17.58 -2.1389999 5.0430002 28
17.587999 -2.152 5.0580001 32
17.573999 -2.1630001 5.066 37
17.558001 -2.1719999 5.073 33
17.562 -2.1849999 5.085 40
17.547001 -2.1949999 5.092 34
17.542 -2.2060001 5.1020002 36
17.521999 -2.2149999 5.1069999 39
17.516001 -2.2249999 5.1160002 40
17.507999 -2.2349999 5.1240001 40
17.509001 -2.247 5.1339998 42
17.492001 -2.256 5.1389999 39
17.493999 -2.267 5.1490002 44
17.483 -2.277 5.1550002 45
17.483 -2.2880001 5.164 43
17.489 -2.3 5.1750002 32
17.478001 -2.309 5.1799998 45
17.462 -2.3180001 5.184 46
17.455 -2.3280001 5.1900001 44
17.448 -2.3380001 5.1960001 49
17.451 -2.348 5.2049999 50
17.450001 -2.359 5.2119999 50
17.452 -2.369 5.2199998 48
17.457001 -2.3800001 5.2280002 33
17.451 -2.3889999 5.2329998 47
17.447001 -2.3989999 5.2389998 48
17.445 -2.4089999 5.244 47
17.440001 -2.4189999 5.2490001 48
17.443001 -2.4289999 5.256 35
17.438999 -2.438 5.2600002 33
17.438999 -2.448 5.2649999 50
17.427999 -2.4560001 5.2670002 47
17.431999 -2.4660001 5.2729998 47
17.434999 -2.4760001 5.2789998 45
17.441 -2.4860001 5.2849998 45
17.445999 -2.4960001 5.2909999 30
17.438 -2.5039999 5.2930002 50
17.419001 -2.5109999 5.29 44
17.427999 -2.5209999 5.2969999 42
17.445999 -2.533 5.3060002 50
17.427 -2.54 5.303 46
17.436001 -2.549 5.3080001 47
17.429001 -2.5569999 5.309 51
17.434999 -2.566 5.3130002 44
17.445999 -2.5769999 5.3179998 46
17.443001 -2.585 5.3189998 47
17.452999 -2.595 5.3239999 43
17.440001 -2.6010001 5.322 40
17.454 -2.6110001 5.3270001 43
17.454 -2.6199999 5.3280001 42
17.459 -2.628 5.3299999 46
17.447001 -2.6340001 5.3270001 47
17.447001 -2.642 5.3270001 46
17.443001 -2.6489999 5.3260002 46
17.457001 -2.6589999 5.3299999 49
17.445 -2.664 5.3260002 44
17.464001 -2.675 5.3309999 48
17.476999 -2.684 5.3340001 30
17.466 -2.6900001 5.3299999 39
17.461 -2.6960001 5.3270001 42
17.465 -2.704 5.3260002 37
17.472 -2.7119999 5.3270001 38
17.472 -2.7179999 5.3249998 34
17.471001 -2.7249999 5.322 37
17.48 -2.733 5.322 36
17.488001 -2.7409999 5.322 36
17.479 -2.7460001 5.316 35
17.503 -2.756 5.3200002 34
17.493999 -2.7609999 5.3140001 34
17.506001 -2.7690001 5.3140001 35
17.514 -2.776 5.3119998 35
17.495001 -2.779 5.302 31
17.511 -2.7869999 5.303 33
17.511999 -2.793 5.2979999 32
17.52 -2.799 5.296 32
17.521999 -2.8050001 5.2909999 32
17.530001 -2.812 5.2880001 32
17.540001 -2.819 5.2859998 31
17.533001 -2.822 5.2779999 30
17.538 -2.8280001 5.2729998 30
17.558001 -2.836 5.2729998 30
17.57 -2.8429999 5.27 30
17.542 -2.8429999 5.2550001 28
17.561001 -2.8510001 5.2540002 28
17.589001 -2.859 5.2550001 21
17.594 -2.8640001 5.2490001 27
17.591 -2.868 5.2410002 25
17.601 -2.8740001 5.2360001 25
17.601999 -2.878 5.2280002 25
17.625 -2.885 5.2259998 25
17.627001 -2.8889999 5.2189999 24
17.629 -2.8929999 5.21 23
17.618 -2.895 5.198 22
17.634001 -2.901 5.1929998 23
17.645 -2.905 5.1869998 22
17.649 -2.9100001 5.1789999 22
17.653 -2.9130001 5.1700001 21
17.650999 -2.9159999 5.1589999 20
17.660999 -2.9200001 5.152 21
17.676001 -2.925 5.145 16
17.679001 -2.928 5.1360002 19
17.674 -2.9289999 5.1230001 18
17.68 -2.9330001 5.1129999 16
17.693001 -2.937 5.1059999 17
17.695999 -2.9389999 5.0949998 16
17.698 -2.9419999 5.0840001 16
17.711 -2.9449999 5.0760002 15
17.708 -2.9460001 5.0619998 16
17.716 -2.9489999 5.052 15
17.718 -2.951 5.04 15
17.719 -2.9519999 5.027 14
17.726 -2.954 5.0159998 13
17.732 -2.9560001 5.0050001 14
17.733999 -2.957 4.9920001 13
17.747 -2.96 4.9809999 13
17.738001 -2.9590001 4.9650002 13
17.764 -2.964 4.9580002 13
17.753 -2.9619999 4.941 13
17.74 -2.96 4.9219999 12
17.743999 -2.96 4.9089999 12
17.750999 -2.9619999 4.895 12
17.747999 -2.961 4.8790002 12
17.756001 -2.9619999 4.8660002 12
17.739 -2.9590001 4.8449998 12
17.743 -2.9579999 4.8309999 12
17.735001 -2.9560001 4.8119998 13
17.746 -2.957 4.7989998 13
17.736 -2.954 4.7800002 14
17.728001 -2.9519999 4.7610002 15
17.73 -2.95 4.7449999 14
17.731001 -2.9489999 4.7280002 14
17.722 -2.9460001 4.7090001 15
17.712 -2.9419999 4.6890001 14
17.702999 -2.9389999 4.6690001 14
17.698999 -2.9360001 4.6500001 15
17.688 -2.9319999 4.6300001 15
17.695 -2.931 4.6139998 16
17.684 -2.927 4.592 16
17.686001 -2.924 4.5739999 14
17.673 -2.9189999 4.553 16
17.653 -2.9130001 4.5289998 17
17.653 -2.9100001 4.5100002 17
17.652 -2.9070001 4.4899998 18
17.643999 -2.902 4.4689999 18
17.636999 -2.898 4.448 15
17.634001 -2.8940001 4.427 17
17.629999 -2.8889999 4.4070001 21
17.608999 -2.882 4.381 22
17.598 -2.8759999 4.3590002 23
17.599001 -2.872 4.3390002 23
17.587999 -2.8659999 4.3150001 24
17.582001 -2.8599999 4.2930002 25
17.559999 -2.852 4.2670002 27
17.563999 -2.848 4.2470002 27
17.559 -2.842 4.2249999 28
17.539 -2.8340001 4.1989999 29
17.521999 -2.826 4.1729999 28
17.525999 -2.822 4.1529999 29
17.521 -2.816 4.1300001 31
17.517 -2.809 4.1069999 32
17.524 -2.8039999 4.0869999 32
17.513 -2.7969999 4.0619998 33
17.516001 -2.7909999 4.0409999 34
17.497 -2.7820001 4.0139999 34
17.49 -2.7750001 3.99 36
17.483999 -2.7679999 3.9660001 36
17.483 -2.7609999 3.9430001 33
17.472 -2.753 3.918 35
17.471001 -2.7460001 3.895 36
17.469 -2.7379999 3.8710001 37
17.473 -2.7309999 3.849 38
17.464001 -2.723 3.8239999 42
17.462 -2.7149999 3.8 39
17.455999 -2.707 3.7750001 41
17.437 -2.6960001 3.747 37
17.441 -2.6889999 3.724 39
17.424 -2.678 3.6960001 39
17.431 -2.671 3.674 37
17.437 -2.665 3.651 29
17.429001 -2.655 3.625 42
17.424999 -2.6459999 3.5999999 31
17.410999 -2.635 3.573 43
17.417 -2.6270001 3.549 43
17.406 -2.6159999 3.5220001 44
17.409 -2.608 3.4979999 46
17.400999 -2.598 3.471 43
17.395 -2.5869999 3.444 45
17.393999 -2.5780001 3.4189999 46
17.398001 -2.5680001 3.3940001 28
17.389 -2.5569999 3.3670001 40
17.393 -2.5480001 3.342 39
17.378 -2.5350001 3.313 43
17.377001 -2.526 3.2880001 44
17.379 -2.516 3.263 49
17.384001 -2.506 3.237 31
17.375999 -2.494 3.21 51
17.368 -2.4820001 3.1819999 46
17.381001 -2.473 3.158 31
17.386 -2.4619999 3.1329999 32
17.367001 -2.4489999 3.1029999 47
17.363001 -2.437 3.076 48
17.364 -2.4260001 3.05 50
17.363001 -2.414 3.023 49
17.368999 -2.4030001 2.997 51
17.374001 -2.392 2.971 33
17.363001 -2.378 2.9430001 52
17.372 -2.3670001 2.9170001 56
17.372 -2.3540001 2.8900001 34
17.368999 -2.3410001 2.862 52
17.378 -2.3299999 2.836 54
17.378 -2.3169999 2.809 34
17.384001 -2.3050001 2.7820001 51
17.371 -2.29 2.753 55
17.379999 -2.2780001 2.7260001 56
17.374001 -2.2639999 2.698 48
17.382 -2.2520001 2.6719999 45
17.388 -2.2390001 2.645 45
17.417 -2.2290001 2.6210001 31
17.406 -2.214 2.592 46
17.415001 -2.201 2.566 41
17.42 -2.187 2.5380001 46
17.445 -2.1760001 2.5139999 30
17.445 -2.161 2.4849999 44
17.431999 -2.145 2.4549999 37
17.452 -2.1329999 2.4300001 38
17.475 -2.1199999 2.405 39
17.486 -2.1070001 2.378 39
17.493 -2.092 2.3499999 36
17.485001 -2.076 2.3210001 33
17.509001 -2.063 2.296 31
17.535 -2.05 2.27 33
17.562 -2.0380001 2.2449999 23
17.57 -2.023 2.217 29
17.591 -2.0090001 2.191 30
17.624001 -1.9960001 2.1659999 23
17.648001 -1.982 2.1389999 20
17.700001 -1.971 2.1159999 17
17.736 -1.959 2.0910001 14
17.812 -1.95 2.0710001 3
0 0 0 3
34.042999 -3.661 3.846 15
34.049 -3.628 3.79 17
34.103001 -3.5999999 3.7390001 9
34.062 -3.5610001 3.678 2
0 0 0 0
0 0 0 4
49.993 -5.0760002 5.1500001 5
49.882999 -5.013 5.0549998 5
49.924999 -4.9650002 4.9780002 5
49.935001 -4.914 4.895 5
0 0 0 4
33.980999 -3.2720001 3.217 17
33.958 -3.234 3.1589999 36
33.951 -3.197 3.102 46
33.91 -3.1570001 3.0420001 50
33.896999 -3.118 2.984 47
33.873001 -3.0780001 2.9260001 51
33.866001 -3.04 2.868 48
33.847 -3.0009999 2.8099999 49
33.851002 -2.9630001 2.7539999 50
33.841 -2.924 2.697 50
33.827999 -2.8840001 2.6389999 48
33.833 -2.846 2.5829999 49
33.817001 -2.806 2.5250001 51
33.814999 -2.766 2.4690001 51
33.803001 -2.7260001 2.411 50
33.792 -2.6860001 2.355 51
33.786999 -2.6459999 2.299 38
33.82 -2.608 2.2449999 24
33.900002 -2.5739999 2.194 13
33.93 -2.5350001 2.1389999 8
33.874001 -2.49 2.0799999 11
33.887001 -2.45 2.0239999 12
33.917999 -2.411 1.97 13
33.933998 -2.3699999 1.914 16
33.952 -2.329 1.859 17
33.950001 -2.2869999 1.803 17
33.986 -2.247 1.75 18
34.004002 -2.2060001 1.694 15
34.021 -2.164 1.6390001 7
34.056999 -2.122 1.584 1
33.986 -2.075 1.525 8
33.941002 -2.0280001 1.4680001 14
33.945999 -1.985 1.4119999 16
33.937 -1.9400001 1.3559999 14
33.923 -1.895 1.3 9
0 0 0 3
25.576 -1.3609999 0.89600003 16
25.509001 -1.324 0.85299999 23
25.464001 -1.288 0.81 25
25.403999 -1.25 0.76599997 25
25.382999 -1.216 0.72500002 8
0 0 0 0
0 0 0 0
0 0 0 0
0 0 0 0
0 0 0 0
0 0 0 0
0 0 0 0
0 0 0 0
0 0 0 0
0 0 0 0
0 0 0 0
0 0 0 1
17.841999 -0.53399998 0.141 1
17.525999 -0.5 0.111 1
0 0 0 0
0 0 0 0
0 0 0 0
0 0 0 1
16.933001 -0.361 -0.024 2
16.907 -0.33500001 -0.050000001 3
16.903999 -0.31099999 -0.075999998 2
16.900999 -0.28600001 -0.102 1
16.875 -0.26100001 -0.12800001 1
16.857 -0.236 -0.153 1
16.863001 -0.211 -0.178 1
16.820999 -0.185 -0.204 1
0 0 0 0
0 0 0 1
0 0 0 0
0 0 0 1
16.872999 -0.059999999 -0.331 1
16.885 -0.034000002 -0.35600001 2
16.895 -0.0089999996 -0.38100001 2
16.929001 0.016000001 -0.40700001 1
16.941999 0.041999999 -0.43200001 1
16.997999 0.068000004 -0.458 1
16.959 0.093999997 -0.48199999 1
16.936001 0.12 -0.50700003 1
16.955 0.146 -0.53200001 1
17.046 0.17299999 -0.55900002 1
17.054001 0.2 -0.58399999 1
17.141001 0.228 -0.61199999 1
17.253 0.255 -0.63999999 2
17.306999 0.28299999 -0.66600001 4
17.323 0.31 -0.69099998 4
17.319 0.33700001 -0.71600002 4
17.332001 0.36500001 -0.74000001 4
17.362 0.39399999 -0.76700002 3
17.365 0.421 -0.79100001 1
0 0 0 2
23.900999 0.65499997 -1.155 1
0 0 0 0
0 0 0 4
19.304001 0.62099999 -1.012 4
0 0 0 3
0 0 0 0
0 0 0 2
16.172001 0.62400001 -0.935 2
15.507 0.62300003 -0.917 2
14.918 0.62300003 -0.90200001 2
14.373 0.62400001 -0.88700002 2
13.94 0.62699997 -0.87900001 3
13.491 0.62900001 -0.86799997 3
12.96 0.62599999 -0.85100001 3
12.645 0.63099998 -0.847 3
12.261 0.63200003 -0.83700001 3
11.904 0.63200003 -0.82700002 2
11.573 0.63300002 -0.81900001 7
11.331 0.639 -0.81699997 4
10.987 0.63700002 -0.80500001 3
10.719 0.639 -0.79900002 2
10.46 0.64099997 -0.79299998 3
10.212 0.64200002 -0.78600001 3
9.9619999 0.64200002 -0.77899998 2
9.7220001 0.64300001 -0.77200001 3
9.5170002 0.64499998 -0.76700002 3
9.3249998 0.64700001 -0.76300001 3
9.1009998 0.64600003 -0.75599998 3
8.9200001 0.648 -0.75099999 3
8.7489996 0.64999998 -0.74699998 4
8.6070004 0.653 -0.745 3
8.4510002 0.65499997 -0.74199998 3
8.3000002 0.65700001 -0.73799998 4
8.1450005 0.65799999 -0.73299998 3
7.9809999 0.65799999 -0.72799999 3
7.8649998 0.662 -0.72600001 3
7.7210002 0.662 -0.722 3
7.573 0.662 -0.71600002 3
7.4429998 0.66299999 -0.71200001 3
7.3119998 0.66299999 -0.708 3
7.1890001 0.66399997 -0.704 3
7.086 0.66600001 -0.70200002 3
6.9689999 0.66600001 -0.69700003 3
6.8660002 0.667 -0.69499999 3
6.7329998 0.66600001 -0.68800002 3
6.6279998 0.66600001 -0.685 3
6.5079999 0.66500002 -0.67900002 3
6.4250002 0.667 -0.67699999 3
6.3540001 0.67000002 -0.676 4
6.2729998 0.671 -0.67400002 4
6.1900001 0.67299998 -0.671 4
6.0799999 0.671 -0.66600001 5
5.9780002 0.66900003 -0.66100001 8
5.9159999 0.67199999 -0.66000003 10
5.8720002 0.676 -0.66100001 10
5.8010001 0.67799997 -0.65799999 11
5.723 0.67799997 -0.65499997 11
5.664 0.68000001 -0.65399998 11
