# .PCD v0.7 - Point Cloud Data file format
VERSION 0.7
FIELDS x y z intensity
SIZE 4 4 4 4
TYPE F F F F
COUNT 1 1 1 1
WIDTH 1812
HEIGHT 1
VIEWPOINT 0 0 0 1 0 0 0
POINTS 1812
DATA ascii
4.0229998 0.175 -0.60600001 2
4.0749998 0.175 -0.60600001 2
4.1170001 0.175 -0.60399997 2
4.224 0.177 -0.61199999 4
4.276 0.177 -0.61199999 6
4.3109999 0.176 -0.60799998 6
4.4169998 0.178 -0.61500001 3
4.5100002 0.17900001 -0.61900002 4
4.6209998 0.18099999 -0.625 2
4.7020001 0.18099999 -0.62800002 3
4.8000002 0.182 -0.63099998 3
4.8940001 0.183 -0.634 3
4.9879999 0.184 -0.63700002 3
5.0780001 0.184 -0.639 3
5.178 0.184 -0.64099997 4
5.2969999 0.185 -0.64499998 4
5.4060001 0.186 -0.64899999 4
5.4980001 0.186 -0.64899999 4
5.6440001 0.18700001 -0.65499997 5
5.7839999 0.18799999 -0.66000003 4
5.948 0.189 -0.667 4
6.0840001 0.189 -0.67000002 4
6.2620001 0.191 -0.67799997 4
6.4029999 0.191 -0.68000001 4
6.6069999 0.192 -0.68900001 3
6.822 0.19400001 -0.69800001 4
7.0149999 0.19400001 -0.704 4
7.2069998 0.19499999 -0.70999998 4
7.4219999 0.19499999 -0.71600002 3
7.6750002 0.19599999 -0.72600001 4
7.9260001 0.197 -0.73400003 4
8.2309999 0.199 -0.74599999 5
8.5190001 0.199 -0.75599998 4
8.7950001 0.199 -0.76300001 5
9.1260004 0.2 -0.77399999 4
9.4840002 0.2 -0.78600001 5
9.8210001 0.2 -0.79500002 5
10.2 0.2 -0.80500001 5
10.544 0.198 -0.81199998 6
10.915 0.19599999 -0.81900001 3
0 0 0 2
12.182 0.2 -0.86699998 9
12.546 0.19499999 -0.86799997 9
12.895 0.19 -0.86699998 4
13.519 0.18799999 -0.88200003 3
14.312 0.18700001 -0.90600002 3
15.09 0.185 -0.926 2
15.902 0.18099999 -0.94499999 3
16.834 0.178 -0.96799999 2
0 0 0 2
18.245001 0.161 -0.97799999 1
0 0 0 1
0 0 0 0
0 0 0 1
0 0 0 0
0 0 0 0
0 0 0 1
0 0 0 0
0 0 0 0
0 0 0 0
0 0 0 27
0 0 0 19
51.777 -0.111 -1.576 150
51.776001 -0.161 -1.476 179
51.799 -0.211 -1.377 163
51.786999 -0.26100001 -1.278 121
0 0 0 0
0 0 0 29
116.829 -0.93400002 -2.217 36
116.984 -1.052 -1.998 21
0 0 0 0
0 0 0 0
0 0 0 9
72.997002 -0.95099998 -0.69499999 41
72.846001 -1.024 -0.55599999 44
71.931 -1.085 -0.41499999 138
72.021004 -1.161 -0.28 30
0 0 0 9
0 0 0 0
0 0 0 20
66.573997 -1.354 0.236 69
66.591003 -1.426 0.36000001 73
66.620003 -1.498 0.484 35
0 0 0 0
0 0 0 0
0 0 0 6
59.223 -1.59 0.86799997 9
0 0 0 0
0 0 0 0
0 0 0 10
58.514 -1.831 1.284 44
0 0 0 0
0 0 0 0
0 0 0 5
0 0 0 0
0 0 0 0
0 0 0 0
0 0 0 0
0 0 0 0
0 0 0 0
0 0 0 0
0 0 0 22
46.636002 -2.105 2.0239999 96
46.640999 -2.1600001 2.105 89
0 0 0 30
42.692001 -2.079 2.076 63
42.685001 -2.1300001 2.1500001 44
42.436001 -2.168 2.211 20
41.655998 -2.178 2.2409999 60
41.311001 -2.21 2.2939999 42
40.820999 -2.233 2.336 52
40.202 -2.2490001 2.3710001 66
40.134998 -2.2939999 2.4349999 59
40.043999 -2.339 2.4979999 10
38.896999 -2.319 2.4909999 13
38.573002 -2.348 2.5350001 31
38.394001 -2.3840001 2.5880001 28
37.931999 -2.402 2.618 24
37.422001 -2.4159999 2.645 22
37.112 -2.4430001 2.6860001 27
36.660999 -2.4579999 2.7119999 23
36.324001 -2.4809999 2.7479999 23
35.931 -2.4990001 2.776 28
35.699001 -2.529 2.8169999 20
35.294998 -2.5450001 2.842 18
34.830002 -2.5550001 2.8610001 17
34.645 -2.586 2.902 16
34.421001 -2.612 2.937 32
34.421001 -2.6559999 2.9920001 54
34.449001 -2.7030001 3.05 41
34.477001 -2.7490001 3.1059999 33
34.766998 -2.8169999 3.187 25
34.640999 -2.8510001 3.23 12
34.487 -2.882 3.2690001 47
34.485001 -2.927 3.322 59
34.473 -2.97 3.3740001 61
34.465 -3.013 3.4260001 59
34.467999 -3.0580001 3.4779999 59
34.483002 -3.105 3.5320001 58
34.478001 -3.1489999 3.5840001 56
34.492001 -3.1960001 3.6370001 58
34.502998 -3.2409999 3.6900001 55
34.493 -3.2850001 3.74 58
34.498001 -3.3310001 3.7920001 59
34.507999 -3.3759999 3.8429999 58
34.498001 -3.4200001 3.8929999 59
34.514 -3.467 3.944 58
34.529999 -3.513 3.9949999 47
34.525002 -3.559 4.0450001 57
34.528999 -3.6040001 4.0949998 57
34.528 -3.6489999 4.1430001 59
34.519001 -3.694 4.191 56
34.535999 -3.7420001 4.2420001 58
34.536999 -3.7869999 4.29 53
34.558998 -3.836 4.342 57
34.555 -3.881 4.3899999 56
34.553001 -3.9260001 4.4369998 54
34.556999 -3.9719999 4.4850001 55
34.581001 -4.02 4.5339999 15
34.755001 -4.086 4.6040001 2
34.841 -4.1420002 4.6620002 3
34.796001 -4.1830001 4.7020001 3
34.667999 -4.2140002 4.7309999 1
0 0 0 0
0 0 0 0
0 0 0 0
0 0 0 0
0 0 0 0
0 0 0 0
0 0 0 0
0 0 0 0
0 0 0 0
0 0 0 0
0 0 0 0
0 0 0 0
0 0 0 0
0 0 0 0
0 0 0 5
26.905001 -3.835 4.2080002 17
26.827 -3.858 4.2270002 24
26.768 -3.885 4.2490001 29
26.740999 -3.915 4.2750001 30
26.693001 -3.944 4.2979999 34
26.68 -3.9760001 4.3260002 38
26.646999 -4.0050001 4.3509998 39
26.622999 -4.0359998 4.3759999 42
26.6 -4.0669999 4.402 46
26.582001 -4.099 4.428 47
26.569 -4.1300001 4.4549999 51
26.570999 -4.165 4.4840002 53
26.559999 -4.197 4.5100002 55
26.549999 -4.2290001 4.5359998 55
26.545 -4.2620001 4.5630002 55
26.545 -4.296 4.5910001 54
26.556 -4.3319998 4.6199999 45
26.540001 -4.3629999 4.6440001 50
26.555 -4.3990002 4.6739998 49
26.577 -4.4359999 4.704 46
26.599001 -4.473 4.7340002 41
26.59 -4.5040002 4.7589998 40
26.615 -4.5419998 4.789 36
26.636999 -4.579 4.8189998 34
26.679001 -4.619 4.8509998 31
26.704 -4.6560001 4.881 26
26.756001 -4.6989999 4.915 21
26.848 -4.7480001 4.9569998 13
27.024 -4.8130002 5.0149999 1
0 0 0 25
34.502998 -6.2290001 6.4629998 26
34.360001 -6.2449999 6.467 26
34.210999 -6.2579999 6.4689999 24
34.082001 -6.276 6.474 25
33.991001 -6.3000002 6.4850001 25
33.870998 -6.3189998 6.4910002 26
33.778999 -6.3410001 6.5009999 25
33.625 -6.3520002 6.4990001 25
33.509998 -6.3699999 6.5040002 25
33.365002 -6.382 6.5019999 23
33.251999 -6.3990002 6.506 23
33.139999 -6.4159999 6.5110002 24
33.008999 -6.4289999 6.5110002 25
32.890999 -6.4439998 6.5120001 26
32.797001 -6.4619999 6.5170002 29
32.702 -6.4819999 6.5229998 27
32.595001 -6.4980001 6.5250001 27
32.507 -6.5170002 6.5320001 25
32.412998 -6.5349998 6.5359998 24
32.294998 -6.5469999 6.533 23
32.196999 -6.5630002 6.5359998 23
32.125999 -6.5840001 6.5440001 23
32.022999 -6.599 6.5440001 24
31.957001 -6.6199999 6.5510001 22
31.834999 -6.6300001 6.5469999 24
31.754999 -6.6479998 6.5500002 24
31.674 -6.665 6.553 23
31.577999 -6.6789999 6.553 22
31.503 -6.697 6.5560002 24
31.417 -6.711 6.5570002 25
31.351 -6.7290001 6.5619998 23
31.259001 -6.743 6.5599999 22
31.186001 -6.7589998 6.5619998 24
31.129 -6.7789998 6.5669999 27
31.049999 -6.7930002 6.5669999 25
30.98 -6.8099999 6.5679998 24
30.912001 -6.8260002 6.5710001 27
30.841 -6.8410001 6.5710001 29
30.792 -6.8610001 6.5760002 28
30.712999 -6.8740001 6.5739999 26
0 0 0 4
18.879 -4.2620001 4.059 17
18.844999 -4.2729998 4.0599999 18
18.791 -4.2779999 4.0570002 22
18.746 -4.2859998 4.0549998 25
18.719999 -4.2979999 4.0570002 28
18.702 -4.3109999 4.0609999 31
18.691999 -4.3260002 4.066 30
18.643 -4.3319998 4.0630002 32
18.622 -4.3439999 4.066 34
18.612 -4.3590002 4.0700002 35
18.591 -4.3699999 4.072 37
18.583 -4.3850002 4.0770001 40
18.556 -4.395 4.0770001 36
18.562 -4.4120002 4.085 44
18.551001 -4.4250002 4.0890002 43
18.539 -4.4390001 4.0910001 43
18.52 -4.4489999 4.092 45
18.514999 -4.4640002 4.0970001 46
18.513 -4.4780002 4.1009998 34
18.496 -4.4899998 4.1020002 49
18.487 -4.5019999 4.105 51
18.486 -4.5170002 4.1090002 50
18.476 -4.5279999 4.112 50
18.48 -4.5440001 4.1160002 55
18.471001 -4.5570002 4.118 53
18.462999 -4.5689998 4.1199999 56
18.451 -4.579 4.1209998 55
18.459999 -4.5960002 4.1259999 57
18.458 -4.6090002 4.1290002 57
18.451 -4.6209998 4.1300001 58
18.451 -4.6339998 4.1329999 36
18.433001 -4.6420002 4.132 53
18.434 -4.6550002 4.1339998 55
18.441999 -4.6700001 4.138 54
18.434 -4.6810002 4.138 51
18.438999 -4.6939998 4.1409998 55
18.427999 -4.704 4.1399999 52
18.434 -4.717 4.1430001 51
18.431 -4.7280002 4.1430001 50
18.431 -4.7399998 4.145 49
18.445999 -4.7550001 4.1490002 35
18.431 -4.763 4.1459999 47
18.445 -4.7779999 4.1500001 42
18.437 -4.7859998 4.1479998 42
18.43 -4.796 4.1459999 43
18.447001 -4.8109999 4.1500001 49
18.444 -4.8200002 4.1490002 33
18.415001 -4.823 4.1420002 44
18.451 -4.842 4.1500001 44
18.437 -4.848 4.145 45
18.451 -4.862 4.1469998 46
18.441999 -4.869 4.1440001 43
18.452999 -4.881 4.145 42
18.455999 -4.8909998 4.1440001 43
18.455 -4.9000001 4.1409998 41
18.459 -4.9089999 4.1399999 40
18.459999 -4.9180002 4.1389999 39
18.464001 -4.927 4.1370001 39
18.466 -4.9359999 4.1350002 38
18.48 -4.948 4.1350002 39
18.471001 -4.9530001 4.1300001 37
18.471001 -4.96 4.1269999 37
18.481001 -4.9699998 4.1259999 38
18.486 -4.9780002 4.1230001 34
18.488001 -4.9860001 4.1199999 34
18.49 -4.993 4.1170001 34
18.509001 -5.0050001 4.1170001 27
18.497999 -5.0079999 4.1100001 34
18.504999 -5.0159998 4.1069999 32
18.523001 -5.027 4.1059999 32
18.523001 -5.033 4.1020002 33
18.517 -5.0370002 4.0949998 33
18.545 -5.0500002 4.0960002 29
18.552999 -5.0570002 4.092 29
18.559999 -5.0640001 4.0879998 28
18.558001 -5.0679998 4.0819998 27
18.570999 -5.0760002 4.079 26
18.566 -5.079 4.072 26
18.582001 -5.0869999 4.0689998 25
18.587999 -5.0929999 4.0640001 25
18.594 -5.098 4.0580001 24
18.583 -5.098 4.0489998 23
18.603001 -5.1069999 4.046 23
18.605 -5.1110001 4.039 23
18.601999 -5.1129999 4.0310001 22
18.622 -5.1209998 4.0279999 20
18.618 -5.1220002 4.0190001 20
18.629999 -5.1279998 4.0139999 19
18.632999 -5.131 4.006 19
18.643 -5.1350002 4 19
18.648001 -5.138 3.993 18
18.641001 -5.138 3.983 18
18.649 -5.1409998 3.9760001 18
18.65 -5.1420002 3.967 18
18.645 -5.1420002 3.957 17
18.652 -5.1440001 3.9489999 17
18.659 -5.1459999 3.941 18
18.656 -5.145 3.931 17
18.655001 -5.145 3.9200001 18
18.653 -5.1440001 3.9100001 17
18.657 -5.145 3.901 17
18.657 -5.1440001 3.8900001 17
18.632999 -5.1360002 3.875 17
18.638 -5.1360002 3.865 18
18.634001 -5.1339998 3.8540001 18
18.629 -5.131 3.842 18
18.638 -5.131 3.832 19
18.635 -5.1279998 3.8199999 19
18.622 -5.1230001 3.8069999 21
18.625 -5.1209998 3.7950001 21
18.611 -5.1139998 3.7809999 21
18.605 -5.1100001 3.7679999 22
18.598 -5.105 3.7550001 23
18.601 -5.1020002 3.743 22
18.589001 -5.0949998 3.7290001 22
18.58 -5.0890002 3.714 22
18.577 -5.0840001 3.701 23
18.573 -5.079 3.687 25
18.556999 -5.0700002 3.671 25
18.563999 -5.0679998 3.6589999 26
18.551001 -5.059 3.6429999 26
18.554001 -5.0549998 3.631 27
18.535 -5.0450001 3.6129999 28
18.506001 -5.0310001 3.5940001 28
18.531 -5.0320001 3.586 29
18.507 -5.02 3.5669999 30
18.493 -5.0100002 3.55 29
18.486 -5.0019999 3.5350001 30
18.489 -4.9959998 3.5209999 31
18.483 -4.987 3.5050001 31
18.488001 -4.9819999 3.4920001 33
18.476999 -4.9720001 3.4749999 34
18.468 -4.9619999 3.4590001 25
18.445 -4.948 3.4400001 34
18.461 -4.9450002 3.428 35
18.451 -4.934 3.4100001 33
18.454 -4.927 3.3959999 39
18.441999 -4.915 3.378 37
18.451 -4.9089999 3.3640001 40
18.427 -4.8930001 3.3440001 36
18.438 -4.8870001 3.3299999 38
18.436001 -4.8779998 3.3150001 28
18.423 -4.8649998 3.296 40
18.431 -4.8569999 3.2820001 42
18.424 -4.8460002 3.2639999 29
18.426001 -4.836 3.2479999 45
18.406 -4.8200002 3.2279999 41
18.405001 -4.8099999 3.211 43
18.42 -4.803 3.198 44
18.4 -4.7870002 3.177 41
18.406 -4.777 3.161 45
18.405001 -4.7659998 3.1440001 42
18.403 -4.7529998 3.1259999 39
18.405001 -4.743 3.1099999 39
18.4 -4.73 3.0910001 48
18.4 -4.717 3.0739999 33
18.396999 -4.704 3.056 53
18.41 -4.6950002 3.0409999 34
18.406 -4.6810002 3.0220001 35
18.389999 -4.664 3.0020001 56
18.403 -4.6539998 2.9860001 58
18.402 -4.6399999 2.967 58
18.405001 -4.6269999 2.9489999 56
18.403 -4.6129999 2.931 56
18.406 -4.5999999 2.9130001 56
18.42 -4.5890002 2.8970001 40
18.393 -4.5679998 2.8740001 53
18.416 -4.559 2.859 56
18.419001 -4.5450001 2.8410001 58
18.431 -4.533 2.8239999 39
18.427 -4.5170002 2.8050001 60
18.434999 -4.5029998 2.7869999 62
18.437 -4.4889998 2.7690001 62
18.448 -4.4759998 2.7509999 56
18.448999 -4.46 2.7320001 57
18.459999 -4.4460001 2.714 37
18.474001 -4.4330001 2.697 48
18.466999 -4.415 2.6760001 47
18.487 -4.402 2.6600001 48
18.497 -4.388 2.641 50
18.517 -4.375 2.625 46
18.530001 -4.3610001 2.6070001 41
18.541 -4.3460002 2.5880001 41
18.542999 -4.329 2.569 41
18.565001 -4.316 2.552 36
18.603001 -4.3070002 2.5380001 27
18.584999 -4.2839999 2.5150001 31
18.624001 -4.2740002 2.5 31
18.642 -4.2589998 2.4809999 29
18.688999 -4.2509999 2.467 27
18.714001 -4.237 2.45 23
18.775999 -4.2319999 2.438 20
18.812 -4.2199998 2.4219999 17
18.885 -4.2160001 2.4100001 5
0 0 0 0
0 0 0 0
0 0 0 0
0 0 0 0
0 0 0 0
0 0 0 0
0 0 0 0
0 0 0 0
0 0 0 0
0 0 0 0
0 0 0 0
0 0 0 0
0 0 0 0
0 0 0 0
0 0 0 0
0 0 0 0
0 0 0 0
0 0 0 0
0 0 0 0
0 0 0 0
0 0 0 0
0 0 0 0
0 0 0 0
0 0 0 0
0 0 0 0
0 0 0 2
34.716999 -6.6230001 3.368 16
34.713001 -6.5760002 3.3269999 33
34.757999 -6.5370002 3.2909999 9
34.702 -6.48 3.2460001 5
34.734001 -6.4380002 3.2090001 12
34.710999 -6.3870001 3.168 20
34.706001 -6.3379998 3.1270001 37
34.691002 -6.2870002 3.0869999 48
34.675999 -6.2360001 3.0450001 49
34.655998 -6.184 3.003 52
34.644001 -6.1329999 2.9619999 50
0 0 0 3
26.709 -4.652 2.223 17
26.643999 -4.6020002 2.187 25
26.584999 -4.553 2.151 30
26.555 -4.5089998 2.118 35
26.525 -4.4650002 2.085 36
26.511999 -4.4239998 2.0539999 40
26.483999 -4.3800001 2.0209999 42
26.476999 -4.3390002 1.99 45
26.469 -4.2979999 1.96 45
26.471001 -4.2589998 1.9299999 42
26.455999 -4.2160001 1.899 54
26.436001 -4.1729999 1.867 57
26.468 -4.1370001 1.839 54
26.482 -4.098 1.8099999 53
26.485001 -4.0580001 1.78 48
26.525 -4.0219998 1.752 46
26.531 -3.9809999 1.723 42
26.559 -3.944 1.694 41
26.587999 -3.9059999 1.666 36
26.641001 -3.8710001 1.6390001 35
26.681 -3.835 1.612 31
26.743999 -3.8010001 1.586 25
26.826 -3.77 1.561 16
26.961 -3.7449999 1.539 1
0 0 0 15
34.738998 -4.7129998 1.906 20
34.740002 -4.6560001 1.867 17
34.483002 -4.5650001 1.8150001 86
34.486 -4.5079999 1.777 95
34.476002 -4.4499998 1.739 98
34.441002 -4.3870001 1.699 101
34.462002 -4.3319998 1.6619999 101
34.429001 -4.27 1.623 104
34.458 -4.2160001 1.587 101
34.453999 -4.1570001 1.549 93
34.424 -4.0949998 1.511 108
34.448002 -4.039 1.475 93
34.414001 -3.9760001 1.436 105
34.41 -3.9159999 1.399 100
34.419998 -3.858 1.362 80
34.408001 -3.7980001 1.326 97
34.388 -3.7360001 1.289 99
34.384998 -3.6760001 1.253 110
34.382999 -3.615 1.216 104
34.384998 -3.5550001 1.1799999 78
34.386002 -3.4949999 1.145 109
34.383999 -3.434 1.109 103
34.377998 -3.3740001 1.074 102
34.366001 -3.312 1.0369999 102
34.389 -3.2520001 1.003 96
34.669998 -3.217 0.97500002 8
35.094002 -3.194 0.95200002 8
35.540001 -3.1700001 0.92799997 8
35.978001 -3.1440001 0.90200001 8
36.402 -3.1159999 0.87699997 7
38.285999 -3.207 0.884 69
38.277 -3.1359999 0.84500003 53
38.277 -3.066 0.80699998 44
38.285 -2.9960001 0.76899999 17
38.810001 -2.9660001 0.741 2
39.377998 -2.937 0.713 3
39.903 -2.902 0.68400002 21
40.103001 -2.8429999 0.64899999 13
42.311001 -2.921 0.64399999 91
42.279999 -2.839 0.602 73
42.268002 -2.7590001 0.56199998 58
42.978001 -2.7249999 0.52999997 22
43.042999 -2.6489999 0.491 64
43.101002 -2.572 0.45100001 56
43.070999 -2.4879999 0.41 28
0 0 0 32
46.594002 -2.5150001 0.35699999 96
46.667 -2.4300001 0.31400001 75
46.870998 -2.3529999 0.273 22
47.59 -2.2980001 0.234 7
50.387001 -2.336 0.20200001 96
50.549999 -2.247 0.15800001 84
0 0 0 10
43.695 -1.773 0.057999998 3
0 0 0 130
57.400002 -2.1099999 -0.022 84
58.486 -2.0350001 -0.074000001 129
58.493999 -1.921 -0.126 118
58.527 -1.8099999 -0.175 55
58.918999 -1.707 -0.227 22
0 0 0 107
66.509003 -1.6670001 -0.368 150
66.524002 -1.538 -0.42399999 76
66.516998 -1.4069999 -0.479 70
66.850998 -1.285 -0.53600001 35
69.699997 -1.205 -0.61500001 63
71.938004 -1.104 -0.69199997 102
72.971001 -0.972 -0.76200002 34
0 0 0 0
0 0 0 0
0 0 0 0
0 0 0 112
133.549 -0.47 -1.915 55
0 0 0 0
0 0 0 0
0 0 0 0
0 0 0 0
0 0 0 0
0 0 0 0
0 0 0 0
0 0 0 13
38.868999 0.55900002 -0.81599998 18
38.703999 0.634 -0.83999997 149
38.609001 0.70899999 -0.86500001 63
38.479 0.78399998 -0.88800001 36
38.380001 0.85799998 -0.912 31
38.277 0.93199998 -0.93599999 36
38.173 1.0039999 -0.958 70
38.158001 1.08 -0.98299998 160
38.069 1.154 -1.006 59
38.009998 1.228 -1.029 79
38.028999 1.304 -1.054 81
38.027 1.38 -1.0779999 64
38.080002 1.4579999 -1.104 57
38.102001 1.536 -1.128 53
38.147999 1.614 -1.153 49
38.210999 1.694 -1.178 8
38.202999 1.77 -1.201 4
38.321999 1.851 -1.227 7
38.346001 1.929 -1.251 5
38.389999 2.0090001 -1.275 8
38.471001 2.0910001 -1.3 5
38.509998 2.1719999 -1.323 6
38.715 2.2609999 -1.352 10
38.75 2.3399999 -1.375 9
38.807999 2.4219999 -1.398 6
38.865002 2.503 -1.421 2
0 0 0 0
0 0 0 0
0 0 0 0
0 0 0 0
0 0 0 0
0 0 0 0
0 0 0 0
0 0 0 0
0 0 0 0
0 0 0 0
0 0 0 0
0 0 0 0
0 0 0 0
0 0 0 0
0 0 0 1
0 0 0 1
0 0 0 1
0 0 0 0
0 0 0 1
24.854 2.586 -1.14 1
0 0 0 2
0 0 0 0
0 0 0 0
0 0 0 1
0 0 0 0
0 0 0 1
0 0 0 0
0 0 0 0
0 0 0 2
18.589001 2.296 -0.92000002 1
0 0 0 0
0 0 0 1
18.679001 2.4159999 -0.94199997 2
18.473 2.425 -0.93699998 2
0 0 0 2
17.268999 2.3329999 -0.88599998 1
0 0 0 0
0 0 0 4
0 0 0 2
0 0 0 0
0 0 0 2
16.926001 2.4790001 -0.89600003 2
16.745001 2.483 -0.88999999 3
16.671 2.503 -0.88999999 3
16.695999 2.5380001 -0.89499998 4
16.461 2.533 -0.88599998 3
16.349001 2.5469999 -0.884 4
16.288 2.5669999 -0.884 4
16.197001 2.5829999 -0.88200003 3
16.059999 2.5910001 -0.87800002 3
16.191999 2.642 -0.88800001 5
15.918 2.6259999 -0.87599999 3
15.851 2.6440001 -0.875 3
15.818 2.6670001 -0.87599999 3
15.684 2.6730001 -0.87099999 3
15.731 2.71 -0.87599999 3
15.654 2.7249999 -0.87400001 5
15.581 2.74 -0.87199998 5
15.499 2.753 -0.87 4
15.42 2.767 -0.86699998 4
15.366 2.7850001 -0.866 4
15.316 2.802 -0.86500001 5
15.195 2.8069999 -0.86000001 4
15.157 2.8269999 -0.85900003 4
15.036 2.8310001 -0.85399997 2
15.098 2.869 -0.85900003 3
15.028 2.882 -0.85699999 3
14.838 2.8699999 -0.847 2
14.785 2.8859999 -0.84500003 2
14.754 2.905 -0.84399998 2
14.669 2.9130001 -0.83999997 2
14.632 2.931 -0.83899999 2
14.612 2.9519999 -0.83899999 2
14.575 2.9690001 -0.83700001 2
14.573 2.9920001 -0.838 3
14.553 3.013 -0.83700001 2
14.622 3.052 -0.84200001 3
14.662 3.0840001 -0.84399998 3
14.705 3.118 -0.847 5
14.681 3.1370001 -0.84600002 4
14.656 3.155 -0.84399998 5
14.628 3.1730001 -0.84299999 5
14.614 3.194 -0.84200001 6
14.65 3.2249999 -0.84399998 5
14.635 3.2449999 -0.84299999 5
14.569 3.253 -0.83899999 4
14.553 3.273 -0.838 4
14.452 3.273 -0.83099997 4
14.493 3.3050001 -0.833 3
14.476 3.323 -0.83099997 3
14.445 3.339 -0.829 3
14.515 3.3770001 -0.83200002 4
14.492 3.3940001 -0.82999998 4
14.415 3.3970001 -0.82499999 3
14.486 3.4360001 -0.82700002 4
14.466 3.4530001 -0.82499999 4
14.504 3.484 -0.82599998 4
14.511 3.507 -0.82599998 4
14.575 3.5439999 -0.82800001 4
14.554 3.5599999 -0.82599998 4
14.561 3.5829999 -0.824 4
14.595 3.6129999 -0.82499999 4
14.626 3.641 -0.82499999 4
14.67 3.6730001 -0.82599998 4
14.649 3.688 -0.82300001 4
14.682 3.717 -0.82300001 4
14.745 3.753 -0.824 4
14.757 3.777 -0.82300001 4
14.849 3.8210001 -0.82599998 4
14.906 3.855 -0.82800001 4
14.985 3.8959999 -0.82999998 4
15.024 3.9260001 -0.82999998 5
15.064 3.9560001 -0.82999998 4
15.119 3.9909999 -0.82999998 5
15.163 4.0219998 -0.82999998 5
15.216 4.0560002 -0.82999998 5
15.255 4.086 -0.82999998 5
15.293 4.1160002 -0.829 5
15.277 4.131 -0.82599998 5
15.291 4.1539998 -0.824 4
0 0 0 1
12.404 3.4000001 -0.66299999 1
12.421 3.4200001 -0.662 1
12.408 3.4319999 -0.65799999 1
12.418 3.45 -0.65700001 1
12.188 3.4000001 -0.64200002 1
12.007 3.3640001 -0.62900001 1
11.876 3.3410001 -0.62 1
11.864 3.3510001 -0.61699998 1
0 0 0 0
0 0 0 0
0 0 0 0
0 0 0 1
9.3540001 2.694 -0.47600001 1
9.2980003 2.688 -0.47 1
9.2749996 2.691 -0.46700001 1
9.2370005 2.6900001 -0.463 1
9.2030001 2.6900001 -0.45899999 1
9.1890001 2.6949999 -0.456 2
9.1920004 2.7049999 -0.45300001 2
9.29 2.743 -0.456 2
9.2539997 2.7420001 -0.45199999 2
9.1669998 2.7249999 -0.44499999 2
9.2930002 2.7720001 -0.44800001 1
9.2690001 2.7739999 -0.44400001 1
9.2200003 2.767 -0.44 1
9.309 2.803 -0.44100001 1
9.4110003 2.842 -0.44400001 1
9.3990002 2.8469999 -0.44 1
9.2790003 2.819 -0.43200001 1
9.2390003 2.8150001 -0.42699999 1
9.2600002 2.8299999 -0.42500001 1
9.1450005 2.802 -0.417 1
8.9350004 2.7449999 -0.405 7
8.8339996 2.7219999 -0.398 14
8.8290005 2.727 -0.39500001 26
8.8330002 2.7360001 -0.39199999 30
8.8260002 2.74 -0.389 26
8.8240004 2.747 -0.38600001 19
8.8190002 2.7520001 -0.38299999 10
8.835 2.7639999 -0.38100001 4
8.823 2.766 -0.37799999 3
8.8109999 2.7690001 -0.37400001 3
8.802 2.7720001 -0.37099999 3
8.7919998 2.7750001 -0.368 4
8.8039999 2.7850001 -0.36500001 5
8.8070002 2.7920001 -0.36199999 6
8.802 2.796 -0.359 5
8.8079996 2.803 -0.35600001 5
8.8100004 2.809 -0.35299999 5
8.823 2.819 -0.35100001 6
8.8100004 2.8199999 -0.347 10
8.8079996 2.825 -0.34400001 19
8.8059998 2.829 -0.34099999 23
8.8039999 2.8329999 -0.338 19
8.8120003 2.8410001 -0.33500001 19
8.8079996 2.8440001 -0.33199999 13
8.7989998 2.846 -0.32800001 8
8.8050003 2.852 -0.32499999 5
8.8039999 2.8559999 -0.322 6
8.8039999 2.8599999 -0.31900001 5
8.7849998 2.858 -0.315 5
8.776 2.859 -0.31099999 4
8.7449999 2.8529999 -0.30700001 3
8.7379999 2.8540001 -0.303 3
8.7019997 2.846 -0.29899999 2
8.698 2.848 -0.29499999 2
8.6700001 2.842 -0.29100001 2
8.6599998 2.842 -0.287 3
8.6560001 2.8429999 -0.28400001 3
8.6499996 2.845 -0.28 3
8.6370001 2.8429999 -0.27599999 3
8.6470003 2.849 -0.27399999 3
8.6280003 2.845 -0.27000001 4
8.6300001 2.848 -0.26699999 4
8.6149998 2.845 -0.26300001 4
8.6059999 2.8440001 -0.259 4
8.6040001 2.846 -0.255 4
8.6169996 2.852 -0.25299999 5
8.6049995 2.8499999 -0.249 5
8.6059999 2.852 -0.245 5
8.6070004 2.8540001 -0.242 5
8.599 2.852 -0.23800001 5
8.5930004 2.8510001 -0.235 5
8.6000004 2.855 -0.23100001 5
8.5860004 2.8510001 -0.228 5
8.5970001 2.8559999 -0.22400001 5
8.5939999 2.855 -0.221 5
8.5950003 2.8570001 -0.21799999 5
8.5979996 2.858 -0.214 5
8.5909996 2.8559999 -0.20999999 5
8.5900002 2.8559999 -0.207 5
8.5939999 2.8570001 -0.204 5
8.5950003 2.858 -0.2 5
8.5860004 2.855 -0.197 5
8.5939999 2.8570001 -0.193 5
8.6020002 2.859 -0.19 5
8.5900002 2.855 -0.186 5
8.5950003 2.8559999 -0.183 5
8.5939999 2.855 -0.17900001 5
8.5900002 2.8529999 -0.176 5
8.6000004 2.855 -0.17200001 5
8.599 2.8529999 -0.169 5
8.6040001 2.8540001 -0.16500001 4
8.6079998 2.8540001 -0.162 4
8.5950003 2.848 -0.15800001 4
8.6079998 2.8510001 -0.155 4
8.6009998 2.8469999 -0.15099999 4
8.6099997 2.8469999 -0.148 4
8.6169996 2.848 -0.14399999 4
8.6169996 2.846 -0.141 4
8.6079998 2.8399999 -0.13699999 4
8.6190004 2.842 -0.134 4
8.6269999 2.842 -0.13 4
8.6230001 2.8380001 -0.127 4
8.6350002 2.839 -0.124 4
8.6350002 2.836 -0.12 4
8.6309996 2.832 -0.116 4
8.6230001 2.826 -0.113 4
8.6429996 2.8299999 -0.109 4
8.6309996 2.822 -0.106 3
8.6520004 2.826 -0.103 3
8.6429996 2.819 -0.098999999 3
8.6590004 2.8210001 -0.096000001 3
8.6660004 2.819 -0.092 3
8.6730003 2.8169999 -0.089000002 3
8.6689997 2.812 -0.085000001 3
8.6759996 2.8099999 -0.082000002 3
8.7019997 2.8139999 -0.079000004 3
8.6899996 2.806 -0.075000003 3
8.6960001 2.803 -0.071999997 2
8.6969995 2.7980001 -0.068000004 2
8.7159996 2.799 -0.064999998 2
8.7089996 2.793 -0.061000001 2
8.7270002 2.793 -0.057999998 2
8.7290001 2.7880001 -0.055 2
8.7370005 2.786 -0.050999999 1
8.757 2.786 -0.048 1
8.7819996 2.789 -0.045000002 1
8.7819996 2.783 -0.041000001 1
8.8109999 2.786 -0.037999999 1
8.8039999 2.7780001 -0.035 1
8.823 2.7780001 -0.030999999 2
8.8070002 2.767 -0.028000001 10
8.8009996 2.7579999 -0.024 23
8.809 2.7539999 -0.021 36
8.8050003 2.7460001 -0.017999999 41
8.8000002 2.7379999 -0.014 29
8.8070002 2.733 -0.011 19
8.8269997 2.733 -0.0080000004 8
8.849 2.7320001 -0.0040000002 2
8.875 2.733 -0.001 1
8.9060001 2.7349999 0.001 1
8.9180002 2.7309999 0.0040000002 1
8.9469995 2.733 0.0080000004 1
8.9569998 2.7279999 0.011 2
8.9879999 2.7290001 0.014 3
9.0019999 2.7249999 0.017999999 3
9.0190001 2.7219999 0.021 4
9.0389996 2.72 0.024 4
9.0509996 2.7149999 0.027000001 5
9.085 2.717 0.029999999 6
9.0939999 2.71 0.034000002 9
9.1160002 2.7079999 0.037 12
9.1350002 2.7049999 0.039999999 18
9.2329998 2.724 0.044 151
9.2489996 2.72 0.046999998 152
9.2200003 2.7019999 0.050000001 128
9.2360001 2.697 0.052999999 25
9.2530003 2.6919999 0.056000002 14
9.2770004 2.6889999 0.059 17
9.3559999 2.7019999 0.063000001 3
0 0 0 0
0 0 0 1
11.305 3.2279999 0.086999997 1
11.332 3.2219999 0.090999998 1
11.402 3.23 0.094999999 1
11.452 3.23 0.098999999 1
11.481 3.2249999 0.102 1
11.51 3.22 0.107 1
11.566 3.2219999 0.111 1
11.471 3.1819999 0.113 1
11.602 3.204 0.118 1
0 0 0 6
41.233002 11.287 0.442 47
41.236 11.237 0.454 67
0 0 0 8
36.188999 9.7700005 0.419 21
36.308998 9.757 0.43000001 12
36.222 9.6870003 0.43900001 7
36.154999 9.6219997 0.44800001 27
36.299999 9.6140003 0.45899999 13
0 0 0 0
0 0 0 10
74.383003 19.403999 0.99699998 21
74.393997 19.306999 1.0140001 26
74.260002 19.171 1.031 23
74.287003 19.075001 1.049 14
0 0 0 21
45.238998 11.49 0.66000003 46
45.223999 11.424 0.67000002 77
45.257 11.368 0.68000001 59
45.354 11.328 0.69300002 18
0 0 0 0
0 0 0 0
0 0 0 0
0 0 0 0
0 0 0 22
66.292 15.978 1.0930001 27
66.095001 15.831 1.103 33
0 0 0 4
49.785 11.773 0.84899998 42
49.830002 11.708 0.85900003 7
0 0 0 30
67.175003 15.577 1.1799999 35
67.296997 15.501 1.193 25
67.316002 15.4 1.205 35
67.253998 15.279 1.214 35
0 0 0 24
53.578999 12.003 0.98199999 44
0 0 0 21
46.411999 10.248 0.86400002 9
46.254002 10.139 0.86699998 23
46.414001 10.098 0.87599999 8
46.431999 10.027 0.88099998 45
46.439999 9.9519997 0.88599998 53
46.433998 9.8739996 0.89099997 56
46.445 9.7989998 0.89700001 66
0 0 0 3
36.540001 7.5879998 0.71200001 11
36.650002 7.5479999 0.71700001 17
36.606998 7.4770002 0.72000003 22
36.395 7.3720002 0.71799999 28
36.254002 7.2810001 0.71799999 23
36.32 7.2319999 0.722 26
36.379002 7.1810002 0.72500002 24
36.345001 7.1110001 0.727 23
36.366001 7.053 0.72899997 14
0 0 0 7
50.887001 9.6899996 1.024 7
0 0 0 8
56.317001 10.525 1.137 45
56.277 10.416 1.136 55
0 0 0 14
50.487999 9.1639996 1.021 24
0 0 0 4
0 0 0 0
0 0 0 25
54.841 9.5579996 1.108 18
54.700001 9.4329996 1.104 16
52.432999 8.9460001 1.057 4
52.638 8.8859997 1.059 6
54.022999 9.0200005 1.084 30
53.958 8.9090004 1.081 30
53.966 8.8129997 1.079 23
54.104 8.7340002 1.079 26
54.077999 8.6269999 1.074 33
0 0 0 3
0 0 0 26
54.698002 8.4169998 1.074 21
54.398998 8.2679996 1.063 17
0 0 0 0
0 0 0 25
68.116997 9.967 1.311 22
0 0 0 0
0 0 0 0
0 0 0 10
0 0 0 0
0 0 0 11
0 0 0 0
0 0 0 16
0 0 0 0
0 0 0 35
116.132 14.753 2.0680001 38
0 0 0 0
0 0 0 19
74.93 9.0790005 1.291 30
75.151001 8.9569998 1.28 12
0 0 0 19
0 0 0 13
0 0 0 21
0 0 0 10
0 0 0 0
0 0 0 14
76.412003 8.0450001 1.1799999 27
0 0 0 36
0 0 0 11
0 0 0 0
0 0 0 15
0 0 0 41
0 0 0 0
0 0 0 9
0 0 0 0
0 0 0 0
0 0 0 0
0 0 0 0
0 0 0 0
0 0 0 0
0 0 0 0
0 0 0 0
0 0 0 0
0 0 0 12
0 0 0 0
0 0 0 0
0 0 0 0
0 0 0 0
0 0 0 14
86.829002 5.0949998 0.67400002 14
86.897003 4.9200001 0.63800001 24
87.408997 4.77 0.60399997 14
0 0 0 0
0 0 0 19
0 0 0 0
0 0 0 0
0 0 0 20
87.356003 3.6930001 0.36700001 22
87.191002 3.507 0.32499999 14
0 0 0 0
0 0 0 0
0 0 0 20
0 0 0 0
0 0 0 35
0 0 0 46
133.061 3.4360001 0.026000001 59
133.026 3.165 -0.043000001 59
133.052 2.892 -0.115 75
133.09599 2.619 -0.18799999 82
133.17799 2.346 -0.26199999 95
133.189 2.072 -0.33700001 91
133.254 1.799 -0.41299999 94
133.209 1.528 -0.48800001 86
133.22501 1.255 -0.56599998 68
133.237 0.98100001 -0.64499998 60
133.261 0.71100003 -0.72299999 40
133.31599 0.43799999 -0.80400002 32
0 0 0 0
0 0 0 0
0 0 0 0
0 0 0 105
0 0 0 0
0 0 0 0
0 0 0 0
0 0 0 37
71.901001 -1.084 -0.84500003 121
69.688004 -1.191 -0.866 121
66.500999 -1.272 -0.87099999 8
66.490997 -1.405 -0.91600001 72
66.517998 -1.5420001 -0.963 107
66.477997 -1.676 -1.0089999 54
66.529999 -1.812 -1.056 43
0 0 0 15
43.814999 -1.369 -0.75700003 19
43.818001 -1.457 -0.78899997 21
43.743 -1.543 -0.81999999 32
43.609001 -1.626 -0.84899998 39
43.214001 -1.698 -0.87400001 38
42.984001 -1.775 -0.90100002 38
0 0 0 18
39.976002 -1.811 -0.89899999 39
0 0 0 66
30.708 -1.5140001 -0.73799998 153
30.702 -1.575 -0.76200002 87
0 0 0 10
38.473999 -2.1259999 -1.015 8
38.702 -2.2130001 -1.051 17
0 0 0 0
0 0 0 2
0 0 0 0
0 0 0 152
26.052 -1.7460001 -0.81400001 189
26.089001 -1.799 -0.83600003 163
26.097 -1.851 -0.85900003 165
26.1 -1.903 -0.88099998 35
0 0 0 3
38.210999 -2.934 -1.355 19
38.209999 -3.0090001 -1.388 32
0 0 0 5
21.753 -1.796 -0.82800001 5
21.363001 -1.8049999 -0.83200002 3
21.325001 -1.8430001 -0.84899998 4
21.285 -1.88 -0.866 3
21.266001 -1.918 -0.884 4
21.311001 -1.9630001 -0.90499997 3
21.665001 -2.036 -0.94 2
0 0 0 1
18.757999 -1.834 -0.84799999 3
18.722 -1.865 -0.86299998 3
18.722 -1.901 -0.88 3
18.688999 -1.932 -0.89600003 4
18.714001 -1.97 -0.91500002 3
18.705 -2.003 -0.93199998 3
18.816999 -2.05 -0.95499998 5
18.982 -2.1029999 -0.98100001 5
19.205999 -2.1630001 -1.011 5
0 0 0 0
0 0 0 1
18.389999 -2.1719999 -1.021 1
17.736 -2.1270001 -1.001 2
16.805 -2.0450001 -0.96499997 2
16.389999 -2.0250001 -0.95700002 3
15.998 -2.0050001 -0.94999999 4
15.812 -2.01 -0.954 5
15.975 -2.059 -0.98000002 5
15.715 -2.053 -0.97899997 4
15.385 -2.0369999 -0.97399998 5
15.045 -2.0179999 -0.96700001 4
14.614 -1.9859999 -0.954 3
14.226 -1.9579999 -0.94300002 3
13.835 -1.928 -0.93099999 3
13.444 -1.897 -0.91799998 3
13.127 -1.875 -0.90899998 3
12.808 -1.851 -0.89999998 3
12.515 -1.83 -0.89200002 3
12.245 -1.812 -0.88499999 3
11.962 -1.79 -0.87699997 3
11.725 -1.774 -0.87199998 2
11.458 -1.753 -0.86299998 2
11.215 -1.734 -0.85699999 2
10.984 -1.717 -0.85000002 3
10.802 -1.706 -0.84799999 3
10.598 -1.692 -0.84200001 3
10.377 -1.673 -0.83600003 3
10.151 -1.654 -0.82800001 2
9.9300003 -1.6339999 -0.81999999 2
9.7279997 -1.6160001 -0.81400001 2
9.5220003 -1.597 -0.80599999 3
9.3599997 -1.585 -0.80199999 3
9.1969995 -1.572 -0.79799998 3
9.0419998 -1.5599999 -0.79400003 4
8.8649998 -1.543 -0.78799999 4
8.7060003 -1.529 -0.78299999 4
8.5509996 -1.516 -0.778 4
8.4230003 -1.506 -0.77499998 3
8.2819996 -1.493 -0.77100003 4
8.1110001 -1.475 -0.764 4
7.9650002 -1.461 -0.759 4
7.8309999 -1.448 -0.75400001 4
7.7069998 -1.437 -0.75 4
7.5749998 -1.423 -0.745 4
7.46 -1.413 -0.74199998 4
7.3150001 -1.397 -0.73500001 3
7.1999998 -1.385 -0.73199999 3
7.1030002 -1.377 -0.72899997 3
6.9770002 -1.363 -0.72399998 4
6.8730001 -1.352 -0.72000003 4
6.7719998 -1.342 -0.71700001 4
6.671 -1.332 -0.713 4
6.5929999 -1.326 -0.71200001 5
6.48 -1.312 -0.70700002 4
6.4050002 -1.306 -0.70499998 4
6.3150001 -1.296 -0.70200002 5
6.217 -1.284 -0.69800001 5
6.145 -1.278 -0.69599998 6
6.0700002 -1.271 -0.69400001 5
6.0190001 -1.268 -0.69499999 4
5.9260001 -1.257 -0.69099998 4
5.8460002 -1.247 -0.68800002 4
5.77 -1.239 -0.685 3
5.6989999 -1.2309999 -0.68199998 3
5.6490002 -1.228 -0.68199998 3
5.5679998 -1.217 -0.67900002 3
5.4899998 -1.207 -0.67500001 3
5.4380002 -1.2029999 -0.67400002 3
5.3610001 -1.193 -0.67000002 3
5.3099999 -1.188 -0.67000002 3
5.2480001 -1.181 -0.66799998 3
5.2010002 -1.177 -0.667 3
5.1399999 -1.169 -0.66500002 3
5.0739999 -1.16 -0.66100001 3
5.0139999 -1.153 -0.65899998 3
4.9720001 -1.149 -0.65899998 3
4.928 -1.145 -0.65799999 2
4.862 -1.135 -0.65399998 2
4.8150001 -1.13 -0.653 3
4.7659998 -1.124 -0.65100002 3
4.7199998 -1.119 -0.64999998 2
4.6690001 -1.112 -0.648 2
4.6290002 -1.107 -0.64700001 2
4.5879998 -1.102 -0.64600003 2
4.5289998 -1.0930001 -0.64200002 4
4.4990001 -1.091 -0.64300001 2
4.4400001 -1.081 -0.639 3
4.3920002 -1.075 -0.63599998 3
4.3670001 -1.073 -0.63700002 2
4.3270001 -1.068 -0.63599998 2
4.2589998 -1.056 -0.63 2
4.2329998 -1.053 -0.63099998 2
4.2189999 -1.054 -0.63300002 3
4.1599998 -1.044 -0.62800002 2
4.1069999 -1.034 -0.62400001 2
4.0710001 -1.029 -0.62300003 2
4.0489998 -1.028 -0.62400001 3
4.0180001 -1.024 -0.62300003 2
4.006 -1.025 -0.625 2
3.957 -1.016 -0.62099999 2
3.9430001 -1.016 -0.62300003 2
3.8900001 -1.006 -0.61799997 3
3.9000001 -1.012 -0.62400001 3
3.855 -1.0039999 -0.62 3
3.878 -1.013 -0.62800002 3
3.816 -1 -0.62099999 2
3.79 -0.99599999 -0.62099999 3
3.8150001 -1.006 -0.62800002 3
3.7019999 -0.98000002 -0.61299998 3
3.691 -0.98000002 -0.61500001 3
3.6210001 -0.96399999 -0.60699999 1
3.641 -0.972 -0.61400002 3
3.5869999 -0.96100003 -0.60799998 1
3.6059999 -0.96899998 -0.61400002 3
3.536 -0.95200002 -0.60600001 1
3.5710001 -0.96499997 -0.61500001 3
3.562 -0.96499997 -0.61699998 3
3.5239999 -0.95700002 -0.61299998 3
3.4960001 -0.95200002 -0.611 2
3.408 -0.93099999 -0.59899998 1
3.474 -0.95099998 -0.61400002 3
3.404 -0.93400002 -0.60399997 2
3.3369999 -0.91799998 -0.59600002 1
3.381 -0.93199998 -0.60600001 2
3.3659999 -0.93000001 -0.60699999 2
3.3570001 -0.93000001 -0.60799998 2
3.3559999 -0.93199998 -0.611 2
3.3210001 -0.92400002 -0.60699999 1
3.3269999 -0.92799997 -0.611 1
3.2750001 -0.91500002 -0.60399997 1
3.286 -0.92000002 -0.60900003 1
3.2679999 -0.917 -0.60799998 1
3.24 -0.91100001 -0.60600001 1
3.244 -0.91399997 -0.60900003 2
3.2360001 -0.91299999 -0.61000001 1
3.207 -0.90700001 -0.60699999 2
3.178 -0.89999998 -0.60500002 1
3.1600001 -0.89700001 -0.60399997 2
3.096 -0.88 -0.59399998 2
3.2060001 -0.91299999 -0.61699998 2
3.1700001 -0.90399998 -0.61299998 2
3.098 -0.88499999 -0.60100001 1
3.175 -0.90899998 -0.61900002 1
3.0409999 -0.87099999 -0.59500003 1
3.0350001 -0.87099999 -0.59600002 1
2.99 -0.85900003 -0.58899999 1
3.0280001 -0.87099999 -0.59899998 1
3 -0.86400002 -0.59600002 1
2.9519999 -0.852 -0.588 1
2.9990001 -0.866 -0.60000002 1
3.0179999 -0.87300003 -0.60600001 2
3.0079999 -0.87099999 -0.60600001 1
2.938 -0.852 -0.59399998 1
3.0039999 -0.87099999 -0.60900003 1
2.961 -0.86000001 -0.602 2
2.964 -0.86199999 -0.60500002 2
2.9289999 -0.852 -0.60000002 2
2.9779999 -0.86699998 -0.61199999 2
2.921 -0.85100001 -0.602 1
2.858 -0.83399999 -0.59100002 1
2.8080001 -0.81900001 -0.58200002 1
2.793 -0.81599998 -0.58099997 2
2.7880001 -0.815 -0.58200002 2
2.7780001 -0.81199998 -0.58099997 2
2.767 -0.81 -0.58099997 1
2.747 -0.80400002 -0.57800001 2
2.753 -0.80699998 -0.58099997 2
2.734 -0.801 -0.57800001 2
2.7349999 -0.80199999 -0.57999998 2
2.72 -0.79799998 -0.579 2
2.7179999 -0.79699999 -0.57999998 2
2.7119999 -0.796 -0.57999998 2
2.6949999 -0.79100001 -0.57800001 2
2.6949999 -0.79100001 -0.579 2
2.684 -0.78799999 -0.57800001 2
2.677 -0.78600001 -0.57800001 2
2.6700001 -0.78399998 -0.57800001 2
2.6630001 -0.78200001 -0.57800001 2
2.6559999 -0.77999997 -0.57700002 2
2.6530001 -0.77899998 -0.57800001 2
2.641 -0.77499998 -0.57700002 2
2.638 -0.77399999 -0.57700002 2
2.6229999 -0.76999998 -0.57499999 2
2.6140001 -0.76700002 -0.574 2
2.6110001 -0.76599997 -0.57499999 2
2.6070001 -0.76499999 -0.57499999 2
2.598 -0.76200002 -0.574 2
2.5969999 -0.76099998 -0.57499999 2
2.596 -0.75999999 -0.57599998 2
2.5840001 -0.75700003 -0.574 2
2.5799999 -0.755 -0.574 2
2.5739999 -0.75300002 -0.574 2
2.5669999 -0.75 -0.57300001 2
2.5639999 -0.74900001 -0.574 2
2.5550001 -0.74599999 -0.57200003 2
2.5569999 -0.74599999 -0.574 2
2.5469999 -0.74199998 -0.57200003 2
2.543 -0.741 -0.57200003 2
2.543 -0.74000001 -0.57300001 2
2.5350001 -0.73699999 -0.57200003 2
2.536 -0.73699999 -0.57300001 2
2.5220001 -0.73199999 -0.56999999 2
2.5220001 -0.73100001 -0.57099998 2
2.5179999 -0.72899997 -0.57099998 2
2.513 -0.727 -0.56999999 2
2.51 -0.72500002 -0.56999999 2
2.5120001 -0.72500002 -0.57200003 2
2.507 -0.72299999 -0.57099998 2
2.4990001 -0.71899998 -0.56999999 2
2.494 -0.71700001 -0.56900001 2
2.5 -0.71799999 -0.57099998 2
2.4909999 -0.71399999 -0.56900001 2
2.497 -0.71499997 -0.57099998 2
2.4909999 -0.71200001 -0.56999999 2
2.483 -0.70899999 -0.56900001 2
2.483 -0.708 -0.56900001 2
2.4749999 -0.704 -0.56800002 2
2.484 -0.70599997 -0.56999999 2
2.4790001 -0.70300001 -0.56900001 2
2.48 -0.70200002 -0.56999999 2
2.4809999 -0.70099998 -0.56999999 2
2.477 -0.699 -0.56999999 2
2.4719999 -0.69599998 -0.56900001 2
2.471 -0.69499999 -0.56900001 2
2.473 -0.69400001 -0.56900001 2
2.473 -0.69199997 -0.56900001 2
2.4690001 -0.69 -0.56900001 2
2.4679999 -0.68800002 -0.56800002 2
2.4719999 -0.68800002 -0.56900001 2
2.47 -0.68599999 -0.56900001 2
2.47 -0.68400002 -0.56900001 2
2.4679999 -0.68199998 -0.56800002 2
2.4690001 -0.68099999 -0.56900001 2
2.4749999 -0.68099999 -0.56999999 2
2.4749999 -0.67900002 -0.56999999 2
2.4760001 -0.67799997 -0.56999999 2
2.471 -0.67500001 -0.56900001 2
2.474 -0.67400002 -0.56900001 2
2.474 -0.67199999 -0.56900001 2
2.477 -0.671 -0.56999999 2
2.4779999 -0.67000002 -0.56900001 2
2.4749999 -0.667 -0.56800002 2
2.4809999 -0.667 -0.56999999 2
2.48 -0.66500002 -0.56900001 2
2.477 -0.662 -0.56800002 2
2.49 -0.66399997 -0.57099998 2
2.4860001 -0.66100001 -0.56900001 2
2.483 -0.65799999 -0.56800002 2
2.4849999 -0.65700001 -0.56800002 2
2.4879999 -0.65499997 -0.56900001 2
2.503 -0.65700001 -0.57200003 2
2.497 -0.65399998 -0.56999999 2
2.4990001 -0.65200001 -0.56999999 2
2.503 -0.65100002 -0.56999999 2
2.507 -0.64999998 -0.56999999 2
2.5109999 -0.64899999 -0.57099998 2
2.5109999 -0.64700001 -0.56999999 2
2.516 -0.64600003 -0.56999999 2
2.517 -0.64399999 -0.56999999 2
2.5190001 -0.64200002 -0.56999999 2
2.523 -0.63999999 -0.56999999 2
2.5369999 -0.64200002 -0.57200003 2
2.5339999 -0.639 -0.57099998 2
2.5409999 -0.63800001 -0.57099998 2
2.5409999 -0.63499999 -0.57099998 2
2.546 -0.634 -0.57099998 2
2.552 -0.634 -0.57099998 2
2.559 -0.63300002 -0.57200003 2
2.5610001 -0.63099998 -0.57099998 2
2.5639999 -0.62900001 -0.57099998 2
2.5680001 -0.62699997 -0.57099998 2
2.576 -0.62699997 -0.57200003 2
2.582 -0.625 -0.57200003 2
2.5940001 -0.62599999 -0.574 2
2.5910001 -0.62199998 -0.57200003 2
2.599 -0.62199998 -0.57300001 2
2.609 -0.62099999 -0.57300001 2
2.6159999 -0.62 -0.574 2
2.6140001 -0.61699998 -0.57200003 2
2.6259999 -0.61699998 -0.574 2
2.6359999 -0.616 -0.574 2
2.641 -0.61500001 -0.574 2
2.6530001 -0.61500001 -0.57499999 2
2.651 -0.611 -0.574 2
2.6570001 -0.61000001 -0.57300001 2
2.6670001 -0.60900003 -0.574 2
2.675 -0.60799998 -0.574 2
2.6789999 -0.60600001 -0.574 2
2.6960001 -0.60600001 -0.57599998 2
2.701 -0.60500002 -0.57599998 2
2.7090001 -0.60299999 -0.57499999 2
2.7279999 -0.60399997 -0.57800001 2
2.727 -0.60100001 -0.57599998 2
2.7379999 -0.60000002 -0.57700002 2
2.7509999 -0.60000002 -0.57800001 2
2.7579999 -0.59799999 -0.57700002 2
2.766 -0.59600002 -0.57700002 2
2.773 -0.59500003 -0.57700002 2
2.7839999 -0.59299999 -0.57700002 2
2.806 -0.59500003 -0.57999998 2
2.8099999 -0.59200001 -0.579 2
2.819 -0.59100002 -0.579 2
2.8340001 -0.58999997 -0.57999998 2
2.846 -0.58899999 -0.57999998 2
2.852 -0.58700001 -0.579 2
0 0 0 2
3.0539999 -0.62099999 -0.616 2
3.046 -0.616 -0.61199999 2
3.0120001 -0.60500002 -0.60299999 2
2.9679999 -0.59200001 -0.59200001 2
2.984 -0.59200001 -0.59299999 2
3.0339999 -0.59799999 -0.60000002 2
3.0639999 -0.60000002 -0.60399997 2
3.1229999 -0.60699999 -0.61299998 2
3.1010001 -0.59899998 -0.60600001 2
3.171 -0.60799998 -0.61699998 2
3.1340001 -0.597 -0.60699999 2
3.05 -0.57700002 -0.588 2
3.0580001 -0.57499999 -0.58700001 1
3.1570001 -0.58899999 -0.60299999 2
3.207 -0.59399998 -0.61000001 2
3.2490001 -0.59799999 -0.61500001 2
3.2290001 -0.58999997 -0.60799998 2
3.1860001 -0.57800001 -0.597 1
3.2149999 -0.579 -0.60000002 2
3.3510001 -0.59899998 -0.62199998 2
3.352 -0.59399998 -0.61900002 2
3.214 -0.565 -0.58999997 1
3.312 -0.57800001 -0.60500002 2
3.296 -0.57099998 -0.59899998 1
3.3840001 -0.58099997 -0.61199999 2
3.405 -0.58099997 -0.61199999 2
3.424 -0.579 -0.61199999 2
3.3889999 -0.56800002 -0.60299999 2
3.4070001 -0.56699997 -0.602 1
3.4130001 -0.56300002 -0.60000002 1
3.4619999 -0.56599998 -0.60500002 1
3.4960001 -0.56699997 -0.60699999 2
3.4860001 -0.56 -0.602 1
3.53 -0.56300002 -0.60600001 1
3.549 -0.56099999 -0.60500002 3
3.559 -0.55699998 -0.60299999 1
3.575 -0.55500001 -0.602 2
3.6070001 -0.55500001 -0.60299999 1
3.6370001 -0.55400002 -0.60399997 2
3.724 -0.56199998 -0.61500001 3
3.714 -0.55599999 -0.60900003 1
3.773 -0.55900002 -0.61400002 2
3.8369999 -0.56300002 -0.62 3
3.816 -0.55500001 -0.61199999 2
3.8670001 -0.55699998 -0.616 2
3.881 -0.55299997 -0.61400002 1
3.8970001 -0.55000001 -0.61199999 1
3.9300001 -0.54900002 -0.61199999 1
3.973 -0.55000001 -0.61400002 1
4.0159998 -0.55000001 -0.616 1
4.0770001 -0.55199999 -0.62099999 2
4.1100001 -0.551 -0.62099999 2
4.1420002 -0.54900002 -0.62 1
4.1719999 -0.54699999 -0.62 2
4.2379999 -0.55000001 -0.62400001 1
4.2950001 -0.551 -0.62699997 2
4.3629999 -0.55400002 -0.63200003 2
4.395 -0.55199999 -0.63099998 3
4.4369998 -0.551 -0.63099998 3
4.5040002 -0.55199999 -0.63499999 2
4.5650001 -0.55299997 -0.63700002 2
4.618 -0.55299997 -0.639 3
4.6719999 -0.55299997 -0.63999999 2
4.7210002 -0.55199999 -0.64099997 4
4.7969999 -0.55400002 -0.64499998 2
4.862 -0.55500001 -0.64700001 2
4.915 -0.55400002 -0.64700001 2
4.994 -0.55599999 -0.65100002 2
5.0679998 -0.55699998 -0.65399998 2
5.1259999 -0.55599999 -0.65399998 4
5.2030001 -0.55699998 -0.65700001 3
5.2750001 -0.55699998 -0.65899998 3
5.3610001 -0.55800003 -0.662 2
5.4369998 -0.55800003 -0.66399997 2
5.5479999 -0.56199998 -0.67000002 3
5.6199999 -0.56099999 -0.67000002 3
5.6820002 -0.55900002 -0.67000002 5
5.7779999 -0.56099999 -0.67299998 3
5.8720002 -0.56199998 -0.67500001 4
6 -0.56599998 -0.68199998 5
6.1069999 -0.56699997 -0.685 4
6.2189999 -0.56900001 -0.68800002 4
6.3439999 -0.57099998 -0.69300002 4
6.4660001 -0.57300001 -0.69700003 4
6.598 -0.57599998 -0.70099998 4
6.724 -0.57700002 -0.70499998 4
6.9000001 -0.583 -0.713 4
7.0760002 -0.58700001 -0.72000003 4
7.211 -0.58899999 -0.72299999 3
7.375 -0.59200001 -0.72799999 3
7.5570002 -0.59600002 -0.73500001 4
7.7160001 -0.59799999 -0.73900002 4
7.928 -0.60299999 -0.74699998 4
8.1359997 -0.60799998 -0.75400001 4
8.3529997 -0.61199999 -0.76099998 4
8.5749998 -0.61699998 -0.76800001 3
8.8030005 -0.62199998 -0.77499998 3
9.0699997 -0.62800002 -0.78399998 4
9.3269997 -0.63300002 -0.792 3
9.5939999 -0.63800001 -0.79900002 3
9.8900003 -0.64399999 -0.80800003 3
10.171 -0.64899999 -0.815 3
10.503 -0.65600002 -0.82499999 3
10.82 -0.66100001 -0.83200002 2
11.178 -0.66799998 -0.84200001 2
11.583 -0.67699999 -0.85399997 2
11.993 -0.68400002 -0.86500001 2
12.386 -0.69099998 -0.87300003 3
12.72 -0.69199997 -0.87599999 3
13.347 -0.70899999 -0.89700001 2
13.955 -0.722 -0.91500002 3
14.535 -0.73400003 -0.92900002 3
15.178 -0.74599999 -0.94499999 2
15.881 -0.75999999 -0.963 3
16.663 -0.77499998 -0.98199999 3
17.549999 -0.79400003 -1.006 2
18.545 -0.815 -1.0319999 2
19.503 -0.83200002 -1.053 2
20.639 -0.85399997 -1.079 1
21.042999 -0.84399998 -1.0650001 3
0 0 0 1
0 0 0 0
0 0 0 1
31.166 -1.091 -1.364 2
31.68 -1.069 -1.331 2
0 0 0 33
43.541 -1.3609999 -1.6799999 49
43.650002 -1.3099999 -1.609 50
44.063999 -1.268 -1.548 40
44.285 -1.219 -1.478 18
0 0 0 6
57.466999 -1.442 -1.7180001 5
57.499001 -1.372 -1.618 9
57.564999 -1.304 -1.518 6
0 0 0 63
66.467003 -1.346 -1.52 31
0 0 0 0
0 0 0 77
71.920998 -1.201 -1.262 15
71.925003 -1.1160001 -1.1339999 129
72.941002 -1.046 -1.0190001 43
75.194 -0.99000001 -0.91600001 15
0 0 0 0
0 0 0 0
0 0 0 55
0 0 0 0
0 0 0 38
72.821999 -0.458 -0.098999999 39
0 0 0 38
0 0 0 0
0 0 0 0
0 0 0 21
85.636002 -0.063000001 0.65899998 37
85.632004 0.030999999 0.81800002 34
85.762001 0.123 0.97399998 31
85.420998 0.215 1.127 36
0 0 0 0
0 0 0 23
0 0 0 0
0 0 0 0
0 0 0 23
85.995003 0.76300001 2.085 32
85.886002 0.85100001 2.2420001 36
85.663002 0.93699998 2.395 32
85.165001 1.018 2.539 31
84.766998 1.1 2.6849999 47
84.598999 1.182 2.835 32
86.914001 1.301 3.0739999 13
0 0 0 0
0 0 0 0
0 0 0 0
0 0 0 37
119.954 2.3829999 5.3600001 100
119.806 2.4979999 5.5799999 107
0 0 0 13
0 0 0 98
119.738 2.8329999 6.243 101
119.743 2.944 6.4679999 86
119.757 3.0550001 6.6929998 71
119.767 3.164 6.915 52
119.79 3.273 7.138 45
119.933 3.3859999 7.375 35
0 0 0 0
0 0 0 26
119.957 3.7049999 8.0480003 40
0 0 0 17
0 0 0 24
119.85 4.0120001 8.7119999 31
119.866 4.1149998 8.9379997 39
119.851 4.2150002 9.1619997 45
119.732 4.3109999 9.3780003 42
119.662 4.4070001 9.5930004 35
0 0 0 0
0 0 0 0
0 0 0 0
0 0 0 0
0 0 0 45
119.822 4.9920001 10.955 52
0 0 0 0
0 0 0 31
117.185 5.152 11.37 28
117.203 5.2410002 11.591 67
117.164 5.3260002 11.805 99
117.173 5.4130001 12.024 83
117.178 5.5019999 12.245 79
117.189 5.5840001 12.458 86
117.158 5.6659999 12.673 83
117.153 5.7490001 12.889 68
117.216 5.8340001 13.114 52
117.239 5.9159999 13.33 38
117.395 6.007 13.57 33
117.307 6.0809999 13.776 29
117.329 6.1609998 13.995 31
117.436 6.2410002 14.218 26
117.557 6.3270001 14.451 29
117.516 6.3979998 14.656 29
117.388 6.4660001 14.855 25
0 0 0 0
0 0 0 0
0 0 0 0
0 0 0 30
117.242 6.8210001 15.908 52
117.191 6.888 16.114 61
117.174 6.9549999 16.323 77
117.182 7.0240002 16.533001 82
117.217 7.092 16.753 74
117.152 7.1539998 16.950001 65
117.19 7.2210002 17.17 48
117.276 7.2909999 17.389 32
117.352 7.3590002 17.610001 29
117.398 7.4239998 17.826 26
117.297 7.4790001 18.02 33
117.392 7.5479999 18.243999 33
117.401 7.6090002 18.450001 28
117.371 7.6659999 18.652 33
117.348 7.7220001 18.855 27
117.329 7.7779999 19.058001 35
117.342 7.835 19.266001 39
117.353 7.8920002 19.469 31
117.419 7.9499998 19.684999 27
117.278 7.994 19.865 43
117.197 8.0410004 20.054001 56
117.181 8.092 20.253 62
117.183 8.1429996 20.452 67
117.198 8.1940002 20.655001 77
117.153 8.2399998 20.848 66
117.224 8.2930002 21.059999 61
117.238 8.342 21.261999 43
117.306 8.3929996 21.472 25
117.406 8.4469995 21.684999 24
117.518 8.4989996 21.903 26
117.422 8.5360003 22.082001 32
117.36 8.5749998 22.266001 31
117.266 8.6110001 22.438999 39
117.335 8.658 22.646999 33
117.348 8.6990004 22.843 27
117.38 8.7399998 23.045 26
117.381 8.7790003 23.237 27
117.357 8.8179998 23.424999 26
117.508 8.8669996 23.646 27
117.331 8.8879995 23.795 27
117.293 8.9200001 23.976 48
117.26 8.9519997 24.157 55
117.2 8.9840002 24.333 56
117.195 9.0179996 24.514 67
117.217 9.0480003 24.702 69
117.223 9.0819998 24.884001 63
117.171 9.1110001 25.058001 44
117.22 9.1450005 25.250999 35
0 0 0 0
0 0 0 0
0 0 0 0
0 0 0 0
0 0 0 0
0 0 0 0
0 0 0 0
0 0 0 0
0 0 0 0
0 0 0 0
0 0 0 0
0 0 0 0
0 0 0 23
117.458 9.4960003 27.747999 29
117.345 9.5039997 27.889 64
117.308 9.5179996 28.047001 68
117.294 9.533 28.209 74
117.226 9.5450001 28.355 81
117.24 9.5600004 28.521 62
117.291 9.5780001 28.695999 61
117.298 9.5939999 28.857 60
117.272 9.6040001 29.011 51
117.352 9.6219997 29.190001 36
117.299 9.6280003 29.334999 39
117.355 9.6429996 29.506001 29
117.47 9.6610003 29.691 27
117.629 9.6829996 29.886 31
117.472 9.6780005 30 31
117.623 9.6969995 30.191 27
117.681 9.7080002 30.358 29
117.714 9.7180004 30.514 27
117.69 9.7209997 30.657 26
117.737 9.7290001 30.816999 27
0 0 0 0
0 0 0 0
0 0 0 0
0 0 0 0
0 0 0 0
0 0 0 24
0 0 0 0
0 0 0 30
117.432 9.7150002 32.002998 45
117.36 9.7060003 32.118999 48
117.361 9.7019997 32.252998 55
117.333 9.6960001 32.377998 59
117.341 9.6940002 32.508999 58
117.321 9.6859999 32.632999 59
117.363 9.6829996 32.772999 58
117.317 9.6750002 32.884998 54
117.378 9.6680002 33.027 47
117.396 9.6619997 33.157001 41
117.42 9.6569996 33.285 34
117.415 9.6470003 33.404999 30
117.477 9.6409998 33.542999 27
117.565 9.6379995 33.688 30
117.546 9.6269999 33.798 32
117.441 9.6059999 33.883999 24
117.504 9.5979996 34.016998 28
117.624 9.5939999 34.166 28
117.669 9.5839996 34.292 27
117.576 9.5609999 34.375 30
117.578 9.5480003 34.483002 28
117.782 9.5500002 34.653999 25
0 0 0 0
0 0 0 28
117.871 9.5059996 34.991001 28
118.034 9.5010004 35.141998 23
0 0 0 0
0 0 0 0
0 0 0 0
0 0 0 0
0 0 0 0
0 0 0 0
0 0 0 26
117.798 9.3170004 35.835999 25
117.718 9.2869997 35.901001 32
117.655 9.2580004 35.969002 36
117.631 9.2309999 36.047001 41
117.617 9.2069998 36.125 38
117.57 9.177 36.193001 47
117.494 9.1440001 36.250999 49
117.524 9.1219997 36.338001 55
117.56 9.0930004 36.428001 73
117.563 9.0649996 36.505001 60
117.557 9.0389996 36.577999 59
117.524 9.007 36.640999 57
117.497 8.9750004 36.705002 55
117.509 8.9490004 36.777 61
117.546 8.9200001 36.856998 63
117.536 8.8879995 36.921001 59
117.553 8.8570004 36.992001 64
117.558 8.8249998 37.057999 58
117.54 8.7910004 37.113998 62
117.542 8.757 37.174999 56
117.554 8.724 37.237999 53
117.565 8.6899996 37.299 68
117.521 8.6549997 37.34 60
117.571 8.6260004 37.41 70
117.585 8.5880003 37.467999 79
117.607 8.5530005 37.526001 64
117.587 8.5139999 37.57 70
117.611 8.4820004 37.624001 75
117.587 8.4420004 37.661999 71
117.601 8.4040003 37.710999 71
117.568 8.3629999 37.743999 77
117.592 8.3280001 37.792 68
117.62 8.2910004 37.84 68
117.637 8.2550001 37.882 78
117.592 8.2110004 37.903999 77
