# .PCD v0.7 - Point Cloud Data file format
VERSION 0.7
FIELDS x y z intensity
SIZE 4 4 4 4
TYPE F F F F
COUNT 1 1 1 1
WIDTH 1866
HEIGHT 1
VIEWPOINT 0 0 0 1 0 0 0
POINTS 1866
DATA ascii
19.677 -4.8790002 4.619 44
19.677 -4.8779998 4.6069999 46
19.671 -4.8759999 4.5929999 45
19.667999 -4.8740001 4.5799999 45
19.674999 -4.8740001 4.5689998 46
19.672001 -4.8720002 4.5560002 46
19.67 -4.8699999 4.5430002 41
19.67 -4.868 4.5289998 43
19.676001 -4.868 4.5170002 45
19.671 -4.8639998 4.5019999 41
19.68 -4.8639998 4.4899998 46
19.659 -4.8559999 4.4710002 45
19.671 -4.8559999 4.46 45
19.659 -4.8499999 4.4429998 42
19.663 -4.8470001 4.4299998 42
19.672001 -4.8460002 4.4169998 44
19.657 -4.8390002 4.3990002 45
19.669001 -4.8369999 4.3870001 41
19.658001 -4.8299999 4.3699999 45
19.652 -4.8239999 4.3530002 43
19.660999 -4.822 4.3390002 39
19.653 -4.816 4.322 40
19.653 -4.8109999 4.3060002 40
19.650999 -4.8049998 4.29 40
19.663 -4.803 4.277 43
19.653 -4.7940001 4.2579999 49
19.659 -4.79 4.243 53
19.649 -4.7820001 4.224 52
19.652 -4.776 4.2080002 55
19.641001 -4.7670002 4.1890001 49
19.638 -4.7589998 4.171 51
19.646 -4.7540002 4.1550002 52
19.649 -4.7480001 4.1389999 52
19.648001 -4.7399998 4.1209998 53
19.646 -4.7319999 4.1030002 51
19.656 -4.7270002 4.0869999 38
19.656 -4.7189999 4.0679998 39
19.641001 -4.7069998 4.0469999 59
19.657 -4.7030001 4.0320001 38
19.643 -4.6919999 4.0100002 53
19.663 -4.6880002 3.9949999 39
19.646999 -4.6750002 3.973 53
19.653 -4.6669998 3.9560001 53
19.650999 -4.6570001 3.9360001 55
19.663 -4.651 3.9189999 37
19.660999 -4.6399999 3.9000001 40
19.662001 -4.6300001 3.881 58
19.672001 -4.6230001 3.8629999 39
19.662001 -4.6100001 3.8410001 54
19.657 -4.598 3.8199999 53
19.67 -4.5900002 3.802 52
19.677999 -4.5809999 3.7839999 54
19.674 -4.5679998 3.7620001 52
19.687 -4.5609999 3.744 37
19.695 -4.5510001 3.7249999 35
19.708 -4.5419998 3.707 37
19.695999 -4.527 3.684 35
19.693001 -4.5139999 3.6619999 47
19.708 -4.5050001 3.6440001 46
19.711 -4.493 3.6229999 39
19.712 -4.48 3.602 39
19.715 -4.4679999 3.5810001 42
19.736 -4.46 3.563 42
19.745001 -4.448 3.543 42
19.740999 -4.4330001 3.52 40
19.750999 -4.4219999 3.4990001 41
19.764 -4.4109998 3.48 39
19.775 -4.3979998 3.4590001 38
19.788 -4.3860002 3.4389999 37
19.820999 -4.3790002 3.4219999 33
19.829 -4.3660002 3.401 32
19.853001 -4.3559999 3.382 33
19.875 -4.3449998 3.3629999 30
19.892 -4.3340001 3.342 28
19.907 -4.3210001 3.322 26
19.945 -4.3130002 3.3039999 24
19.966999 -4.302 3.2839999 21
19.986 -4.289 3.2639999 18
20.033001 -4.283 3.2479999 18
20.080999 -4.276 3.2320001 14
20.173 -4.2779999 3.223 3
0 0 0 0
0 0 0 0
0 0 0 0
0 0 0 2
36.179001 -7.513 5.5619998 2
36.275002 -7.4990001 5.533 2
36.194 -7.448 5.4749999 2
36.185001 -7.4130001 5.4299998 2
0 0 0 0
0 0 0 2
36.091999 -7.2909999 5.2839999 2
36.091999 -7.256 5.2399998 2
0 0 0 0
0 0 0 0
0 0 0 2
0 0 0 0
0 0 0 0
0 0 0 0
0 0 0 0
0 0 0 2
0 0 0 0
0 0 0 0
0 0 0 0
0 0 0 0
0 0 0 3
35.976002 -6.7069998 4.5869999 18
35.973999 -6.6659999 4.54 18
35.953999 -6.6220002 4.493 2
0 0 0 0
0 0 0 0
0 0 0 0
0 0 0 2
40.688 -7.2589998 4.8210001 2
0 0 0 0
0 0 0 0
0 0 0 3
35.944 -6.2410002 4.073 7
35.925999 -6.1939998 4.0240002 9
35.941002 -6.1529999 3.9790001 9
0 0 0 6
27.941999 -4.7140002 3.02 18
27.864 -4.6659999 2.9749999 25
27.846001 -4.6290002 2.938 30
27.812 -4.5879998 2.898 33
27.771999 -4.546 2.8570001 38
27.756001 -4.5079999 2.819 38
27.735001 -4.4689999 2.7820001 43
27.719999 -4.4299998 2.744 45
27.707001 -4.3920002 2.7060001 46
27.702999 -4.3540001 2.6689999 50
27.704 -4.3179998 2.6329999 46
27.691 -4.2789998 2.596 51
27.691999 -4.2410002 2.559 56
27.708 -4.2049999 2.5239999 47
27.718 -4.1690001 2.4890001 42
27.721001 -4.1329999 2.454 49
27.736 -4.0960002 2.4189999 46
27.76 -4.0609999 2.3840001 42
27.771999 -4.0240002 2.349 40
27.806999 -3.99 2.316 39
27.839001 -3.9549999 2.2820001 36
27.870001 -3.9200001 2.2479999 32
27.924 -3.888 2.217 28
27.983999 -3.8570001 2.1849999 23
28.082001 -3.8299999 2.1559999 13
0 0 0 53
35.749001 -4.7719998 2.652 54
35.755001 -4.7210002 2.6070001 55
35.723999 -4.664 2.5580001 67
35.715 -4.6110001 2.5109999 85
35.709999 -4.5580001 2.4660001 82
35.709999 -4.5029998 2.418 86
35.707001 -4.4499998 2.3729999 80
35.703999 -4.3940001 2.326 80
35.695999 -4.3400002 2.28 77
35.695999 -4.2849998 2.234 96
35.676998 -4.2290001 2.187 94
35.68 -4.1750002 2.142 89
35.681999 -4.1199999 2.0969999 87
35.675999 -4.0630002 2.0510001 67
35.664001 -4.007 2.0050001 76
35.659 -3.951 1.96 71
35.651001 -3.8940001 1.915 68
35.653999 -3.8380001 1.869 79
35.644001 -3.78 1.824 73
35.644001 -3.723 1.779 80
35.591 -3.6589999 1.73 85
34.863998 -3.529 1.652 85
34.860001 -3.473 1.608 85
34.965 -3.427 1.5700001 20
35.598 -3.431 1.554 34
35.598 -3.3729999 1.51 79
35.612999 -3.316 1.467 74
35.790001 -3.2739999 1.4299999 6
35.831001 -3.2190001 1.388 11
35.682999 -3.1459999 1.337 38
36.006001 -3.115 1.306 11
37.624001 -3.1919999 1.319 6
39.319 -3.2709999 1.332 44
39.466 -3.2179999 1.289 73
39.474998 -3.152 1.242 77
39.488998 -3.085 1.194 69
39.793999 -3.0409999 1.155 5
40.398998 -3.0190001 1.124 5
40.978001 -2.9920001 1.092 2
41.252998 -2.9419999 1.05 17
43.535999 -3.029 1.057 113
43.537998 -2.9549999 1.006 114
43.530998 -2.8789999 0.95499998 100
43.834 -2.8239999 0.91000003 5
44.419998 -2.7850001 0.87099999 6
46.097 -2.8099999 0.85100001 18
44.424999 -2.6300001 0.76800001 37
44.397999 -2.55 0.71600002 40
44.396999 -2.471 0.66500002 39
44.423 -2.395 0.616 15
44.458 -2.3180001 0.565 7
0 0 0 36
48.365002 -2.349 0.505 41
0 0 0 52
52.174 -2.346 0.42699999 19
52.353001 -2.26 0.37 26
52.241001 -2.1619999 0.31200001 40
0 0 0 32
59.648998 -2.2539999 0.226 59
59.693001 -2.1470001 0.161 150
59.693001 -2.0369999 0.094999999 123
59.692001 -1.928 0.029999999 78
60.194 -1.834 -0.034000002 13
60.355 -1.728 -0.098999999 17
0 0 0 98
67.736 -1.694 -0.25299999 113
67.740997 -1.569 -0.32499999 78
67.848 -1.446 -0.39700001 28
68.142998 -1.3279999 -0.46799999 13
0 0 0 47
74.031998 -1.17 -0.66100001 55
74.017998 -1.03 -0.73799998 32
0 0 0 0
0 0 0 56
134.716 -1.12 -1.755 43
134.562 -0.87300003 -1.8839999 96
0 0 0 0
0 0 0 0
0 0 0 0
0 0 0 64
0 0 0 0
0 0 0 0
0 0 0 0
0 0 0 25
0 0 0 0
0 0 0 0
0 0 0 0
0 0 0 0
0 0 0 0
0 0 0 0
0 0 0 0
0 0 0 25
115.389 2.9719999 -3.473 20
0 0 0 0
0 0 0 7
40.618999 1.278 -1.329 13
40.48 1.353 -1.36 15
40.305 1.423 -1.388 16
40.179001 1.4960001 -1.418 19
40.061001 1.568 -1.448 20
39.994999 1.642 -1.479 20
39.941002 1.716 -1.51 26
39.992001 1.795 -1.545 27
40.068001 1.876 -1.581 23
40.103001 1.955 -1.615 17
39.859001 2.0190001 -1.637 8
41.352001 2.175 -1.732 3
0 0 0 0
0 0 0 0
0 0 0 0
0 0 0 3
0 0 0 0
0 0 0 0
0 0 0 0
0 0 0 0
0 0 0 0
0 0 0 25
0 0 0 25
0 0 0 25
0 0 0 25
0 0 0 25
0 0 0 2
0 0 0 0
0 0 0 2
0 0 0 1
20.429001 1.821 -1.137 1
19.924999 1.814 -1.122 1
18.809 1.749 -1.072 1
19.386 1.84 -1.117 1
0 0 0 1
18.389 1.8150001 -1.0829999 2
18.039 1.8150001 -1.073 2
17.778999 1.823 -1.069 2
17.587999 1.837 -1.068 2
17.084 1.816 -1.0470001 3
16.75 1.812 -1.0369999 3
16.452 1.811 -1.028 3
16.216 1.816 -1.022 3
15.816 1.801 -1.006 3
15.62 1.809 -1.003 3
15.26 1.796 -0.98799998 2
15.119 1.807 -0.98699999 2
14.867 1.8049999 -0.97799999 3
14.683 1.8099999 -0.97399998 3
14.493 1.814 -0.96899998 3
14.426 1.8329999 -0.972 3
14.18 1.8279999 -0.963 3
14.026 1.834 -0.95899999 4
13.82 1.832 -0.95200002 4
13.654 1.836 -0.94700003 3
13.376 1.823 -0.93400002 3
13.315 1.8380001 -0.93599999 3
13.202 1.848 -0.93400002 3
13.11 1.859 -0.93400002 3
12.92 1.855 -0.926 3
12.789 1.86 -0.92199999 3
12.638 1.862 -0.917 3
12.505 1.865 -0.91299999 3
12.39 1.87 -0.91000003 3
12.264 1.873 -0.90499997 3
12.123 1.874 -0.89999998 2
12.042 1.883 -0.89899999 2
11.907 1.883 -0.89300001 2
11.807 1.8890001 -0.88999999 2
11.734 1.898 -0.889 2
11.612 1.899 -0.884 2
11.53 1.906 -0.88200003 2
11.442 1.9119999 -0.88 3
11.327 1.913 -0.875 3
11.267 1.923 -0.87400001 3
11.159 1.924 -0.87 3
11.101 1.933 -0.86900002 3
11.029 1.9400001 -0.86699998 3
10.961 1.947 -0.86500001 3
10.879 1.951 -0.86199999 4
10.794 1.955 -0.85799998 3
10.754 1.966 -0.85799998 3
10.762 1.9859999 -0.86199999 3
10.602 1.975 -0.852 4
10.542 1.982 -0.85000002 3
10.474 1.987 -0.84799999 3
10.423 1.994 -0.84600002 3
10.338 1.9960001 -0.84200001 3
10.311 2.0079999 -0.84200001 3
10.241 2.0109999 -0.83899999 3
10.182 2.016 -0.83700001 3
10.142 2.0250001 -0.83600003 4
10.088 2.0309999 -0.833 4
10.041 2.0380001 -0.83200002 4
9.9969997 2.0450001 -0.82999998 3
9.9560003 2.053 -0.829 4
9.9230003 2.063 -0.82800001 4
9.8769999 2.069 -0.82599998 3
9.842 2.0780001 -0.82499999 3
9.7959995 2.0829999 -0.82300001 4
9.7609997 2.0910001 -0.82200003 3
9.7679996 2.109 -0.824 3
9.665 2.102 -0.81699997 4
9.665 2.1170001 -0.81800002 3
9.6149998 2.1210001 -0.815 4
9.5570002 2.1229999 -0.81199998 3
9.5159998 2.128 -0.80900002 4
9.4949999 2.138 -0.80900002 3
9.4560003 2.1440001 -0.80699998 3
9.4309998 2.1530001 -0.80599999 3
9.4180002 2.164 -0.80599999 3
9.3730001 2.1670001 -0.80299997 3
9.3520002 2.177 -0.80199999 3
9.3330002 2.1860001 -0.801 3
9.3290005 2.1989999 -0.801 3
9.2609997 2.197 -0.796 3
9.2410002 2.2049999 -0.79500002 3
9.25 2.221 -0.796 4
9.2469997 2.233 -0.79699999 5
9.2530003 2.2479999 -0.79799998 6
9.2629995 2.2639999 -0.79900002 5
9.2620001 2.276 -0.79900002 6
9.2670002 2.2909999 -0.80000001 6
9.2049999 2.2880001 -0.79500002 7
9.1940002 2.2980001 -0.79400003 6
9.1870003 2.309 -0.79400003 7
9.1789999 2.319 -0.79299998 7
9.1660004 2.329 -0.792 7
9.1350002 2.3329999 -0.79000002 7
9.1260004 2.3429999 -0.78899997 6
9.1599998 2.3640001 -0.792 8
9.1879997 2.3829999 -0.79400003 17
9.1809998 2.3929999 -0.79299998 11
9.1359997 2.3929999 -0.78899997 7
9.118 2.4000001 -0.787 5
9.0830002 2.4030001 -0.78399998 3
9.0880003 2.415 -0.78399998 4
9.0909996 2.428 -0.78399998 4
9.1020002 2.4419999 -0.78399998 4
9.1120005 2.4560001 -0.78399998 4
9.1260004 2.471 -0.78500003 4
9.1549997 2.49 -0.787 3
9.1689997 2.5039999 -0.787 3
9.2049999 2.5250001 -0.79000002 3
9.2250004 2.5409999 -0.79100001 3
9.2589998 2.5610001 -0.79299998 3
9.2729998 2.576 -0.79299998 3
9.3070002 2.596 -0.79500002 3
9.3389997 2.615 -0.79699999 4
9.3620005 2.632 -0.79799998 3
9.3669996 2.6440001 -0.79699999 4
9.3940001 2.6619999 -0.79799998 3
9.4300003 2.6830001 -0.80000001 4
9.4399996 2.6949999 -0.80000001 4
9.4759998 2.7160001 -0.801 3
9.4860001 2.7290001 -0.801 4
9.5200005 2.7479999 -0.80199999 4
9.5380001 2.763 -0.80199999 5
9.5620003 2.78 -0.80299997 8
9.6009998 2.8010001 -0.80500001 7
9.6129999 2.8139999 -0.80400002 7
9.618 2.825 -0.80299997 8
9.6350002 2.839 -0.80299997 8
9.6330004 2.848 -0.801 7
9.6750002 2.869 -0.80299997 7
9.7370005 2.8959999 -0.80599999 8
9.7460003 2.908 -0.80500001 7
9.7849998 2.928 -0.80599999 5
9.8079996 2.944 -0.80599999 6
9.8610001 2.9690001 -0.80800003 7
9.9200001 2.9949999 -0.81099999 7
9.974 3.02 -0.81400001 8
10.019 3.0420001 -0.815 12
10.064 3.0639999 -0.81699997 12
10.097 3.082 -0.81699997 9
10.08 3.085 -0.81300002 12
10.116 3.1040001 -0.81400001 11
10.21 3.141 -0.81900001 12
10.278 3.1700001 -0.82200003 10
10.337 3.1960001 -0.824 10
10.385 3.2179999 -0.82499999 6
10.41 3.233 -0.82499999 8
10.444 3.2509999 -0.82499999 6
10.479 3.2690001 -0.82499999 6
10.53 3.2920001 -0.82599998 6
10.604 3.323 -0.829 5
10.656 3.346 -0.82999998 5
10.697 3.3659999 -0.82999998 5
10.787 3.401 -0.83399999 5
10.868 3.4330001 -0.83700001 5
10.938 3.4619999 -0.83899999 5
11.009 3.49 -0.84200001 7
11.079 3.5190001 -0.84399998 6
11.127 3.5409999 -0.84399998 8
11.171 3.5610001 -0.84399998 7
11.21 3.579 -0.84399998 9
11.226 3.5899999 -0.84100002 8
11.217 3.5929999 -0.83700001 8
11.247 3.608 -0.83600003 7
11.248 3.6140001 -0.833 6
11.234 3.6140001 -0.82800001 7
11.224 3.6159999 -0.82300001 6
11.193 3.6110001 -0.81699997 6
11.179 3.6110001 -0.81300002 6
11.156 3.608 -0.80699998 5
11.163 3.615 -0.80400002 6
11.149 3.615 -0.79900002 6
11.137 3.615 -0.79500002 6
11.129 3.6159999 -0.79000002 6
11.121 3.618 -0.78600001 6
11.067 3.6040001 -0.778 6
10.955 3.5699999 -0.76599997 5
10.84 3.536 -0.75400001 5
0 0 0 5
9.9610004 3.2550001 -0.68599999 4
9.7770004 3.197 -0.66900003 4
9.7749996 3.1989999 -0.66600001 5
9.7959995 3.2079999 -0.66299999 2
9.8950005 3.243 -0.667 2
9.8190002 3.2190001 -0.65799999 2
10.112 3.3169999 -0.67299998 2
9.9569998 3.2679999 -0.66000003 2
9.8039999 3.2190001 -0.64600003 2
9.7480001 3.2019999 -0.63800001 5
9.7290001 3.197 -0.63300002 6
9.6870003 3.1849999 -0.62599999 6
9.6709995 3.1800001 -0.62099999 8
9.6780005 3.184 -0.61799997 8
9.6529999 3.1760001 -0.61199999 8
9.6619997 3.1800001 -0.60900003 9
9.6450005 3.174 -0.60399997 9
9.6499996 3.1760001 -0.60000002 7
9.6520004 3.177 -0.597 10
9.6450005 3.174 -0.59200001 7
9.6330004 3.1700001 -0.588 9
9.6389999 3.1719999 -0.58399999 8
9.6359997 3.1700001 -0.57999998 7
9.6400003 3.171 -0.57599998 8
9.651 3.174 -0.57200003 7
9.6400003 3.1700001 -0.56800002 8
9.6149998 3.1600001 -0.56199998 9
9.6169996 3.1600001 -0.55800003 11
9.6219997 3.1600001 -0.55400002 9
9.6090002 3.154 -0.54900002 10
9.6110001 3.1530001 -0.54500002 11
9.5950003 3.1470001 -0.54000002 15
9.5930004 3.1440001 -0.53600001 17
9.5979996 3.1440001 -0.53200001 26
9.5950003 3.141 -0.528 29
9.6020002 3.141 -0.52399999 31
9.6049995 3.1389999 -0.51999998 36
9.5959997 3.1340001 -0.51499999 40
9.6040001 3.1340001 -0.51099998 44
9.5959997 3.128 -0.50599998 48
9.6020002 3.128 -0.50300002 53
9.6059999 3.1259999 -0.49900001 56
9.6040001 3.122 -0.49399999 61
9.6029997 3.118 -0.49000001 66
9.599 3.1129999 -0.48500001 72
9.6149998 3.115 -0.48199999 79
9.6040001 3.108 -0.477 83
9.6149998 3.1070001 -0.47299999 95
9.6169996 3.1040001 -0.46900001 102
9.6260004 3.1029999 -0.465 111
9.6160002 3.095 -0.46000001 114
9.6330004 3.096 -0.456 120
9.6269999 3.0899999 -0.45100001 132
9.6350002 3.0880001 -0.44800001 136
9.6230001 3.079 -0.44299999 140
9.6440001 3.0810001 -0.43900001 139
9.6330004 3.072 -0.43399999 137
9.6429996 3.0699999 -0.43000001 137
9.6350002 3.062 -0.426 129
9.6260004 3.0539999 -0.421 118
9.651 3.056 -0.417 117
9.6260004 3.0420001 -0.412 115
9.6350002 3.039 -0.40799999 115
9.632 3.0320001 -0.403 112
9.6409998 3.029 -0.39899999 114
9.6350002 3.0209999 -0.39399999 111
9.6479998 3.0179999 -0.38999999 111
9.6350002 3.007 -0.38499999 109
9.6520004 3.006 -0.38100001 108
9.6569996 3.0009999 -0.377 107
9.6470003 2.99 -0.37200001 102
9.6440001 2.9820001 -0.368 100
9.6490002 2.977 -0.36399999 86
9.6529999 2.971 -0.359 78
9.6520004 2.9630001 -0.35499999 70
9.6549997 2.9560001 -0.34999999 60
9.6529999 2.948 -0.34599999 49
9.6610003 2.9419999 -0.34099999 41
9.665 2.9349999 -0.33700001 33
9.6680002 2.928 -0.333 29
9.6689997 2.9200001 -0.329 18
9.6610003 2.9089999 -0.324 13
9.6859999 2.908 -0.31999999 12
9.6929998 2.902 -0.31600001 16
9.7019997 2.8959999 -0.31200001 9
9.7220001 2.892 -0.308 8
9.7110004 2.8800001 -0.303 6
9.7419996 2.8800001 -0.30000001 7
9.7349997 2.869 -0.29499999 6
9.7519999 2.865 -0.29100001 6
9.7650003 2.859 -0.287 5
9.7609997 2.848 -0.28299999 4
9.7840004 2.845 -0.27900001 4
9.7869997 2.835 -0.27500001 4
9.7930002 2.8269999 -0.271 4
9.8070002 2.8210001 -0.266 4
9.8170004 2.813 -0.26199999 3
9.8210001 2.8039999 -0.25799999 3
9.8330002 2.796 -0.25400001 3
9.8540001 2.7909999 -0.25 3
9.8579998 2.7820001 -0.24600001 2
9.8719997 2.7739999 -0.242 2
9.8999996 2.7709999 -0.23800001 2
9.8920002 2.757 -0.234 3
9.9099998 2.7509999 -0.23 3
9.9110003 2.74 -0.226 2
9.9420004 2.737 -0.223 2
9.9720001 2.733 -0.219 2
9.967 2.7190001 -0.215 2
9.9829998 2.711 -0.211 2
10.02 2.7090001 -0.207 1
10.028 2.6989999 -0.20299999 1
10.046 2.691 -0.2 1
10.067 2.684 -0.19599999 1
10.101 2.681 -0.192 1
10.101 2.668 -0.18799999 1
10.129 2.6619999 -0.185 1
10.163 2.6570001 -0.18099999 1
10.201 2.654 -0.178 1
10.282 2.661 -0.175 1
10.352 2.665 -0.17200001 3
10.406 2.665 -0.169 14
10.45 2.6619999 -0.16599999 89
10.478 2.655 -0.162 99
10.6 2.671 -0.16 39
10.633 2.665 -0.156 1
0 0 0 2
12.349 3.0599999 -0.17200001 2
12.34 3.04 -0.167 1
12.363 3.027 -0.163 1
12.369 3.0109999 -0.15899999 5
12.372 2.994 -0.154 5
12.393 2.9809999 -0.15000001 3
12.427 2.971 -0.146 1
12.506 2.971 -0.142 1
12.565 2.9660001 -0.139 1
12.62 2.96 -0.13500001 1
12.688 2.957 -0.132 1
12.754 2.9530001 -0.12800001 1
12.798 2.9430001 -0.124 1
0 0 0 0
0 0 0 0
0 0 0 0
0 0 0 0
0 0 0 0
0 0 0 0
0 0 0 5
54.705002 11.886 -0.39300001 6
0 0 0 5
0 0 0 0
0 0 0 5
0 0 0 0
0 0 0 0
0 0 0 0
0 0 0 17
59.467999 12.135 -0.292 20
0 0 0 0
0 0 0 12
81.140999 16.143999 -0.336 20
81.896004 16.155001 -0.31600001 21
0 0 0 35
63.712002 12.345 -0.21600001 35
0 0 0 0
0 0 0 15
84.458 15.924 -0.227 18
0 0 0 11
57.316002 10.605 -0.12899999 17
0 0 0 0
0 0 0 0
0 0 0 0
0 0 0 9
70.619003 12.432 -0.088 36
0 0 0 33
43.790001 7.5500002 -0.037 24
0 0 0 43
0 0 0 17
67.106003 11.199 -0.025 22
67.232002 11.095 -0.014 58
0 0 0 8
0 0 0 60
67.275002 10.724 0.015 23
0 0 0 0
0 0 0 19
0 0 0 17
76.917 11.678 0.057999998 21
77.065002 11.554 0.067000002 54
77.080002 11.411 0.074000001 56
77.101997 11.266 0.082999997 60
0 0 0 0
0 0 0 0
0 0 0 0
0 0 0 0
0 0 0 36
0 0 0 0
0 0 0 0
0 0 0 0
0 0 0 30
0 0 0 0
0 0 0 41
117.367 14.407 0.215 47
117.447 14.183 0.21799999 39
117.659 13.974 0.221 24
0 0 0 30
0 0 0 0
0 0 0 0
0 0 0 0
0 0 0 0
0 0 0 0
0 0 0 0
0 0 0 0
0 0 0 0
0 0 0 0
0 0 0 0
0 0 0 0
0 0 0 0
0 0 0 0
0 0 0 0
0 0 0 0
0 0 0 0
0 0 0 0
0 0 0 0
0 0 0 13
0 0 0 0
0 0 0 0
0 0 0 13
0 0 0 0
0 0 0 0
0 0 0 13
0 0 0 0
0 0 0 0
0 0 0 18
0 0 0 0
0 0 0 18
0 0 0 0
0 0 0 0
0 0 0 26
0 0 0 0
0 0 0 0
0 0 0 20
88.610001 3.6110001 -0.215 22
88.458 3.4189999 -0.237 17
88.642998 3.24 -0.25999999 12
0 0 0 0
0 0 0 19
0 0 0 0
0 0 0 30
0 0 0 0
0 0 0 0
0 0 0 0
0 0 0 0
0 0 0 0
0 0 0 30
134.418 1.795 -0.83700001 28
134.356 1.511 -0.88200003 40
134.44701 1.228 -0.93000001 39
134.38901 0.94400001 -0.977 47
134.487 0.66100001 -1.027 54
134.47301 0.377 -1.076 59
134.5 0.097999997 -1.126 59
134.55299 -0.185 -1.178 74
134.51199 -0.46399999 -1.23 76
134.54201 -0.74400002 -1.283 78
0 0 0 37
74.013 -0.72299999 -0.76599997 30
74.000999 -0.87599999 -0.796 23
74.110001 -1.031 -0.829 45
73.132004 -1.171 -0.84899998 99
0 0 0 23
67.894997 -1.37 -0.84799999 80
67.714996 -1.5089999 -0.87599999 70
67.722 -1.651 -0.90700001 125
67.704002 -1.7920001 -0.93900001 123
67.775002 -1.934 -0.97100002 20
0 0 0 22
59.658001 -1.951 -0.912 114
0 0 0 8
45.535999 -1.677 -0.741 34
45.563999 -1.772 -0.764 36
45.202999 -1.852 -0.78100002 15
44.721001 -1.926 -0.796 23
44.743 -2.0190001 -0.81999999 41
44.755001 -2.1110001 -0.84399998 41
44.68 -2.2 -0.866 24
44.627998 -2.29 -0.88999999 32
44.271999 -2.362 -0.90600002 40
43.292999 -2.3989999 -0.91100001 39
43.044998 -2.474 -0.93000001 38
43.033001 -2.5610001 -0.954 38
43.083 -2.6530001 -0.98000002 35
43.43 -2.763 -1.013 55
43.462002 -2.8540001 -1.039 107
43.469002 -2.9430001 -1.0650001 103
43.479 -3.0320001 -1.091 80
0 0 0 0
0 0 0 5
39.421001 -2.9890001 -1.062 24
0 0 0 7
22.978001 -1.835 -0.648 3
0 0 0 0
0 0 0 0
0 0 0 0
0 0 0 1
20.952 -1.882 -0.65799999 1
20.628 -1.8940001 -0.66100001 1
20.025999 -1.878 -0.65600002 3
19.952 -1.911 -0.66600001 3
19.931 -1.948 -0.67900002 3
19.777 -1.971 -0.68699998 1
0 0 0 25
0 0 0 1
19.59 -2.0680001 -0.722 1
19.496 -2.096 -0.73199999 1
19.400999 -2.1229999 -0.74199998 1
19.389999 -2.1600001 -0.75599998 1
19.386999 -2.197 -0.76899999 1
19.35 -2.23 -0.78200001 1
19.347 -2.267 -0.796 2
19.330999 -2.302 -0.81 2
19.32 -2.3380001 -0.824 3
19.332001 -2.3759999 -0.838 3
19.332001 -2.4130001 -0.85299999 3
19.356001 -2.4530001 -0.86900002 3
19.371 -2.4920001 -0.884 3
19.389 -2.5309999 -0.89999998 3
19.466 -2.5769999 -0.91799998 3
19.42 -2.608 -0.93099999 3
19.537001 -2.6600001 -0.95200002 2
19.733999 -2.723 -0.977 2
19.816 -2.7709999 -0.99699998 4
19.99 -2.8329999 -1.021 4
20.341 -2.9189999 -1.0549999 2
0 0 0 0
0 0 0 1
0 0 0 4
22.695999 -3.4230001 -1.25 3
22.719 -3.4679999 -1.27 4
22.754 -3.5139999 -1.29 4
22.724001 -3.55 -1.307 3
22.139999 -3.4990001 -1.2920001 2
21.223 -3.392 -1.256 1
21.452999 -3.4660001 -1.288 1
0 0 0 0
0 0 0 1
18.662001 -3.1129999 -1.1670001 1
17.766001 -2.9949999 -1.126 1
17.472 -2.9760001 -1.122 1
16.959 -2.918 -1.104 2
17.436001 -3.0309999 -1.15 2
17.09 -2.9990001 -1.141 3
16.716 -2.9630001 -1.131 2
16.370001 -2.9289999 -1.1210001 2
15.868 -2.865 -1.1 2
15.468 -2.8199999 -1.086 2
15.042 -2.767 -1.069 2
14.714 -2.7309999 -1.059 2
14.373 -2.6919999 -1.0470001 3
14.08 -2.6600001 -1.038 3
13.744 -2.619 -1.025 3
13.476 -2.5899999 -1.017 3
13.177 -2.5539999 -1.006 3
12.87 -2.5150001 -0.99400002 3
12.566 -2.4760001 -0.98199999 3
12.328 -2.4489999 -0.97399998 3
12.088 -2.421 -0.96600002 3
11.912 -2.404 -0.963 3
11.728 -2.385 -0.958 4
11.547 -2.3670001 -0.954 4
11.374 -2.349 -0.94999999 5
11.179 -2.326 -0.94300002 4
10.974 -2.3 -0.93599999 5
10.737 -2.267 -0.926 4
10.549 -2.244 -0.91900003 3
10.307 -2.2079999 -0.90700001 2
10.105 -2.1800001 -0.89899999 2
9.9139996 -2.1530001 -0.89099997 2
9.6789999 -2.1170001 -0.87800002 3
9.4960003 -2.0910001 -0.87 2
9.3540001 -2.073 -0.866 3
9.2189999 -2.056 -0.86199999 3
9.0909996 -2.0409999 -0.85799998 3
8.9399996 -2.02 -0.852 4
8.7819996 -1.997 -0.84500003 3
8.6199999 -1.972 -0.83700001 3
8.5050001 -1.9579999 -0.83399999 4
8.3500004 -1.934 -0.82599998 3
8.2159996 -1.914 -0.81999999 4
8.1040001 -1.899 -0.81699997 5
7.9970002 -1.885 -0.81300002 5
7.8990002 -1.873 -0.81 4
7.7779999 -1.855 -0.80500001 5
7.665 -1.8380001 -0.80000001 4
7.5469999 -1.8200001 -0.79500002 5
7.441 -1.804 -0.79000002 5
7.3299999 -1.7869999 -0.78500003 4
7.2459998 -1.776 -0.78299999 4
7.131 -1.757 -0.77700001 4
7.052 -1.7460001 -0.77499998 4
6.96 -1.732 -0.77100003 4
6.875 -1.72 -0.76800001 4
6.77 -1.702 -0.76200002 4
6.7059999 -1.694 -0.76099998 4
6.6329999 -1.683 -0.75800002 4
6.5630002 -1.673 -0.75599998 4
6.473 -1.658 -0.75199997 4
6.4050002 -1.648 -0.75 4
6.329 -1.636 -0.74599999 3
6.2509999 -1.623 -0.74299997 4
6.1760001 -1.6109999 -0.73900002 4
6.112 -1.601 -0.73699999 4
6.0320001 -1.587 -0.73299998 3
5.9770002 -1.579 -0.73199999 4
5.9130001 -1.569 -0.72899997 3
5.8439999 -1.557 -0.72600001 4
5.7820001 -1.5470001 -0.72299999 3
5.7189999 -1.536 -0.72000003 3
5.6620002 -1.527 -0.71799999 3
5.6209998 -1.522 -0.71799999 3
5.5560002 -1.51 -0.71399999 2
5.5040002 -1.501 -0.713 3
5.4439998 -1.4910001 -0.70899999 2
5.3699999 -1.476 -0.70499998 2
5.323 -1.4680001 -0.70300001 2
5.283 -1.462 -0.70200002 2
5.2220001 -1.451 -0.69800001 2
5.1739998 -1.442 -0.69599998 2
5.1389999 -1.437 -0.69599998 2
5.0869999 -1.427 -0.69300002 4
5.0339999 -1.4170001 -0.69 3
5.0019999 -1.413 -0.69 3
4.9640002 -1.4069999 -0.68900001 3
4.901 -1.393 -0.685 3
4.8709998 -1.3890001 -0.685 3
4.8280001 -1.381 -0.68199998 3
4.7800002 -1.3710001 -0.68000001 3
4.757 -1.368 -0.68000001 3
4.7210002 -1.362 -0.67900002 3
4.6880002 -1.3559999 -0.67799997 3
4.6529999 -1.35 -0.67699999 3
4.6160002 -1.3430001 -0.67500001 3
4.5799999 -1.336 -0.67299998 2
4.5409999 -1.3279999 -0.671 2
4.5050001 -1.321 -0.67000002 2
4.4770002 -1.316 -0.66900003 2
4.4380002 -1.308 -0.667 4
4.4099998 -1.303 -0.66600001 4
4.395 -1.301 -0.667 2
4.348 -1.29 -0.66299999 4
4.3309999 -1.288 -0.66399997 3
4.2940001 -1.28 -0.662 2
4.2670002 -1.275 -0.66100001 3
4.2280002 -1.266 -0.65799999 4
4.2470002 -1.274 -0.66399997 3
4.1739998 -1.255 -0.65600002 2
4.131 -1.245 -0.65200001 2
4.125 -1.245 -0.65399998 2
4.2059999 -1.272 -0.67000002 2
4.1459999 -1.256 -0.66399997 4
4.046 -1.228 -0.65100002 2
4.0089998 -1.219 -0.648 2
4.0079999 -1.221 -0.64999998 2
3.9549999 -1.207 -0.64399999 2
3.993 -1.221 -0.653 2
3.9749999 -1.217 -0.653 2
3.921 -1.2029999 -0.64700001 2
3.971 -1.22 -0.65799999 2
3.9089999 -1.202 -0.64999998 2
3.8659999 -1.191 -0.64600003 2
3.921 -1.209 -0.65799999 2
3.8410001 -1.186 -0.64700001 2
3.7969999 -1.174 -0.64200002 2
3.8800001 -1.201 -0.65899998 2
3.8 -1.178 -0.64700001 2
3.7880001 -1.176 -0.648 2
3.7539999 -1.166 -0.64399999 2
3.721 -1.158 -0.64099997 2
3.7479999 -1.1670001 -0.648 2
3.6789999 -1.147 -0.63800001 2
3.7320001 -1.164 -0.64999998 2
3.6930001 -1.153 -0.64499998 2
3.612 -1.1289999 -0.63300002 2
3.697 -1.1569999 -0.65100002 2
3.687 -1.154 -0.65100002 2
3.638 -1.14 -0.64399999 2
3.6210001 -1.135 -0.64300001 2
3.612 -1.133 -0.64399999 2
3.6210001 -1.137 -0.64700001 2
3.5469999 -1.114 -0.63599998 2
3.572 -1.123 -0.64300001 2
3.569 -1.122 -0.64399999 2
3.487 -1.097 -0.63099998 2
3.4849999 -1.096 -0.63200003 2
3.467 -1.091 -0.63099998 3
3.4289999 -1.08 -0.62599999 1
3.4389999 -1.0829999 -0.62900001 2
3.4679999 -1.092 -0.63599998 3
3.392 -1.069 -0.62400001 2
3.4219999 -1.0779999 -0.63099998 3
3.391 -1.069 -0.62699997 2
3.4449999 -1.086 -0.639 3
3.3599999 -1.059 -0.625 1
3.3340001 -1.051 -0.62099999 1
3.306 -1.0420001 -0.61799997 1
3.3380001 -1.052 -0.625 2
3.3180001 -1.046 -0.62300003 1
3.286 -1.035 -0.61799997 1
3.3369999 -1.051 -0.62900001 2
3.4100001 -1.074 -0.64399999 3
3.2950001 -1.0369999 -0.62400001 1
3.279 -1.0319999 -0.62199998 2
3.3469999 -1.053 -0.63700002 2
3.3039999 -1.039 -0.63 2
3.326 -1.045 -0.63499999 2
3.3659999 -1.057 -0.64399999 2
3.3199999 -1.0420001 -0.63599998 2
3.299 -1.035 -0.63300002 2
3.2550001 -1.021 -0.62599999 2
3.2690001 -1.024 -0.63 2
3.2409999 -1.015 -0.62599999 2
3.2449999 -1.015 -0.62699997 2
3.3329999 -1.0420001 -0.64499998 2
3.22 -1.006 -0.62400001 1
3.302 -1.031 -0.64099997 2
3.2750001 -1.021 -0.63700002 2
3.1900001 -0.99400002 -0.62099999 1
3.309 -1.03 -0.64600003 2
3.184 -0.99000001 -0.62199998 1
3.2160001 -0.99800003 -0.62900001 2
3.2160001 -0.99699998 -0.63 2
3.223 -0.99800003 -0.63200003 2
3.223 -0.99699998 -0.63300002 2
3.369 -1.041 -0.662 2
3.2950001 -1.017 -0.64899999 2
3.296 -1.016 -0.64899999 2
3.1730001 -0.977 -0.62599999 1
3.2639999 -1.003 -0.64399999 2
3.2019999 -0.98299998 -0.63200003 2
3.174 -0.972 -0.62800002 2
3.1259999 -0.95599997 -0.61900002 1
3.174 -0.97000003 -0.62900001 2
3.1300001 -0.954 -0.62 1
3.1670001 -0.96399999 -0.62800002 1
3.1029999 -0.94300002 -0.616 1
3.1559999 -0.95700002 -0.62699997 1
3.141 -0.95099998 -0.62400001 1
3.1500001 -0.95200002 -0.62599999 1
3.1129999 -0.93900001 -0.61900002 1
3.142 -0.94599998 -0.625 1
3.142 -0.94400001 -0.62599999 2
3.073 -0.92199999 -0.61199999 1
3.0940001 -0.926 -0.61699998 1
3.099 -0.92500001 -0.61799997 1
3.076 -0.91600001 -0.61299998 2
3.105 -0.92299998 -0.61900002 1
3.118 -0.92500001 -0.62199998 2
3.076 -0.91000003 -0.61400002 1
3.119 -0.921 -0.62199998 1
3.1199999 -0.91900003 -0.62199998 1
3.2479999 -0.954 -0.648 2
3.148 -0.92299998 -0.62800002 2
3.1040001 -0.90700001 -0.61900002 2
3.1040001 -0.90499997 -0.61900002 2
3.1500001 -0.91600001 -0.62800002 2
3.1659999 -0.91799998 -0.63099998 2
3.1059999 -0.89899999 -0.61900002 2
3.089 -0.89099997 -0.61500001 2
3.1530001 -0.90700001 -0.62800002 2
3.177 -0.912 -0.63200003 1
3.109 -0.889 -0.61799997 2
3.085 -0.88 -0.61299998 1
3.108 -0.884 -0.61799997 1
3.204 -0.90799999 -0.63599998 2
3.1300001 -0.88499999 -0.62099999 1
3.109 -0.87599999 -0.61699998 1
3.2030001 -0.89999998 -0.63499999 2
3.243 -0.90799999 -0.64200002 2
3.1600001 -0.88200003 -0.625 1
3.1429999 -0.87400001 -0.62099999 2
3.171 -0.87900001 -0.62599999 1
3.1259999 -0.86400002 -0.61699998 1
3.1819999 -0.87599999 -0.62699997 1
3.1500001 -0.86400002 -0.62 1
3.1440001 -0.86000001 -0.61900002 2
3.194 -0.87 -0.62800002 1
3.21 -0.87099999 -0.63 2
3.1530001 -0.85299999 -0.61799997 1
3.168 -0.85399997 -0.62 1
3.188 -0.85600001 -0.62300003 1
3.188 -0.85299999 -0.62199998 1
3.2 -0.852 -0.62400001 1
3.154 -0.83700001 -0.61400002 1
3.247 -0.85799998 -0.63099998 1
3.2130001 -0.84600002 -0.62400001 1
3.2449999 -0.85100001 -0.62900001 1
3.2409999 -0.84600002 -0.62699997 1
3.3110001 -0.861 -0.639 2
3.1900001 -0.82599998 -0.61500001 1
3.2980001 -0.85000002 -0.63499999 2
3.23 -0.829 -0.62 1
3.26 -0.833 -0.625 1
3.2939999 -0.838 -0.63 2
3.3239999 -0.84200001 -0.63499999 2
3.2509999 -0.81900001 -0.61900002 1
3.283 -0.824 -0.62400001 2
3.3239999 -0.82999998 -0.63099998 1
3.293 -0.81900001 -0.62300003 2
3.3369999 -0.82499999 -0.63 2
3.368 -0.829 -0.63499999 2
3.359 -0.82300001 -0.63099998 2
3.322 -0.81 -0.62300003 1
3.402 -0.82499999 -0.63599998 2
3.3369999 -0.80500001 -0.62199998 2
3.3840001 -0.81199998 -0.63 1
3.3599999 -0.80199999 -0.62300003 1
3.3729999 -0.801 -0.62400001 2
3.3410001 -0.78899997 -0.61699998 1
3.3740001 -0.79299998 -0.62099999 1
3.4119999 -0.79699999 -0.62599999 2
3.4760001 -0.80800003 -0.63599998 2
3.4070001 -0.78799999 -0.62099999 1
3.3900001 -0.77899998 -0.616 1
3.4809999 -0.796 -0.63099998 2
3.549 -0.80699998 -0.64099997 2
3.48 -0.78600001 -0.62699997 2
3.539 -0.79500002 -0.63499999 3
3.54 -0.79100001 -0.63300002 2
3.493 -0.77499998 -0.62300003 3
3.5139999 -0.77499998 -0.62400001 3
3.5209999 -0.77200001 -0.62300003 3
3.54 -0.77100003 -0.62400001 2
3.6199999 -0.78399998 -0.63599998 2
3.6070001 -0.77600002 -0.63200003 2
3.5929999 -0.76800001 -0.62699997 2
3.6719999 -0.77999997 -0.63800001 2
3.694 -0.77999997 -0.639 2
3.635 -0.76200002 -0.62699997 2
3.7219999 -0.77499998 -0.639 3
3.734 -0.773 -0.639 2
3.7360001 -0.76800001 -0.63599998 2
3.717 -0.75800002 -0.63 2
3.763 -0.76200002 -0.63499999 2
3.904 -0.78600001 -0.65600002 3
3.8699999 -0.773 -0.64700001 3
3.8169999 -0.75700003 -0.63599998 4
3.8310001 -0.75400001 -0.63499999 4
3.8499999 -0.75300002 -0.63499999 3
3.8640001 -0.74900001 -0.634 2
3.974 -0.76499999 -0.64899999 2
3.9649999 -0.75800002 -0.64499998 2
3.984 -0.75599998 -0.64399999 2
3.948 -0.74299997 -0.63499999 2
4.0349998 -0.75300002 -0.64600003 3
4.0240002 -0.745 -0.64099997 2
4.0560002 -0.745 -0.64200002 2
4.1079998 -0.74900001 -0.64700001 2
4.1069999 -0.74199998 -0.64300001 3
4.1259999 -0.74000001 -0.64300001 2
4.165 -0.74000001 -0.64499998 2
4.2470002 -0.74900001 -0.65399998 3
4.2490001 -0.74299997 -0.64999998 3
4.2670002 -0.73900002 -0.64899999 2
4.3150001 -0.741 -0.65200001 4
4.3449998 -0.74000001 -0.653 4
4.3829999 -0.74000001 -0.65499997 3
4.4180002 -0.73900002 -0.65600002 3
4.4629998 -0.73900002 -0.65799999 3
4.5040002 -0.73900002 -0.66000003 4
4.5570002 -0.741 -0.66299999 2
4.586 -0.73900002 -0.66299999 4
4.6339998 -0.73900002 -0.66500002 2
4.6789999 -0.74000001 -0.667 2
4.7210002 -0.73900002 -0.66799998 2
4.7620001 -0.73799998 -0.66900003 2
4.8130002 -0.73900002 -0.671 2
4.862 -0.73900002 -0.67299998 2
4.9180002 -0.74000001 -0.676 2
4.9640002 -0.73900002 -0.67699999 3
5.033 -0.741 -0.68099999 2
5.0809999 -0.74000001 -0.68199998 3
5.1399999 -0.741 -0.68400002 2
5.2090001 -0.74299997 -0.68800002 2
5.25 -0.74000001 -0.68800002 3
5.309 -0.741 -0.69 3
5.3839998 -0.74299997 -0.69300002 2
5.4299998 -0.741 -0.69300002 2
5.507 -0.74299997 -0.69700003 2
5.5640001 -0.74199998 -0.69800001 3
5.6469998 -0.74400002 -0.70200002 2
5.7329998 -0.74599999 -0.70599997 2
5.8070002 -0.74699998 -0.708 2
5.8909998 -0.74800003 -0.71200001 2
5.9879999 -0.75099999 -0.71600002 3
6.0619998 -0.75099999 -0.71799999 4
6.158 -0.75400001 -0.722 3
6.244 -0.75400001 -0.72500002 3
6.3379998 -0.75599998 -0.72799999 3
6.447 -0.759 -0.73299998 3
6.559 -0.76200002 -0.73799998 3
6.6669998 -0.764 -0.74199998 3
6.829 -0.77200001 -0.75099999 4
6.9229999 -0.77100003 -0.75300002 6
7.0019999 -0.76899999 -0.75300002 5
7.1430001 -0.773 -0.759 5
7.2820001 -0.77700001 -0.76499999 4
7.401 -0.778 -0.76800001 4
7.5339999 -0.78100002 -0.77200001 4
7.6939998 -0.78500003 -0.778 4
7.8660002 -0.79000002 -0.78600001 3
8.052 -0.79699999 -0.79400003 3
8.2399998 -0.80199999 -0.801 4
8.4429998 -0.80900002 -0.81 3
8.6379995 -0.81400001 -0.81699997 3
8.8719997 -0.82300001 -0.82800001 3
9.0810003 -0.82800001 -0.83499998 4
9.2969999 -0.833 -0.84200001 3
9.585 -0.84399998 -0.85600001 3
9.8620005 -0.85299999 -0.86699998 3
10.137 -0.86199999 -0.87699997 3
10.408 -0.86799997 -0.88599998 3
10.692 -0.87599999 -0.89600003 3
11.026 -0.88599998 -0.90799999 2
11.318 -0.89200002 -0.917 2
11.68 -0.903 -0.93000001 2
12.039 -0.912 -0.94099998 3
12.439 -0.92299998 -0.95499998 3
12.908 -0.93800002 -0.972 3
13.291 -0.94599998 -0.98199999 3
13.786 -0.95999998 -0.99900001 3
14.21 -0.96799999 -1.01 3
14.789 -0.986 -1.029 2
15.426 -1.005 -1.051 2
15.966 -1.016 -1.0650001 3
16.673 -1.036 -1.0880001 3
17.455 -1.058 -1.113 2
18.208 -1.077 -1.1339999 2
0 0 0 2
20.215 -1.135 -1.2 1
21.205 -1.159 -1.227 1
0 0 0 0
0 0 0 0
0 0 0 3
0 0 0 0
0 0 0 7
31.879999 -1.461 -1.5549999 6
0 0 0 38
43.334 -1.859 -1.979 32
43.369999 -1.7970001 -1.913 47
43.414001 -1.7359999 -1.848 37
43.494999 -1.676 -1.783 43
43.75 -1.623 -1.726 48
43.676998 -1.558 -1.654 52
43.958 -1.5039999 -1.595 38
44.422001 -1.457 -1.5420001 41
44.971001 -1.41 -1.489 40
44.956001 -1.346 -1.4170001 34
44.959999 -1.283 -1.346 29
44.973 -1.22 -1.274 32
44.973 -1.1569999 -1.202 20
0 0 0 41
67.658997 -1.548 -1.587 74
67.669998 -1.455 -1.478 70
0 0 0 0
0 0 0 139
73.097 -1.271 -1.242 62
73.384003 -1.175 -1.126 65
74.212997 -1.087 -1.017 37
0 0 0 78
0 0 0 29
74.026001 -0.78399998 -0.648 56
73.995003 -0.685 -0.52499998 65
73.992996 -0.58499998 -0.40200001 62
0 0 0 0
0 0 0 0
0 0 0 0
0 0 0 32
86.794998 -0.111 0.259 31
86.983002 -0.001 0.40200001 34
0 0 0 0
0 0 0 18
85.054001 0.32800001 0.82700002 23
0 0 0 0
0 0 0 0
0 0 0 0
0 0 0 26
87.333 0.889 1.594 23
0 0 0 0
0 0 0 0
0 0 0 43
85.853996 1.302 2.161 32
88.124001 1.441 2.3659999 21
88.113998 1.548 2.5179999 19
0 0 0 0
0 0 0 0
0 0 0 0
0 0 0 32
0 0 0 19
93.510002 2.3099999 3.6470001 27
0 0 0 0
0 0 0 0
0 0 0 0
0 0 0 0
0 0 0 50
0 0 0 59
120.995 3.964 6.2069998 54
121.16 4.105 6.4289999 45
121.228 4.2410002 6.6430001 26
0 0 0 0
0 0 0 0
0 0 0 35
90.638 3.5650001 5.6020002 34
0 0 0 0
0 0 0 45
120.821 5.1389999 8.1079998 22
0 0 0 0
0 0 0 0
0 0 0 0
0 0 0 41
118.724 5.664 9.0109997 42
118.766 5.7870002 9.2250004 38
118.551 5.8959999 9.4180002 28
118.61 6.0170002 9.6289997 43
118.71 6.1399999 9.8470001 45
118.749 6.256 10.059 56
118.74 6.375 10.27 53
119.064 6.5050001 10.507 47
118.555 6.5910001 10.668 30
118.348 6.6929998 10.862 63
118.307 6.802 11.064 87
118.311 6.9169998 11.279 90
118.318 7.0240002 11.483 75
118.304 7.1329999 11.691 79
118.297 7.2410002 11.899 77
118.288 7.3470001 12.106 79
118.329 7.4559999 12.315 59
118.354 7.5630002 12.523 44
118.467 7.6750002 12.743 23
0 0 0 0
0 0 0 30
0 0 0 0
0 0 0 0
0 0 0 0
0 0 0 0
0 0 0 26
0 0 0 0
0 0 0 31
118.441 8.6669998 14.803 31
118.57 8.7709999 15.025 34
118.4 8.8520002 15.209 66
118.304 8.9399996 15.404 70
118.284 9.0299997 15.605 93
118.291 9.118 15.805 67
118.285 9.2080002 16.009001 71
118.278 9.2959995 16.208 66
118.267 9.3830004 16.409 52
118.326 9.4709997 16.615 34
118.405 9.5640001 16.829 23
118.507 9.6569996 17.046 23
118.436 9.7360001 17.233999 32
118.416 9.8199997 17.438 30
118.454 9.9029999 17.639 29
118.481 9.9890003 17.844999 32
118.401 10.063 18.033001 36
118.427 10.142 18.235001 29
118.391 10.22 18.43 31
118.47 10.304 18.641001 30
118.441 10.378 18.834999 33
118.444 10.454 19.033001 33
118.35 10.521 19.215 51
118.285 10.586 19.396 59
118.26 10.659 19.589001 64
118.25 10.73 19.783001 70
118.258 10.802 19.979 74
118.281 10.874 20.173 71
118.291 10.941 20.367001 61
118.319 11.011 20.565001 44
118.422 11.091 20.777 34
118.426 11.158 20.966 27
0 0 0 0
0 0 0 0
0 0 0 0
0 0 0 0
0 0 0 0
0 0 0 0
0 0 0 0
0 0 0 0
0 0 0 0
0 0 0 0
0 0 0 23
118.424 11.876 23.212 42
118.342 11.923 23.375 50
118.319 11.974 23.552 56
118.25 12.019 23.719999 62
118.324 12.078 23.915001 75
118.28 12.123 24.086 69
118.308 12.176 24.27 64
118.3 12.224 24.443001 52
118.218 12.263 24.603001 36
118.382 12.327 24.813 27
118.478 12.382 25.009001 26
118.52 12.432 25.193001 29
118.615 12.487 25.384001 26
118.566 12.524 25.546 25
118.616 12.572 25.729 22
0 0 0 0
0 0 0 0
0 0 0 0
0 0 0 0
0 0 0 0
0 0 0 0
0 0 0 0
0 0 0 24
118.587 12.908 27.228001 31
118.454 12.928 27.357 37
118.409 12.955 27.507999 46
118.332 12.978 27.650999 54
118.313 13.006 27.806 61
118.343 13.039 27.971001 67
118.355 13.069 28.131001 64
118.322 13.096 28.280001 55
118.366 13.128 28.445999 51
118.244 13.137 28.57 33
118.409 13.183 28.763 28
0 0 0 0
0 0 0 0
0 0 0 0
0 0 0 0
0 0 0 0
0 0 0 0
0 0 0 23
118.518 13.366 29.972 26
0 0 0 0
0 0 0 27
118.689 13.437 30.438999 25
0 0 0 0
0 0 0 0
0 0 0 26
0 0 0 0
0 0 0 25
118.634 13.505 31.242001 23
118.478 13.497 31.333 26
118.486 13.506 31.466 35
118.379 13.506 31.566999 40
118.424 13.518 31.708 55
118.422 13.524 31.834 57
118.43 13.533 31.959 53
118.414 13.536 32.078999 58
118.42 13.54 32.203999 55
118.417 13.543 32.325001 54
118.482 13.553 32.464001 42
118.525 13.559 32.595001 37
118.534 13.563 32.713001 33
118.648 13.576 32.861 32
118.64 13.574 32.974998 30
118.794 13.59 33.132 28
118.771 13.585 33.237999 26
118.83 13.589 33.366001 26
0 0 0 0
0 0 0 28
118.745 13.563 33.667 24
118.817 13.569 33.792999 26
0 0 0 0
0 0 0 28
118.886 13.55 34.125 26
118.938 13.549 34.237999 27
118.794 13.522 34.296001 28
118.972 13.531 34.445 27
118.792 13.502 34.487 26
118.814 13.488 34.588001 31
118.817 13.479 34.681999 28
118.795 13.461 34.765999 29
118.698 13.435 34.827999 28
118.805 13.432 34.948002 27
118.878 13.424 35.056999 24
118.827 13.401 35.127998 29
118.847 13.388 35.216 29
118.749 13.358 35.27 30
118.656 13.329 35.324001 31
118.654 13.312 35.403 35
118.611 13.286 35.466999 34
118.661 13.27 35.558998 35
118.576 13.24 35.610001 37
118.59 13.221 35.686001 42
118.582 13.197 35.756001 51
118.591 13.17 35.830002 49
118.579 13.144 35.896 54
118.627 13.127 35.978001 61
118.602 13.098 36.036999 56
118.575 13.068 36.092999 53
118.62 13.045 36.168999 62
118.551 13.009 36.209 62
118.6 12.985 36.284 55
118.6 12.959 36.341999 53
118.631 12.932 36.409 65
118.614 12.9 36.459 59
118.599 12.866 36.507999 62
118.626 12.837 36.568001 63
118.679 12.81 36.634998 60
118.665 12.777 36.679001 67
118.621 12.739 36.713001 72
118.679 12.71 36.777 68
118.668 12.673 36.818001 73
118.628 12.633 36.848 83
118.659 12.599 36.897999 71
118.61 12.557 36.923 71
118.646 12.525 36.971001 75
118.665 12.489 37.013 68
118.687 12.452 37.054001 79
118.702 12.413 37.091999 73
118.702 12.373 37.124001 73
118.689 12.33 37.150002 89
118.727 12.292 37.189999 71
118.707 12.248 37.209999 76
118.713 12.205 37.237 78
118.688 12.166 37.25 69
118.695 12.119 37.276001 74
118.734 12.079 37.307999 70
118.741 12.034 37.328999 75
118.732 11.991 37.341999 73
118.74 11.942 37.361 74
118.735 11.898 37.372002 69
118.768 11.85 37.395 71
118.758 11.804 37.401001 67
118.778 11.758 37.417 65
118.767 11.707 37.419998 72
118.763 11.661 37.424 75
118.724 11.607 37.415001 79
118.751 11.559 37.425999 78
118.782 11.51 37.436001 75
118.793 11.46 37.438999 74
118.808 11.409 37.441002 69
118.783 11.353 37.428001 71
118.78 11.303 37.421001 77
118.774 11.249 37.410999 73
118.79 11.192 37.408001 71
118.792 11.138 37.396999 79
118.79 11.082 37.383999 71
118.813 11.032 37.376999 68
118.78 10.973 37.349998 69
118.809 10.919 37.341999 74
118.812 10.865 37.323002 67
118.794 10.806 37.298 66
118.814 10.75 37.282001 64
118.867 10.696 37.273998 82
118.836 10.637 37.237999 73
118.818 10.576 37.206001 81
118.813 10.513 37.174999 77
118.836 10.458 37.152 68
118.842 10.398 37.120998 67
118.842 10.34 37.085999 74
118.862 10.276 37.056999 71
118.863 10.218 37.02 73
118.88 10.154 36.987999 66
118.885 10.091 36.949001 65
118.893 10.032 36.909 68
118.897 9.9689999 36.867001 71
118.9 9.9049997 36.821999 69
118.893 9.8400002 36.772999 72
118.92 9.7779999 36.733002 75
118.901 9.7150002 36.676998 67
118.865 9.6429996 36.613998 67
118.91 9.5839996 36.571999 66
118.929 9.5229998 36.522999 57
118.938 9.4569998 36.469002 60
118.92 9.3889999 36.404999 60
118.906 9.3199997 36.341 56
118.915 9.2539997 36.283001 65
118.921 9.1859999 36.221001 60
118.981 9.1230001 36.174999 58
118.911 9.0489998 36.087002 59
118.952 8.9840002 36.034 53
118.944 8.9139996 35.962002 54
118.939 8.8439999 35.889 56
118.904 8.7720003 35.806 61
118.949 8.7089996 35.743 57
119.026 8.6450005 35.693001 53
118.974 8.5710001 35.599998 51
118.981 8.5 35.522999 46
119 8.434 35.448002 48
119.036 8.3660002 35.376999 38
119.116 8.3000002 35.317001 36
119.085 8.2259998 35.223 38
119.158 8.1590004 35.157001 28
119.207 8.0939999 35.083 25
0 0 0 0
0 0 0 0
0 0 0 28
119.242 7.809 34.724998 24
119.232 7.7319999 34.625 25
0 0 0 0
0 0 0 24
0 0 0 0
0 0 0 25
119.257 7.368 34.127998 24
119.111 7.2849998 33.980999 26
0 0 0 0
0 0 0 28
119.138 7.0669999 33.665001 28
119.262 7 33.588001 26
119.284 6.9260001 33.481998 30
119.256 6.8499999 33.359001 34
119.128 6.7680001 33.208 34
0 0 0 0
0 0 0 0
0 0 0 28
119.168 6.473 32.742001 33
119.116 6.395 32.605 35
119.101 6.322 32.477001 40
119.139 6.2459998 32.363998 40
119.07 6.1700001 32.216 44
119.048 6.0910001 32.084 50
119.049 6.0159998 31.954 51
119.106 5.9429998 31.837 64
119.061 5.869 31.694 54
119.055 5.7930002 31.558001 57
119.065 5.7210002 31.426001 41
119.112 5.6479998 31.301001 41
119.221 5.5780001 31.191999 33
119.284 5.5050001 31.068001 27
0 0 0 0
0 0 0 25
119.49 5.2919998 30.698 27
119.371 5.2080002 30.52 29
119.509 5.1420002 30.41 31
119.516 5.0700002 30.26 29
119.423 4.9879999 30.089001 28
0 0 0 0
0 0 0 0
0 0 0 0
0 0 0 0
0 0 0 0
0 0 0 31
127.622 4.7750001 30.997 41
127.735 4.6999998 30.853001 67
127.704 4.6230001 30.674 48
0 0 0 0
0 0 0 30
0 0 0 0
0 0 0 39
133.627 4.4289999 31.174 62
133.79601 4.3520002 31.024 53
0 0 0 0
0 0 0 53
135.87 4.1729999 30.924999 57
135.936 4.0929999 30.743 59
136.075 4.0170002 30.570999 75
136.047 3.9349999 30.370001 45
0 0 0 0
0 0 0 0
0 0 0 45
141.85899 3.766 30.815001 59
141.908 3.687 30.612 53
0 0 0 0
0 0 0 50
144.69099 3.5050001 30.542 57
144.776 3.4230001 30.333 41
147.45 3.404 30.665001 70
147.509 3.3169999 30.441 53
0 0 0 0
0 0 0 61
150.35201 3.1270001 30.301001 56
152.84801 3.092 30.556999 44
152.993 3.01 30.337 62
152.998 2.924 30.087999 68
152.97099 2.842 29.834 58
0 0 0 0
0 0 0 0
0 0 0 52
158.978 2.6099999 29.948999 45
161.423 2.563 30.136999 63
161.422 2.4760001 29.863001 73
161.558 2.391 29.617001 57
0 0 0 0
0 0 0 0
0 0 0 39
121.585 1.5470001 21.452 63
121.584 1.485 21.24 84
121.532 1.424 21.014999 74
121.589 1.364 20.816999 84
121.599 1.303 20.603001 83
121.6 1.243 20.386999 76
121.607 1.183 20.172001 78
121.595 1.123 19.952 73
121.609 1.064 19.735001 78
121.579 1.006 19.511 68
121.582 0.94800001 19.291 78
121.632 0.89300001 19.08 53
121.621 0.83600003 18.856001 40
121.733 0.77999997 18.65 27
121.752 0.72500002 18.429001 27
121.72 0.66900003 18.198999 29
121.711 0.61699998 17.975 33
121.706 0.56199998 17.747999 37
121.703 0.509 17.52 36
121.744 0.456 17.298 32
121.725 0.40400001 17.066 25
0 0 0 0
0 0 0 28
121.669 0.252 16.370001 37
121.592 0.20200001 16.128 44
121.537 0.152 15.888 60
121.53 0.104 15.654 76
121.536 0.056000002 15.421 76
121.547 0.0080000004 15.187 59
121.572 -0.035999998 14.958 59
121.827 -0.082000002 14.753 35
0 0 0 0
0 0 0 0
0 0 0 24
0 0 0 0
0 0 0 0
0 0 0 0
0 0 0 0
0 0 0 0
0 0 0 0
0 0 0 0
0 0 0 38
121.473 -0.58099997 11.839 66
121.461 -0.61900002 11.594 68
121.458 -0.65399998 11.346 70
121.464 -0.69 11.101 76
121.454 -0.72500002 10.855 81
121.459 -0.759 10.616 61
121.492 -0.79299998 10.372 32
0 0 0 25
0 0 0 25
0 0 0 25
0 0 0 25
0 0 0 25
0 0 0 25
0 0 0 39
121.456 -1.034 8.3800001 49
121.48 -1.061 8.1309996 41
121.562 -1.0880001 7.8850002 38
0 0 0 24
76.675003 -0.71700001 4.6599998 45
76.675003 -0.73199999 4.5009999 61
76.640999 -0.74599999 4.3410001 71
76.462997 -0.75800002 4.1719999 68
75.996002 -0.76700002 3.9879999 53
75.556 -0.77499998 3.809 67
75.314003 -0.78600001 3.642 84
75.293999 -0.79699999 3.483 77
75.193001 -0.80699998 3.323 82
74.903 -0.815 3.1530001 67
74.035004 -0.81599998 2.961 54
74.151001 -0.82700002 2.8099999 67
73.945 -0.83399999 2.6470001 83
73.897003 -0.84200001 2.4890001 74
73.873001 -0.84899998 2.335 78
73.733002 -0.85500002 2.175 75
73.474998 -0.86000001 2.0120001 63
69.353996 -0.81800002 1.7539999 10
69.325996 -0.82300001 1.609 67
69.524002 -0.83099997 1.464 80
69.367996 -0.83399999 1.314 24
0 0 0 0
0 0 0 0
0 0 0 0
0 0 0 0
0 0 0 25
0 0 0 0
0 0 0 0
0 0 0 0
0 0 0 10
74.029999 -0.91500002 -0.167 37
74.015999 -0.91500002 -0.324 75
74.015999 -0.91399997 -0.48199999 74
74.005997 -0.91299999 -0.639 47
0 0 0 0
0 0 0 65
134.80299 -1.65 -2.0220001 48
134.838 -1.645 -2.313 64
134.821 -1.638 -2.596 88
134.80099 -1.63 -2.8829999 77
134.826 -1.6210001 -3.1700001 33
0 0 0 25
0 0 0 25
0 0 0 147
46.938999 -0.54900002 -1.503 162
46.969002 -0.54500002 -1.605 191
46.916 -0.53899997 -1.704 227
46.905998 -0.53399998 -1.802 218
46.886002 -0.528 -1.898 214
46.867001 -0.52200001 -1.9960001 170
46.841999 -0.51499999 -2.095 151
46.736 -0.50800002 -2.1889999 3
0 0 0 0
0 0 0 0
0 0 0 0
0 0 0 1
0 0 0 1
19.271999 -0.191 -1.1440001 1
0 0 0 2
16.790001 -0.16 -1.068 2
15.801 -0.147 -1.038 3
14.884 -0.13500001 -1.0089999 3
14.169 -0.126 -0.99000001 4
13.463 -0.117 -0.96899998 3
12.787 -0.108 -0.94700003 3
12.185 -0.1 -0.92799997 2
11.628 -0.093000002 -0.90899998 3
11.142 -0.086000003 -0.89399999 4
10.736 -0.079999998 -0.884 4
10.259 -0.074000001 -0.866 2
9.8009996 -0.068000004 -0.84799999 4
9.342 -0.063000001 -0.82700002 3
8.9300003 -0.057 -0.80900002 9
8.6350002 -0.052999999 -0.80000001 14
8.3500004 -0.048999999 -0.79100001 16
8.1280003 -0.045000002 -0.787 12
7.8600001 -0.041000001 -0.77700001 9
7.5050001 -0.037 -0.75700003 5
7.2459998 -0.034000002 -0.74599999 5
7.0180001 -0.029999999 -0.73699999 6
6.8130002 -0.027000001 -0.72899997 5
6.6259999 -0.024 -0.72299999 5
6.4460001 -0.021 -0.71600002 4
6.2810001 -0.018999999 -0.70999998 4
6.1350002 -0.016000001 -0.70599997 4
5.9710002 -0.014 -0.699 3
5.835 -0.011 -0.69499999 3
5.6789999 -0.0089999996 -0.68800002 3
5.5489998 -0.0070000002 -0.68300003 3
5.4089999 -0.0040000002 -0.67699999 4
5.2800002 -0.0020000001 -0.671 3
5.1820002 0 -0.67000002 4
5.0749998 0.001 -0.66500002 3
4.9660001 0.003 -0.66100001 2
4.8579998 0.0049999999 -0.65600002 4
4.7670002 0.0060000001 -0.653 2
4.6739998 0.0080000004 -0.64999998 2
4.5900002 0.0099999998 -0.64700001 2
4.5180001 0.012 -0.64600003 2
4.4239998 0.013 -0.64099997 4
4.322 0.015 -0.63499999 2
4.25 0.017000001 -0.63200003 2
4.1810002 0.017999999 -0.63 2
4.1139998 0.02 -0.62800002 2
4.0710001 0.021 -0.62900001 2
3.9790001 0.023 -0.62199998 1
3.9260001 0.024 -0.62199998 1
3.8629999 0.026000001 -0.61900002 1
3.8180001 0.027000001 -0.61900002 3
3.7839999 0.028999999 -0.62099999 2
3.747 0.029999999 -0.62199998 2
3.727 0.032000002 -0.625 2
3.615 0.033 -0.61299998 2
3.5580001 0.034000002 -0.61000001 2
3.5799999 0.035999998 -0.62 3
3.4779999 0.037 -0.60900003 1
3.4549999 0.037999999 -0.61199999 2
3.431 0.039999999 -0.61400002 2
3.3929999 0.041000001 -0.61299998 2
3.382 0.041999999 -0.61699998 2
3.372 0.044 -0.62199998 2
3.2539999 0.044 -0.60600001 2
3.302 0.046999998 -0.62099999 2
3.21 0.046999998 -0.60900003 1
3.2550001 0.050000001 -0.62300003 1
3.1170001 0.048999999 -0.60299999 1
3.0969999 0.050999999 -0.60399997 2
3 0.050999999 -0.59100002 2
2.9649999 0.052000001 -0.58899999 2
2.9330001 0.052999999 -0.58700001 2
2.888 0.052999999 -0.583 2
2.865 0.055 -0.58399999 2
2.8440001 0.056000002 -0.58399999 2
2.812 0.057 -0.583 2
2.868 0.059999999 -0.59899998 1
2.7620001 0.059 -0.58200002 1
2.8510001 0.063000001 -0.60500002 1
2.6900001 0.061000001 -0.57599998 1
2.6659999 0.061999999 -0.57499999 1
2.688 0.064000003 -0.58399999 1
2.723 0.066 -0.59600002 1
2.5929999 0.064999998 -0.57200003 1
2.573 0.066 -0.57200003 1
2.5580001 0.067000002 -0.57300001 1
2.5769999 0.068999998 -0.58099997 1
2.651 0.071999997 -0.602 1
2.5409999 0.071000002 -0.58099997 1
2.5209999 0.071999997 -0.58099997 1
2.4519999 0.071000002 -0.56900001 1
2.424 0.071999997 -0.56599998 1
2.4089999 0.072999999 -0.56599998 1
2.3870001 0.074000001 -0.565 1
2.378 0.075000003 -0.56599998 1
2.355 0.075999998 -0.56400001 1
2.336 0.077 -0.56300002 1
2.316 0.078000002 -0.56199998 1
2.3039999 0.079000004 -0.56300002 1
2.286 0.079000004 -0.56199998 1
2.2739999 0.079999998 -0.56199998 1
2.2590001 0.081 -0.56199998 1
2.243 0.082000002 -0.56099999 1
2.2260001 0.082999997 -0.56 1
2.214 0.083999999 -0.56 1
2.2 0.085000001 -0.56 1
2.181 0.085000001 -0.55800003 1
2.164 0.086000003 -0.55699998 1
2.158 0.086999997 -0.55800003 1
2.1440001 0.088 -0.55800003 1
2.131 0.089000002 -0.55699998 1
2.1199999 0.090000004 -0.55699998 1
2.105 0.090999998 -0.55599999 1
2.095 0.092 -0.55599999 1
2.086 0.093000002 -0.55699998 1
2.076 0.093000002 -0.55699998 1
2.063 0.093999997 -0.55599999 1
2.056 0.094999999 -0.55699998 2
2.039 0.096000001 -0.55500001 2
