# .PCD v0.7 - Point Cloud Data file format
VERSION 0.7
FIELDS x y z intensity
SIZE 4 4 4 4
TYPE F F F F
COUNT 1 1 1 1
WIDTH 1815
HEIGHT 1
VIEWPOINT 0 0 0 1 0 0 0
POINTS 1815
DATA ascii
7.6459999 -2.7049999 -0.69599998 4
7.6399999 -2.701 -0.69800001 3
7.6430001 -2.701 -0.70200002 3
7.632 -2.6949999 -0.70300001 4
7.6300001 -2.6919999 -0.70499998 4
7.6300001 -2.6900001 -0.708 4
7.6279998 -2.687 -0.71100003 4
7.6370001 -2.688 -0.71399999 4
7.6259999 -2.681 -0.71600002 4
7.6290002 -2.6800001 -0.71799999 4
7.6170001 -2.6730001 -0.71899998 3
7.6139998 -2.6689999 -0.722 3
7.6209998 -2.6689999 -0.72500002 3
7.612 -2.6630001 -0.72600001 3
7.6100001 -2.6589999 -0.72799999 3
7.6100001 -2.6559999 -0.73100001 3
7.6100001 -2.652 -0.73299998 3
7.5960002 -2.6440001 -0.73400003 3
7.599 -2.641 -0.73699999 3
7.6069999 -2.641 -0.74000001 3
7.6020002 -2.635 -0.741 4
7.5970001 -2.6300001 -0.74299997 4
7.5949998 -2.625 -0.745 5
7.5669999 -2.6110001 -0.74400002 5
7.5760002 -2.6099999 -0.74699998 5
7.5749998 -2.6059999 -0.74900001 5
7.5780001 -2.602 -0.75099999 5
7.5749998 -2.5969999 -0.75199997 5
7.5630002 -2.5880001 -0.75300002 5
7.5689998 -2.586 -0.755 4
7.5630002 -2.579 -0.75700003 6
7.5599999 -2.573 -0.75800002 4
7.5599999 -2.5680001 -0.75999999 5
7.5630002 -2.5639999 -0.76200002 6
7.553 -2.5550001 -0.76200002 8
7.5599999 -2.552 -0.76499999 10
7.5370002 -2.539 -0.764 12
7.5320001 -2.5320001 -0.76499999 14
7.5359998 -2.5280001 -0.76700002 14
7.5339999 -2.5220001 -0.76800001 14
7.5229998 -2.5120001 -0.76800001 14
7.5180001 -2.5050001 -0.76899999 14
7.5170002 -2.4979999 -0.77100003 11
7.5019999 -2.4879999 -0.76999998 11
7.4899998 -2.477 -0.76999998 11
7.4660001 -2.4630001 -0.76899999 10
7.461 -2.4549999 -0.76999998 10
7.4349999 -2.441 -0.76800001 8
7.4229999 -2.4300001 -0.76800001 8
7.402 -2.4170001 -0.76700002 6
7.369 -2.3989999 -0.76499999 6
7.355 -2.388 -0.764 6
7.3319998 -2.3740001 -0.76300001 6
7.3119998 -2.3610001 -0.76099998 6
7.3010001 -2.3499999 -0.76099998 5
7.2690001 -2.3329999 -0.759 5
7.25 -2.3199999 -0.75800002 5
7.2280002 -2.306 -0.75599998 5
7.2129998 -2.2939999 -0.755 5
7.217 -2.2880001 -0.75599998 5
7.191 -2.2720001 -0.75400001 4
7.177 -2.26 -0.75300002 4
7.1630001 -2.2490001 -0.75199997 4
7.1500001 -2.237 -0.75099999 4
7.1399999 -2.2260001 -0.75099999 4
7.1370001 -2.217 -0.75099999 4
7.1339998 -2.2090001 -0.75099999 4
7.1259999 -2.198 -0.75099999 5
7.1160002 -2.187 -0.75 4
7.1020002 -2.175 -0.74800003 4
7.1170001 -2.171 -0.75 4
7.0960002 -2.1570001 -0.74800003 4
7.0970001 -2.1489999 -0.74800003 4
7.085 -2.1370001 -0.74699998 4
7.0910001 -2.131 -0.74800003 4
7.0780001 -2.118 -0.74699998 4
7.066 -2.1059999 -0.745 4
7.086 -2.1040001 -0.74699998 4
7.0739999 -2.0910001 -0.74599999 4
7.0840001 -2.086 -0.74699998 5
7.085 -2.0769999 -0.74699998 5
7.0770001 -2.066 -0.74599999 4
7.0689998 -2.0539999 -0.74400002 4
7.0739999 -2.0469999 -0.745 4
7.0760002 -2.0380001 -0.745 4
7.079 -2.03 -0.74400002 4
7.0710001 -2.0179999 -0.74299997 4
7.0910001 -2.0150001 -0.745 5
7.098 -2.007 -0.745 4
7.0939999 -1.9960001 -0.74400002 4
7.1020002 -1.989 -0.74400002 5
7.1139998 -1.983 -0.745 5
7.1149998 -1.973 -0.74400002 4
7.1139998 -1.9630001 -0.74299997 4
7.1300001 -1.9579999 -0.74400002 4
7.1290002 -1.947 -0.74299997 4
7.138 -1.9400001 -0.74299997 4
7.151 -1.933 -0.74400002 4
7.1529999 -1.924 -0.74299997 4
7.1560001 -1.914 -0.74199998 4
7.1880002 -1.9119999 -0.74400002 4
7.1890001 -1.902 -0.74299997 4
7.2080002 -1.897 -0.74400002 4
7.224 -1.89 -0.74400002 3
7.2420001 -1.8839999 -0.745 3
7.2340002 -1.8710001 -0.74299997 3
7.2550001 -1.865 -0.74400002 3
7.2800002 -1.8609999 -0.745 4
7.2919998 -1.853 -0.74400002 3
7.322 -1.849 -0.74599999 4
7.335 -1.841 -0.74599999 4
7.3769999 -1.841 -0.74900001 4
7.3969998 -1.834 -0.74900001 4
7.4289999 -1.831 -0.75 4
7.4580002 -1.826 -0.75099999 4
7.4809999 -1.8200001 -0.75199997 4
7.4980001 -1.812 -0.75199997 3
7.5250001 -1.807 -0.75199997 4
7.5510001 -1.801 -0.75300002 3
7.5869999 -1.798 -0.75400001 4
7.631 -1.796 -0.75700003 4
7.664 -1.791 -0.75800002 4
7.691 -1.784 -0.75800002 3
7.7360001 -1.7819999 -0.75999999 4
7.7839999 -1.78 -0.76200002 4
7.7950001 -1.77 -0.76099998 4
7.8379998 -1.767 -0.76300001 4
7.8610001 -1.7589999 -0.76200002 4
7.9180002 -1.7589999 -0.76499999 4
7.9489999 -1.752 -0.76499999 4
7.9790001 -1.745 -0.76499999 4
8.0380001 -1.745 -0.76800001 4
8.0749998 -1.739 -0.76899999 4
8.118 -1.735 -0.76999998 4
8.1569996 -1.729 -0.76999998 4
8.1990004 -1.724 -0.77100003 4
8.2670002 -1.724 -0.77399999 4
8.3310003 -1.723 -0.77700001 3
8.3579998 -1.714 -0.77600002 4
8.4259996 -1.7130001 -0.77899998 4
8.4820004 -1.71 -0.77999997 3
8.5310001 -1.705 -0.78100002 4
8.5799999 -1.7 -0.78200001 4
8.6490002 -1.698 -0.78399998 3
8.7270002 -1.698 -0.787 4
8.7880001 -1.694 -0.78899997 4
8.8459997 -1.6900001 -0.79000002 4
8.9230003 -1.689 -0.792 4
8.9630003 -1.681 -0.792 4
9.0200005 -1.675 -0.792 4
9.1079998 -1.675 -0.79500002 3
9.1739998 -1.671 -0.79699999 3
9.2819996 -1.674 -0.801 3
9.3699999 -1.673 -0.80400002 3
9.4359999 -1.6670001 -0.80400002 3
9.5410004 -1.668 -0.80800003 3
9.6140003 -1.664 -0.81 3
9.7290001 -1.666 -0.81400001 3
9.8319998 -1.666 -0.81699997 2
9.9510002 -1.668 -0.82099998 2
10.08 -1.6720001 -0.82700002 2
10.205 -1.674 -0.83099997 2
10.311 -1.6720001 -0.833 3
10.443 -1.674 -0.838 3
10.459 -1.6569999 -0.833 4
10.606 -1.661 -0.838 3
10.772 -1.668 -0.84500003 3
10.871 -1.663 -0.84600002 3
11.003 -1.663 -0.84899998 2
11.135 -1.6619999 -0.852 2
11.283 -1.663 -0.85600001 2
11.434 -1.664 -0.86000001 2
11.598 -1.666 -0.86500001 3
11.763 -1.668 -0.86900002 2
11.906 -1.665 -0.87199998 2
12.067 -1.666 -0.87599999 2
12.233 -1.666 -0.87900001 3
12.454 -1.6720001 -0.88700002 3
12.643 -1.674 -0.89099997 3
12.86 -1.678 -0.89700001 3
13.044 -1.678 -0.90100002 3
13.229 -1.677 -0.90399998 3
13.498 -1.686 -0.91299999 3
13.682 -1.683 -0.91500002 3
13.907 -1.6849999 -0.92000002 3
14.191 -1.693 -0.92799997 3
14.447 -1.696 -0.93400002 2
14.734 -1.701 -0.94099998 2
14.767 -1.677 -0.93199998 3
15.373 -1.7180001 -0.958 2
15.714 -1.726 -0.96700001 3
16.158001 -1.744 -0.98100001 3
15.875 -1.684 -0.95200002 2
16.202999 -1.688 -0.958 3
16.612 -1.699 -0.96899998 4
16.99 -1.705 -0.977 5
17.547001 -1.729 -0.99400002 3
0 0 0 0
0 0 0 4
0 0 0 4
20.490999 -1.863 -1.092 3
20.861 -1.858 -1.0930001 5
21.131001 -1.842 -1.089 5
21.362 -1.821 -1.082 5
21.593 -1.8 -1.075 6
0 0 0 1
25.488001 -2.0280001 -1.223 1
25.908001 -2.013 -1.219 2
25.948 -1.967 -1.198 2
26.014 -1.923 -1.177 5
25.979 -1.8710001 -1.151 24
25.924 -1.819 -1.124 140
25.952 -1.772 -1.101 150
26.056 -1.729 -1.08 150
26.152 -1.686 -1.059 11
0 0 0 0
0 0 0 24
38.104 -2.2409999 -1.432 10
37.966999 -2.1630001 -1.39 6
0 0 0 87
30.658001 -1.631 -1.061 167
30.648001 -1.573 -1.03 255
30.716 -1.521 -1.002 255
30.704 -1.4630001 -0.97100002 108
30.663 -1.405 -0.93800002 1
0 0 0 56
42.348 -1.7819999 -1.209 49
42.446999 -1.7079999 -1.1670001 40
42.731998 -1.64 -1.13 38
43.036999 -1.572 -1.0930001 38
43.405998 -1.5039999 -1.0549999 38
43.659 -1.432 -1.015 47
43.672001 -1.352 -0.96799999 36
43.731998 -1.273 -0.92199999 28
43.754002 -1.194 -0.87599999 26
43.792 -1.115 -0.829 5
0 0 0 60
66.460999 -1.449 -1.1109999 45
69.655998 -1.391 -1.087 42
71.912003 -1.3049999 -1.0420001 14
72.285004 -1.181 -0.96700001 63
75.142998 -1.091 -0.92000002 17
0 0 0 0
0 0 0 0
0 0 0 0
0 0 0 120
133.5 -0.73500001 -0.87 97
133.44099 -0.49599999 -0.71499997 56
133.342 -0.257 -0.55800003 74
133.274 -0.023 -0.40400001 89
133.255 0.213 -0.24699999 99
133.248 0.44600001 -0.090999998 74
133.246 0.685 0.068000004 55
0 0 0 0
0 0 0 0
0 0 0 25
0 0 0 0
0 0 0 0
0 0 0 0
0 0 0 16
88.142998 1.677 0.89300001 17
88.156998 1.829 1.002 14
0 0 0 0
0 0 0 0
0 0 0 0
0 0 0 0
0 0 0 0
0 0 0 0
0 0 0 25
88.853996 3.0510001 1.9 16
87.762001 3.161 1.988 24
87.539001 3.299 2.095 29
87.767998 3.4560001 2.214 31
87.966003 3.608 2.3310001 19
88.988998 3.7969999 2.473 17
89.125999 3.9489999 2.592 17
89.693001 4.1209998 2.724 26
90.077003 4.2859998 2.8529999 22
89.841003 4.421 2.9630001 53
0 0 0 0
0 0 0 23
86.935997 4.6999998 3.2079999 21
86.765999 4.8299999 3.3169999 29
86.617996 4.96 3.425 24
86.639 5.099 3.5409999 17
0 0 0 0
0 0 0 17
91.908997 5.8439999 4.1240001 24
91.499001 5.961 4.2280002 27
91.266998 6.086 4.3369999 24
0 0 0 0
0 0 0 18
0 0 0 59
116.674 8.4960003 6.1700001 98
116.648 8.6680002 6.3260002 90
116.658 8.8450003 6.4840002 99
116.636 9.0229998 6.6430001 79
116.642 9.198 6.802 83
116.623 9.3649998 6.9549999 86
116.65 9.5410004 7.1160002 73
116.654 9.717 7.277 68
116.67 9.8889999 7.4380002 32
116.612 10.055 7.5939999 26
0 0 0 0
0 0 0 40
0 0 0 38
131.159 12.065 9.2589998 36
0 0 0 7
62.632 5.9349999 4.5900002 15
0 0 0 0
0 0 0 0
0 0 0 0
0 0 0 0
0 0 0 0
0 0 0 0
0 0 0 33
116.774 12.352 9.842 43
116.763 12.51 10.006 45
116.806 12.669 10.169 33
0 0 0 20
71.822998 7.98 6.4520001 24
0 0 0 5
0 0 0 0
0 0 0 19
46.998001 5.4640002 4.48 35
46.896 5.5120001 4.5359998 27
46.632 5.54 4.5749998 35
46.59 5.5949998 4.6360002 46
46.349998 5.6230001 4.6750002 45
46.199001 5.664 4.7249999 45
46.196999 5.7189999 4.7880001 45
45.780998 5.724 4.8080001 36
45.702 5.7690001 4.8629999 26
45.59 5.8119998 4.915 26
45.563999 5.8629999 4.9749999 12
45.646 5.928 5.0469999 5
47.790001 6.2620001 5.349 28
48.021999 6.3499999 5.441 14
0 0 0 21
0 0 0 0
0 0 0 33
69.698997 9.5369997 8.2799997 29
0 0 0 8
63.028 8.7670002 7.6609998 12
62.875999 8.8140001 7.7280002 17
62.799 8.8719997 7.803 23
0 0 0 0
0 0 0 7
0 0 0 0
0 0 0 6
46.749001 6.8569999 6.1269999 15
46.748001 6.908 6.191 21
46.712002 6.9510002 6.2490001 33
46.527 6.9710002 6.2870002 24
46.277 6.9809999 6.316 26
44.648998 6.7810001 6.1539998 10
46.219002 7.0650001 6.4310002 37
45.846001 7.0539999 6.4400001 32
45.390999 7.0289998 6.4369998 32
45.318001 7.0609999 6.487 35
45.153 7.0780001 6.5219998 37
44.846001 7.0739999 6.5380001 43
44.620998 7.0809999 6.5640001 43
44.521 7.1069999 6.6079998 35
44.483002 7.1420002 6.6609998 27
44.493 7.184 6.7210002 19
0 0 0 0
0 0 0 17
63.025002 10.347 9.7679996 30
62.893002 10.381 9.8290005 33
0 0 0 0
0 0 0 0
0 0 0 17
59.203999 9.9750004 9.5559998 29
58.998001 9.9890003 9.5979996 39
58.827999 10.01 9.6450005 41
58.547001 10.01 9.6730003 43
58.421001 10.035 9.7259998 41
58.341999 10.068 9.7860003 40
58.237 10.096 9.842 40
58.084999 10.114 9.8879995 42
57.870998 10.121 9.9239998 41
57.675999 10.131 9.9619999 41
57.584 10.159 10.017 31
57.276001 10.147 10.034 37
57.161999 10.168 10.084 38
57.054001 10.19 10.134 39
57.021 10.226 10.197 31
0 0 0 6
43.681 7.8940001 7.915 12
43.619999 7.9120002 7.9559999 13
43.573002 7.9330001 8 16
43.486 7.9450002 8.0349998 28
43.349998 7.948 8.0609999 40
43.209999 7.9499998 8.0860004 39
43.105999 7.9580002 8.1160002 34
43.034 7.9720001 8.1529999 49
43.000999 7.9920001 8.1949997 40
42.896 7.9980001 8.224 35
42.810001 8.007 8.2559996 40
42.741001 8.0190001 8.2910004 35
42.598 8.0159998 8.3100004 36
42.480999 8.0179996 8.335 34
42.425999 8.0310001 8.3710003 36
42.355 8.04 8.4040003 28
42.327999 8.0570002 8.4449997 21
42.318001 8.0769997 8.4879999 16
42.341 8.1029997 8.5389996 9
42.366001 8.1289997 8.5889997 6
42.445999 8.165 8.651 5
42.429001 8.1829996 8.6920004 4
0 0 0 25
0 0 0 4
43.442001 8.4370003 9.0360003 8
43.473 8.4630003 9.0869999 17
43.426998 8.4729996 9.1210003 27
43.451 8.4949999 9.1700001 34
43.448002 8.5129995 9.2130003 34
43.414001 8.5229998 9.25 40
43.402 8.5380001 9.29 31
43.396999 8.5530005 9.3319998 28
43.347 8.559 9.3640003 28
43.289001 8.5649996 9.3920002 30
43.259998 8.5740004 9.427 32
43.220001 8.5810003 9.4589996 33
43.152 8.5810003 9.4849997 32
43.026001 8.5699997 9.4980001 33
42.869999 8.552 9.5030003 33
42.772999 8.5459995 9.5209999 33
42.675999 8.5380001 9.5380001 33
42.639999 8.5430002 9.5690002 32
42.669998 8.5609999 9.6120005 31
42.769001 8.592 9.6730003 29
42.582001 8.5649996 9.6680002 27
42.483002 8.5550003 9.6820002 29
42.452 8.559 9.7110004 21
42.405998 8.559 9.7370005 29
42.591999 8.6059999 9.8140001 31
42.521 8.6000004 9.8330002 32
42.484001 8.6009998 9.8599997 33
42.553001 8.6219997 9.9110003 32
42.477001 8.6140003 9.927 31
42.449001 8.6160002 9.9530001 27
42.435001 8.6190004 9.9829998 23
42.376999 8.6129999 10.002 17
42.398998 8.6230001 10.039 13
42.412998 8.632 10.074 9
0 0 0 0
0 0 0 0
0 0 0 0
0 0 0 0
0 0 0 0
0 0 0 0
0 0 0 0
0 0 0 0
0 0 0 23
0 0 0 0
0 0 0 22
0 0 0 0
0 0 0 29
116.088 23.705999 28.676001 25
116.094 23.707001 28.746 32
115.961 23.676001 28.782 31
115.95 23.667999 28.847 36
116.006 23.673 28.927 47
116.019 23.667999 28.996 53
116.002 23.656 29.055 53
116.014 23.650999 29.118999 53
116.044 23.646 29.188 62
115.95 23.615 29.224001 59
115.993 23.613001 29.292 54
116 23.6 29.351999 60
116.002 23.582001 29.410999 58
116.018 23.570999 29.468 55
0 0 0 0
0 0 0 0
0 0 0 0
0 0 0 0
0 0 0 7
44.208 8.9359999 11.344 10
44.191002 8.9250002 11.356 16
44.146 8.9060001 11.362 21
44.077999 8.882 11.361 26
44.046001 8.8660002 11.369 28
43.952 8.8369999 11.36 29
43.887001 8.8129997 11.358 26
43.805 8.7849998 11.351 25
43.727001 8.757 11.345 25
43.648998 8.7290001 11.338 25
43.563 8.6999998 11.329 25
43.530998 8.6820002 11.333 25
43.478001 8.658 11.331 25
43.457001 8.6389999 11.338 30
43.407001 8.6160002 11.335 25
43.34 8.5880003 11.328 25
43.228001 8.552 11.308 29
43.165001 8.5240002 11.301 31
43.139 8.5039997 11.303 33
43.111 8.4820004 11.304 35
43.103001 8.4659996 11.309 38
43.104 8.4490004 11.317 35
43.132999 8.4379997 11.332 38
43.132 8.4200001 11.338 37
43.155998 8.4069996 11.35 40
43.176998 8.3929996 11.361 42
43.195 8.3789997 11.37 40
43.205002 8.3620005 11.377 35
43.237 8.3500004 11.389 34
43.229 8.3290005 11.39 32
43.237999 8.3109999 11.396 31
43.193001 8.2819996 11.386 31
43.174999 8.2580004 11.383 31
43.198002 8.2419996 11.39 25
43.236 8.2279997 11.401 13
43.067001 8.1739998 11.357 3
0 0 0 0
0 0 0 23
116.537 21.941 30.725 30
116.562 21.879999 30.729 26
116.546 21.813999 30.719 24
116.565 21.756001 30.715 26
116.551 21.688 30.702 27
116.499 21.612 30.679001 24
0 0 0 0
0 0 0 0
0 0 0 0
0 0 0 0
0 0 0 0
0 0 0 0
0 0 0 0
0 0 0 0
0 0 0 0
0 0 0 0
0 0 0 0
0 0 0 0
0 0 0 0
0 0 0 23
0 0 0 0
0 0 0 0
0 0 0 0
0 0 0 0
0 0 0 0
0 0 0 0
0 0 0 0
0 0 0 0
0 0 0 0
0 0 0 0
0 0 0 0
0 0 0 0
0 0 0 0
0 0 0 25
116.397 19.333 29.750999 32
116.379 19.24 29.695 63
116.379 19.148001 29.642 49
116.408 19.061001 29.594999 45
116.467 18.978001 29.555 50
116.358 18.870001 29.469 46
116.422 18.787001 29.427 47
116.443 18.695 29.372999 54
116.448 18.601 29.312 47
116.438 18.503 29.247 43
116.442 18.41 29.184 53
116.429 18.311001 29.115999 50
116.408 18.209 29.044001 51
116.468 18.120001 28.990999 48
116.446 18.017 28.916 42
116.434 17.917 28.839001 49
116.463 17.820999 28.774 46
116.484 17.725 28.709 50
116.488 17.624001 28.635 49
116.496 17.523001 28.559999 50
116.526 17.427999 28.49 49
116.499 17.32 28.405001 52
116.548 17.223 28.336 51
116.55 17.122 28.254999 51
116.55 17.02 28.172001 57
116.551 16.915001 28.087999 52
116.564 16.809999 28.006001 47
116.529 16.698 27.91 48
116.546 16.593 27.826 71
116.602 16.493 27.75 34
0 0 0 0
0 0 0 0
0 0 0 0
0 0 0 0
0 0 0 0
0 0 0 0
0 0 0 0
0 0 0 0
0 0 0 0
0 0 0 0
0 0 0 0
0 0 0 25
116.804 15.079 26.511 31
116.813 14.966 26.405001 27
116.802 14.85 26.292999 26
0 0 0 0
0 0 0 25
116.742 14.499 25.945 26
116.762 14.385 25.834999 28
116.758 14.27 25.715 42
116.71 14.149 25.591 34
116.702 14.032 25.468 43
116.715 13.915 25.355 57
116.71 13.798 25.23 57
116.723 13.681 25.110001 60
116.767 13.568 24.996 64
116.764 13.449 24.871 62
116.757 13.332 24.745001 62
116.786 13.216 24.624001 58
116.724 13.09 24.483 45
116.867 12.986 24.382999 39
116.939 12.874 24.268 35
117.006 12.761 24.149 27
117.166 12.657 24.049 25
117.131 12.532 23.907 23
117.168 12.419 23.780001 26
0 0 0 0
0 0 0 0
0 0 0 0
0 0 0 0
0 0 0 0
0 0 0 0
0 0 0 0
0 0 0 0
0 0 0 0
0 0 0 0
0 0 0 26
117.014 10.941 22.028 28
117.035 10.82 21.877001 31
117.047 10.699 21.726999 32
116.973 10.569 21.559999 35
116.95 10.447 21.407 54
116.925 10.322 21.247 59
116.938 10.203 21.094 74
116.944 10.081 20.937 73
116.949 9.9580002 20.778999 69
116.925 9.8360004 20.617001 81
116.956 9.7159996 20.461 68
116.998 9.6000004 20.308001 65
117.05 9.4809999 20.153999 54
117.157 9.3660002 20.007 31
117.243 9.25 19.856001 27
117.213 9.1280003 19.686001 31
117.156 9.0030003 19.514 30
117.22 8.8830004 19.351 30
117.186 8.757 19.174999 31
117.212 8.6359997 19.009001 34
117.201 8.5129995 18.834999 30
117.314 8.3979998 18.68 28
117.164 8.2679996 18.483999 35
117.232 8.151 18.319 32
117.252 8.0299997 18.146 26
117.141 7.901 17.952 26
117.282 7.789 17.792 27
117.137 7.6539998 17.589001 33
117.075 7.5320001 17.402 40
117.102 7.4120002 17.225 59
117.126 7.2930002 17.046 65
117.06 7.1680002 16.854 79
117.09 7.0489998 16.674 73
117.129 6.9310002 16.495001 63
117.117 6.8109999 16.306999 55
117.225 6.697 16.136 43
117.336 6.5830002 15.963 33
0 0 0 0
0 0 0 28
117.575 6.2410002 15.426 26
117.501 6.118 15.225 26
117.42 5.9949999 15.021 31
117.508 5.881 14.839 30
117.427 5.7589998 14.634 33
117.492 5.6469998 14.445 32
117.485 5.5300002 14.248 35
117.558 5.4159999 14.059 39
117.645 5.303 13.871 24
0 0 0 0
0 0 0 30
117.156 4.9359999 13.217 61
117.19 4.823 13.02 34
119.685 4.8080001 13.091 62
119.708 4.6929998 12.886 78
119.668 4.5770001 12.676 69
119.716 4.4629998 12.473 67
119.705 4.3449998 12.259 82
119.72 4.2329998 12.053 86
119.724 4.118 11.842 75
119.797 4.007 11.637 51
125.73 4.086 11.99 27
125.864 3.974 11.781 27
125.774 3.852 11.547 27
0 0 0 0
0 0 0 0
0 0 0 0
0 0 0 0
0 0 0 28
119.793 3.007 9.7040005 50
119.894 2.9000001 9.4919996 48
119.877 2.79 9.2670002 41
119.922 2.6860001 9.0550003 41
119.993 2.5810001 8.8409996 35
120.011 2.474 8.6199999 35
119.998 2.3670001 8.3950005 30
119.964 2.26 8.1689997 29
120.066 2.1559999 7.9510002 29
119.856 2.0480001 7.7119999 27
119.999 1.948 7.4980001 25
119.824 1.841 7.2600002 46
119.772 1.737 7.0300002 60
119.825 1.635 6.8060002 74
119.808 1.535 6.5799999 58
0 0 0 0
0 0 0 0
0 0 0 73
119.93 1.136 5.6700001 73
120.276 1.04 5.454 46
0 0 0 0
0 0 0 0
0 0 0 0
0 0 0 0
0 0 0 11
82.321999 0.317 2.7809999 22
82.487999 0.25299999 2.625 41
82.726997 0.189 2.47 26
85.000999 0.12800001 2.3710001 17
85.060997 0.064000003 2.207 15
86.543999 0 2.075 15
83.804001 -0.064000003 1.8430001 23
83.776001 -0.127 1.677 40
83.583 -0.18799999 1.5089999 35
85.323997 -0.255 1.3710001 21
85.463997 -0.31799999 1.2029999 22
85.892998 -0.382 1.0369999 13
0 0 0 25
0 0 0 0
0 0 0 0
0 0 0 46
72.771004 -0.58200002 0.149 65
72.762001 -0.63200003 0.0040000002 48
72.778999 -0.68199998 -0.141 23
0 0 0 56
133.578 -1.431 -0.796 29
0 0 0 0
0 0 0 0
0 0 0 37
133.563 -1.78 -1.876 44
0 0 0 18
72.903 -1.064 -1.321 42
72.819 -1.109 -1.467 42
71.856003 -1.1390001 -1.595 55
71.858002 -1.183 -1.7410001 25
0 0 0 4
0 0 0 5
57.210999 -1.044 -1.7359999 46
57.208 -1.0779999 -1.853 54
57.241001 -1.112 -1.97 18
0 0 0 0
0 0 0 0
0 0 0 0
0 0 0 0
0 0 0 0
0 0 0 1
0 0 0 0
0 0 0 1
0 0 0 1
0 0 0 1
0 0 0 2
15.371 -0.398 -0.90899998 2
14.569 -0.384 -0.89099997 3
13.814 -0.37099999 -0.87300003 3
13.187 -0.36000001 -0.861 3
12.614 -0.34999999 -0.84899998 3
12.006 -0.33899999 -0.833 2
11.527 -0.331 -0.82300001 2
11.004 -0.32100001 -0.80800003 2
10.571 -0.31299999 -0.79799998 2
10.163 -0.30500001 -0.78799999 3
9.7819996 -0.29800001 -0.77899998 4
9.4399996 -0.29100001 -0.77100003 4
9.066 -0.28400001 -0.759 3
8.7200003 -0.27599999 -0.74800003 3
8.4379997 -0.271 -0.741 4
8.1090002 -0.264 -0.72899997 3
7.8319998 -0.25799999 -0.72000003 4
7.585 -0.252 -0.713 4
7.3629999 -0.248 -0.70700002 3
7.1030002 -0.241 -0.69700003 3
6.895 -0.237 -0.69 3
6.723 -0.233 -0.68699998 4
6.5100002 -0.228 -0.67799997 3
6.335 -0.22400001 -0.67299998 4
6.1669998 -0.22 -0.66799998 4
5.993 -0.21600001 -0.66100001 5
5.836 -0.212 -0.65600002 4
5.6830001 -0.208 -0.64999998 5
5.5630002 -0.206 -0.648 4
5.454 -0.20299999 -0.64600003 4
5.3340001 -0.2 -0.64200002 3
5.197 -0.197 -0.63599998 4
5.0479999 -0.192 -0.62800002 6
4.9460001 -0.19 -0.62599999 9
4.8779998 -0.189 -0.62699997 11
4.7800002 -0.186 -0.62400001 11
4.6799998 -0.183 -0.62 12
4.5900002 -0.18099999 -0.61699998 11
4.507 -0.17900001 -0.61500001 10
4.4320002 -0.177 -0.61400002 9
4.3509998 -0.175 -0.611 8
4.2740002 -0.17200001 -0.60900003 8
4.2129998 -0.171 -0.60900003 7
4.1500001 -0.169 -0.60799998 5
4.1500001 -0.17 -0.616 3
3.9990001 -0.164 -0.60100001 2
3.9170001 -0.162 -0.597 2
3.964 -0.16500001 -0.61199999 3
3.8080001 -0.15899999 -0.59500003 3
3.7839999 -0.15800001 -0.59899998 3
3.734 -0.15700001 -0.59799999 2
3.6989999 -0.156 -0.60000002 3
3.609 -0.153 -0.59200001 2
3.562 -0.15099999 -0.59100002 2
3.5079999 -0.149 -0.58899999 2
3.4909999 -0.149 -0.59299999 2
3.483 -0.149 -0.59799999 2
3.4990001 -0.15000001 -0.60799998 2
3.3139999 -0.14300001 -0.58200002 2
3.316 -0.14300001 -0.58899999 2
3.348 -0.145 -0.60100001 2
3.2679999 -0.142 -0.59299999 1
3.1930001 -0.139 -0.58499998 1
3.1900001 -0.139 -0.59100002 1
3.151 -0.13699999 -0.58899999 1
3.1530001 -0.138 -0.59600002 1
3.072 -0.134 -0.58600003 1
3.0769999 -0.13500001 -0.59299999 2
2.983 -0.131 -0.57999998 2
2.8770001 -0.126 -0.565 1
2.845 -0.125 -0.56400001 1
2.813 -0.123 -0.56300002 1
2.7869999 -0.122 -0.56199998 1
2.7590001 -0.121 -0.56199998 1
2.73 -0.12 -0.56099999 1
2.691 -0.118 -0.55800003 1
2.671 -0.117 -0.55900002 1
2.6900001 -0.118 -0.56699997 1
2.625 -0.115 -0.55800003 1
2.5929999 -0.114 -0.55599999 1
2.576 -0.113 -0.55699998 1
2.553 -0.112 -0.55699998 1
2.5320001 -0.111 -0.55599999 1
2.5090001 -0.11 -0.55599999 1
2.4860001 -0.109 -0.55500001 1
2.4649999 -0.108 -0.55500001 1
2.4389999 -0.106 -0.55299997 1
2.421 -0.105 -0.55299997 1
2.395 -0.104 -0.55199999 1
2.3800001 -0.103 -0.55199999 1
2.362 -0.102 -0.55199999 1
2.345 -0.101 -0.55199999 1
2.3139999 -0.1 -0.54900002 1
2.303 -0.098999999 -0.55000001 1
2.2780001 -0.097999997 -0.54799998 1
2.2679999 -0.097000003 -0.54900002 1
2.2550001 -0.097000003 -0.55000001 1
2.2379999 -0.096000001 -0.54900002 1
2.2219999 -0.094999999 -0.54900002 1
2.198 -0.093000002 -0.546 1
2.181 -0.092 -0.546 1
2.1730001 -0.092 -0.54699999 1
2.1500001 -0.090000004 -0.54500002 1
2.132 -0.089000002 -0.54400003 1
2.118 -0.088 -0.54400003 1
2.108 -0.088 -0.54500002 1
2.0940001 -0.086999997 -0.54400003 1
2.0739999 -0.086000003 -0.542 1
2.0650001 -0.085000001 -0.54299998 1
2.053 -0.083999999 -0.54299998 1
2.04 -0.082999997 -0.54299998 1
2.026 -0.082000002 -0.542 1
2.0120001 -0.081 -0.54100001 1
2.01 -0.081 -0.54400003 1
1.995 -0.079999998 -0.54299998 1
1.976 -0.079000004 -0.54000002 1
1.973 -0.078000002 -0.542 1
1.954 -0.077 -0.54000002 1
1.943 -0.075999998 -0.54000002 1
1.9400001 -0.075999998 -0.542 1
1.924 -0.075000003 -0.54000002 1
1.9119999 -0.074000001 -0.54000002 1
1.904 -0.072999999 -0.54000002 1
1.885 -0.071999997 -0.537 1
1.88 -0.071000002 -0.53899997 1
1.868 -0.07 -0.53799999 1
1.863 -0.07 -0.53899997 1
1.846 -0.068999998 -0.53600001 1
1.842 -0.068000004 -0.53799999 1
1.834 -0.067000002 -0.53799999 1
1.83 -0.067000002 -0.53899997 1
1.809 -0.066 -0.53500003 1
1.808 -0.064999998 -0.537 1
1.798 -0.064000003 -0.53600001 1
1.784 -0.063000001 -0.53399998 1
1.78 -0.063000001 -0.53500003 1
1.7690001 -0.061999999 -0.53500003 1
1.761 -0.061000001 -0.53399998 1
1.755 -0.059999999 -0.53399998 1
1.748 -0.059999999 -0.53500003 1
1.737 -0.059 -0.53299999 1
1.73 -0.057999998 -0.53299999 1
1.726 -0.057 -0.53399998 1
1.72 -0.057 -0.53399998 1
1.7130001 -0.056000002 -0.53399998 1
1.6950001 -0.055 -0.52999997 1
1.686 -0.054000001 -0.52899998 1
1.682 -0.052999999 -0.52999997 1
1.675 -0.052999999 -0.52999997 1
1.676 -0.052000001 -0.53200001 1
1.661 -0.050999999 -0.52899998 1
1.664 -0.050999999 -0.53100002 1
1.654 -0.050000001 -0.52999997 1
1.649 -0.048999999 -0.52999997 1
1.6390001 -0.048 -0.52899998 1
1.635 -0.048 -0.52899998 1
1.628 -0.046999998 -0.528 1
1.622 -0.046 -0.528 1
1.614 -0.046 -0.52700001 1
1.61 -0.045000002 -0.52700001 1
1.59 -0.044 -0.52200001 1
1.598 -0.044 -0.52700001 1
1.586 -0.043000001 -0.52399999 1
1.5779999 -0.041999999 -0.523 1
1.605 -0.041999999 -0.53299999 1
1.579 -0.041000001 -0.52600002 1
1.581 -0.039999999 -0.528 1
1.566 -0.039000001 -0.52399999 1
1.567 -0.039000001 -0.52600002 1
1.564 -0.037999999 -0.52600002 1
1.557 -0.037 -0.52499998 1
1.549 -0.037 -0.52399999 1
1.543 -0.035999998 -0.523 1
1.5369999 -0.035 -0.52200001 1
1.54 -0.035 -0.52399999 1
1.546 -0.034000002 -0.528 1
1.539 -0.034000002 -0.52700001 1
1.5319999 -0.033 -0.52499998 1
1.5319999 -0.032000002 -0.52600002 1
1.52 -0.032000002 -0.523 1
1.5190001 -0.030999999 -0.52399999 1
1.5190001 -0.029999999 -0.52499998 1
1.52 -0.029999999 -0.52600002 1
1.503 -0.028999999 -0.52100003 1
1.503 -0.028000001 -0.52200001 1
1.503 -0.028000001 -0.523 1
1.501 -0.027000001 -0.52399999 1
1.505 -0.027000001 -0.52600002 1
1.501 -0.026000001 -0.52499998 1
1.489 -0.025 -0.52200001 1
1.4910001 -0.025 -0.523 1
1.492 -0.024 -0.52399999 1
1.484 -0.023 -0.52200001 1
1.485 -0.023 -0.523 1
1.482 -0.022 -0.523 1
1.479 -0.022 -0.523 1
1.479 -0.021 -0.52399999 1
1.4809999 -0.021 -0.52499998 1
1.474 -0.02 -0.523 1
1.476 -0.018999999 -0.52399999 1
1.469 -0.018999999 -0.52200001 1
1.465 -0.017999999 -0.52200001 1
1.46 -0.017000001 -0.51999998 1
1.4630001 -0.017000001 -0.52200001 1
1.466 -0.016000001 -0.523 1
1.4579999 -0.016000001 -0.52100003 1
1.455 -0.015 -0.51999998 1
1.465 -0.014 -0.52499998 1
1.455 -0.014 -0.52100003 1
1.452 -0.013 -0.52100003 1
1.4630001 -0.013 -0.52499998 1
1.449 -0.012 -0.51999998 1
1.449 -0.011 -0.51999998 1
1.451 -0.011 -0.52200001 1
1.448 -0.0099999998 -0.52100003 1
1.438 -0.0099999998 -0.51800001 1
1.451 -0.0089999996 -0.52200001 1
1.451 -0.0089999996 -0.523 1
1.448 -0.0080000004 -0.52200001 1
1.441 -0.0070000002 -0.51899999 1
1.451 -0.0070000002 -0.523 1
1.442 -0.0060000001 -0.51999998 1
1.451 -0.0060000001 -0.523 1
1.4400001 -0.0049999999 -0.51999998 1
1.442 -0.0040000002 -0.51999998 1
1.4400001 -0.0040000002 -0.51999998 1
1.438 -0.003 -0.51899999 1
1.448 -0.003 -0.523 1
1.442 -0.0020000001 -0.51999998 1
1.4349999 -0.0020000001 -0.51800001 1
1.4400001 -0.001 -0.51999998 1
1.4349999 0 -0.51800001 1
1.442 0 -0.51999998 1
1.434 0 -0.51700002 1
1.444 0 -0.52100003 1
1.428 0.001 -0.51499999 1
1.446 0.001 -0.52100003 1
1.4450001 0.0020000001 -0.52100003 1
1.447 0.003 -0.52100003 1
1.4400001 0.003 -0.51800001 1
1.45 0.0040000002 -0.52200001 1
1.451 0.0040000002 -0.52100003 1
1.452 0.0049999999 -0.52100003 1
1.452 0.0049999999 -0.52100003 1
1.4529999 0.0060000001 -0.52100003 1
1.452 0.0070000002 -0.51999998 1
1.456 0.0070000002 -0.52100003 1
1.455 0.0080000004 -0.52100003 1
1.4529999 0.0080000004 -0.51999998 1
1.455 0.0089999996 -0.51999998 1
1.461 0.0089999996 -0.52100003 1
1.457 0.0099999998 -0.51899999 1
1.448 0.0099999998 -0.51599997 1
1.454 0.011 -0.51700002 1
1.4579999 0.012 -0.51800001 1
1.4579999 0.012 -0.51800001 1
1.456 0.013 -0.51599997 1
1.46 0.013 -0.51700002 1
1.46 0.014 -0.51599997 1
1.46 0.014 -0.51599997 1
1.46 0.015 -0.51499999 1
1.46 0.015 -0.514 1
1.469 0.016000001 -0.51700002 1
1.467 0.017000001 -0.51499999 1
1.471 0.017000001 -0.51599997 1
1.469 0.017999999 -0.514 1
1.479 0.017999999 -0.51700002 1
1.49 0.018999999 -0.51999998 1
1.492 0.018999999 -0.51999998 1
1.49 0.02 -0.51800001 1
1.499 0.021 -0.51999998 1
1.494 0.021 -0.51800001 1
1.502 0.022 -0.51899999 1
1.5 0.022 -0.51800001 1
1.5089999 0.023 -0.51999998 1
1.52 0.023 -0.52200001 1
1.5190001 0.024 -0.52100003 1
1.522 0.025 -0.52100003 1
1.531 0.025 -0.523 1
1.5319999 0.026000001 -0.52200001 1
1.545 0.026000001 -0.52499998 1
1.543 0.027000001 -0.523 1
1.5420001 0.027000001 -0.52200001 1
1.544 0.028000001 -0.52100003 1
1.548 0.028999999 -0.52100003 1
1.548 0.028999999 -0.51999998 1
1.551 0.029999999 -0.51999998 1
1.5549999 0.029999999 -0.51999998 1
1.563 0.030999999 -0.52100003 1
1.573 0.030999999 -0.523 1
1.576 0.032000002 -0.52200001 1
1.584 0.033 -0.52399999 1
1.589 0.033 -0.52399999 1
1.607 0.034000002 -0.528 1
1.602 0.034000002 -0.52499998 1
1.6160001 0.035 -0.528 1
1.6210001 0.035999998 -0.528 1
1.628 0.035999998 -0.52899998 1
1.632 0.037 -0.528 1
1.636 0.037 -0.528 1
1.64 0.037999999 -0.528 1
1.647 0.039000001 -0.528 1
1.653 0.039000001 -0.528 1
1.661 0.039999999 -0.52899998 1
1.6619999 0.039999999 -0.528 1
1.676 0.041000001 -0.52999997 1
1.676 0.041000001 -0.528 1
1.681 0.041999999 -0.528 1
1.686 0.043000001 -0.528 1
1.7 0.043000001 -0.52999997 1
1.717 0.044 -0.53399998 1
1.719 0.045000002 -0.53200001 1
1.724 0.045000002 -0.53200001 1
1.735 0.046 -0.53299999 1
1.7410001 0.046 -0.53299999 1
1.745 0.046999998 -0.53200001 1
1.761 0.048 -0.53500003 1
1.77 0.048 -0.53500003 1
1.77 0.048999999 -0.53299999 1
1.781 0.048999999 -0.53399998 1
1.7920001 0.050000001 -0.53500003 1
1.794 0.050000001 -0.53299999 1
1.8049999 0.050999999 -0.53399998 1
1.818 0.052000001 -0.53600001 1
1.829 0.052000001 -0.537 1
1.829 0.052999999 -0.53399998 1
1.84 0.052999999 -0.53500003 1
1.849 0.054000001 -0.53500003 1
1.864 0.055 -0.537 1
1.872 0.055 -0.537 1
1.88 0.056000002 -0.53600001 1
1.891 0.056000002 -0.537 1
1.908 0.057 -0.53899997 1
1.9170001 0.057999998 -0.53899997 1
1.9220001 0.057999998 -0.537 1
1.937 0.059 -0.53899997 1
1.9450001 0.059 -0.53799999 1
1.957 0.059999999 -0.53899997 1
1.976 0.061000001 -0.54100001 1
1.985 0.061000001 -0.54100001 1
1.9960001 0.061999999 -0.54100001 1
2.0090001 0.061999999 -0.54100001 1
2.013 0.063000001 -0.53899997 1
2.0320001 0.064000003 -0.54100001 1
2.0469999 0.064000003 -0.542 1
2.0539999 0.064999998 -0.54100001 1
2.0710001 0.064999998 -0.542 1
2.086 0.066 -0.54299998 1
2.099 0.067000002 -0.54299998 1
2.1129999 0.067000002 -0.54299998 1
2.125 0.068000004 -0.54299998 1
2.148 0.068999998 -0.54500002 1
2.1570001 0.068999998 -0.54400003 1
2.171 0.07 -0.54400003 1
2.187 0.07 -0.54500002 1
2.2130001 0.071000002 -0.54799998 1
2.23 0.071999997 -0.54799998 1
2.2520001 0.071999997 -0.55000001 1
2.2590001 0.072999999 -0.54799998 1
2.273 0.072999999 -0.54799998 1
2.2939999 0.074000001 -0.54900002 1
2.3080001 0.074000001 -0.54799998 1
2.3299999 0.075000003 -0.55000001 2
2.352 0.075999998 -0.551 2
2.365 0.075999998 -0.55000001 1
2.381 0.077 -0.54900002 1
2.402 0.077 -0.55000001 1
2.4260001 0.078000002 -0.551 1
2.454 0.079000004 -0.55299997 2
2.4719999 0.079000004 -0.55299997 2
2.487 0.079999998 -0.55199999 1
2.5109999 0.079999998 -0.55299997 1
2.536 0.081 -0.55400002 1
2.562 0.081 -0.55500001 1
2.5780001 0.082000002 -0.55400002 1
2.6099999 0.082999997 -0.55699998 1
2.635 0.082999997 -0.55699998 1
2.6600001 0.083999999 -0.55800003 1
2.6860001 0.083999999 -0.55800003 1
2.7130001 0.085000001 -0.55900002 1
2.7809999 0.086999997 -0.56800002 1
2.8210001 0.088 -0.57099998 1
2.8659999 0.089000002 -0.57499999 1
2.823 0.086999997 -0.56099999 1
2.852 0.088 -0.56099999 1
2.9000001 0.089000002 -0.56599998 2
2.9319999 0.089000002 -0.56599998 2
2.961 0.090000004 -0.56599998 2
2.993 0.090000004 -0.56699997 2
3.125 0.093000002 -0.58600003 2
3.1530001 0.093999997 -0.58499998 2
3.3269999 0.097999997 -0.611 2
3.2360001 0.094999999 -0.58899999 2
3.266 0.094999999 -0.588 2
3.3039999 0.096000001 -0.588 2
3.4119999 0.097999997 -0.60100001 2
3.4089999 0.097000003 -0.59399998 2
3.4549999 0.097999997 -0.59600002 2
3.4760001 0.097999997 -0.59200001 2
3.5450001 0.098999999 -0.597 2
3.497 0.097000003 -0.583 1
3.5799999 0.097999997 -0.58899999 3
3.609 0.097999997 -0.58700001 2
3.6429999 0.097999997 -0.58600003 2
3.753 0.1 -0.59600002 2
3.8180001 0.101 -0.59899998 3
3.859 0.101 -0.59799999 2
3.905 0.101 -0.597 2
3.98 0.101 -0.60100001 2
4.0469999 0.102 -0.60299999 2
4.0900002 0.102 -0.60100001 2
4.1669998 0.102 -0.60399997 2
4.217 0.102 -0.60299999 2
4.388 0.105 -0.61900002 4
4.3889999 0.103 -0.611 2
4.4749999 0.104 -0.61400002 2
4.5669999 0.104 -0.61699998 2
4.6570001 0.105 -0.62 2
4.7610002 0.105 -0.62400001 3
4.8670001 0.106 -0.62900001 3
4.947 0.106 -0.62900001 3
5.0430002 0.106 -0.63099998 4
5.1609998 0.107 -0.63599998 4
5.2589998 0.106 -0.63700002 4
5.3699999 0.106 -0.63999999 4
5.4980001 0.107 -0.64399999 5
5.619 0.107 -0.64700001 5
5.7610002 0.107 -0.65200001 4
5.9239998 0.107 -0.65799999 5
6.1059999 0.108 -0.66600001 6
6.2459998 0.108 -0.66900003 5
6.3899999 0.107 -0.671 6
6.6329999 0.108 -0.68300003 4
6.8249998 0.108 -0.68900001 4
7.0539999 0.108 -0.69800001 4
7.2410002 0.108 -0.70200002 4
7.4710002 0.108 -0.70899999 4
7.7049999 0.107 -0.71600002 4
8.0059996 0.107 -0.72799999 4
8.2989998 0.107 -0.73799998 5
8.5880003 0.106 -0.74599999 5
9.0389996 0.107 -0.76599997 4
9.4139996 0.106 -0.77899998 12
9.6610003 0.104 -0.77999997 21
9.9399996 0.101 -0.78200001 22
10.275 0.098999999 -0.78799999 10
10.697 0.097000003 -0.79799998 5
11.19 0.094999999 -0.81300002 3
11.768 0.093000002 -0.83099997 3
12.253 0.090000004 -0.83999997 3
12.845 0.086999997 -0.85399997 3
13.462 0.082999997 -0.86799997 3
14.125 0.078000002 -0.88200003 3
14.911 0.074000001 -0.89999998 2
15.797 0.068000004 -0.92199999 3
0 0 0 2
16.976 0.052000001 -0.92199999 1
0 0 0 1
0 0 0 1
0 0 0 0
0 0 0 1
0 0 0 0
0 0 0 1
0 0 0 0
0 0 0 0
0 0 0 0
0 0 0 153
51.731998 -0.228 -1.653 187
51.75 -0.26499999 -1.549 246
51.745998 -0.30199999 -1.446 219
51.783001 -0.34099999 -1.341 179
51.699001 -0.37900001 -1.233 150
0 0 0 5
0 0 0 26
116.786 -1.12 -2.0880001 37
0 0 0 0
0 0 0 0
0 0 0 0
0 0 0 0
0 0 0 60
0 0 0 0
0 0 0 42
72.762001 -1.1569999 -0.139 59
71.922997 -1.2029999 0.0040000002 102
71.904999 -1.262 0.147 89
0 0 0 34
67.130997 -1.291 0.403 45
67.285004 -1.35 0.53600001 30
67.261002 -1.408 0.67000002 10
66.519997 -1.449 0.792 59
66.477997 -1.5039999 0.92000002 150
66.483002 -1.562 1.05 95
0 0 0 0
0 0 0 0
0 0 0 0
0 0 0 0
0 0 0 23
55.807999 -1.609 1.533 31
55.595001 -1.654 1.6339999 18
54.507 -1.671 1.707 15
53.339001 -1.6849999 1.773 16
52.695999 -1.7130001 1.853 25
51.819 -1.733 1.921 32
51.310001 -1.7640001 1.999 29
50.709999 -1.791 2.072 72
50.683998 -1.8380001 2.1670001 88
50.664001 -1.886 2.2620001 43
50.638 -1.933 2.3570001 13
0 0 0 0
0 0 0 0
0 0 0 0
0 0 0 0
0 0 0 0
0 0 0 6
48.783001 -2.197 2.9089999 12
48.299999 -2.223 2.9679999 48
47.914001 -2.253 3.0309999 20
46.945 -2.2550001 3.056 9
46.641998 -2.2869999 3.1210001 34
46.618 -2.3329999 3.204 61
46.631001 -2.381 3.289 71
46.632 -2.4289999 3.3740001 68
46.633999 -2.4760001 3.457 67
46.652 -2.527 3.5439999 67
46.653999 -2.5739999 3.6259999 66
0 0 0 4
43.209 -2.4749999 3.513 10
42.764999 -2.494 3.553 12
42.618 -2.5309999 3.6159999 52
42.615002 -2.576 3.6919999 60
42.119999 -2.592 3.724 37
41.638 -2.6070001 3.7539999 64
41.625999 -2.651 3.826 61
41.625999 -2.694 3.8970001 60
40.455002 -2.6619999 3.8570001 32
40.306999 -2.6949999 3.9119999 59
40.306 -2.7390001 3.9809999 61
40.297001 -2.7809999 4.0469999 54
39.07 -2.7390001 3.99 30
38.939999 -2.773 4.0440001 51
38.945999 -2.816 4.1090002 50
38.945 -2.858 4.1739998 50
37.883999 -2.823 4.125 28
37.605999 -2.8440001 4.1570001 60
37.605999 -2.885 4.2189999 55
37.618 -2.928 4.2820001 60
37.127998 -2.9300001 4.2859998 29
36.250999 -2.901 4.244 51
36.244999 -2.9430001 4.3039999 57
36.259998 -2.984 4.3639998 55
35.915001 -2.9960001 4.3800001 19
34.896 -2.95 4.3119998 10
34.518002 -2.957 4.3200002 16
34.431 -2.9890001 4.3639998 53
34.431 -3.0280001 4.4180002 55
34.438999 -3.0680001 4.474 52
34.459 -3.108 4.5300002 55
34.455002 -3.1470001 4.5830002 56
34.453999 -3.1849999 4.6339998 57
34.448002 -3.224 4.6869998 56
34.472 -3.266 4.743 55
34.470001 -3.3039999 4.7940001 56
34.477001 -3.3440001 4.848 55
34.471001 -3.3829999 4.8990002 55
34.473999 -3.4230001 4.9510002 53
34.480999 -3.4630001 5.0029998 57
34.479 -3.5020001 5.053 53
34.488998 -3.543 5.1059999 54
34.48 -3.582 5.1550002 56
34.504002 -3.6240001 5.21 57
34.488998 -3.6630001 5.257 57
34.501999 -3.704 5.309 59
34.501999 -3.743 5.3579998 57
34.521 -3.7850001 5.4099998 58
34.504002 -3.8239999 5.4559999 58
34.508999 -3.865 5.5050001 57
34.514 -3.904 5.5539999 57
34.513 -3.944 5.6009998 58
34.519001 -3.9849999 5.6500001 58
34.542 -4.0279999 5.7010002 58
34.525002 -4.066 5.7449999 57
34.546001 -4.1079998 5.796 33
34.630001 -4.158 5.8559999 4
34.724998 -4.2090001 5.9169998 3
34.695999 -4.2459998 5.9580002 2
34.666 -4.283 5.9990001 2
0 0 0 0
0 0 0 0
0 0 0 2
34.762001 -4.4530001 6.1929998 2
34.758999 -4.493 6.2360001 2
34.831001 -4.5430002 6.2930002 3
34.935001 -4.5960002 6.355 3
35.146 -4.664 6.4380002 4
35.264999 -4.7210002 6.5019999 3
34.984001 -4.723 6.493 4
34.75 -4.7309999 6.4920001 7
34.584999 -4.7480001 6.5019999 12
34.439999 -4.7680001 6.5159998 18
34.346001 -4.7940001 6.5380001 23
34.221001 -4.8150001 6.5539999 25
34.049 -4.829 6.5599999 25
33.907001 -4.8470001 6.5710001 25
0 0 0 2
26.931999 -3.911 5.2800002 12
26.829 -3.9260001 5.2909999 21
26.782 -3.9489999 5.3109999 25
26.74 -3.9719999 5.3309999 29
26.705999 -3.997 5.3540001 32
26.681 -4.0229998 5.3769999 36
26.643999 -4.0479999 5.3979998 38
26.628 -4.0749998 5.4229999 38
26.6 -4.099 5.4439998 42
26.576 -4.125 5.4660001 40
26.556 -4.1500001 5.4889998 44
26.563 -4.1810002 5.5170002 45
26.558001 -4.21 5.5430002 46
26.549 -4.237 5.5669999 38
26.539 -4.2639999 5.5910001 50
26.535 -4.2919998 5.6149998 49
26.513 -4.3169999 5.6360002 50
26.521999 -4.3470001 5.6630001 50
26.525 -4.3759999 5.6880002 52
26.524 -4.4029999 5.7129998 43
26.530001 -4.4330001 5.7379999 39
26.525999 -4.4590001 5.7610002 47
26.527 -4.4879999 5.7849998 48
26.535 -4.5170002 5.8099999 45
26.558001 -4.5489998 5.8379998 41
26.555 -4.5760002 5.8600001 39
26.579 -4.6079998 5.888 36
26.6 -4.638 5.915 34
26.618999 -4.6690001 5.941 32
26.639999 -4.7010002 5.967 29
26.681999 -4.7350001 5.9980001 26
26.709999 -4.7680001 6.026 23
26.76 -4.8039999 6.0580001 19
26.844 -4.8460002 6.0970001 10
0 0 0 28
29.294001 -5.3460002 6.698 27
29.209999 -5.3600001 6.6999998 26
29.108 -5.3699999 6.698 28
29.049 -5.3870001 6.7059999 27
28.978001 -5.402 6.7090001 30
28.896999 -5.415 6.71 27
28.808001 -5.4260001 6.71 27
28.735001 -5.441 6.7119999 27
28.645 -5.4510002 6.7090001 26
28.58 -5.4650002 6.7129998 30
28.51 -5.4780002 6.7140002 26
28.445 -5.493 6.717 29
28.382999 -5.507 6.7199998 27
28.319 -5.5209999 6.7220001 25
28.25 -5.5339999 6.7220001 29
28.202 -5.5489998 6.7270002 29
28.115 -5.5580001 6.7220001 29
28.039 -5.5679998 6.7189999 30
27.993 -5.5840001 6.723 25
27.934 -5.5960002 6.724 29
27.896 -5.6129999 6.73 26
27.819 -5.6220002 6.7249999 29
27.780001 -5.638 6.73 30
27.736 -5.6529999 6.7329998 25
27.68 -5.665 6.7319999 25
27.642 -5.6810002 6.7360001 29
27.58 -5.6919999 6.7329998 29
27.530001 -5.704 6.7329998 27
27.485001 -5.7179999 6.7340002 26
27.438999 -5.73 6.7340002 25
27.388 -5.743 6.7319999 25
27.365999 -5.7589998 6.7379999 23
27.309 -5.7690001 6.7340002 26
27.297001 -5.7880001 6.7410002 24
27.259001 -5.8010001 6.743 28
27.221001 -5.8140001 6.743 23
27.184 -5.8270001 6.743 26
27.157 -5.842 6.7449999 26
27.129999 -5.8569999 6.7470002 27
27.09 -5.869 6.7449999 24
27.063 -5.8829999 6.7470002 24
27.02 -5.8930001 6.743 27
26.997 -5.9070001 6.744 23
26.987 -5.9250002 6.7490001 25
26.937 -5.9320002 6.744 27
26.912001 -5.9460001 6.743 22
26.899 -5.961 6.7459998 22
26.874001 -5.974 6.7449999 26
26.844 -5.9850001 6.743 26
26.841 -6.0029998 6.7470002 23
26.808001 -6.013 6.743 25
26.783001 -6.0240002 6.7420001 25
26.784 -6.0419998 6.7459998 23
26.759001 -6.053 6.743 25
26.754 -6.0689998 6.7459998 21
0 0 0 1
18.9 -4.3099999 4.77 5
18.849001 -4.3099999 4.7589998 14
18.82 -4.3140001 4.7529998 17
18.792 -4.3189998 4.7470002 18
18.785999 -4.3280001 4.7470002 18
18.754999 -4.3319998 4.7389998 21
18.728001 -4.336 4.7329998 22
18.705 -4.3400002 4.7280002 24
18.695 -4.349 4.7259998 26
18.688 -4.3569999 4.724 23
18.669001 -4.362 4.7189999 27
18.648001 -4.3670001 4.7140002 30
18.643 -4.375 4.711 31
18.631001 -4.381 4.7080002 31
18.617001 -4.3860002 4.7030001 32
18.601 -4.3909998 4.698 33
18.586 -4.3969998 4.6929998 35
18.584 -4.4039998 4.691 37
18.566 -4.4089999 4.684 34
18.547001 -4.4120002 4.678 37
18.545 -4.4190001 4.6750002 37
18.538 -4.4260001 4.6700001 37
18.535999 -4.4320002 4.6669998 37
18.521 -4.4369998 4.6599998 36
18.52 -4.4429998 4.6570001 36
18.507 -4.447 4.6500001 38
18.504 -4.4530001 4.6469998 38
18.5 -4.4580002 4.6420002 38
18.499001 -4.4650002 4.638 41
18.503 -4.4720001 4.6339998 41
18.497 -4.4770002 4.6279998 42
18.482 -4.4790001 4.6199999 41
18.495001 -4.4879999 4.619 43
18.482 -4.4899998 4.6110001 44
18.471001 -4.493 4.6030002 41
18.488001 -4.5019999 4.6020002 44
18.469999 -4.5029998 4.592 42
18.466999 -4.507 4.585 43
18.476999 -4.5139999 4.5819998 45
18.465 -4.5159998 4.573 41
18.452999 -4.5170002 4.5630002 41
18.454 -4.5209999 4.5570002 43
18.451 -4.5250001 4.5489998 42
18.454 -4.5289998 4.5430002 43
18.443001 -4.5289998 4.5339999 42
18.448999 -4.5339999 4.5279999 42
18.462 -4.5409999 4.5240002 47
18.441999 -4.539 4.5110002 48
18.448 -4.5430002 4.5040002 50
18.436001 -4.5419998 4.493 48
18.445 -4.5469999 4.487 49
18.434999 -4.5469999 4.4759998 51
18.438999 -4.5500002 4.4689999 50
18.431 -4.5500002 4.4580002 50
18.433001 -4.552 4.4489999 50
18.431 -4.553 4.4390001 46
18.422001 -4.552 4.428 50
18.424999 -4.5539999 4.4190001 47
18.445 -4.5599999 4.414 38
18.441 -4.559 4.4029999 50
18.424999 -4.5549998 4.3889999 47
18.43 -4.5570002 4.3800001 51
18.433001 -4.5580001 4.3699999 49
18.419001 -4.5549998 4.3559999 49
18.436001 -4.5580001 4.349 35
18.423 -4.5549998 4.335 49
18.421 -4.553 4.323 48
18.423 -4.553 4.3119998 50
18.441 -4.5570002 4.3049998 51
18.421 -4.5510001 4.2880001 48
18.424999 -4.5500002 4.277 45
18.422001 -4.5479999 4.2639999 47
18.427999 -4.5469999 4.2529998 48
18.426001 -4.5450001 4.2410002 47
18.431999 -4.5440001 4.2290001 47
18.417 -4.5380001 4.2129998 46
18.427999 -4.5380001 4.2020001 45
18.443001 -4.539 4.1929998 50
18.424999 -4.5320001 4.1750002 47
18.441 -4.5320001 4.165 46
18.438999 -4.5289998 4.151 48
18.441 -4.526 4.138 47
18.440001 -4.5219998 4.1240001 49
18.438999 -4.5180001 4.1090002 48
18.445999 -4.5149999 4.0960002 50
18.452 -4.5120001 4.0830002 45
18.436001 -4.5040002 4.0650001 49
18.434999 -4.4990001 4.0500002 45
18.443001 -4.4959998 4.0370002 43
18.452 -4.493 4.0229998 47
18.445 -4.487 4.006 45
18.459 -4.4840002 3.994 44
18.458 -4.4780002 3.9779999 44
18.452999 -4.4710002 3.961 43
18.468 -4.4689999 3.9489999 41
18.476 -4.4640002 3.934 40
18.483 -4.46 3.9189999 41
18.48 -4.4520001 3.902 39
18.474001 -4.4439998 3.8840001 40
18.49 -4.4400001 3.8710001 43
18.493999 -4.434 3.855 40
18.509001 -4.4299998 3.8410001 40
18.5 -4.421 3.822 38
18.506001 -4.414 3.8050001 37
18.511 -4.4070001 3.789 35
18.523001 -4.401 3.7739999 33
18.523001 -4.3930001 3.7550001 35
18.525 -4.3850002 3.7379999 33
18.548 -4.382 3.724 33
18.546 -4.3720002 3.7060001 34
18.552 -4.3649998 3.6889999 33
18.563999 -4.3579998 3.6730001 34
18.573999 -4.3509998 3.6570001 31
18.586 -4.3439999 3.6400001 29
18.604 -4.3379998 3.6240001 29
18.599001 -4.3260002 3.6040001 29
18.632999 -4.3239999 3.592 27
18.652 -4.3179998 3.5769999 28
18.667999 -4.3109999 3.5599999 26
18.674999 -4.3010001 3.5420001 22
18.702 -4.296 3.527 21
18.732 -4.2909999 3.513 20
18.761 -4.2870002 3.4990001 19
18.784 -4.2800002 3.483 19
18.819 -4.276 3.4690001 16
18.841999 -4.2690001 3.4530001 5
0 0 0 0
0 0 0 4
35.18 -7.901 6.3319998 3
35.16 -7.8730001 6.289 4
35.213001 -7.8590002 6.2600002 3
35.126999 -7.8150001 6.2049999 3
34.950001 -7.7509999 6.1339998 3
34.905998 -7.7150002 6.0869999 2
0 0 0 0
0 0 0 0
0 0 0 2
35.040001 -7.6389999 5.9489999 2
35.043999 -7.612 5.9089999 2
34.987 -7.572 5.8590002 2
34.945999 -7.5349998 5.8109999 2
0 0 0 0
0 0 0 2
0 0 0 0
0 0 0 2
0 0 0 0
0 0 0 0
0 0 0 2
34.747002 -7.256 5.448 2
34.907001 -7.2579999 5.4299998 2
0 0 0 0
0 0 0 0
0 0 0 0
0 0 0 0
0 0 0 0
0 0 0 0
0 0 0 0
0 0 0 2
0 0 0 0
0 0 0 0
0 0 0 0
0 0 0 0
0 0 0 0
0 0 0 3
34.701 -6.711 4.7519999 16
34.671001 -6.6680002 4.7049999 18
34.650002 -6.6279998 4.658 2
0 0 0 0
0 0 0 0
0 0 0 0
0 0 0 0
0 0 0 0
0 0 0 3
34.652 -6.3629999 4.3460002 8
34.668999 -6.3270001 4.3039999 10
34.675999 -6.2880001 4.2600002 10
34.682999 -6.25 4.217 7
34.674 -6.2080002 4.1700001 2
0 0 0 6
26.686001 -4.7150002 3.141 18
26.622999 -4.6729999 3.099 23
26.577 -4.6329999 3.059 28
26.535 -4.5939999 3.02 33
26.511999 -4.559 2.983 35
26.490999 -4.5229998 2.9460001 38
26.482 -4.4889998 2.911 41
26.468 -4.4530001 2.8740001 43
26.450001 -4.4169998 2.8380001 45
26.431 -4.3800001 2.8010001 45
26.444 -4.3499999 2.7679999 37
26.429001 -4.3130002 2.7320001 41
26.431 -4.2789998 2.697 54
26.412001 -4.2420001 2.661 59
26.4 -4.2059999 2.625 59
26.441 -4.1789999 2.595 53
26.459 -4.1459999 2.562 52
26.459 -4.1110001 2.527 47
26.485001 -4.0799999 2.4949999 45
26.502001 -4.0469999 2.461 44
26.521999 -4.0139999 2.428 40
26.546 -3.9820001 2.3959999 39
26.566 -3.9489999 2.3629999 36
26.613001 -3.9189999 2.332 33
26.649 -3.888 2.3 29
26.681999 -3.8559999 2.2690001 25
26.775999 -3.832 2.2420001 19
26.879 -3.809 2.2149999 7
0 0 0 54
34.479 -4.7880001 2.7509999 55
34.480999 -4.7389998 2.7060001 53
34.473 -4.6880002 2.6600001 50
34.449001 -4.6350002 2.6140001 74
34.444 -4.585 2.569 78
34.449001 -4.5349998 2.5239999 83
34.431 -4.4819999 2.4779999 83
34.432999 -4.4310002 2.4330001 82
34.453999 -4.3829999 2.391 68
34.429001 -4.329 2.3440001 82
34.417 -4.276 2.3 86
34.422001 -4.2249999 2.2550001 81
34.410999 -4.1729999 2.211 85
34.410999 -4.119 2.1659999 73
34.407001 -4.066 2.1210001 80
34.402 -4.013 2.0769999 85
34.405998 -3.96 2.033 86
34.382999 -3.905 1.988 89
34.389 -3.852 1.944 91
34.379002 -3.7969999 1.9 80
34.380001 -3.743 1.8559999 95
34.375 -3.688 1.812 100
34.327999 -3.6289999 1.766 82
34.344002 -3.576 1.724 94
34.362 -3.5239999 1.682 101
34.334999 -3.4660001 1.637 99
34.337002 -3.411 1.594 103
34.333 -3.355 1.551 100
34.362999 -3.302 1.5089999 49
34.636002 -3.2720001 1.479 10
34.963001 -3.2460001 1.449 10
35.452999 -3.233 1.425 7
35.848 -3.21 1.397 8
36.289001 -3.1889999 1.369 6
38.236 -3.2969999 1.395 87
38.223999 -3.233 1.349 89
38.231998 -3.1700001 1.302 91
38.228001 -3.1040001 1.255 89
38.320999 -3.0480001 1.212 10
38.936001 -3.0309999 1.184 5
39.513 -3.0090001 1.154 6
39.82 -2.964 1.115 25
40.173 -2.9230001 1.077 12
42.273998 -3.003 1.0829999 91
42.275002 -2.9289999 1.0319999 101
42.27 -2.8570001 0.98199999 96
42.602001 -2.806 0.93900001 4
43.150002 -2.7679999 0.90100002 4
44.870998 -2.8 0.884 19
44.933998 -2.727 0.83399999 43
46.473 -2.7390001 0.80800003 16
46.504002 -2.6589999 0.755 32
46.547001 -2.579 0.70099998 72
46.685001 -2.5050001 0.65100002 49
46.828999 -2.4289999 0.59799999 15
0 0 0 89
50.348 -2.434 0.52899998 82
50.439999 -2.348 0.47299999 37
50.57 -2.263 0.417 40
0 0 0 0
0 0 0 39
57.654999 -2.2690001 0.28200001 65
58.276001 -2.187 0.22 94
58.444 -2.0869999 0.156 115
58.441002 -1.9809999 0.092 115
58.588001 -1.8789999 0.028000001 58
58.749001 -1.777 -0.035 23
0 0 0 69
66.447998 -1.768 -0.182 150
66.485001 -1.649 -0.252 76
66.478996 -1.526 -0.322 77
66.702003 -1.41 -0.39300001 53
67.135002 -1.293 -0.46700001 10
0 0 0 82
72.926003 -1.137 -0.65899998 27
0 0 0 47
0 0 0 0
0 0 0 0
0 0 0 0
0 0 0 66
0 0 0 0
0 0 0 31
0 0 0 0
0 0 0 0
0 0 0 0
0 0 0 0
0 0 0 0
0 0 0 11
38.842999 0.41499999 -0.89200002 18
38.727001 0.48699999 -0.926 21
38.570999 0.55699998 -0.958 22
38.486 0.62900001 -0.99199998 23
38.382 0.69999999 -1.025 23
38.334 0.77200001 -1.059 24
38.255001 0.84500003 -1.092 25
38.196999 0.91600001 -1.125 27
38.215 0.98900002 -1.16 30
38.216999 1.063 -1.1950001 13
38.251999 1.136 -1.229 17
38.245998 1.2079999 -1.262 11
0 0 0 0
0 0 0 3
39.247002 1.465 -1.398 3
0 0 0 0
0 0 0 0
0 0 0 0
0 0 0 0
0 0 0 0
0 0 0 0
0 0 0 0
0 0 0 0
0 0 0 0
0 0 0 0
0 0 0 1
24.973 1.5089999 -1.135 1
0 0 0 1
0 0 0 1
0 0 0 3
20.809 1.4170001 -1.008 1
19.738001 1.382 -0.97100002 3
0 0 0 1
18.076 1.335 -0.91600001 1
18.459 1.399 -0.94800001 1
18.063 1.403 -0.94099998 2
17.642 1.404 -0.93099999 2
17.167999 1.399 -0.91799998 2
16.830999 1.404 -0.912 2
16.517 1.409 -0.90600002 3
16.289 1.421 -0.90499997 4
15.745 1.403 -0.88499999 3
15.495 1.411 -0.88099998 2
15.252 1.418 -0.87699997 2
14.939 1.4170001 -0.86900002 3
14.661 1.418 -0.86199999 2
14.396 1.42 -0.85600001 2
14.115 1.419 -0.84799999 3
13.95 1.429 -0.847 3
13.729 1.433 -0.84200001 3
13.508 1.4349999 -0.83600003 3
13.286 1.437 -0.82999998 3
13.072 1.438 -0.82499999 3
12.912 1.4450001 -0.82200003 3
12.726 1.448 -0.81800002 3
12.601 1.4579999 -0.81699997 3
12.461 1.465 -0.815 3
