# .PCD v0.7 - Point Cloud Data file format
VERSION 0.7
FIELDS x y z intensity
SIZE 4 4 4 4
TYPE F F F F
COUNT 1 1 1 1
WIDTH 1781
HEIGHT 1
VIEWPOINT 0 0 0 1 0 0 0
POINTS 1781
DATA ascii
0 0 0 0
0 0 0 20
91.757004 4.066 -3.3729999 30
91.900002 3.8989999 -3.289 43
91.964996 3.7279999 -3.2030001 37
88.110001 3.4070001 -2.9849999 83
0 0 0 27
0 0 0 14
0 0 0 23
0 0 0 0
0 0 0 23
0 0 0 0
0 0 0 38
0 0 0 0
0 0 0 30
0 0 0 0
0 0 0 0
0 0 0 0
0 0 0 35
0 0 0 0
0 0 0 0
0 0 0 0
0 0 0 0
0 0 0 38
0 0 0 0
0 0 0 0
0 0 0 59
0 0 0 0
0 0 0 0
0 0 0 84
135.976 -1.358 -1.604 112
0 0 0 0
0 0 0 32
136.047 -2.1689999 -1.281 53
0 0 0 31
74.496002 -1.4859999 -0.58499998 109
0 0 0 24
69.265999 -1.658 -0.43799999 85
69.139 -1.793 -0.384 80
69.115997 -1.932 -0.33199999 110
69.091003 -2.0699999 -0.28099999 137
0 0 0 23
61.244999 -2.0810001 -0.15899999 64
61.066002 -2.198 -0.115 114
61.056 -2.319 -0.071000002 132
60.646 -2.425 -0.028000001 73
60.060001 -2.5250001 0.014 72
0 0 0 0
0 0 0 46
52.977001 -2.546 0.121 58
52.967999 -2.652 0.156 92
0 0 0 14
49.252998 -2.6670001 0.212 68
49.167 -2.7620001 0.244 90
49.106998 -2.859 0.27500001 27
0 0 0 43
45.73 -2.848 0.315 41
45.695 -2.9389999 0.34299999 24
44.882999 -2.977 0.36399999 37
44.853001 -3.066 0.39199999 93
44.882999 -3.1600001 0.419 91
42.412998 -3.072 0.42199999 42
42.268002 -3.148 0.44499999 10
41.452 -3.1719999 0.461 5
40.830002 -3.2060001 0.477 65
40.834999 -3.29 0.50099999 88
40.841 -3.3729999 0.52399999 89
39.067001 -3.306 0.523 5
38.514999 -3.3380001 0.53600001 9
38.009998 -3.3729999 0.55000001 8
37.437 -3.3970001 0.56199998 8
36.962002 -3.428 0.574 55
36.962002 -3.5039999 0.59399998 71
36.952999 -3.5780001 0.61199999 53
36.964001 -3.654 0.63099998 33
36.979 -3.73 0.64999998 19
36.960999 -3.803 0.66799998 18
36.969002 -3.8789999 0.68599999 52
36.986 -3.9560001 0.704 63
36.988998 -4.0310001 0.72100002 74
36.987999 -4.1059999 0.73799998 79
36.981998 -4.1799998 0.755 91
36.997002 -4.2550001 0.77200001 74
37.007999 -4.3309999 0.78799999 101
37.014 -4.4050002 0.80500001 80
37.001999 -4.4780002 0.81999999 95
37.013 -4.553 0.83499998 99
37.027 -4.6279998 0.85100001 91
37.028 -4.7020001 0.866 104
37.118999 -4.7880001 0.88300002 22
0 0 0 0
0 0 0 12
29.273001 -3.9519999 0.73000002 28
29.195999 -3.9990001 0.73900002 38
29.142 -4.0500002 0.74900001 44
29.087999 -4.0999999 0.75700003 51
29.07 -4.1550002 0.76700002 45
29.031 -4.2069998 0.77600002 60
29.006001 -4.2610002 0.78500003 61
28.996 -4.3169999 0.79400003 66
29.002001 -4.375 0.80400002 64
29.004999 -4.4320002 0.81300002 55
29.016001 -4.4899998 0.82200003 52
29.035999 -4.5500002 0.83099997 45
29.069 -4.612 0.84100002 41
29.101 -4.6729999 0.85000002 34
29.165001 -4.7410002 0.86000001 24
29.294001 -4.8179998 0.87199998 12
0 0 0 35
37.452 -6.303 1.135 22
37.456001 -6.3759999 1.1440001 6
37.437 -6.4450002 1.153 7
37.449001 -6.5190001 1.1619999 29
37.460999 -6.5910001 1.171 22
37.487 -6.6680002 1.181 11
37.481998 -6.7389998 1.189 12
37.432999 -6.8010001 1.1950001 30
37.415001 -6.869 1.202 29
0 0 0 8
0 0 0 0
0 0 0 0
0 0 0 0
0 0 0 0
0 0 0 0
0 0 0 12
37.424 -7.4260001 1.255 18
37.219002 -7.454 1.2539999 47
0 0 0 16
21.242001 -4.3319998 0.72100002 22
21.167 -4.3559999 0.72100002 28
21.132 -4.3870001 0.72299999 35
21.079 -4.414 0.72299999 35
21.030001 -4.441 0.72399998 39
20.999001 -4.473 0.72500002 41
20.983999 -4.507 0.72600001 46
20.962 -4.539 0.72799999 51
20.955 -4.5749998 0.72899997 39
20.933001 -4.6079998 0.73000002 61
20.919001 -4.6420002 0.73100001 66
20.915001 -4.677 0.73199999 71
20.900999 -4.711 0.73299998 67
20.891001 -4.7449999 0.73400003 64
20.898001 -4.783 0.73500001 43
20.893999 -4.8179998 0.736 46
20.902 -4.8559999 0.73699999 50
20.891001 -4.888 0.73699999 47
20.916 -4.9299998 0.73900002 46
20.931999 -4.9689999 0.74000001 33
20.941999 -5.007 0.74000001 42
20.957001 -5.0450001 0.741 37
21 -5.0910001 0.74299997 34
21.048 -5.138 0.74400002 27
21.1 -5.1849999 0.74599999 20
21.17 -5.237 0.74800003 11
0 0 0 15
37.561001 -9.415 1.326 17
37.540001 -9.4689999 1.324 4
37.604 -9.5469999 1.326 4
37.570999 -9.599 1.323 3
37.653999 -9.6800003 1.324 3
0 0 0 0
0 0 0 0
0 0 0 0
0 0 0 3
0 0 0 2
37.605999 -10.02 1.308 2
37.571999 -10.069 1.304 2
37.626999 -10.141 1.303 4
0 0 0 0
0 0 0 13
67.598 -18.523001 2.322 12
0 0 0 0
0 0 0 0
0 0 0 0
0 0 0 4
41.289001 -11.614 1.393 4
41.305 -11.677 1.3890001 4
41.320999 -11.74 1.3839999 4
41.229 -11.772 1.375 3
0 0 0 7
37.625999 -10.848 1.243 21
37.633999 -10.903 1.239 25
37.669998 -10.965 1.234 7
37.676998 -11.019 1.228 3
0 0 0 0
0 0 0 0
0 0 0 0
0 0 0 0
0 0 0 0
0 0 0 2
37.844002 -11.413 1.186 10
37.737 -11.429 1.175 19
37.650002 -11.449 1.165 39
37.571999 -11.472 1.155 25
37.438 -11.478 1.1440001 13
37.349998 -11.496 1.133 57
37.355 -11.542 1.125 83
37.342999 -11.582 1.117 82
37.345001 -11.627 1.109 78
37.359001 -11.676 1.101 77
37.367001 -11.721 1.0930001 79
37.347 -11.758 1.084 82
37.369999 -11.807 1.075 83
37.373001 -11.85 1.066 81
37.370998 -11.891 1.057 82
37.363998 -11.93 1.0470001 80
37.374001 -11.973 1.039 81
37.370998 -12.012 1.029 81
37.375 -12.053 1.02 80
37.377998 -12.093 1.011 76
37.368 -12.129 0.99900001 57
37.209999 -12.116 0.986 45
37.185001 -12.145 0.97500002 49
37.174999 -12.179 0.96499997 39
37.243999 -12.239 0.95599997 33
37.373001 -12.316 0.949 72
37.383999 -12.356 0.93900001 76
37.387001 -12.393 0.92799997 79
37.389 -12.428 0.91799998 78
37.380001 -12.459 0.90700001 80
37.377998 -12.492 0.89600003 74
37.393002 -12.531 0.88499999 76
37.394001 -12.563 0.87400001 75
37.400002 -12.598 0.86299998 75
37.388 -12.625 0.85000002 75
37.398998 -12.66 0.83999997 71
37.400002 -12.691 0.82800001 61
0 0 0 2
0 0 0 43
0 0 0 2
0 0 0 24
0 0 0 2
33.283001 -11.45 0.67400002 4
33.306 -11.483 0.662 6
33.352001 -11.522 0.653 2
0 0 0 0
0 0 0 2
0 0 0 0
0 0 0 6
34.091 -11.893 0.61000001 7
34.098 -11.916 0.59799999 7
34.007999 -11.906 0.58399999 6
33.990002 -11.92 0.57200003 6
0 0 0 2
30.693001 -10.799 0.49599999 1
0 0 0 0
0 0 0 0
0 0 0 1
13.33 -4.7179999 0.19599999 4
13.328 -4.7249999 0.191 8
13.307 -4.724 0.186 12
13.28 -4.7199998 0.18099999 12
13.231 -4.7090001 0.175 18
13.226 -4.7129998 0.17 21
13.208 -4.7119999 0.16500001 20
13.203 -4.7160001 0.16 22
13.196 -4.7189999 0.155 21
13.171 -4.7150002 0.15000001 21
13.163 -4.717 0.145 20
13.159 -4.7199998 0.14 22
13.146 -4.7199998 0.13500001 22
13.138 -4.7210002 0.13 24
13.135 -4.724 0.125 24
13.118 -4.7220001 0.12 28
13.125 -4.7280002 0.115 29
13.114 -4.7280002 0.11 30
13.105 -4.7280002 0.105 32
13.106 -4.7309999 0.098999999 33
13.103 -4.7329998 0.094999999 36
13.083 -4.7290001 0.089000002 34
13.1 -4.737 0.085000001 22
13.076 -4.7309999 0.079000004 32
13.091 -4.7389998 0.074000001 21
13.075 -4.7350001 0.068999998 32
13.069 -4.7350001 0.063000001 33
13.075 -4.7379999 0.057999998 31
13.067 -4.737 0.052999999 36
13.07 -4.7389998 0.048 36
13.064 -4.7379999 0.043000001 34
13.064 -4.7389998 0.037999999 21
13.063 -4.7389998 0.032000002 37
13.071 -4.7420001 0.027000001 23
13.064 -4.7399998 0.023 36
13.07 -4.7420001 0.017000001 38
13.07 -4.7420001 0.012 33
13.059 -4.737 0.0070000002 34
13.065 -4.7389998 0.001 38
13.063 -4.737 -0.003 37
13.056 -4.7340002 -0.0080000004 29
13.062 -4.7350001 -0.013 37
13.066 -4.7350001 -0.017999999 38
13.07 -4.7350001 -0.024 33
13.076 -4.7350001 -0.028999999 22
13.081 -4.7350001 -0.034000002 22
13.073 -4.73 -0.039000001 31
13.078 -4.73 -0.045000002 32
13.085 -4.7290001 -0.050000001 33
13.083 -4.7259998 -0.055 32
13.09 -4.7259998 -0.061000001 31
13.095 -4.724 -0.066 32
13.11 -4.7270002 -0.071000002 35
13.108 -4.7220001 -0.075999998 31
13.112 -4.7199998 -0.081 29
13.114 -4.717 -0.086999997 28
13.122 -4.7160001 -0.092 26
13.137 -4.717 -0.097999997 27
13.149 -4.7160001 -0.103 22
13.156 -4.7140002 -0.108 22
13.153 -4.7080002 -0.113 19
13.147 -4.7010002 -0.118 16
13.176 -4.7069998 -0.124 17
13.206 -4.7119999 -0.12899999 13
13.202 -4.704 -0.134 17
13.213 -4.7030001 -0.14 16
13.253 -4.711 -0.145 14
13.27 -4.711 -0.15099999 11
13.298 -4.7140002 -0.156 9
13.304 -4.71 -0.161 6
13.324 -4.71 -0.167 2
13.359 -4.7150002 -0.17299999 1
0 0 0 14
33.088001 -11.642 -0.454 12
33.089001 -11.624 -0.46799999 12
33.071999 -11.599 -0.48100001 10
33.082001 -11.582 -0.493 9
33.069 -11.557 -0.505 9
33.069 -11.536 -0.51800001 9
33.082001 -11.519 -0.52999997 11
33.085999 -11.499 -0.54299998 12
33.094002 -11.48 -0.55599999 11
33.092999 -11.456 -0.56900001 11
0 0 0 2
30.701 -10.585 -0.55000001 2
30.687 -10.558 -0.56199998 2
30.759001 -10.56 -0.574 2
30.698 -10.516 -0.58499998 2
30.693001 -10.49 -0.59600002 5
30.715 -10.474 -0.60699999 7
30.756001 -10.463 -0.62 5
30.652 -10.403 -0.62800002 2
30.763 -10.416 -0.64200002 2
30.659 -10.355 -0.65100002 2
30.669001 -10.332 -0.66299999 1
30.608999 -10.285 -0.67199999 2
30.697001 -10.288 -0.685 1
30.641001 -10.241 -0.69499999 1
0 0 0 9
33.030998 -10.981 -0.77100003 8
0 0 0 1
0 0 0 7
33.039001 -10.89 -0.80599999 8
33.050999 -10.863 -0.81699997 8
33.062 -10.834 -0.82800001 8
33.041 -10.794 -0.83899999 8
33.033001 -10.758 -0.85000002 8
33.035999 -10.725 -0.861 8
33.023998 -10.687 -0.87199998 6
33.022999 -10.652 -0.88300002 6
33.036999 -10.622 -0.89300001 7
33.034 -10.586 -0.90399998 9
33.028 -10.548 -0.91399997 9
33.037998 -10.515 -0.92500001 8
33.027 -10.474 -0.93599999 9
33.025002 -10.438 -0.94499999 9
33.016998 -10.397 -0.95499998 9
33.025002 -10.362 -0.96600002 9
33.013 -10.32 -0.97600001 14
0 0 0 1
15.889 -4.9299998 -0.479 10
15.874 -4.9060001 -0.48300001 28
15.87 -4.8850002 -0.48699999 39
15.845 -4.8579998 -0.491 37
15.831 -4.8340001 -0.495 44
15.839 -4.8169999 -0.5 44
15.864 -4.8049998 -0.505 45
15.816 -4.77 -0.50800002 40
15.817 -4.7509999 -0.51200002 43
15.817 -4.73 -0.51599997 33
15.814 -4.7090001 -0.52100003 43
15.825 -4.691 -0.52499998 28
15.819 -4.6680002 -0.52899998 47
15.802 -4.6420002 -0.53299999 43
15.803 -4.6209998 -0.537 52
15.817 -4.6030002 -0.54100001 29
0 0 0 1
10.298 -2.9690001 -0.35699999 4
10.262 -2.944 -0.35800001 39
10.329 -2.9489999 -0.36300001 164
10.337 -2.937 -0.366 165
10.336 -2.9219999 -0.368 164
10.333 -2.9059999 -0.37 164
10.303 -2.8829999 -0.37099999 164
10.313 -2.8710001 -0.37400001 164
10.355 -2.8670001 -0.37799999 158
10.316 -2.8410001 -0.37799999 153
10.318 -2.826 -0.38100001 164
10.339 -2.8169999 -0.38299999 164
10.33 -2.799 -0.38499999 153
10.341 -2.786 -0.38699999 22
10.369 -2.7780001 -0.38999999 1
0 0 0 4
0 0 0 3
44.979 -11.842 -1.719 4
44.98 -11.773 -1.726 4
0 0 0 3
18.476999 -4.7779999 -0.71499997 32
18.481001 -4.7490001 -0.71799999 32
18.469 -4.717 -0.72000003 31
18.475 -4.6880002 -0.72299999 27
18.471001 -4.658 -0.72500002 38
18.475 -4.6290002 -0.72799999 31
18.471001 -4.598 -0.73000002 30
18.468 -4.5669999 -0.73299998 28
18.455999 -4.5339999 -0.73400003 26
18.459 -4.5040002 -0.73699999 28
18.455 -4.473 -0.73799998 37
18.455999 -4.4419999 -0.74000001 27
18.461 -4.4120002 -0.74199998 29
18.472 -4.3829999 -0.745 23
18.563999 -4.3740001 -0.75 7
18.674 -4.368 -0.75599998 9
18.77 -4.3579998 -0.76200002 8
18.931 -4.3629999 -0.76999998 6
19.035 -4.3540001 -0.77499998 9
19.149 -4.3470001 -0.78100002 5
19.268 -4.3400002 -0.787 6
19.808001 -4.427 -0.81 12
20.861 -4.6259999 -0.85399997 59
20.877001 -4.592 -0.85600001 38
20.877001 -4.5549998 -0.85699999 49
20.903 -4.5229998 -0.85900003 50
20.907 -4.487 -0.85900003 42
20.934999 -4.4559999 -0.861 37
20.958 -4.4229999 -0.86199999 39
21.017 -4.3969998 -0.86500001 35
21.061001 -4.368 -0.86699998 31
21.104 -4.3379998 -0.86900002 23
21.167 -4.3130002 -0.87099999 22
21.237 -4.2880001 -0.87400001 17
21.348 -4.2709999 -0.87800002 1
0 0 0 29
36.521999 -7.1700001 -1.5 28
36.445 -7.0890002 -1.4960001 28
0 0 0 2
23.433001 -4.4699998 -0.95999998 49
23.459999 -4.4310002 -0.95999998 68
23.434 -4.382 -0.95700002 50
23.465 -4.3439999 -0.95700002 39
23.438999 -4.2950001 -0.954 36
23.448 -4.2519999 -0.95300001 34
0 0 0 2
20.906 -3.71 -0.84600002 1
20.912001 -3.671 -0.84399998 2
20.837999 -3.618 -0.83899999 2
20.823999 -3.576 -0.83600003 2
20.858999 -3.54 -0.83499998 2
20.761999 -3.484 -0.82800001 2
20.74 -3.4400001 -0.82499999 2
20.757999 -3.4030001 -0.82300001 2
20.740999 -3.359 -0.81999999 2
20.753 -3.322 -0.81699997 3
20.764 -3.2809999 -0.81400001 3
20.871 -3.257 -0.815 14
20.830999 -3.211 -0.81 7
20.848 -3.1719999 -0.80699998 7
20.84 -3.1289999 -0.80299997 6
20.816 -3.085 -0.79799998 6
20.663 -3.0209999 -0.78899997 3
20.684 -2.984 -0.78600001 4
20.681999 -2.9430001 -0.78100002 4
20.691999 -2.9030001 -0.77700001 4
20.806 -2.878 -0.77700001 7
20.780001 -2.832 -0.77100003 9
20.788 -2.7909999 -0.76700002 9
20.809 -2.753 -0.76300001 7
20.823999 -2.7130001 -0.75800002 7
20.729 -2.6589999 -0.75 4
20.672001 -2.6099999 -0.74199998 4
20.708 -2.572 -0.73799998 3
20.702999 -2.53 -0.73199999 2
20.726 -2.49 -0.727 2
20.743999 -2.45 -0.722 2
20.737 -2.4070001 -0.71499997 1
20.726999 -2.3629999 -0.70899999 1
20.719999 -2.3199999 -0.70200002 1
20.763 -2.283 -0.69700003 1
20.797001 -2.244 -0.69199997 1
20.931 -2.2160001 -0.69 1
0 0 0 25
0 0 0 25
0 0 0 25
0 0 0 2
21.301001 -2.0369999 -0.66500002 3
21.353001 -1.999 -0.65899998 3
21.551001 -1.973 -0.65700001 2
22.429001 -2.007 -0.67500001 1
22.613001 -1.977 -0.67199999 1
23.048 -1.967 -0.676 1
0 0 0 0
0 0 0 3
24.514999 -1.942 -0.68900001 6
0 0 0 0
0 0 0 8
0 0 0 61
0 0 0 57
28.660999 -1.975 -0.74299997 64
28.73 -1.92 -0.73100001 5
0 0 0 27
42.443001 -2.661 -1.041 19
41.250999 -2.5009999 -0.99199998 5
41.005001 -2.402 -0.96600002 4
40.865002 -2.3080001 -0.94300002 3
40.481998 -2.204 -0.91399997 19
0 0 0 2
0 0 0 37
0 0 0 4
0 0 0 43
45.901001 -2.0309999 -0.91799998 37
46.321999 -1.954 -0.90200001 36
46.695 -1.874 -0.884 36
46.588001 -1.774 -0.85600001 9
46.409 -1.673 -0.82700002 10
46.466 -1.579 -0.80199999 9
0 0 0 50
69.044998 -2.063 -1.112 68
69.086998 -1.923 -1.072 85
69.081001 -1.781 -1.031 76
0 0 0 0
0 0 0 58
74.634003 -1.4680001 -0.97899997 89
77.789001 -1.374 -0.97299999 14
0 0 0 0
0 0 0 0
0 0 0 0
0 0 0 110
136.18401 -1.023 -1.271 30
136.05099 -0.74900001 -1.182 41
135.89301 -0.47299999 -1.09 41
135.87399 -0.198 -0.99900001 57
135.882 0.075000003 -0.90700001 62
135.841 0.34999999 -0.81400001 87
135.819 0.61900002 -0.722 98
135.812 0.89300001 -0.62699997 83
135.80299 1.166 -0.53200001 89
135.761 1.438 -0.43599999 87
135.64 1.7079999 -0.33899999 55
135.714 1.98 -0.241 50
0 0 0 0
0 0 0 0
0 0 0 0
0 0 0 17
88.584 2.164 0.164 27
0 0 0 0
0 0 0 38
90.394997 2.7460001 0.375 14
0 0 0 0
0 0 0 18
0 0 0 0
0 0 0 15
91.407997 3.6689999 0.736 12
91.480003 3.8499999 0.81 14
92.264999 4.0619998 0.89099997 32
89.966003 4.1350002 0.94199997 14
89.972 4.3070002 1.0140001 13
90.244003 4.494 1.091 19
90.311996 4.671 1.1670001 20
90.054001 4.8299999 1.238 17
0 0 0 0
0 0 0 0
0 0 0 15
91.440002 5.6040001 1.567 25
91.717003 5.7940001 1.65 15
92.264 5.9980001 1.738 18
92.413002 6.1810002 1.821 20
92.232002 6.342 1.897 16
92.706001 6.5510001 1.989 15
0 0 0 0
0 0 0 0
0 0 0 0
0 0 0 0
0 0 0 39
0 0 0 0
0 0 0 29
77.691002 6.638 2.2249999 34
77.358002 6.75 2.286 30
76.857002 6.8460002 2.342 30
75.280998 6.8369999 2.362 16
0 0 0 0
0 0 0 12
48.931999 4.7080002 1.6720001 16
48.862999 4.789 1.716 9
48.971001 4.8850002 1.765 28
48.992001 4.973 1.812 35
49.083 5.0689998 1.862 40
49.662998 5.2160001 1.932 26
49.612999 5.2969999 1.977 35
49.560001 5.3769999 2.0220001 47
49.492001 5.4549999 2.0669999 36
49.556 5.5469999 2.118 40
49.41 5.6129999 2.158 43
49.026001 5.6550002 2.1889999 30
48.918999 5.7259998 2.233 35
46.271999 5.494 2.1570001 5
46.166 5.5599999 2.198 13
45.814999 5.5939999 2.2260001 34
45.723999 5.658 2.266 32
45.791 5.7420001 2.3150001 30
45.766998 5.8140001 2.358 28
45.91 5.908 2.411 24
45.827999 5.973 2.4530001 22
45.808998 6.046 2.4979999 15
45.988998 6.145 2.5539999 13
0 0 0 0
0 0 0 27
48.011002 6.6469998 2.812 27
0 0 0 0
0 0 0 0
0 0 0 25
45.665001 6.6100001 2.859 26
0 0 0 16
0 0 0 0
0 0 0 15
35.491001 5.3569999 2.368 15
35.542999 5.4190001 2.408 26
0 0 0 0
0 0 0 27
32.891998 5.164 2.329 22
33.240002 5.2690001 2.388 22
33.235001 5.3169999 2.4219999 22
33.230999 5.3660002 2.4560001 39
32.922001 5.3639998 2.467 35
32.792 5.3899999 2.4909999 42
32.803001 5.4380002 2.526 30
32.761002 5.48 2.556 42
32.743999 5.5229998 2.589 35
32.727001 5.5669999 2.622 44
32.776001 5.6220002 2.6600001 41
32.862999 5.6830001 2.701 36
32.966999 5.7459998 2.743 20
32.926998 5.7849998 2.7739999 8
32.775002 5.803 2.7950001 10
32.700001 5.8340001 2.822 4
0 0 0 25
35.235001 6.381 3.1140001 38
35.151001 6.4130001 3.1429999 39
35.054001 6.441 3.171 26
35.044998 6.4850001 3.2049999 26
35.056999 6.533 3.243 15
35.189999 6.6030002 3.2920001 15
35.269001 6.6630001 3.336 15
35.687 6.7880001 3.4119999 16
35.306 6.7600002 3.4119999 15
34.785 6.704 3.3970001 15
34.722 6.7350001 3.427 18
34.636002 6.7610002 3.4549999 24
34.587002 6.7940001 3.4860001 24
34.569 6.8330002 3.52 24
34.598 6.8800001 3.5569999 24
34.562 6.914 3.589 24
34.470001 6.9380002 3.615 29
34.432999 6.9710002 3.6459999 24
34.667 7.0570002 3.7060001 25
34.616001 7.0879998 3.737 24
34.655998 7.1360002 3.7750001 25
34.596001 7.1630001 3.8050001 24
34.639999 7.211 3.8440001 25
0 0 0 0
0 0 0 0
0 0 0 5
32.338001 6.8740001 3.72 5
32.314999 6.9029999 3.7490001 10
32.373001 6.9499998 3.7880001 10
32.228001 6.9530001 3.8039999 11
32.091 6.9569998 3.8199999 23
31.993 6.9679999 3.8399999 21
0 0 0 1
28.471001 6.2589998 3.474 1
0 0 0 36
31.809999 7.0560002 3.944 34
31.812 7.0869999 3.974 39
31.875 7.132 4.0139999 21
31.795 7.145 4.0349998 21
31.844 7.1859999 4.072 21
0 0 0 2
27.257 6.2010002 3.5369999 16
27.334999 6.243 3.5739999 15
27.212999 6.2399998 3.5840001 15
27.235001 6.2690001 3.612 15
26.898001 6.2150002 3.5929999 15
26.934 6.2470002 3.6240001 15
27.233999 6.3400002 3.6900001 15
27.006001 6.309 3.684 18
27.055 6.3429999 3.7160001 16
27.08 6.3709998 3.7449999 19
27.131001 6.4039998 3.777 21
27.216 6.4460001 3.8139999 21
27.172001 6.4580002 3.8329999 19
27.129 6.4689999 3.852 22
27.188 6.5029998 3.885 23
27.247 6.5380001 3.918 27
27.245001 6.5580001 3.9430001 20
27.284 6.5869999 3.973 20
27.315001 6.6139998 4.0019999 22
27.301001 6.6300001 4.0240002 27
27.326 6.6560001 4.052 32
27.35 6.6799998 4.0799999 37
27.41 6.7129998 4.1129999 34
27.396 6.7280002 4.1339998 32
27.285 6.7179999 4.1409998 34
27.198999 6.7140002 4.152 32
27.146999 6.7179999 4.1669998 32
27.190001 6.7459998 4.1960001 31
27.165001 6.756 4.2150002 36
27.094 6.7540002 4.2270002 36
27.045 6.7579999 4.2420001 35
26.993999 6.7600002 4.257 35
26.955999 6.7659998 4.2729998 49
26.965 6.7820001 4.296 38
26.959999 6.796 4.3169999 30
26.964001 6.8109999 4.3390002 23
26.969999 6.8260002 4.362 13
27.009001 6.849 4.3889999 7
26.983 6.855 4.4060001 5
0 0 0 0
0 0 0 7
28.511999 7.2839999 4.7220001 8
28.521999 7.2989998 4.7449999 12
28.504999 7.3060002 4.763 18
28.538 7.3260002 4.7909999 23
28.548 7.3400002 4.8140001 27
28.495001 7.3379998 4.8260002 28
28.333 7.3070002 4.8179998 30
28.242001 7.2940001 4.823 30
28.247 7.3049998 4.8449998 31
27.613001 7.1500001 4.756 29
27.580999 7.151 4.77 31
27.649 7.178 4.8010001 32
28.426001 7.388 4.9559999 33
28.469999 7.4089999 4.9829998 38
28.459 7.4130001 5.0009999 39
28.410999 7.408 5.0110002 37
28.356001 7.402 5.02 40
28.32 7.3990002 5.033 43
28.304001 7.402 5.0469999 43
28.266001 7.3979998 5.059 41
28.252001 7.4000001 5.0739999 42
28.165001 7.3829999 5.0770001 41
28.115999 7.375 5.085 38
27.288 7.1620002 4.9520001 35
27.101999 7.118 4.934 24
26.914 7.073 4.9169998 15
26.844999 7.0580001 4.9200001 15
27.312 7.1849999 5.0219998 16
27.215 7.1630001 5.0190001 16
27.112 7.138 5.0149999 16
27.061001 7.1269999 5.0209999 17
27.034 7.1220002 5.0310001 19
27.000999 7.1160002 5.039 30
27 7.1160002 5.0539999 27
26.985001 7.1129999 5.066 28
26.99 7.1160002 5.0809999 27
26.983 7.1149998 5.0929999 31
26.988001 7.1160002 5.1079998 37
27.003 7.1199999 5.1240001 39
27.034 7.1279998 5.1430001 37
27.035 7.1269999 5.1560001 42
27.039 7.1269999 5.1700001 33
27.059999 7.132 5.1859999 36
27.059 7.1300001 5.198 41
27.055 7.1259999 5.21 39
27.063999 7.1269999 5.223 35
27.063999 7.1240001 5.2350001 28
27.056999 7.119 5.2449999 29
27.037001 7.1100001 5.2519999 23
27.042 7.1079998 5.2649999 18
27.035 7.1020002 5.2740002 11
27.030001 7.0970001 5.2839999 8
27.07 7.1020002 5.302 5
0 0 0 0
0 0 0 0
0 0 0 24
35.512001 9.2889996 7.007 27
35.474998 9.2720003 7.0110002 28
35.451 9.257 7.0180001 28
35.389999 9.2329998 7.0170002 27
35.341 9.21 7.0190001 29
35.335999 9.1990004 7.0289998 28
35.339001 9.191 7.039 27
35.318001 9.1750002 7.0450001 27
35.339001 9.1689997 7.059 27
35.356998 9.1619997 7.072 28
35.368999 9.1549997 7.0830002 28
35.319 9.1300001 7.0819998 28
35.296001 9.1110001 7.086 28
35.188 9.0699997 7.073 27
35.094002 9.033 7.0619998 26
35.008999 8.9969997 7.052 26
34.974998 8.974 7.053 26
34.991001 8.9650002 7.0619998 26
34.995998 8.9510002 7.0700002 26
35.011002 8.941 7.0780001 26
35.083 8.9429998 7.099 26
35.157001 8.9460001 7.1199999 27
35.248001 8.9530001 7.1440001 28
35.376999 8.9689999 7.1739998 28
35.481998 8.9790001 7.1999998 28
35.564999 8.9820004 7.2210002 24
35.554001 8.9610004 7.223 24
35.577 8.948 7.2319999 24
35.480999 8.9049997 7.2160001 28
35.351002 8.8540001 7.191 28
35.247002 8.809 7.1729999 28
35.150002 8.7650003 7.1560001 28
35.243999 8.7679996 7.177 28
35.478001 8.8059998 7.2270002 28
35.493999 8.7889996 7.23 28
35.266998 8.7110004 7.1849999 28
35.456001 8.7360001 7.224 22
35.821999 8.8039999 7.2989998 17
35.862999 8.7910004 7.3080001 23
35.841999 8.7629995 7.303 25
35.976002 8.7720003 7.3299999 29
36.035 8.7620001 7.3410001 29
35.928001 8.7130003 7.3169999 23
35.817001 8.6610003 7.2940001 25
35.791 8.6300001 7.2849998 24
35.895 8.6289997 7.3039999 29
36.027 8.6350002 7.3280001 29
36.09 8.625 7.3369999 29
36.216 8.6280003 7.3590002 30
36.346001 8.632 7.382 40
36.337002 8.6020002 7.3759999 42
36.377998 8.5839996 7.3800001 40
36.408001 8.5629997 7.381 47
36.424 8.5380001 7.3790002 47
36.442001 8.5139999 7.3769999 41
36.459999 8.4879999 7.3740001 36
36.436001 8.4540005 7.3629999 22
36.415001 8.4189997 7.3520002 21
36.466999 8.401 7.355 26
36.486 8.375 7.3520002 24
36.500999 8.3479996 7.3460002 21
36.576 8.3339996 7.3530002 24
36.598999 8.3070002 7.349 22
36.608002 8.2779999 7.342 27
36.560001 8.2340002 7.323 29
36.543999 8.198 7.3099999 28
36.602001 8.1780005 7.3119998 19
36.703999 8.1669998 7.322 21
36.728001 8.1389999 7.316 17
36.800999 8.1210003 7.3189998 6
0 0 0 27
43.59 9.5380001 8.6420002 27
43.603001 9.4989996 8.6300001 24
43.602001 9.4580002 8.6140003 25
43.692001 9.4350004 8.6169996 25
43.720001 9.3979998 8.6059999 25
43.752998 9.3629999 8.5959997 27
43.717999 9.3120003 8.5719995 30
43.791 9.2840004 8.5699997 28
43.787998 9.2390003 8.5509996 30
43.752998 9.1870003 8.5270004 32
43.803001 9.1520004 8.5179996 34
43.808998 9.1090002 8.5 33
43.639999 9.0279999 8.448 35
43.617001 8.9779997 8.4239998 42
43.706001 8.9499998 8.4209995 34
43.784 8.9200001 8.415 25
44.280998 8.9729996 8.4890003 11
44.814999 9.0340004 8.5690002 17
44.804001 8.9829998 8.5450001 18
44.807999 8.9350004 8.5229998 18
44.675999 8.8590002 8.474 17
44.698002 8.8149996 8.4549999 25
44.764 8.7779999 8.4429998 35
44.833 8.7410002 8.4309998 31
44.849998 8.6949997 8.4090004 32
44.727001 8.6199999 8.3620005 43
44.805 8.5839996 8.3509998 44
44.950001 8.5609999 8.3509998 43
44.844002 8.4879999 8.3030005 38
44.866001 8.4399996 8.2799997 38
44.915001 8.3979998 8.2609997 40
44.919998 8.3459997 8.2340002 39
44.985001 8.3050003 8.217 37
45.039001 8.2600002 8.198 36
45.146 8.2279997 8.1870003 35
45.251999 8.1929998 8.1759996 36
45.319 8.1499996 8.1569996 43
45.348999 8.099 8.1309996 45
45.306999 8.0380001 8.092 45
45.247002 7.9720001 8.0489998 45
45.306999 7.927 8.0270004 45
45.359001 7.882 8.0030003 45
45.598999 7.8670001 8.0129995 43
45.657001 7.8200002 7.9879999 37
45.661999 7.7639999 7.954 37
45.675999 7.7090001 7.9219999 38
45.634998 7.645 7.8800001 20
0 0 0 0
0 0 0 49
118.861 19.459999 20.24 40
118.904 19.315001 20.150999 32
0 0 0 8
0 0 0 0
0 0 0 21
59.882 9.4200001 9.9469995 28
59.987 9.3599997 9.9130001 28
60.007999 9.2849998 9.8640003 31
60.247002 9.243 9.8509998 32
60.403 9.1899996 9.8219995 25
60.310001 9.0970001 9.7530003 23
60.415001 9.0340004 9.7150002 20
60.838001 9.0170002 9.7279997 26
60.993 8.9589996 9.6960001 20
0 0 0 0
0 0 0 51
118.994 17.003 18.577999 55
119.027 16.849001 18.469 54
118.993 16.684 18.347 54
118.979 16.525 18.229 62
119.099 16.381001 18.129 38
119.26 16.242001 18.034 26
0 0 0 0
0 0 0 0
0 0 0 22
119.296 15.602 17.549999 23
119.181 15.424 17.408001 31
119.167 15.263 17.281 40
119.056 15.085 17.138 45
119.112 14.925 17.017 52
119.149 14.77 16.893999 77
119.138 14.601 16.761 72
119.129 14.439 16.629 74
119.184 14.277 16.5 69
119.162 14.11 16.364 69
119.228 13.957 16.242001 59
119.192 13.788 16.101999 51
119.29 13.637 15.979 46
119.32 13.475 15.845 42
119.431 13.321 15.721 32
0 0 0 0
0 0 0 0
0 0 0 0
0 0 0 0
0 0 0 0
0 0 0 33
0 0 0 0
0 0 0 0
0 0 0 0
0 0 0 0
0 0 0 0
0 0 0 0
0 0 0 0
0 0 0 0
0 0 0 24
0 0 0 0
0 0 0 28
119.378 10.326 13.038 48
119.374 10.162 12.881 52
119.423 9.9989996 12.727 69
119.399 9.8299999 12.56 79
119.441 9.6660004 12.403 64
119.457 9.5010004 12.243 72
119.397 9.3299999 12.073 74
119.389 9.1660004 11.91 95
119.411 9.0019999 11.747 131
119.458 8.8389997 11.586 97
119.478 8.6750002 11.424 72
119.501 8.5139999 11.26 27
0 0 0 0
0 0 0 31
129.92999 8.7200003 11.69 34
0 0 0 0
0 0 0 0
0 0 0 0
0 0 0 0
0 0 0 0
0 0 0 28
119.873 6.8959999 9.5679998 30
119.744 6.723 9.3760004 42
119.876 6.5669999 9.2069998 40
119.82 6.4000001 9.0229998 27
0 0 0 13
0 0 0 0
0 0 0 0
0 0 0 30
0 0 0 19
90.365997 4.0929999 5.9780002 24
91.085999 4.0029998 5.8839998 21
91.622002 3.9030001 5.776 28
92.007004 3.796 5.6570001 20
92.759003 3.7030001 5.5570002 24
92.967003 3.589 5.4239998 15
93.028999 3.4679999 5.2810001 15
92.554001 3.3269999 5.1059999 19
91.945999 3.1849999 4.927 26
91.874001 3.0610001 4.776 27
91.989998 2.944 4.6339998 25
92.605003 2.842 4.5149999 19
92.803001 2.7290001 4.3790002 24
92.869003 2.612 4.2319999 22
92.513 2.4809999 4.0650001 34
0 0 0 0
0 0 0 0
0 0 0 13
0 0 0 0
0 0 0 0
0 0 0 0
0 0 0 0
0 0 0 19
89.653 1.373 2.6010001 18
87.199997 1.225 2.382 18
87.098 1.117 2.2360001 12
89.483002 1.035 2.145 14
0 0 0 0
0 0 0 15
0 0 0 0
0 0 0 0
0 0 0 0
0 0 0 0
0 0 0 24
87.648003 0.147 0.88700002 30
88.250999 0.043000001 0.741 24
0 0 0 0
0 0 0 0
0 0 0 13
0 0 0 0
0 0 0 0
0 0 0 53
135.98199 -1.064 -0.53600001 75
135.97099 -1.223 -0.77899998 108
135.98801 -1.381 -1.022 79
136.30099 -1.5420001 -1.2690001 32
0 0 0 0
0 0 0 0
0 0 0 0
0 0 0 72
0 0 0 16
75.489998 -1.37 -1.521 44
74.462997 -1.434 -1.636 128
72.350998 -1.474 -1.721 16
72.239998 -1.552 -1.851 52
0 0 0 0
0 0 0 36
69.053001 -1.709 -2.1470001 18
0 0 0 6
0 0 0 0
0 0 0 15
0 0 0 0
0 0 0 7
46.146999 -1.4349999 -1.942 8
0 0 0 2
32.699001 -1.086 -1.498 2
0 0 0 3
0 0 0 1
0 0 0 0
0 0 0 1
19.507999 -0.74599999 -1.074 2
0 0 0 1
17.23 -0.69300002 -1.013 3
0 0 0 2
15.305 -0.64600003 -0.95700002 2
14.556 -0.62800002 -0.93800002 2
13.848 -0.611 -0.91799998 2
13.181 -0.59399998 -0.898 3
12.664 -0.583 -0.88700002 3
12.02 -0.56400001 -0.86400002 2
11.59 -0.55500001 -0.85500002 3
11.129 -0.54400003 -0.84200001 3
10.602 -0.528 -0.82200003 2
10.185 -0.51599997 -0.80900002 2
9.7580004 -0.50300002 -0.79299998 2
9.3459997 -0.49000001 -0.778 3
8.9969997 -0.47999999 -0.76599997 3
8.651 -0.46900001 -0.75300002 4
8.3690004 -0.46200001 -0.74400002 5
8.1549997 -0.45699999 -0.74000001 4
7.8860002 -0.449 -0.73100001 3
7.605 -0.43900001 -0.71899998 3
7.3829999 -0.433 -0.71200001 3
7.165 -0.426 -0.704 3
6.9819999 -0.421 -0.69999999 3
6.77 -0.414 -0.69099998 3
6.5879998 -0.40799999 -0.685 3
6.4349999 -0.40400001 -0.68099999 3
6.2940001 -0.40000001 -0.67799997 3
6.145 -0.39500001 -0.67400002 3
5.9990001 -0.391 -0.66900003 3
5.8400002 -0.38499999 -0.662 2
5.7080002 -0.38100001 -0.65799999 2
5.5929999 -0.377 -0.65499997 2
5.4840002 -0.37400001 -0.653 2
5.3579998 -0.37 -0.648 2
5.243 -0.366 -0.64399999 3
5.1599998 -0.36399999 -0.64300001 2
5.0469999 -0.359 -0.639 2
4.9060001 -0.35299999 -0.63 5
4.8460002 -0.352 -0.63099998 7
4.7779999 -0.35100001 -0.63099998 8
4.7090001 -0.34900001 -0.63099998 6
4.6290002 -0.34599999 -0.62900001 4
4.559 -0.34400001 -0.62800002 3
4.4640002 -0.34 -0.62300003 2
4.3779998 -0.336 -0.61900002 4
4.2810001 -0.33199999 -0.61299998 2
4.23 -0.331 -0.61400002 2
4.191 -0.33000001 -0.616 2
4.0710001 -0.324 -0.60600001 2
4.0510001 -0.32499999 -0.61000001 2
3.9530001 -0.31900001 -0.60299999 3
3.885 -0.31600001 -0.60000002 4
3.846 -0.315 -0.60100001 4
3.796 -0.31400001 -0.60000002 4
3.7390001 -0.31099999 -0.59799999 2
3.777 -0.317 -0.611 2
3.688 -0.31099999 -0.60299999 2
3.6570001 -0.31099999 -0.60500002 3
3.5639999 -0.30500001 -0.59600002 2
3.4749999 -0.29899999 -0.58700001 2
3.431 -0.29699999 -0.58600003 2
3.391 -0.296 -0.58499998 2
3.349 -0.294 -0.58399999 2
3.302 -0.29100001 -0.58200002 2
3.266 -0.28999999 -0.58099997 3
3.24 -0.289 -0.58200002 2
3.2019999 -0.28799999 -0.58099997 2
3.2980001 -0.29800001 -0.60500002 2
3.131 -0.285 -0.579 1
3.0929999 -0.28299999 -0.57800001 2
3.059 -0.28099999 -0.57700002 2
3.0190001 -0.27900001 -0.57499999 2
2.9960001 -0.278 -0.57599998 2
2.957 -0.27599999 -0.57300001 2
2.921 -0.27399999 -0.57200003 2
2.888 -0.27200001 -0.56999999 2
2.8729999 -0.27200001 -0.57200003 2
2.8399999 -0.27000001 -0.56999999 2
2.816 -0.26899999 -0.57099998 2
2.7850001 -0.26699999 -0.56900001 2
2.7490001 -0.26499999 -0.56699997 2
2.723 -0.26300001 -0.56599998 2
2.697 -0.26199999 -0.565 2
2.6630001 -0.25999999 -0.56199998 2
2.6359999 -0.25799999 -0.56099999 2
2.619 -0.257 -0.56199998 2
2.599 -0.25600001 -0.56199998 2
2.5769999 -0.255 -0.56199998 2
2.553 -0.25400001 -0.56099999 2
2.527 -0.252 -0.55900002 2
2.513 -0.252 -0.56 2
2.4809999 -0.249 -0.55699998 1
2.4649999 -0.248 -0.55800003 1
2.441 -0.24699999 -0.55599999 1
2.421 -0.245 -0.55599999 1
2.3970001 -0.244 -0.55400002 1
2.4630001 -0.25099999 -0.57300001 1
2.3610001 -0.242 -0.55299997 1
2.4059999 -0.24699999 -0.56800002 1
2.312 -0.23800001 -0.54900002 1
2.4289999 -0.25099999 -0.58099997 1
2.283 -0.236 -0.54900002 1
2.2650001 -0.235 -0.54900002 1
2.2520001 -0.234 -0.54900002 1
2.2349999 -0.233 -0.54799998 1
2.217 -0.23199999 -0.54699999 1
2.3329999 -0.244 -0.57999998 1
0 0 0 1
2.178 -0.229 -0.54799998 1
2.1470001 -0.226 -0.54299998 1
2.1389999 -0.226 -0.54400003 1
2.1140001 -0.223 -0.54100001 1
2.105 -0.223 -0.542 1
2.095 -0.222 -0.542 1
2.0929999 -0.222 -0.54500002 1
2.069 -0.22 -0.542 1
2.0650001 -0.22 -0.54400003 1
2.049 -0.219 -0.542 1
2.0320001 -0.21699999 -0.54100001 1
2.016 -0.21600001 -0.54000002 1
2.0079999 -0.215 -0.54000002 1
1.992 -0.214 -0.53899997 1
1.99 -0.214 -0.54100001 1
1.97 -0.212 -0.53799999 1
1.976 -0.213 -0.54299998 1
1.954 -0.211 -0.53899997 1
1.9450001 -0.20999999 -0.53899997 1
1.929 -0.208 -0.53799999 1
1.923 -0.208 -0.53799999 1
1.909 -0.207 -0.537 1
1.904 -0.206 -0.53799999 1
1.8839999 -0.204 -0.53500003 1
1.878 -0.204 -0.53600001 1
1.8710001 -0.20299999 -0.53600001 1
1.862 -0.20200001 -0.53600001 1
1.8559999 -0.20200001 -0.53600001 1
1.847 -0.20100001 -0.53600001 1
1.836 -0.2 -0.53500003 1
1.827 -0.199 -0.53500003 1
1.823 -0.198 -0.53600001 1
1.8049999 -0.19599999 -0.53299999 1
1.802 -0.19599999 -0.53399998 1
1.801 -0.19599999 -0.53600001 1
1.8 -0.19599999 -0.53799999 1
1.78 -0.19400001 -0.53399998 1
1.775 -0.193 -0.53399998 1
1.77 -0.192 -0.53500003 1
1.752 -0.19 -0.53200001 1
1.751 -0.19 -0.53299999 1
1.745 -0.19 -0.53299999 1
1.733 -0.18799999 -0.53200001 1
1.729 -0.18799999 -0.53200001 1
1.723 -0.18700001 -0.53200001 1
1.717 -0.186 -0.53200001 1
1.715 -0.186 -0.53299999 1
1.7079999 -0.185 -0.53299999 1
1.7 -0.184 -0.53200001 1
1.698 -0.184 -0.53299999 1
1.691 -0.183 -0.53299999 1
1.678 -0.18099999 -0.53100002 1
1.6799999 -0.18099999 -0.53299999 1
1.66 -0.17900001 -0.528 1
1.654 -0.178 -0.528 1
1.652 -0.178 -0.52899998 1
1.649 -0.177 -0.52899998 1
1.647 -0.177 -0.52999997 1
1.645 -0.176 -0.53100002 1
1.6339999 -0.175 -0.52899998 1
1.627 -0.17399999 -0.528 1
1.624 -0.17299999 -0.528 1
1.6210001 -0.17299999 -0.52899998 1
1.612 -0.17200001 -0.52700001 1
1.6160001 -0.17200001 -0.52999997 1
1.602 -0.17 -0.52700001 1
1.592 -0.169 -0.52499998 1
1.5930001 -0.169 -0.52600002 1
1.586 -0.168 -0.52499998 1
1.5880001 -0.168 -0.52700001 1
1.579 -0.16599999 -0.52499998 1
1.5779999 -0.16599999 -0.52600002 1
1.579 -0.16599999 -0.528 1
1.572 -0.16500001 -0.52700001 1
1.572 -0.164 -0.528 1
1.576 -0.164 -0.52999997 1
1.561 -0.162 -0.52600002 1
1.567 -0.163 -0.52899998 1
1.561 -0.162 -0.528 1
1.562 -0.162 -0.52899998 1
1.551 -0.16 -0.52600002 1
1.548 -0.15899999 -0.52600002 1
1.541 -0.15800001 -0.52499998 1
1.54 -0.15800001 -0.52600002 1
1.5470001 -0.15800001 -0.52899998 1
1.5369999 -0.15700001 -0.52600002 1
1.536 -0.156 -0.52700001 1
1.5319999 -0.155 -0.52600002 1
1.526 -0.154 -0.52499998 1
1.529 -0.154 -0.52700001 1
1.531 -0.154 -0.528 1
1.517 -0.152 -0.52399999 1
1.517 -0.152 -0.52499998 1
1.522 -0.152 -0.52700001 1
1.517 -0.15099999 -0.52600002 1
1.517 -0.15000001 -0.52700001 1
1.5140001 -0.15000001 -0.52600002 1
1.516 -0.149 -0.528 1
1.511 -0.148 -0.52600002 1
1.511 -0.148 -0.52700001 1
1.507 -0.147 -0.52600002 1
1.501 -0.146 -0.52399999 1
1.498 -0.145 -0.52399999 1
1.499 -0.145 -0.52399999 1
1.489 -0.14300001 -0.52200001 1
1.493 -0.14300001 -0.523 1
1.5 -0.14300001 -0.52600002 1
1.4910001 -0.142 -0.523 1
1.488 -0.141 -0.523 1
1.488 -0.141 -0.523 1
1.488 -0.14 -0.523 1
1.488 -0.139 -0.523 1
1.485 -0.139 -0.523 1
1.4910001 -0.139 -0.52499998 1
1.483 -0.13699999 -0.52200001 1
1.49 -0.13699999 -0.52499998 1
1.485 -0.13600001 -0.523 1
1.488 -0.13600001 -0.52499998 1
1.485 -0.13500001 -0.52399999 1
1.485 -0.13500001 -0.52399999 1
1.4809999 -0.134 -0.523 1
1.485 -0.133 -0.52399999 1
1.479 -0.132 -0.52200001 1
1.4859999 -0.132 -0.52399999 1
1.4859999 -0.132 -0.52399999 1
1.488 -0.131 -0.52499998 1
1.4859999 -0.131 -0.52399999 1
1.484 -0.13 -0.52399999 1
1.483 -0.12899999 -0.523 1
1.488 -0.12899999 -0.52499998 1
1.482 -0.12800001 -0.52200001 1
1.4809999 -0.127 -0.52200001 1
1.489 -0.127 -0.52499998 1
1.4859999 -0.126 -0.523 1
1.492 -0.126 -0.52499998 1
1.4859999 -0.125 -0.523 1
1.49 -0.124 -0.52399999 1
1.489 -0.124 -0.52399999 1
1.4960001 -0.124 -0.52600002 1
1.4960001 -0.123 -0.52499998 1
1.499 -0.123 -0.52600002 1
1.499 -0.122 -0.52600002 1
1.5 -0.121 -0.52600002 1
1.5 -0.121 -0.52499998 1
1.501 -0.12 -0.52499998 1
1.507 -0.12 -0.52600002 1
1.51 -0.119 -0.52700001 1
1.513 -0.119 -0.528 1
1.511 -0.118 -0.52600002 1
1.507 -0.117 -0.52499998 1
1.518 -0.117 -0.528 1
1.513 -0.116 -0.52600002 1
1.5190001 -0.116 -0.52700001 1
1.512 -0.114 -0.52399999 1
1.528 -0.115 -0.52899998 1
1.523 -0.114 -0.52600002 1
1.528 -0.113 -0.52700001 1
1.535 -0.113 -0.52899998 1
1.535 -0.112 -0.528 1
1.535 -0.112 -0.528 1
1.533 -0.111 -0.52600002 1
1.536 -0.11 -0.52600002 1
1.54 -0.11 -0.52700001 1
1.544 -0.109 -0.52700001 1
1.54 -0.108 -0.52499998 1
1.551 -0.108 -0.528 1
1.551 -0.107 -0.52700001 1
1.549 -0.106 -0.52499998 1
1.559 -0.106 -0.528 1
1.5650001 -0.106 -0.52899998 1
1.5650001 -0.105 -0.528 1
1.572 -0.105 -0.52899998 1
1.576 -0.104 -0.52899998 1
1.582 -0.104 -0.52999997 1
1.576 -0.103 -0.52700001 1
1.59 -0.103 -0.52999997 1
1.592 -0.102 -0.52999997 1
1.586 -0.101 -0.52700001 1
1.585 -0.1 -0.52499998 1
1.594 -0.1 -0.52700001 1
1.598 -0.098999999 -0.52700001 1
1.602 -0.097999997 -0.52700001 1
1.605 -0.097999997 -0.52700001 1
1.609 -0.097000003 -0.52600002 1
1.612 -0.096000001 -0.52600002 1
1.625 -0.096000001 -0.52899998 1
1.6339999 -0.096000001 -0.52999997 1
1.63 -0.094999999 -0.528 1
1.64 -0.094999999 -0.52899998 1
1.6390001 -0.093999997 -0.52700001 1
1.649 -0.093999997 -0.52899998 1
1.645 -0.092 -0.52600002 1
1.665 -0.093000002 -0.53100002 1
1.6619999 -0.092 -0.528 1
1.671 -0.090999998 -0.52999997 1
1.6849999 -0.090999998 -0.53200001 1
1.6799999 -0.090000004 -0.52899998 1
1.7 -0.090000004 -0.53399998 1
1.689 -0.089000002 -0.52899998 1
1.712 -0.089000002 -0.53399998 1
1.72 -0.089000002 -0.53500003 1
1.725 -0.088 -0.53399998 1
1.726 -0.086999997 -0.53299999 1
1.728 -0.086000003 -0.53100002 1
1.74 -0.086000003 -0.53299999 1
1.738 -0.085000001 -0.53100002 1
1.748 -0.085000001 -0.53200001 1
1.76 -0.083999999 -0.53299999 1
1.768 -0.083999999 -0.53299999 1
1.775 -0.082999997 -0.53399998 1
1.79 -0.082999997 -0.53600001 1
1.798 -0.082000002 -0.53600001 1
1.804 -0.082000002 -0.53600001 1
1.8099999 -0.081 -0.53500003 1
1.814 -0.079999998 -0.53399998 1
1.822 -0.079999998 -0.53399998 1
1.836 -0.079000004 -0.53600001 1
1.842 -0.079000004 -0.53600001 1
1.847 -0.078000002 -0.53500003 1
1.858 -0.077 -0.53600001 1
1.8660001 -0.077 -0.53500003 1
1.872 -0.075999998 -0.53500003 1
1.888 -0.075999998 -0.537 1
1.8940001 -0.075000003 -0.53600001 1
1.91 -0.075000003 -0.53799999 1
1.911 -0.074000001 -0.53500003 1
1.936 -0.074000001 -0.54000002 1
1.919 -0.071999997 -0.53200001 1
1.982 -0.074000001 -0.54699999 1
1.988 -0.072999999 -0.546 1
1.993 -0.071999997 -0.54400003 1
1.9960001 -0.071000002 -0.542 1
1.987 -0.07 -0.537 1
2.006 -0.07 -0.53899997 1
2.0120001 -0.068999998 -0.53799999 1
2.0309999 -0.068999998 -0.54000002 1
2.0550001 -0.068999998 -0.54299998 1
2.063 -0.068000004 -0.542 1
2.0769999 -0.067000002 -0.54299998 1
2.092 -0.067000002 -0.54400003 1
2.1070001 -0.066 -0.54400003 1
2.1159999 -0.066 -0.54299998 1
2.1359999 -0.064999998 -0.54500002 1
2.151 -0.064999998 -0.546 1
2.1689999 -0.064000003 -0.54699999 1
2.1889999 -0.064000003 -0.54900002 1
2.197 -0.063000001 -0.54699999 1
2.2049999 -0.063000001 -0.546 1
2.2249999 -0.061999999 -0.54699999 1
2.2420001 -0.061999999 -0.54799998 1
2.267 -0.061000001 -0.55000001 1
2.276 -0.061000001 -0.54900002 1
2.2939999 -0.059999999 -0.54900002 1
2.303 -0.059 -0.54799998 1
2.322 -0.059 -0.54799998 1
2.3440001 -0.057999998 -0.55000001 1
2.3599999 -0.057999998 -0.54900002 1
2.3840001 -0.057999998 -0.551 1
2.4089999 -0.057 -0.55299997 1
2.428 -0.057 -0.55299997 1
2.4519999 -0.056000002 -0.55400002 1
2.47 -0.056000002 -0.55400002 1
2.4960001 -0.055 -0.55500001 1
2.5179999 -0.055 -0.55599999 1
2.5450001 -0.054000001 -0.55800003 1
2.569 -0.054000001 -0.55800003 2
2.5810001 -0.052999999 -0.55599999 2
2.6129999 -0.052999999 -0.55900002 2
2.641 -0.052999999 -0.56 2
2.665 -0.052000001 -0.56 1
2.6900001 -0.052000001 -0.56099999 1
2.753 -0.052000001 -0.56900001 1
2.7850001 -0.052000001 -0.57099998 1
2.78 -0.050999999 -0.565 2
2.8199999 -0.050000001 -0.56800002 2
2.8510001 -0.050000001 -0.56800002 2
2.8789999 -0.048999999 -0.56900001 2
2.8959999 -0.048999999 -0.56699997 2
3.0409999 -0.050000001 -0.58999997 2
3.0469999 -0.048999999 -0.58499998 2
3.112 -0.050000001 -0.59200001 2
3.0829999 -0.048 -0.57999998 1
3.223 -0.048999999 -0.60100001 2
3.233 -0.048999999 -0.597 1
3.2809999 -0.048 -0.59899998 2
3.1930001 -0.046 -0.57700002 2
3.2320001 -0.046 -0.57800001 2
3.279 -0.046 -0.57999998 3
3.3269999 -0.045000002 -0.58200002 3
3.365 -0.045000002 -0.58200002 3
3.4119999 -0.045000002 -0.58399999 3
3.4749999 -0.045000002 -0.588 3
3.517 -0.044 -0.588 3
3.5569999 -0.044 -0.588 3
3.599 -0.044 -0.588 2
3.7509999 -0.045000002 -0.60500002 3
3.753 -0.044 -0.59799999 3
3.8 -0.044 -0.59899998 2
3.8599999 -0.044 -0.60000002 2
3.921 -0.043000001 -0.602 3
3.97 -0.043000001 -0.602 2
4.0120001 -0.043000001 -0.60000002 2
4.1300001 -0.043000001 -0.60900003 2
4.1620002 -0.043000001 -0.60600001 2
4.2410002 -0.043000001 -0.60900003 2
4.3439999 -0.043000001 -0.61500001 2
4.428 -0.043000001 -0.61799997 2
4.5149999 -0.044 -0.62099999 3
4.585 -0.044 -0.62099999 4
4.6810002 -0.044 -0.625 3
4.7839999 -0.044 -0.62900001 3
4.8790002 -0.044 -0.63099998 3
4.974 -0.045000002 -0.63300002 3
5.0780001 -0.045000002 -0.63599998 3
5.191 -0.045000002 -0.639 3
5.2979999 -0.046 -0.64200002 4
5.434 -0.046 -0.64700001 3
5.566 -0.046999998 -0.65100002 3
5.6890001 -0.046999998 -0.65399998 3
5.8520002 -0.048 -0.66100001 3
6.007 -0.048999999 -0.66600001 3
6.1570001 -0.050000001 -0.66900003 3
6.3410001 -0.050999999 -0.676 4
6.5009999 -0.052000001 -0.68000001 3
6.7049999 -0.052999999 -0.68699998 3
6.901 -0.054000001 -0.69300002 4
7.138 -0.056000002 -0.70200002 4
7.3899999 -0.057999998 -0.71100003 5
7.6500001 -0.059999999 -0.72000003 5
7.8969998 -0.061000001 -0.727 6
8.1709995 -0.064000003 -0.73400003 7
8.4680004 -0.066 -0.74299997 7
8.8190002 -0.068999998 -0.75599998 5
9.3079996 -0.072999999 -0.778 6
9.7790003 -0.075999998 -0.79699999 16
10.083 -0.079000004 -0.80000001 19
10.469 -0.082000002 -0.80900002 4
11.095 -0.088 -0.83399999 2
0 0 0 4
12.326 -0.098999999 -0.87400001 3
12.934 -0.104 -0.88999999 3
13.65 -0.111 -0.91000003 3
14.4 -0.118 -0.92900002 3
15.229 -0.126 -0.94999999 3
16.094 -0.13500001 -0.97100002 3
0 0 0 2
0 0 0 2
0 0 0 1
20.298 -0.178 -1.051 1
0 0 0 5
0 0 0 1
0 0 0 2
0 0 0 0
0 0 0 9
54.252998 -0.52200001 -2.1159999 153
54.268002 -0.52999997 -2 189
54.32 -0.54000002 -1.888 235
51.266998 -0.51899999 -1.6720001 12
51.287998 -0.528 -1.566 13
0 0 0 0
0 0 0 152
0 0 0 0
0 0 0 46
119.355 -1.35 -2.372 37
0 0 0 0
0 0 0 0
0 0 0 0
0 0 0 31
136.246 -1.7029999 -1.257 39
0 0 0 0
0 0 0 43
75.398003 -1.003 -0.211 78
75.387001 -1.024 -0.050999999 76
75.373001 -1.045 0.109 51
75.369003 -1.067 0.26899999 16
78.977997 -1.142 0.44499999 9
0 0 0 0
0 0 0 27
72.146004 -1.11 0.86299998 37
72.144997 -1.1339999 1.016 47
72.169998 -1.159 1.169 17
0 0 0 0
0 0 0 0
0 0 0 20
67.953003 -1.186 1.6720001 9
70.601997 -1.258 1.8839999 9
72.545998 -1.3200001 2.0880001 23
71.216003 -1.323 2.1989999 34
71.25 -1.351 2.3499999 75
71.194 -1.377 2.4949999 67
70.991997 -1.402 2.6340001 75
70.371002 -1.418 2.76 60
69.908997 -1.438 2.888 78
69.851997 -1.466 3.0309999 78
69.539001 -1.489 3.161 59
68.824997 -1.5039999 3.2720001 67
68.530998 -1.527 3.398 77
68.497002 -1.557 3.54 85
67.994003 -1.576 3.652 52
67.278 -1.59 3.7520001 55
67.198997 -1.619 3.8840001 63
67.139 -1.649 4.0190001 70
66.533997 -1.665 4.1149998 41
65.910004 -1.681 4.2129998 73
65.851997 -1.712 4.3439999 62
65.597 -1.738 4.461 64
64.766998 -1.748 4.5359998 65
64.523003 -1.775 4.6490002 63
64.491997 -1.807 4.7779999 68
63.953999 -1.824 4.8649998 48
63.233002 -1.837 4.9400001 67
63.174999 -1.868 5.0599999 62
63.084 -1.9 5.1799998 64
62.257999 -1.908 5.2360001 47
61.855999 -1.9299999 5.3260002 58
61.839001 -1.9630001 5.4460001 52
61.348999 -1.982 5.526 45
60.570999 -1.9910001 5.5739999 60
60.52 -2.023 5.6890001 53
60.389 -2.0539999 5.796 42
59.275002 -2.05 5.8049998 38
59.103001 -2.0780001 5.901 28
58.678001 -2.098 5.973 13
57.998001 -2.1070001 6.0159998 10
57.601002 -2.1270001 6.086 9
57.262001 -2.1500001 6.1609998 10
56.916 -2.171 6.2340002 8
56.490002 -2.1900001 6.296 10
56.209999 -2.2130001 6.3709998 8
55.796001 -2.2320001 6.4310002 8
55.535999 -2.256 6.507 8
55.023998 -2.2709999 6.552 9
54.714001 -2.293 6.618 8
54.367001 -2.312 6.678 10
54.047001 -2.3340001 6.7399998 10
53.616001 -2.3499999 6.7870002 16
53.408001 -2.375 6.8590002 37
53.417 -2.411 6.9590001 47
53.165001 -2.4349999 7.0250001 49
52.529999 -2.4419999 7.0380001 54
52.452999 -2.473 7.125 45
52.458 -2.5079999 7.2199998 44
52.077 -2.526 7.263 43
51.162998 -2.517 7.2280002 45
51.110001 -2.549 7.3140001 45
51.112999 -2.585 7.4060001 41
50.75 -2.602 7.4450002 37
49.827999 -2.5899999 7.3990002 52
49.765999 -2.6210001 7.4770002 44
49.773998 -2.6570001 7.5669999 40
49.622002 -2.684 7.631 41
48.573002 -2.661 7.5549998 40
48.419998 -2.688 7.6149998 43
48.43 -2.724 7.7020001 39
48.412998 -2.7579999 7.783 42
47.518002 -2.7420001 7.7210002 34
47.105999 -2.7520001 7.7350001 40
47.09 -2.7850001 7.8119998 38
47.104 -2.8210001 7.895 39
46.638 -2.8280001 7.8959999 32
45.782001 -2.809 7.8270001 42
45.757 -2.842 7.9000001 36
45.744999 -2.875 7.974 43
45.734001 -2.9089999 8.0480003 38
45.061001 -2.901 8.0039997 25
44.412998 -2.8929999 7.9619999 34
44.381001 -2.924 8.0290003 40
44.397999 -2.96 8.1040001 34
44.377998 -2.9920001 8.1719999 35
43.452 -2.9630001 8.0719995 31
43.051998 -2.9690001 8.0679998 41
43.057999 -3.003 8.1370001 41
43.047001 -3.0350001 8.2030001 40
43.043999 -3.0680001 8.2679996 40
42.297001 -3.0480001 8.191 22
41.705002 -3.0369999 8.1400003 29
41.682999 -3.0669999 8.1999998 29
41.696999 -3.0999999 8.2650003 30
41.695 -3.1329999 8.3280001 31
41.264 -3.1329999 8.3059998 25
40.397999 -3.099 8.1920004 30
40.367001 -3.1289999 8.2469997 39
40.360001 -3.161 8.3059998 38
40.359001 -3.1919999 8.3649998 37
40.327999 -3.2219999 8.4180002 31
39.436001 -3.1819999 8.2889996 24
38.987999 -3.1760001 8.2510004 25
38.981998 -3.2060001 8.3050003 31
39.02 -3.24 8.3690004 34
38.994999 -3.2679999 8.4180002 32
38.993 -3.3 8.4720001 29
38.09 -3.2539999 8.3290005 23
37.653999 -3.2460001 8.2849998 30
37.643002 -3.276 8.335 33
37.630001 -3.306 8.3839998 32
37.643002 -3.336 8.4370003 34
37.646 -3.3670001 8.4879999 33
37.18 -3.3540001 8.434 23
36.360001 -3.3099999 8.2959995 27
36.301998 -3.3340001 8.3299999 33
36.307999 -3.3629999 8.3789997 34
36.314999 -3.3929999 8.4280005 36
36.303001 -3.421 8.4700003 35
36.312 -3.451 8.5179996 36
35.772999 -3.4289999 8.4370003 20
34.978001 -3.3800001 8.2930002 29
34.956001 -3.4059999 8.3310003 34
34.953999 -3.4330001 8.3739996 33
34.944 -3.46 8.4130001 34
34.959999 -3.4890001 8.4589996 32
34.952999 -3.516 8.4989996 31
34.612999 -3.51 8.4569998 22
33.724998 -3.447 8.2799997 25
33.594002 -3.46 8.2860003 31
33.598999 -3.4879999 8.3260002 29
33.595001 -3.5139999 8.3629999 32
33.594002 -3.54 8.3999996 32
33.597 -3.5669999 8.4379997 31
33.625 -3.596 8.4829998 29
33.478001 -3.6070001 8.4829998 25
32.535 -3.5320001 8.2790003 23
32.261002 -3.527 8.2440004 27
32.241001 -3.55 8.2740002 30
32.256001 -3.5769999 8.3100004 30
32.255001 -3.602 8.3439999 29
32.256001 -3.628 8.3769999 30
32.257 -3.6530001 8.4099998 30
32.254002 -3.678 8.441 28
31.865 -3.658 8.3699999 22
31.021 -3.5840001 8.1780005 20
30.899 -3.595 8.1759996 27
30.899 -3.619 8.2049999 28
30.903999 -3.6429999 8.2349997 30
30.9 -3.665 8.2620001 30
30.924 -3.6919999 8.2969999 29
30.917 -3.714 8.323 29
30.908001 -3.7360001 8.3479996 28
30.917999 -3.76 8.3769999 27
30.440001 -3.7249999 8.2740002 17
29.676001 -3.654 8.0909996 18
29.551001 -3.661 8.0819998 24
29.535999 -3.6800001 8.1029997 26
29.549 -3.704 8.1300001 25
29.559999 -3.727 8.1560001 26
29.556 -3.7479999 8.1789999 26
29.554001 -3.77 8.2010002 25
29.556 -3.7909999 8.224 25
29.561001 -3.813 8.2469997 23
29.57 -3.835 8.2709999 24
29.068001 -3.7909999 8.1520004 16
28.353001 -3.717 7.9720001 17
28.204 -3.7190001 7.9499998 24
28.191999 -3.737 7.9650002 27
28.188999 -3.7550001 7.9840002 26
28.184 -3.7750001 8.0010004 26
28.209 -3.7980001 8.026 26
28.202999 -3.816 8.0419998 27
28.204 -3.836 8.0600004 27
28.201 -3.855 8.0760002 26
28.204 -3.875 8.0939999 25
28.202 -3.8929999 8.1099997 23
28.195999 -3.911 8.1239996 23
27.872999 -3.8840001 8.0459995 17
27.136999 -3.8 7.849 16
26.878 -3.7820001 7.7870002 24
26.841 -3.7939999 7.7909999 26
26.834 -3.8110001 7.802 27
26.832001 -3.8280001 7.8150001 26
26.851 -3.8469999 7.8330002 27
26.841999 -3.8629999 7.8429999 27
26.837 -3.8789999 7.8540001 26
26.825001 -3.8940001 7.862 25
26.804001 -3.908 7.868 23
26.76 -3.918 7.8649998 22
26.663 -3.9200001 7.848 18
26.559999 -3.921 7.8270001 16
26.395 -3.914 7.789 13
26.149 -3.8929999 7.7249999 10
25.833 -3.8610001 7.6409998 12
25.502001 -3.8269999 7.5510001 12
25.415001 -3.8280001 7.5339999 10
25.301001 -3.826 7.5079999 10
25.226 -3.829 7.493 9
25.171 -3.835 7.4840002 11
25.084999 -3.836 7.4650002 10
25.014999 -3.839 7.4510002 9
24.947001 -3.842 7.4359999 9
24.886999 -3.8469999 7.4239998 10
24.818001 -3.849 7.4089999 10
24.736 -3.8499999 7.3889999 10
24.67 -3.8529999 7.3740001 10
24.629999 -3.8599999 7.3660002 10
24.552999 -3.8610001 7.3470001 9
24.497999 -3.8640001 7.335 10
24.427 -3.865 7.3169999 11
24.384001 -3.8710001 7.3070002 10
24.316 -3.872 7.289 10
24.243999 -3.8729999 7.27 11
24.177999 -3.875 7.2509999 13
24.15 -3.882 7.244 10
24.07 -3.8800001 7.2220001 9
24.033001 -3.885 7.2119999 9
23.966 -3.8859999 7.1919999 10
23.926001 -3.8889999 7.1810002 9
23.872 -3.891 7.165 10
23.820999 -3.8940001 7.1490002 10
23.768 -3.8959999 7.132 9
23.726 -3.8989999 7.119 9
23.674 -3.901 7.1020002 10
23.607 -3.9000001 7.0799999 9
23.580999 -3.904 7.0710001 9
23.534 -3.9059999 7.0539999 9
23.497999 -3.9100001 7.0409999 9
