# .PCD v0.7 - Point Cloud Data file format
VERSION 0.7
FIELDS x y z intensity
SIZE 4 4 4 4
TYPE F F F F
COUNT 1 1 1 1
WIDTH 1797
HEIGHT 1
VIEWPOINT 0 0 0 1 0 0 0
POINTS 1797
DATA ascii
4.7179999 0.64899999 -0.61500001 3
4.796 0.65399998 -0.61900002 3
4.8610001 0.65700001 -0.62099999 3
4.9229999 0.65899998 -0.62199998 3
5.013 0.66500002 -0.62599999 4
5.1329999 0.67400002 -0.634 6
5.2090001 0.67699999 -0.63700002 7
5.2750001 0.67900002 -0.63800001 10
5.3369999 0.68000001 -0.63800001 13
5.4050002 0.68199998 -0.639 14
5.5009999 0.68599999 -0.64200002 13
5.5830002 0.68900001 -0.64499998 13
5.6820002 0.69400001 -0.648 12
5.776 0.69800001 -0.65100002 12
5.868 0.70099998 -0.65399998 11
5.947 0.70200002 -0.65399998 10
6.0409999 0.70499998 -0.65700001 8
6.1739998 0.71200001 -0.66299999 7
6.3049998 0.71799999 -0.66799998 5
6.4180002 0.722 -0.671 4
6.5450001 0.727 -0.676 4
6.7090001 0.736 -0.68400002 4
6.8499999 0.74199998 -0.68900001 4
6.9819999 0.74599999 -0.69300002 4
7.112 0.75 -0.69599998 4
7.2649999 0.755 -0.70099998 4
7.3870001 0.75700003 -0.70300001 4
7.5510001 0.76300001 -0.708 4
7.7069998 0.76700002 -0.713 4
7.8639998 0.77200001 -0.71700001 4
8.0430002 0.77700001 -0.722 4
8.1870003 0.77899998 -0.72399998 4
8.3760004 0.78399998 -0.73000002 4
8.5640001 0.78899997 -0.73500001 5
8.7460003 0.79299998 -0.73900002 4
8.9180002 0.79500002 -0.74199998 4
9.1300001 0.80000001 -0.74699998 4
9.3800001 0.80699998 -0.755 3
9.5799999 0.81 -0.75800002 4
9.8439999 0.81699997 -0.76599997 4
10.125 0.824 -0.77499998 2
10.37 0.82800001 -0.77999997 3
10.643 0.833 -0.787 3
10.935 0.83899999 -0.79400003 3
11.165 0.83899999 -0.796 3
11.526 0.847 -0.80699998 2
11.833 0.85100001 -0.81300002 2
12.293 0.86500001 -0.829 3
12.669 0.87 -0.838 3
13.053 0.87599999 -0.84600002 3
13.424 0.87900001 -0.85299999 3
13.856 0.884 -0.86299998 3
14.332 0.89099997 -0.87400001 2
14.86 0.89999998 -0.88700002 2
15.447 0.91000003 -0.90200001 2
16.035 0.91799998 -0.91600001 3
16.537001 0.91900003 -0.92400002 5
16.266001 0.87699997 -0.889 5
0 0 0 1
18.045 0.912 -0.94099998 1
19.113001 0.93400002 -0.97299999 1
19.851 0.93599999 -0.98500001 1
20.538 0.93400002 -0.99400002 4
20.177999 0.88300002 -0.95099998 5
20.033001 0.84200001 -0.92000002 4
20.007 0.80699998 -0.89399999 3
19.98 0.77100003 -0.86799997 3
19.948 0.736 -0.84299999 3
19.910999 0.699 -0.81599998 4
19.864 0.662 -0.79000002 4
19.73 0.62400001 -0.76099998 4
18.656 0.55699998 -0.69700003 2
18.250999 0.51300001 -0.66000003 3
17.312 0.456 -0.60600001 4
17.299999 0.42500001 -0.58499998 4
17.283001 0.39399999 -0.56400001 4
17.291 0.36399999 -0.54400003 4
17.284 0.333 -0.52399999 3
17.153 0.29899999 -0.49900001 1
0 0 0 0
0 0 0 1
17.075001 0.206 -0.43799999 5
17.072001 0.176 -0.419 40
17.041 0.145 -0.398 42
17.035 0.114 -0.37900001 3
16.958 0.082999997 -0.35800001 1
16.93 0.050999999 -0.33899999 2
16.882999 0.02 -0.31900001 1
16.909 -0.0089999996 -0.301 1
0 0 0 0
0 0 0 0
0 0 0 1
0 0 0 0
0 0 0 1
16.848 -0.19599999 -0.189 1
16.837999 -0.227 -0.171 1
16.856001 -0.259 -0.153 1
16.934999 -0.29100001 -0.13600001 12
16.965 -0.324 -0.118 7
16.92 -0.35499999 -0.1 10
16.826 -0.384 -0.082000002 19
16.851 -0.41600001 -0.064999998 12
16.851999 -0.44800001 -0.046999998 10
16.848 -0.47999999 -0.029999999 9
16.857 -0.51200002 -0.013 3
16.868999 -0.54400003 0.003 1
0 0 0 0
0 0 0 0
0 0 0 0
0 0 0 0
0 0 0 1
17.455999 -0.76200002 0.106 1
17.509001 -0.79799998 0.124 1
17.632999 -0.83700001 0.141 1
17.796 -0.87900001 0.15899999 1
0 0 0 0
0 0 0 0
0 0 0 1
18.472 -1.054 0.234 1
18.417 -1.086 0.25 1
18.618 -1.133 0.27000001 1
0 0 0 13
33.916 -2.1960001 0.55299997 41
33.893002 -2.2590001 0.583 13
0 0 0 0
0 0 0 0
0 0 0 0
0 0 0 0
0 0 0 0
0 0 0 8
0 0 0 15
33.994999 -2.7909999 0.81699997 23
33.780998 -2.839 0.83999997 46
33.794998 -2.905 0.86799997 62
33.782001 -2.97 0.89499998 121
33.792999 -3.036 0.92199999 128
33.816002 -3.1040001 0.94999999 126
33.826 -3.1700001 0.977 130
33.827 -3.2349999 1.003 123
33.827 -3.3010001 1.029 123
33.855 -3.369 1.056 120
33.889 -3.438 1.0829999 99
33.879002 -3.503 1.108 127
0 0 0 4
17.622 -1.89 0.602 18
17.556999 -1.916 0.61299998 23
17.495001 -1.944 0.62300003 28
17.441 -1.971 0.634 32
17.417 -2.0020001 0.64499998 41
17.385 -2.0320001 0.65600002 45
17.365 -2.063 0.667 42
17.341999 -2.0940001 0.67799997 48
17.318001 -2.125 0.68900001 52
17.326 -2.158 0.70099998 34
17.292999 -2.188 0.71100003 58
17.287001 -2.221 0.72299999 60
17.284 -2.2539999 0.73400003 39
17.281 -2.286 0.74400002 41
17.26 -2.316 0.75400001 60
17.288 -2.3529999 0.76599997 39
17.261 -2.382 0.77600002 62
17.275 -2.4170001 0.787 60
17.288 -2.4519999 0.79799998 48
17.301001 -2.4860001 0.80900002 36
17.305 -2.52 0.81900001 51
17.329 -2.556 0.83099997 34
17.348 -2.592 0.84100002 48
17.355 -2.6259999 0.852 44
17.389 -2.664 0.86299998 40
17.423 -2.701 0.87400001 23
17.474001 -2.7420001 0.88599998 26
17.554001 -2.7880001 0.89999998 18
17.658001 -2.8369999 0.91399997 3
0 0 0 1
34.436001 -5.6630001 1.819 2
34.412998 -5.723 1.835 2
34.435001 -5.7909999 1.854 2
34.432999 -5.855 1.87 2
34.509998 -5.9320002 1.891 3
34.450001 -5.9850001 1.904 3
0 0 0 0
0 0 0 2
34.488998 -6.1820002 1.954 3
34.444 -6.237 1.967 2
34.478001 -6.3060002 1.984 2
34.550999 -6.3829999 2.003 2
34.533001 -6.4419999 2.017 2
34.560001 -6.5100002 2.033 2
34.616001 -6.5830002 2.05 5
34.561001 -6.6339998 2.0610001 8
34.563999 -6.697 2.075 9
34.569 -6.7589998 2.0880001 13
34.563 -6.8189998 2.1010001 35
34.52 -6.8730001 2.112 36
34.495998 -6.9299998 2.1229999 48
34.478001 -6.987 2.135 50
34.442001 -7.0409999 2.145 51
34.400002 -7.0929999 2.154 39
34.32 -7.1370001 2.1600001 31
34.212002 -7.1760001 2.1659999 25
34.078999 -7.2059999 2.168 21
33.931999 -7.2329998 2.1689999 20
33.814999 -7.2659998 2.1719999 17
33.605999 -7.2789998 2.1689999 17
33.472 -7.3080001 2.1700001 16
33.333 -7.3340001 2.171 18
33.240002 -7.3699999 2.175 17
33.122002 -7.4000001 2.1760001 17
33.028999 -7.4349999 2.1789999 17
32.915001 -7.4640002 2.1800001 19
32.823002 -7.4980001 2.1830001 19
32.712002 -7.527 2.1819999 18
32.631001 -7.5619998 2.1849999 17
32.523998 -7.5910001 2.1860001 17
32.418999 -7.6199999 2.1860001 18
32.367001 -7.6609998 2.1900001 17
32.292 -7.6950002 2.1919999 17
32.202 -7.7259998 2.1930001 16
32.095001 -7.7519999 2.1919999 17
31.988001 -7.7779999 2.191 17
31.656 -7.7470002 2.174 18
31.320999 -7.7150002 2.1559999 22
31.191999 -7.7329998 2.1530001 23
31.108999 -7.7600002 2.1530001 22
31.007 -7.783 2.151 24
30.924999 -7.8109999 2.1500001 33
30.917999 -7.8569999 2.154 44
30.926001 -7.9070001 2.1589999 40
30.940001 -7.9580002 2.164 37
30.924 -8.0010004 2.1670001 44
30.945 -8.0530005 2.1730001 44
30.938999 -8.0979996 2.1760001 46
30.952999 -8.1479998 2.181 49
30.955 -8.1940002 2.184 48
30.952999 -8.2399998 2.187 47
30.972 -8.29 2.1919999 46
30.972 -8.335 2.1930001 46
30.965 -8.3780003 2.1960001 47
31.027 -8.4399996 2.2030001 35
31.073 -8.4969997 2.2079999 29
31.080999 -8.5439997 2.21 25
31.056 -8.5810003 2.211 33
31.059 -8.625 2.2130001 34
31.056999 -8.6680002 2.214 31
31.041 -8.7060003 2.214 31
31.045 -8.75 2.2149999 34
31.047001 -8.7930002 2.217 36
31.027 -8.8290005 2.2160001 35
31.031 -8.8719997 2.2160001 43
31.048 -8.9180002 2.2179999 37
31.055 -8.9630003 2.2190001 36
31.047001 -9 2.2190001 42
31.07 -9.0469999 2.22 44
31.073999 -9.0889997 2.22 35
31.062 -9.125 2.2179999 41
31.089001 -9.1719999 2.22 36
31.080999 -9.2080002 2.2179999 42
31.094999 -9.2510004 2.2179999 36
31.094999 -9.2889996 2.217 36
31.101999 -9.3290005 2.2160001 40
31.112 -9.3699999 2.2149999 41
31.113001 -9.4069996 2.214 40
31.128 -9.4490004 2.2130001 36
31.132 -9.4870005 2.211 42
31.135 -9.5249996 2.2090001 40
31.139 -9.5609999 2.207 42
0 0 0 2
27.266001 -8.434 1.928 12
27.181 -8.4379997 1.919 23
27.110001 -8.4460001 1.9119999 28
27.072001 -8.4639997 1.906 32
27.044001 -8.4849997 1.901 35
26.988001 -8.4969997 1.8940001 37
26.975 -8.5209999 1.89 39
26.945999 -8.54 1.8839999 41
26.937 -8.5649996 1.88 37
26.893 -8.5790005 1.874 48
26.885 -8.6029997 1.87 49
26.860001 -8.6219997 1.864 51
26.853001 -8.6470003 1.859 53
26.837 -8.6669998 1.854 53
26.830999 -8.6920004 1.849 56
26.812 -8.71 1.844 58
26.813999 -8.7360001 1.84 57
26.805 -8.7580004 1.834 60
26.795 -8.7790003 1.83 61
26.790001 -8.8009996 1.824 60
26.784 -8.823 1.819 44
26.774 -8.8430004 1.813 52
26.785 -8.8699999 1.808 43
26.782 -8.8909998 1.803 50
26.775 -8.9110003 1.7970001 45
26.788 -8.9370003 1.7920001 45
26.778 -8.9549999 1.7869999 44
26.771 -8.974 1.78 42
26.798 -9.0039997 1.776 39
26.790001 -9.0220003 1.77 38
26.797001 -9.0439997 1.7640001 38
26.808001 -9.0679998 1.758 35
26.832001 -9.0959997 1.753 34
26.834999 -9.1149998 1.747 34
26.844999 -9.1379995 1.7410001 31
0 0 0 1
9.8900003 -3.3800001 0.63599998 3
9.8520002 -3.3729999 0.63099998 7
9.8190002 -3.368 0.62699997 12
9.8059998 -3.3699999 0.62300003 15
9.7810001 -3.3670001 0.61900002 11
9.757 -3.365 0.61500001 18
9.7399998 -3.365 0.611 18
9.7279997 -3.3659999 0.60799998 13
9.7119999 -3.3659999 0.60399997 20
9.6890001 -3.3629999 0.60000002 23
9.6820002 -3.3659999 0.59600002 17
9.6829996 -3.372 0.59299999 19
9.6639996 -3.3699999 0.58899999 19
9.6529999 -3.3710001 0.58600003 20
9.6459999 -3.3729999 0.58200002 17
9.6389999 -3.375 0.579 18
9.6339998 -3.378 0.57599998 16
9.6219997 -3.3770001 0.57200003 16
9.6110001 -3.378 0.56800002 16
9.6029997 -3.3789999 0.565 17
9.6090002 -3.385 0.56199998 19
9.6000004 -3.385 0.55800003 18
9.5880003 -3.3840001 0.55400002 19
9.5939999 -3.3900001 0.551 19
9.5869999 -3.3900001 0.54799998 20
9.5860004 -3.3929999 0.54400003 24
9.5649996 -3.3889999 0.53899997 18
9.5679998 -3.3929999 0.53600001 24
9.5790005 -3.3989999 0.53299999 23
9.5719995 -3.3989999 0.52999997 26
9.5570002 -3.3959999 0.52600002 26
9.559 -3.3989999 0.52200001 26
9.5559998 -3.4000001 0.51899999 27
9.5600004 -3.404 0.51499999 26
9.552 -3.402 0.51099998 26
9.5480003 -3.4030001 0.50700003 26
9.552 -3.4059999 0.50400001 27
9.5629997 -3.411 0.50099999 27
9.5450001 -3.4059999 0.49700001 27
9.552 -3.4089999 0.493 27
9.5450001 -3.408 0.48899999 27
9.5340004 -3.405 0.48500001 27
9.5369997 -3.4059999 0.48100001 28
9.5419998 -3.4089999 0.47799999 28
9.5469999 -3.411 0.47400001 27
9.5419998 -3.4089999 0.47 28
9.5380001 -3.408 0.46599999 27
9.5349998 -3.4070001 0.46200001 27
9.5430002 -3.4100001 0.45899999 28
9.5389996 -3.408 0.454 27
9.5349998 -3.4059999 0.44999999 27
9.5340004 -3.405 0.44600001 27
9.5430002 -3.408 0.44299999 27
9.5389996 -3.405 0.43900001 28
9.5439997 -3.4059999 0.435 27
9.5459995 -3.4059999 0.43099999 28
9.5459995 -3.405 0.42699999 27
9.5410004 -3.401 0.42300001 27
9.5439997 -3.401 0.419 27
9.5539999 -3.4030001 0.41499999 26
9.5539999 -3.401 0.41100001 26
9.559 -3.401 0.40700001 26
9.5559998 -3.398 0.40200001 27
9.5629997 -3.398 0.398 26
9.5629997 -3.395 0.39399999 26
9.5670004 -3.3940001 0.38999999 25
9.5690002 -3.392 0.38600001 26
9.5719995 -3.3900001 0.382 22
9.5740004 -3.388 0.37799999 21
9.5799999 -3.3870001 0.37400001 20
9.5810003 -3.3840001 0.36899999 18
9.5889997 -3.3840001 0.36500001 20
9.592 -3.381 0.361 20
9.6049995 -3.382 0.35800001 20
9.599 -3.3759999 0.35299999 19
9.5959997 -3.3710001 0.34799999 18
9.6020002 -3.369 0.34400001 19
9.6199999 -3.3710001 0.34 17
9.632 -3.3710001 0.336 16
9.6350002 -3.368 0.33199999 16
9.6450005 -3.3670001 0.32800001 15
9.6610003 -3.3670001 0.324 17
9.665 -3.3640001 0.31999999 18
9.6789999 -3.3629999 0.315 18
9.677 -3.3570001 0.31099999 17
9.691 -3.3570001 0.30700001 15
9.7060003 -3.3570001 0.303 14
9.7150002 -3.3540001 0.29899999 20
9.7460003 -3.359 0.29499999 12
9.7550001 -3.3559999 0.29100001 18
9.7810001 -3.359 0.287 11
9.8120003 -3.3629999 0.28299999 9
9.8269997 -3.362 0.27900001 10
9.8610001 -3.3670001 0.27500001 5
9.8830004 -3.368 0.271 1
0 0 0 30
26.808001 -9.0979996 0.70999998 30
26.805 -9.0780001 0.69800001 34
26.790001 -9.0530005 0.68400002 34
26.781 -9.0299997 0.671 37
26.778 -9.0089998 0.65899998 32
26.771 -8.9860001 0.64600003 34
26.775 -8.9659996 0.63300002 41
26.75 -8.9359999 0.62 45
26.747999 -8.9130001 0.60699999 46
26.740999 -8.8889999 0.59500003 49
26.747 -8.868 0.58200002 48
26.759001 -8.849 0.56999999 39
26.736 -8.8179998 0.55599999 57
26.752001 -8.8000002 0.54400003 46
26.750999 -8.776 0.53100002 55
26.75 -8.7510004 0.51800001 57
26.761999 -8.7299995 0.50599998 61
26.754999 -8.7030001 0.493 65
26.753 -8.677 0.48100001 66
26.785 -8.6619997 0.46900001 58
26.799999 -8.6400003 0.456 57
26.808001 -8.6160002 0.44299999 57
26.83 -8.5959997 0.43099999 54
26.829 -8.5690002 0.419 49
26.851 -8.5480003 0.40599999 49
26.870001 -8.526 0.39500001 45
26.889 -8.5039997 0.38299999 46
26.909 -8.4820004 0.37 41
26.945999 -8.4650002 0.35800001 40
26.975 -8.4449997 0.34599999 33
27.017 -8.4280005 0.33399999 30
27.052 -8.4090004 0.32300001 31
27.094999 -8.3920002 0.31099999 26
27.160999 -8.3809996 0.29899999 19
27.669001 -8.5059996 0.292 21
27.962 -8.5629997 0.28200001 45
27.959 -8.5299997 0.26899999 42
27.952999 -8.4949999 0.257 40
27.955 -8.4619999 0.244 42
27.938 -8.4230003 0.23100001 41
27.934 -8.3870001 0.219 41
27.921 -8.349 0.206 40
27.927999 -8.3170004 0.19400001 39
27.915001 -8.2770004 0.18099999 32
27.905001 -8.2390003 0.168 19
0 0 0 1
6.585 -1.927 0.034000002 1
6.5869999 -1.919 0.030999999 2
6.6020002 -1.914 0.028000001 1
6.5890002 -1.902 0.025 1
6.5939999 -1.895 0.022 1
6.6100001 -1.89 0.018999999 1
0 0 0 12
27.868999 -7.8940001 0.061000001 20
27.875 -7.8569999 0.048999999 18
27.872999 -7.8179998 0.037 18
27.862 -7.777 0.025 16
27.892 -7.7449999 0.014 14
27.879999 -7.7020001 0.0020000001 11
27.889999 -7.665 -0.0080000004 8
27.9 -7.6279998 -0.018999999 7
27.917 -7.592 -0.029999999 6
27.922001 -7.5510001 -0.041000001 5
27.910999 -7.506 -0.052999999 3
27.877001 -7.4559999 -0.064000003 2
27.917 -7.4250002 -0.074000001 1
27.93 -7.3860002 -0.085000001 1
0 0 0 11
30.311001 -7.9239998 -0.116 11
30.306999 -7.8759999 -0.127 9
0 0 0 1
12.58 -3.23 -0.061999999 2
12.392 -3.1619999 -0.064999998 13
12.462 -3.161 -0.07 17
12.463 -3.141 -0.075000003 16
12.405 -3.1059999 -0.079000004 31
12.426 -3.092 -0.083999999 37
12.378 -3.0599999 -0.088 37
12.379 -3.04 -0.092 43
12.359 -3.0150001 -0.096000001 38
12.401 -3.0050001 -0.1 44
12.398 -2.984 -0.105 37
12.446 -2.9749999 -0.109 37
12.495 -2.9649999 -0.114 37
12.481 -2.941 -0.118 41
12.439 -2.9100001 -0.121 48
12.562 -2.918 -0.126 37
12.504 -2.8829999 -0.13 37
12.455 -2.8499999 -0.133 44
12.387 -2.8139999 -0.13600001 51
12.412 -2.7980001 -0.14 49
12.432 -2.7809999 -0.14399999 45
12.539 -2.783 -0.148 37
12.633 -2.7820001 -0.153 44
12.616 -2.756 -0.15700001 48
12.647 -2.74 -0.16 48
12.74 -2.7379999 -0.16500001 46
12.853 -2.7390001 -0.17 39
12.93 -2.7320001 -0.175 39
12.96 -2.7160001 -0.178 39
12.903 -2.681 -0.18099999 34
12.953 -2.668 -0.185 30
13.058 -2.6659999 -0.189 17
13.108 -2.652 -0.193 20
13.109 -2.628 -0.19599999 20
0 0 0 18
34.375999 -6.7649999 -0.53100002 6
34.695 -6.763 -0.54400003 11
34.778999 -6.7140002 -0.55199999 18
34.831001 -6.6599998 -0.56 10
0 0 0 0
0 0 0 16
14.937 -2.7720001 -0.249 31
14.933 -2.7420001 -0.252 39
14.954 -2.7190001 -0.255 39
14.966 -2.6919999 -0.25799999 41
14.964 -2.6630001 -0.25999999 43
15.044 -2.6489999 -0.264 53
15.103 -2.6300001 -0.26800001 49
14.981 -2.5799999 -0.26800001 51
14.92 -2.5409999 -0.26899999 52
15.042 -2.533 -0.273 41
14.931 -2.4849999 -0.273 52
14.931 -2.4560001 -0.27500001 52
14.911 -2.4230001 -0.27700001 51
14.869 -2.3870001 -0.278 44
15.08 -2.391 -0.28400001 21
14.956 -2.342 -0.28299999 52
15 -2.319 -0.285 46
14.945 -2.2809999 -0.28600001 40
15.084 -2.273 -0.28999999 44
15.173 -2.256 -0.29300001 40
15.193 -2.2290001 -0.29499999 4
15.493 -2.2420001 -0.30199999 45
15.401 -2.198 -0.301 4
15.554 -2.188 -0.30500001 4
15.603 -2.164 -0.30599999 4
15.596 -2.132 -0.30700001 56
15.636 -2.1059999 -0.30899999 56
0 0 0 0
0 0 0 62
17.242001 -2.2179999 -0.34200001 58
17.250999 -2.184 -0.34299999 53
17.277 -2.151 -0.34299999 35
17.285999 -2.118 -0.34400001 53
17.299 -2.0840001 -0.34400001 51
17.32 -2.0510001 -0.34400001 49
17.344999 -2.0179999 -0.34400001 44
17.372999 -1.9859999 -0.345 38
17.421 -1.955 -0.345 35
17.448 -1.9220001 -0.345 32
17.523001 -1.8940001 -0.34599999 26
17.6 -1.8660001 -0.347 17
17.702 -1.84 -0.34799999 2
0 0 0 49
33.868 -3.381 -0.662 51
33.845001 -3.309 -0.65899998 51
33.835999 -3.2379999 -0.65600002 50
33.806999 -3.165 -0.653 55
0 0 0 1
19.872999 -1.777 -0.38 28
19.9 -1.738 -0.37799999 37
19.856001 -1.692 -0.375 44
19.868999 -1.651 -0.373 23
0 0 0 1
17.287001 -1.365 -0.31999999 1
17.231001 -1.324 -0.317 1
0 0 0 0
0 0 0 1
0 0 0 0
0 0 0 0
0 0 0 0
0 0 0 0
0 0 0 1
16.969 -1.0190001 -0.289 1
17.006001 -0.986 -0.28600001 4
17.021 -0.95099998 -0.28299999 10
17.018 -0.91500002 -0.27900001 12
16.981001 -0.87699997 -0.27500001 15
16.958 -0.83999997 -0.271 10
16.966999 -0.80500001 -0.26699999 9
16.976 -0.76899999 -0.26300001 12
16.948 -0.73299998 -0.25799999 9
16.916 -0.69599998 -0.25400001 5
16.851999 -0.65700001 -0.248 6
16.874001 -0.62199998 -0.244 6
16.910999 -0.588 -0.23999999 8
16.906 -0.55199999 -0.235 8
16.893 -0.51599997 -0.23 8
16.891001 -0.47999999 -0.22499999 7
16.895 -0.44499999 -0.22 9
16.878 -0.40900001 -0.215 10
16.858 -0.373 -0.20900001 8
16.879 -0.33700001 -0.204 10
16.886 -0.30199999 -0.198 4
16.864 -0.266 -0.192 1
16.829 -0.23 -0.186 1
16.832001 -0.19499999 -0.18000001 1
16.903 -0.16 -0.175 1
16.82 -0.124 -0.168 1
0 0 0 0
0 0 0 0
0 0 0 0
0 0 0 0
0 0 0 0
0 0 0 0
0 0 0 1
16.9 0.15700001 -0.116 1
0 0 0 0
0 0 0 0
0 0 0 0
0 0 0 0
0 0 0 0
0 0 0 0
0 0 0 0
0 0 0 0
0 0 0 1
0 0 0 0
0 0 0 1
18.899 0.64399999 -0.026000001 1
0 0 0 0
0 0 0 0
0 0 0 1
0 0 0 0
0 0 0 77
36.827999 1.705 0.059999999 76
36.818001 1.779 0.079999998 77
36.971001 1.862 0.1 7
37.547001 1.966 0.122 6
38.519001 2.095 0.146 14
0 0 0 101
38.535 2.2490001 0.189 24
0 0 0 7
0 0 0 66
41.037998 2.642 0.27200001 22
41.187 2.733 0.29800001 17
41.639999 2.845 0.32499999 16
41.681999 2.931 0.34999999 28
0 0 0 24
45.014 3.3429999 0.433 80
45.097 3.438 0.461 76
45.178001 3.5320001 0.49000001 25
45.925999 3.6800001 0.52600002 20
0 0 0 98
48.852001 4.1059999 0.62199998 38
49.012001 4.2129998 0.65499997 33
49.408001 4.3429999 0.69199997 6
0 0 0 66
56.374001 5.1750002 0.86299998 66
56.780998 5.3210001 0.90700001 112
56.768002 5.4250002 0.94400001 48
56.849998 5.5419998 0.98299998 49
57.326 5.697 1.03 7
57.422001 5.816 1.071 13
57.393002 5.9229999 1.11 8
0 0 0 0
0 0 0 0
0 0 0 34
0 0 0 0
0 0 0 0
0 0 0 35
62.676998 7.283 1.518 18
0 0 0 0
0 0 0 65
68.443001 8.3240004 1.804 49
70.105003 8.6540003 1.899 29
0 0 0 0
0 0 0 16
84.389 10.873 2.4719999 17
84.085999 10.985 2.526 22
83.964996 11.119 2.586 14
84.277 11.311 2.6589999 11
81.197998 11.041 2.6240001 21
0 0 0 0
0 0 0 0
0 0 0 23
82.850998 11.845 2.9300001 23
82.532997 11.941 2.9809999 29
82.278999 12.047 3.036 40
0 0 0 0
0 0 0 0
0 0 0 19
84.573997 12.961 3.3870001 14
0 0 0 0
0 0 0 0
0 0 0 0
0 0 0 0
0 0 0 17
85.668999 13.984 3.8410001 23
0 0 0 0
0 0 0 29
84.940002 14.283 4.0149999 30
84.949997 14.422 4.085 31
84.694 14.514 4.1420002 37
84.524002 14.62 4.204 31
84.305 14.716 4.2620001 24
84.127998 14.818 4.323 15
88.768997 15.775 4.6350002 20
88.912003 15.939 4.7160001 18
88.829002 16.059999 4.7839999 14
87.297997 15.918 4.7740002 18
87.108002 16.014999 4.8369999 30
84.973999 15.751 4.7880001 13
85.126999 15.91 4.8670001 12
0 0 0 22
0 0 0 0
0 0 0 30
113.421 21.872 6.868 34
113.38 22.034 6.96 38
113.359 22.195 7.0549998 28
113.349 22.356001 7.1479998 29
113.37 22.52 7.2470002 27
0 0 0 0
0 0 0 15
0 0 0 32
113.23 23.129999 7.6170001 32
0 0 0 0
0 0 0 0
0 0 0 18
86.674004 18.181999 6.1259999 12
0 0 0 28
0 0 0 0
0 0 0 0
0 0 0 0
0 0 0 0
0 0 0 0
0 0 0 0
0 0 0 0
0 0 0 27
0 0 0 0
0 0 0 26
0 0 0 43
0 0 0 0
0 0 0 30
0 0 0 0
0 0 0 0
0 0 0 0
0 0 0 0
0 0 0 0
0 0 0 0
0 0 0 0
0 0 0 30
112.832 26.865999 10.169 39
112.645 26.945999 10.247 37
112.706 27.087 10.345 38
112.695 27.205999 10.439 49
112.664 27.319 10.53 43
112.619 27.427999 10.62 27
112.812 27.593 10.732 21
0 0 0 0
0 0 0 0
0 0 0 9
68.755997 17.097 6.7690001 18
68.703003 17.152 6.8179998 18
68.526001 17.174999 6.8569999 13
68.360001 17.198999 6.8959999 10
0 0 0 12
0 0 0 0
0 0 0 0
0 0 0 18
44.379002 11.372 4.6550002 32
44.400002 11.417 4.6929998 30
44.333 11.439 4.7220001 25
44.148998 11.43 4.7379999 25
44.006001 11.431 4.757 32
44.013 11.47 4.7919998 36
43.986 11.5 4.823 42
43.821999 11.493 4.8400002 36
43.633999 11.479 4.8530002 42
43.591 11.503 4.8829999 42
43.558998 11.529 4.9130001 42
43.479 11.541 4.9380002 42
43.368999 11.545 4.9580002 42
43.341999 11.57 4.987 42
43.344002 11.603 5.0209999 35
43.188999 11.593 5.0359998 42
43.001999 11.573 5.046 32
42.963001 11.593 5.0739999 24
43.028999 11.641 5.1129999 21
43.158001 11.704 5.1599998 14
43.049999 11.704 5.178 12
43.271999 11.792 5.237 7
43.160999 11.79 5.2550001 6
0 0 0 0
0 0 0 0
0 0 0 0
0 0 0 0
0 0 0 11
47.181999 13.057 5.947 13
47.162998 13.077 5.9780002 11
47.155998 13.101 6.0079999 9
46.827 13.034 5.9990001 7
46.648998 13.008 6.0089998 7
46.587002 13.014 6.033 6
46.560001 13.03 6.0609999 5
0 0 0 0
0 0 0 9
59.837002 16.829 7.908 11
59.772999 16.837 7.9390001 15
59.678001 16.836 7.9660001 19
59.619999 16.844 7.9970002 20
59.636002 16.872 8.0380001 26
59.602001 16.886 8.0719995 21
59.606998 16.91 8.1090002 17
59.618 16.934 8.1479998 14
0 0 0 0
0 0 0 0
0 0 0 53
111.52 31.825001 15.515 46
111.48 31.846001 15.577 45
111.478 31.879 15.641 35
111.52 31.921 15.713 30
0 0 0 0
0 0 0 0
0 0 0 14
60.712002 17.436001 8.6949997 17
60.659 17.434 8.7200003 19
60.640999 17.438999 8.7530003 24
0 0 0 5
43.893002 12.639 6.3829999 9
43.862 12.637 6.402 13
43.883999 12.65 6.4289999 16
43.835999 12.641 6.4450002 17
43.799999 12.636 6.4629998 22
43.794998 12.64 6.4840002 21
43.787998 12.641 6.506 28
43.749001 12.634 6.5209999 27
43.713001 12.626 6.5380001 30
43.688999 12.621 6.5560002 33
43.648998 12.612 6.5710001 31
43.627998 12.607 6.5890002 34
43.580002 12.594 6.6020002 37
43.566002 12.59 6.6199999 34
43.506001 12.572 6.6300001 41
43.445 12.554 6.6409998 43
43.405998 12.541 6.6539998 43
43.312 12.512 6.658 43
43.196999 12.475 6.6599998 35
43.112 12.447 6.665 35
43.040001 12.423 6.671 33
42.925999 12.386 6.671 35
42.855999 12.361 6.678 35
42.776001 12.333 6.6810002 34
42.694 12.303 6.6849999 41
42.636002 12.28 6.6929998 41
42.619999 12.268 6.7059999 35
42.632 12.265 6.723 33
42.643002 12.26 6.7399998 29
42.666 12.258 6.7589998 28
42.653 12.245 6.7719998 24
42.643002 12.233 6.7839999 23
42.674 12.232 6.8039999 17
42.688 12.225 6.8200002 13
0 0 0 0
0 0 0 0
0 0 0 48
111.599 31.833 17.969 43
111.541 31.783001 17.99 52
111.547 31.747 18.025999 62
111.579 31.719999 18.059 73
111.582 31.681 18.09 64
111.613 31.650999 18.121 54
111.668 31.624001 18.159 32
111.705 31.59 18.195 28
111.744 31.556 18.228001 28
111.83 31.535 18.266001 25
111.833 31.489 18.291 22
111.822 31.436001 18.313999 25
111.832 31.389 18.339001 23
0 0 0 0
0 0 0 22
0 0 0 0
0 0 0 23
111.862 31.105 18.452 24
111.942 31.068001 18.483999 28
111.866 30.986 18.488001 27
0 0 0 0
0 0 0 26
111.953 30.823999 18.546 29
112.068 30.790001 18.577999 21
112.076 30.725 18.591999 22
0 0 0 0
0 0 0 24
112.021 30.502001 18.612 31
111.977 30.417999 18.614 24
112.146 30.389999 18.65 22
112.144 30.315001 18.656 23
112.089 30.225 18.653999 25
112.183 30.173 18.674999 24
0 0 0 0
0 0 0 23
0 0 0 0
0 0 0 0
0 0 0 0
0 0 0 28
112.226 29.608 18.690001 26
112.319 29.548 18.701 23
112.398 29.48 18.711 24
112.2 29.337999 18.674999 26
112.335 29.285 18.690001 24
112.297 29.181999 18.677999 29
112.387 29.111 18.688999 28
112.474 29.039 18.695999 25
112.469 28.941999 18.686001 24
112.397 28.829 18.663 28
112.445 28.743 18.66 27
112.527 28.664 18.662001 24
112.535 28.568001 18.649 26
112.492 28.455 18.628 23
112.518 28.358999 18.618 24
112.556 28.264 18.608999 23
112.611 28.172001 18.601 24
0 0 0 0
0 0 0 23
112.619 27.854 18.545 24
112.607 27.740999 18.523001 27
112.679 27.648001 18.514 28
112.71 27.547001 18.495001 21
112.678 27.427999 18.468 24
112.861 27.358 18.474001 22
112.783 27.223 18.436001 24
0 0 0 0
0 0 0 24
0 0 0 0
0 0 0 21
113.101 26.708 18.344999 23
112.95 26.551001 18.289 21
112.964 26.431 18.259001 24
112.871 26.289 18.209999 24
113.017 26.198 18.198999 25
113.009 26.07 18.162001 26
113.005 25.941999 18.125999 22
113.052 25.825001 18.096001 25
113.137 25.718 18.07 25
113.021 25.562 18.011999 35
113.113 25.452 17.987 30
113.053 25.306999 17.936001 32
113.019 25.166 17.889 39
113.111 25.052999 17.860001 42
113.098 24.916 17.813999 43
113.183 24.799 17.778999 43
113.217 24.673 17.74 39
113.19 24.525999 17.686001 41
113.189 24.391001 17.639999 52
113.242 24.263 17.599001 51
113.259 24.125999 17.551001 57
113.291 23.995001 17.504 62
113.307 23.853001 17.455 69
113.362 23.722 17.407 60
113.394 23.587999 17.360001 59
113.377 23.437 17.299 66
113.411 23.298 17.247999 71
113.481 23.17 17.200001 71
113.507 23.028 17.146 66
113.523 22.886 17.091 71
113.545 22.742001 17.034 68
113.567 22.597 16.976 77
113.653 22.464001 16.926001 71
113.609 22.306999 16.855 70
113.637 22.160999 16.795 70
113.675 22.016001 16.735001 60
113.767 21.882999 16.681 56
113.777 21.731001 16.615 56
113.827 21.584999 16.554001 65
113.881 21.443001 16.490999 53
113.927 21.292 16.427999 46
113.989 21.146 16.365 41
114.165 21.024 16.316 34
113.975 20.830999 16.215 28
114.116 20.697001 16.16 25
114.368 20.582001 16.120001 34
114.431 20.431999 16.051001 23
0 0 0 0
0 0 0 0
0 0 0 29
0 0 0 0
0 0 0 28
117.043 19.900999 15.921 28
117.229 19.763 15.86 27
0 0 0 0
0 0 0 0
0 0 0 0
0 0 0 0
0 0 0 0
0 0 0 25
0 0 0 0
0 0 0 0
0 0 0 0
0 0 0 0
0 0 0 0
0 0 0 0
0 0 0 0
0 0 0 34
0 0 0 0
0 0 0 0
0 0 0 0
0 0 0 0
0 0 0 0
0 0 0 0
0 0 0 0
0 0 0 26
117.711 15.812 13.644 27
117.688 15.632 13.53 27
117.681 15.45 13.417 33
117.697 15.275 13.306 53
117.739 15.099 13.196 49
117.755 14.92 13.082 66
117.755 14.741 12.966 77
117.78 14.558 12.851 75
117.831 14.386 12.739 69
0 0 0 44
72.032997 8.5710001 7.6399999 59
69.988998 8.2209997 7.3540001 35
68.192001 7.9029999 7.092 57
66.810997 7.6389999 6.8779998 49
64.763 7.302 6.599 7
63.480999 7.0599999 6.401 8
62.186001 6.8189998 6.2030001 11
61.455002 6.6430001 6.0640001 33
60.138 6.4060001 5.868 53
58.821999 6.1760001 5.6760001 58
57.676998 5.9650002 5.5019999 49
56.84 5.79 5.3579998 40
56.104 5.6269999 5.2259998 63
54.77 5.4070001 5.04 62
53.459 5.1939998 4.8579998 50
52.845001 5.0510001 4.7420001 34
52.139 4.9029999 4.619 61
50.790001 4.697 4.4400001 53
50.249001 4.5679998 4.3340001 37
49.451 4.4169998 4.2069998 64
48.136002 4.224 4.0380001 53
48.105 4.1459999 3.9779999 57
46.785 3.9579999 3.8110001 65
45.592999 3.786 3.6589999 10
45.075001 3.671 3.562 45
45.091999 3.6029999 3.5079999 66
45.085999 3.5320001 3.4530001 61
45.117001 3.4649999 3.4000001 21
0 0 0 4
39.407001 2.9030001 2.8710001 16
38.654999 2.7880001 2.7679999 84
38.578999 2.7219999 2.7130001 17
37.479 2.586 2.5880001 11
37.029999 2.4979999 2.5090001 34
36.577999 2.4100001 2.431 22
36.210999 2.3299999 2.3599999 17
35.945 2.256 2.2950001 7
35.428001 2.1689999 2.2160001 6
35.183998 2.0999999 2.154 7
35.175999 2.0450001 2.1070001 10
35.848 2.027 2.099 8
0 0 0 5
33.111 1.771 1.849 12
33.110001 1.719 1.804 8
33.133999 1.669 1.76 4
0 0 0 8
36.5 1.727 1.839 16
36.625 1.677 1.794 29
36.793999 1.628 1.751 55
36.862 1.575 1.7029999 64
34.893002 1.438 1.563 8
34.504002 1.369 1.497 8
34.182999 1.304 1.434 8
33.819 1.239 1.3710001 8
33.456001 1.175 1.308 8
33.103001 1.112 1.2460001 16
33.009998 1.059 1.1950001 107
33.013 1.01 1.148 109
33.047001 0.96100003 1.101 110
33.033001 0.91100001 1.052 106
33.046001 0.861 1.003 87
0 0 0 1
19.336 0.44600001 0.52999997 1
19.229 0.41499999 0.498 1
0 0 0 0
0 0 0 0
0 0 0 0
0 0 0 1
0 0 0 0
0 0 0 0
0 0 0 0
0 0 0 0
0 0 0 1
17.801001 0.122 0.189 1
17.711 0.096000001 0.161 1
17.495001 0.07 0.132 1
0 0 0 0
0 0 0 0
0 0 0 1
17.042999 -0.028000001 0.021 1
17.017 -0.052000001 -0.0049999999 3
17.000999 -0.075999998 -0.030999999 3
17.000999 -0.1 -0.057999998 2
16.931 -0.123 -0.085000001 1
16.841 -0.146 -0.112 1
16.863001 -0.17 -0.139 1
16.84 -0.193 -0.16599999 1
16.778 -0.215 -0.193 1
16.841999 -0.23999999 -0.221 1
16.754999 -0.26199999 -0.248 1
16.790001 -0.285 -0.27599999 1
16.84 -0.30899999 -0.30399999 2
16.815001 -0.33199999 -0.331 12
16.775 -0.354 -0.35800001 18
16.766001 -0.37599999 -0.38600001 7
16.743999 -0.398 -0.41299999 17
16.763 -0.421 -0.44100001 161
16.743 -0.44299999 -0.46799999 178
16.761999 -0.46599999 -0.49700001 161
16.775 -0.48800001 -0.52499998 152
16.900999 -0.514 -0.55800003 10
16.955 -0.53799999 -0.588 4
16.851999 -0.55699998 -0.61299998 2
16.884001 -0.57999998 -0.64300001 2
16.959999 -0.60500002 -0.67500001 2
17.145 -0.63300002 -0.71100003 2
17.597 -0.67199999 -0.759 1
17.77 -0.70099998 -0.79699999 1
0 0 0 3
20.329 -0.85399997 -0.98100001 3
20.362 -0.88099998 -1.018 2
0 0 0 0
0 0 0 1
17.527 -0.824 -0.96600002 2
17.497 -0.84399998 -0.995 2
0 0 0 1
15.398 -0.77999997 -0.92799997 2
14.736 -0.764 -0.91399997 2
14.131 -0.75 -0.90100002 3
13.543 -0.73500001 -0.88599998 3
12.843 -0.71200001 -0.86299998 3
12.243 -0.69300002 -0.84399998 2
11.855 -0.685 -0.838 5
11.57 -0.68300003 -0.838 8
11.273 -0.67799997 -0.83600003 7
10.846 -0.66500002 -0.82300001 4
10.382 -0.648 -0.80599999 3
10.024 -0.63800001 -0.796 3
9.7030001 -0.62800002 -0.787 4
9.4329996 -0.62099999 -0.78200001 4
9.1689997 -0.61400002 -0.77600002 4
8.8970003 -0.60600001 -0.76800001 3
8.6070004 -0.59500003 -0.75800002 2
8.3570004 -0.58700001 -0.75099999 3
8.0860004 -0.57700002 -0.741 3
7.8709998 -0.56999999 -0.73500001 4
7.6859999 -0.565 -0.73100001 4
7.5040002 -0.56 -0.727 4
7.3179998 -0.55400002 -0.722 4
7.145 -0.54799998 -0.71700001 4
6.973 -0.542 -0.71200001 4
6.7839999 -0.53500003 -0.70499998 4
6.6529999 -0.53100002 -0.70300001 4
6.467 -0.523 -0.69499999 3
6.316 -0.51700002 -0.68900001 3
6.1849999 -0.51300001 -0.68599999 3
6.0479999 -0.50800002 -0.68099999 3
5.928 -0.50300002 -0.67799997 3
5.8039999 -0.49900001 -0.67400002 3
5.6919999 -0.495 -0.671 3
5.566 -0.48899999 -0.66600001 3
5.4520001 -0.484 -0.662 3
5.3439999 -0.47999999 -0.65799999 3
5.2270002 -0.47400001 -0.653 4
5.1300001 -0.47 -0.64999998 3
5.0510001 -0.46799999 -0.64899999 3
4.9499998 -0.463 -0.64499998 3
4.8629999 -0.45899999 -0.64200002 3
4.7839999 -0.456 -0.63999999 3
4.7069998 -0.45300001 -0.63800001 3
4.6329999 -0.44999999 -0.63599998 2
4.5560002 -0.447 -0.63300002 2
4.4819999 -0.44400001 -0.63099998 2
4.395 -0.43900001 -0.62599999 3
4.3319998 -0.43599999 -0.625 2
4.2729998 -0.43399999 -0.62400001 2
4.2410002 -0.435 -0.62599999 3
4.1869998 -0.433 -0.62599999 3
4.1009998 -0.42699999 -0.62 2
4.0339999 -0.42300001 -0.61699998 2
3.974 -0.421 -0.61400002 3
3.9779999 -0.42399999 -0.62199998 2
3.948 -0.42399999 -0.62400001 3
3.816 -0.41299999 -0.60900003 2
3.7739999 -0.41100001 -0.60900003 2
3.7149999 -0.40799999 -0.60600001 3
3.691 -0.40799999 -0.60799998 3
3.6370001 -0.405 -0.60600001 2
3.5880001 -0.40200001 -0.60399997 2
3.5380001 -0.39899999 -0.60100001 1
3.4990001 -0.39700001 -0.60100001 2
3.4189999 -0.391 -0.59299999 1
3.4349999 -0.39500001 -0.60100001 2
3.3870001 -0.39199999 -0.59799999 1
3.336 -0.389 -0.59500003 2
3.3329999 -0.391 -0.60000002 2
3.3659999 -0.39700001 -0.61199999 2
3.316 -0.39300001 -0.60799998 2
3.243 -0.38699999 -0.60000002 2
3.2119999 -0.38499999 -0.60000002 1
3.1289999 -0.377 -0.58999997 1
3.1029999 -0.37599999 -0.58999997 1
3.115 -0.38 -0.597 2
3.052 -0.37400001 -0.58999997 2
3.0420001 -0.375 -0.59299999 2
3.046 -0.377 -0.59899998 2
2.9949999 -0.373 -0.59399998 1
2.9690001 -0.37099999 -0.59299999 1
2.905 -0.36500001 -0.58499998 1
2.8870001 -0.36500001 -0.58600003 1
2.9400001 -0.373 -0.602 1
2.7709999 -0.35299999 -0.57200003 1
2.862 -0.366 -0.59500003 1
2.7490001 -0.354 -0.57599998 1
2.6900001 -0.347 -0.56800002 1
2.704 -0.35100001 -0.57499999 1
2.72 -0.354 -0.583 1
2.668 -0.34900001 -0.57599998 1
2.687 -0.35299999 -0.58399999 1
2.7320001 -0.36000001 -0.59799999 1
2.619 -0.347 -0.57800001 1
2.5450001 -0.338 -0.565 1
2.5339999 -0.338 -0.56699997 1
2.52 -0.33700001 -0.56699997 1
2.4920001 -0.33500001 -0.565 1
2.5020001 -0.33700001 -0.57099998 1
2.6199999 -0.354 -0.602 1
0 0 0 1
2.4219999 -0.33000001 -0.56400001 1
2.404 -0.32800001 -0.56300002 1
2.4419999 -0.33500001 -0.57599998 1
2.4389999 -0.33500001 -0.579 1
2.448 -0.338 -0.58399999 1
2.3180001 -0.32100001 -0.55699998 1
2.3429999 -0.32499999 -0.56599998 1
2.362 -0.329 -0.574 1
2.2850001 -0.31900001 -0.55800003 1
2.2679999 -0.317 -0.55800003 1
2.2520001 -0.31600001 -0.55699998 1
2.2360001 -0.31400001 -0.55599999 1
2.2219999 -0.31299999 -0.55599999 1
2.2079999 -0.31200001 -0.55500001 1
2.1930001 -0.31099999 -0.55500001 1
2.177 -0.30899999 -0.55400002 1
2.1570001 -0.30700001 -0.551 1
2.1470001 -0.30599999 -0.55199999 1
2.1340001 -0.30500001 -0.551 1
2.1259999 -0.30399999 -0.55199999 1
2.112 -0.303 -0.551 1
2.0880001 -0.30000001 -0.54799998 1
2.085 -0.30000001 -0.55000001 1
2.0699999 -0.29899999 -0.54900002 1
2.0599999 -0.29800001 -0.54900002 1
2.046 -0.296 -0.54699999 1
2.0369999 -0.296 -0.54799998 1
2.03 -0.29499999 -0.54799998 1
2.017 -0.294 -0.54799998 1
2.006 -0.292 -0.54699999 1
1.9910001 -0.29100001 -0.54500002 1
1.978 -0.289 -0.54400003 1
1.976 -0.289 -0.546 1
1.965 -0.28799999 -0.546 1
1.955 -0.287 -0.54500002 1
1.944 -0.28600001 -0.54500002 1
1.933 -0.285 -0.54400003 1
1.92 -0.28299999 -0.542 1
1.919 -0.28299999 -0.54400003 1
1.91 -0.28200001 -0.54400003 1
1.901 -0.28099999 -0.54400003 1
1.892 -0.28 -0.54299998 1
1.877 -0.278 -0.54100001 1
1.872 -0.27700001 -0.542 1
1.87 -0.27700001 -0.54299998 1
1.852 -0.27500001 -0.54000002 1
1.85 -0.27500001 -0.54100001 1
1.836 -0.273 -0.53899997 1
1.8279999 -0.27200001 -0.53899997 1
1.824 -0.271 -0.54000002 1
1.822 -0.271 -0.54100001 1
1.8150001 -0.27000001 -0.54100001 1
1.802 -0.26800001 -0.53799999 1
1.794 -0.26699999 -0.53799999 1
1.7869999 -0.266 -0.53799999 1
1.783 -0.266 -0.53799999 1
1.777 -0.26499999 -0.53799999 1
1.768 -0.264 -0.537 1
1.747 -0.26100001 -0.53200001 1
1.743 -0.25999999 -0.53299999 1
1.738 -0.259 -0.53299999 1
1.734 -0.259 -0.53299999 1
1.7309999 -0.25799999 -0.53399998 1
1.721 -0.257 -0.53200001 1
1.716 -0.25600001 -0.53200001 1
1.7130001 -0.255 -0.53299999 1
1.707 -0.25400001 -0.53200001 1
1.7180001 -0.25600001 -0.537 1
1.71 -0.255 -0.53600001 1
1.7 -0.25299999 -0.53500003 1
1.697 -0.25299999 -0.53500003 1
1.6950001 -0.252 -0.53600001 1
1.677 -0.249 -0.53100002 1
1.694 -0.252 -0.53799999 1
1.67 -0.248 -0.53200001 1
1.668 -0.248 -0.53200001 1
1.6670001 -0.24699999 -0.53299999 1
1.664 -0.24600001 -0.53299999 1
1.658 -0.245 -0.53200001 1
1.659 -0.245 -0.53399998 1
1.647 -0.243 -0.53100002 1
1.6440001 -0.243 -0.53100002 1
1.645 -0.243 -0.53299999 1
1.64 -0.242 -0.53200001 1
1.631 -0.23999999 -0.53100002 1
1.626 -0.23899999 -0.52999997 1
1.623 -0.23800001 -0.52999997 1
1.625 -0.23800001 -0.53100002 1
1.62 -0.237 -0.53100002 1
1.622 -0.237 -0.53200001 1
1.602 -0.234 -0.52700001 1
1.619 -0.236 -0.53299999 1
1.605 -0.234 -0.52899998 1
1.605 -0.233 -0.52999997 1
1.603 -0.233 -0.52999997 1
1.592 -0.23100001 -0.52700001 1
1.604 -0.23199999 -0.53200001 1
1.605 -0.23199999 -0.53299999 1
1.59 -0.229 -0.52899998 1
1.5930001 -0.229 -0.52999997 1
1.584 -0.228 -0.528 1
1.5829999 -0.227 -0.52899998 1
1.591 -0.228 -0.53200001 1
1.58 -0.226 -0.52899998 1
1.584 -0.226 -0.53100002 1
1.5700001 -0.22400001 -0.52700001 1
1.571 -0.223 -0.52700001 1
1.569 -0.223 -0.52700001 1
1.568 -0.222 -0.52700001 1
1.568 -0.221 -0.528 1
1.5700001 -0.221 -0.52899998 1
1.5700001 -0.221 -0.52899998 1
1.5700001 -0.22 -0.52999997 1
1.572 -0.22 -0.53100002 1
1.561 -0.21799999 -0.528 1
1.5700001 -0.21799999 -0.53100002 1
1.563 -0.21699999 -0.52899998 1
1.564 -0.21699999 -0.52899998 1
1.562 -0.21600001 -0.52899998 1
1.5700001 -0.21600001 -0.53200001 1
1.556 -0.214 -0.528 1
1.557 -0.213 -0.528 1
1.553 -0.212 -0.52700001 1
1.557 -0.212 -0.528 1
1.5549999 -0.211 -0.528 1
1.558 -0.211 -0.52899998 1
1.545 -0.20900001 -0.52499998 1
1.557 -0.20999999 -0.52899998 1
1.5549999 -0.20900001 -0.528 1
1.557 -0.208 -0.52899998 1
1.558 -0.208 -0.52899998 1
1.552 -0.206 -0.52700001 1
1.552 -0.206 -0.52700001 1
1.5549999 -0.205 -0.528 1
1.558 -0.205 -0.52899998 1
1.553 -0.204 -0.52700001 1
1.5470001 -0.20200001 -0.52499998 1
1.567 -0.204 -0.53200001 1
1.556 -0.20200001 -0.528 1
1.556 -0.20100001 -0.52700001 1
1.549 -0.2 -0.52499998 1
1.5599999 -0.2 -0.528 1
1.557 -0.199 -0.52700001 1
1.558 -0.198 -0.52700001 1
1.549 -0.197 -0.52399999 1
1.566 -0.198 -0.52899998 1
1.558 -0.19599999 -0.52600002 1
1.561 -0.19599999 -0.52700001 1
1.561 -0.19499999 -0.52600002 1
1.5700001 -0.19499999 -0.52899998 1
1.568 -0.19400001 -0.528 1
1.562 -0.193 -0.52499998 1
1.576 -0.19400001 -0.52999997 1
1.571 -0.192 -0.52700001 1
1.579 -0.192 -0.52999997 1
1.577 -0.191 -0.528 1
1.58 -0.191 -0.52899998 1
1.581 -0.19 -0.528 1
1.579 -0.189 -0.52700001 1
1.579 -0.18799999 -0.52700001 1
1.589 -0.18799999 -0.52899998 1
1.592 -0.18799999 -0.52999997 1
1.591 -0.18700001 -0.52899998 1
1.597 -0.18700001 -0.52999997 1
1.608 -0.18700001 -0.53299999 1
1.609 -0.186 -0.53200001 1
1.61 -0.185 -0.53200001 1
1.599 -0.183 -0.52700001 1
1.609 -0.183 -0.52999997 1
1.615 -0.183 -0.53100002 1
1.6160001 -0.182 -0.52999997 1
1.617 -0.18099999 -0.52999997 1
1.622 -0.18099999 -0.52999997 1
1.625 -0.18000001 -0.52999997 1
1.632 -0.18000001 -0.53200001 1
1.628 -0.17900001 -0.52899998 1
1.635 -0.178 -0.53100002 1
1.637 -0.178 -0.52999997 1
1.6440001 -0.177 -0.53100002 1
1.649 -0.177 -0.53200001 1
1.648 -0.176 -0.52999997 1
1.655 -0.176 -0.53100002 1
1.665 -0.176 -0.53299999 1
1.6670001 -0.175 -0.53299999 1
1.674 -0.17399999 -0.53399998 1
1.675 -0.17299999 -0.53299999 1
1.686 -0.17399999 -0.53500003 1
1.687 -0.17299999 -0.53399998 1
1.6950001 -0.17200001 -0.53500003 1
1.699 -0.17200001 -0.53500003 1
1.7 -0.171 -0.53399998 1
1.706 -0.17 -0.53399998 1
1.711 -0.169 -0.53399998 1
1.71 -0.168 -0.53299999 1
1.7180001 -0.168 -0.53399998 1
1.738 -0.169 -0.53799999 1
1.739 -0.168 -0.537 1
1.749 -0.168 -0.53899997 1
1.75 -0.167 -0.537 1
1.7539999 -0.16599999 -0.537 1
1.76 -0.16500001 -0.537 1
1.762 -0.164 -0.53600001 1
1.773 -0.164 -0.53799999 1
1.7869999 -0.164 -0.54000002 1
1.784 -0.163 -0.537 1
1.791 -0.162 -0.53799999 1
1.798 -0.162 -0.53799999 1
1.806 -0.161 -0.53799999 1
1.809 -0.16 -0.537 1
1.827 -0.16 -0.54100001 1
1.84 -0.16 -0.54299998 1
1.85 -0.16 -0.54299998 1
1.853 -0.15899999 -0.542 1
1.858 -0.15800001 -0.542 1
1.867 -0.15800001 -0.542 1
1.876 -0.15700001 -0.54299998 1
1.882 -0.156 -0.54299998 1
1.893 -0.156 -0.54299998 1
1.903 -0.156 -0.54400003 1
1.914 -0.155 -0.54500002 1
1.92 -0.154 -0.54400003 1
1.927 -0.154 -0.54400003 1
1.942 -0.154 -0.546 1
1.941 -0.152 -0.54299998 1
1.959 -0.152 -0.546 1
1.9680001 -0.15099999 -0.546 1
1.974 -0.15099999 -0.54500002 1
1.984 -0.15000001 -0.54500002 1
2.0009999 -0.15000001 -0.54699999 1
2.007 -0.149 -0.546 1
2.0239999 -0.149 -0.54799998 1
2.029 -0.148 -0.54699999 1
2.039 -0.147 -0.54699999 1
2.062 -0.148 -0.55000001 1
2.0680001 -0.147 -0.54900002 1
2.085 -0.146 -0.551 1
2.096 -0.146 -0.551 1
2.108 -0.145 -0.551 1
2.1270001 -0.145 -0.55299997 1
2.132 -0.14399999 -0.551 1
2.152 -0.14399999 -0.55299997 1
2.161 -0.14300001 -0.55299997 1
2.1789999 -0.14300001 -0.55400002 1
2.191 -0.142 -0.55400002 1
2.1989999 -0.141 -0.55299997 1
2.227 -0.142 -0.55599999 1
2.2349999 -0.141 -0.55500001 1
2.256 -0.141 -0.55699998 1
2.2650001 -0.14 -0.55599999 1
2.286 -0.139 -0.55800003 1
2.299 -0.139 -0.55699998 1
2.3099999 -0.138 -0.55599999 1
2.3310001 -0.138 -0.55800003 1
2.3510001 -0.13699999 -0.55900002 1
2.365 -0.13699999 -0.55900002 1
2.378 -0.13600001 -0.55800003 1
0 0 0 1
2.5 -0.14 -0.579 1
2.566 -0.142 -0.58999997 1
2.4849999 -0.13600001 -0.56699997 1
2.6110001 -0.141 -0.59200001 1
2.54 -0.13500001 -0.57200003 1
2.6029999 -0.13699999 -0.58099997 1
2.5439999 -0.132 -0.56400001 1
2.642 -0.13600001 -0.58099997 1
2.6919999 -0.13699999 -0.588 1
2.71 -0.13600001 -0.588 1
2.694 -0.133 -0.579 1
2.6960001 -0.132 -0.57599998 1
2.767 -0.134 -0.58600003 1
2.7479999 -0.131 -0.57700002 1
2.7309999 -0.12899999 -0.56900001 1
2.8139999 -0.131 -0.58099997 1
2.8299999 -0.13 -0.57999998 1
2.8410001 -0.12899999 -0.57700002 1
2.9059999 -0.13 -0.58499998 1
2.96 -0.131 -0.59100002 1
3.095 -0.13500001 -0.61299998 2
3.0409999 -0.131 -0.59600002 2
3.0699999 -0.13 -0.597 2
3.0580001 -0.12800001 -0.58899999 1
3.1170001 -0.12899999 -0.59500003 1
3.1440001 -0.12800001 -0.59399998 1
3.207 -0.12899999 -0.60000002 1
3.233 -0.12800001 -0.59899998 1
3.2390001 -0.127 -0.59399998 1
3.2420001 -0.125 -0.58899999 1
3.2909999 -0.125 -0.59200001 1
3.329 -0.125 -0.59200001 1
3.3929999 -0.125 -0.59799999 1
3.4089999 -0.124 -0.59399998 1
3.431 -0.123 -0.59100002 1
3.4890001 -0.123 -0.59500003 1
3.5710001 -0.124 -0.602 2
3.6070001 -0.124 -0.60100001 2
3.658 -0.124 -0.60299999 3
3.7060001 -0.124 -0.60399997 2
3.7920001 -0.124 -0.611 2
3.835 -0.124 -0.61000001 2
3.8399999 -0.122 -0.60399997 1
3.9590001 -0.124 -0.61500001 2
4.0580001 -0.125 -0.62199998 2
4.0669999 -0.124 -0.616 2
4.1719999 -0.125 -0.62400001 3
4.171 -0.123 -0.61500001 4
4.276 -0.124 -0.62199998 3
4.3049998 -0.123 -0.61799997 2
4.402 -0.124 -0.62400001 2
4.4990001 -0.125 -0.62900001 3
4.5890002 -0.125 -0.63200003 3
4.6669998 -0.125 -0.63300002 3
4.75 -0.125 -0.63499999 3
4.8520002 -0.126 -0.639 4
4.9330001 -0.126 -0.63999999 4
5.04 -0.127 -0.64399999 5
5.1420002 -0.127 -0.64700001 6
5.27 -0.12800001 -0.65200001 6
5.4200001 -0.13 -0.66000003 3
5.5419998 -0.131 -0.66399997 4
5.6919999 -0.132 -0.67000002 4
5.8390002 -0.133 -0.67500001 4
5.9549999 -0.134 -0.67699999 3
6.1059999 -0.13500001 -0.68199998 3
6.2729998 -0.13699999 -0.68699998 3
6.4460001 -0.138 -0.69300002 3
6.6599998 -0.14 -0.70200002 4
6.848 -0.142 -0.708 4
7.053 -0.14399999 -0.71499997 5
7.2810001 -0.146 -0.72299999 6
7.5300002 -0.149 -0.73199999 13
7.7049999 -0.15000001 -0.73299998 13
7.8940001 -0.15099999 -0.73500001 14
8.1829996 -0.154 -0.745 15
8.4720001 -0.15700001 -0.75300002 13
8.7180004 -0.15899999 -0.75700003 11
9.0749998 -0.163 -0.76899999 6
9.4090004 -0.16599999 -0.778 5
9.7700005 -0.17 -0.787 4
10.198 -0.175 -0.80000001 3
10.594 -0.17900001 -0.80900002 4
11.052 -0.184 -0.82099998 3
11.574 -0.19 -0.83600003 4
12.04 -0.19499999 -0.84399998 3
12.701 -0.20299999 -0.86299998 3
0 0 0 5
14.098 -0.219 -0.89899999 4
14.749 -0.226 -0.90899998 4
15.032 -0.227 -0.89499998 2
0 0 0 2
0 0 0 2
0 0 0 2
0 0 0 2
0 0 0 0
0 0 0 14
0 0 0 1
17.134001 -0.235 -0.72899997 4
16.985001 -0.23 -0.685 4
16.863001 -0.226 -0.64399999 4
16.795 -0.223 -0.60600001 3
16.773001 -0.221 -0.56900001 4
16.768 -0.219 -0.53200001 4
16.756001 -0.21699999 -0.49700001 4
16.771999 -0.215 -0.461 2
16.732 -0.213 -0.42399999 6
16.736 -0.212 -0.38800001 15
16.747999 -0.211 -0.352 16
16.778999 -0.20999999 -0.317 1
16.830999 -0.20900001 -0.28200001 1
16.812 -0.208 -0.245 1
16.825001 -0.207 -0.20900001 1
16.847 -0.207 -0.17299999 1
16.827999 -0.206 -0.13699999 1
16.858 -0.206 -0.101 1
16.905001 -0.206 -0.064999998 2
16.885 -0.205 -0.028999999 2
16.862 -0.205 0.0060000001 1
0 0 0 0
0 0 0 0
0 0 0 1
17.702 -0.215 0.15899999 1
18.028 -0.22 0.2 1
18.167 -0.222 0.241 1
0 0 0 0
0 0 0 0
0 0 0 0
0 0 0 0
0 0 0 0
0 0 0 1
18.733999 -0.237 0.528 1
0 0 0 0
0 0 0 0
0 0 0 0
0 0 0 0
0 0 0 0
0 0 0 0
0 0 0 0
0 0 0 0
0 0 0 0
0 0 0 6
0 0 0 4
33.622002 -0.47499999 1.8 14
33.601002 -0.48100001 1.87 23
0 0 0 2
25.719 -0.377 1.538 3
25.716 -0.382 1.592 5
25.708 -0.38600001 1.645 7
25.681 -0.391 1.697 9
25.684 -0.39700001 1.75 10
25.655001 -0.40200001 1.801 13
25.652 -0.40700001 1.854 16
25.65 -0.41299999 1.906 17
25.632 -0.419 1.9579999 18
25.625 -0.42399999 2.01 19
25.599001 -0.43000001 2.0610001 20
25.594999 -0.43700001 2.1129999 21
25.573999 -0.44299999 2.164 23
25.572001 -0.44999999 2.2160001 24
25.556999 -0.456 2.267 25
25.552 -0.463 2.3180001 27
25.545 -0.47 2.3699999 28
25.535 -0.477 2.4200001 30
25.524 -0.48500001 2.4719999 30
25.523001 -0.49200001 2.523 32
25.511999 -0.5 2.573 32
25.511999 -0.50800002 2.6229999 32
25.499001 -0.51599997 2.6730001 35
25.492001 -0.52399999 2.723 35
25.468 -0.53100002 2.7709999 35
25.469 -0.54000002 2.823 38
25.458 -0.54900002 2.8710001 40
25.462999 -0.55699998 2.9230001 43
25.455999 -0.56599998 2.973 41
25.452 -0.57499999 3.023 44
25.447001 -0.58499998 3.072 46
25.427999 -0.59399998 3.1199999 46
25.426001 -0.60299999 3.1689999 45
25.423 -0.61299998 3.2190001 47
25.421 -0.62199998 3.267 49
25.417999 -0.63200003 3.316 46
25.403999 -0.64200002 3.362 47
25.41 -0.65200001 3.4119999 51
25.407 -0.662 3.461 51
25.391001 -0.67299998 3.507 52
25.393999 -0.68300003 3.5550001 48
25.4 -0.69400001 3.6040001 48
25.395 -0.70499998 3.652 46
25.382 -0.71499997 3.698 46
25.379 -0.72600001 3.7449999 48
25.375 -0.73699999 3.7920001 49
25.379 -0.74900001 3.8399999 49
25.384001 -0.75999999 3.8889999 52
25.371 -0.77200001 3.934 52
25.353001 -0.78299999 3.9779999 54
25.365999 -0.79500002 4.027 51
25.344 -0.80599999 4.0700002 56
25.367001 -0.81900001 4.1199999 57
25.339001 -0.82999998 4.1620002 54
25.339001 -0.84299999 4.2080002 59
25.34 -0.85500002 4.2529998 55
25.337999 -0.86699998 4.2979999 57
25.339001 -0.88 4.3439999 58
25.341999 -0.89300001 4.3889999 59
25.334 -0.90499997 4.4320002 56
25.337 -0.91799998 4.4780002 59
25.351 -0.93099999 4.5250001 57
25.344999 -0.94400001 4.5679998 54
25.337 -0.95700002 4.6110001 55
25.346001 -0.97000003 4.6560001 56
25.358 -0.98400003 4.7020001 57
25.367001 -0.99800003 4.7470002 54
25.379 -1.012 4.7930002 54
25.377001 -1.025 4.835 44
25.386 -1.039 4.8800001 44
25.382999 -1.053 4.9219999 45
25.388 -1.067 4.9650002 43
25.389999 -1.081 5.0079999 44
25.393 -1.096 5.0510001 47
25.41 -1.11 5.0949998 43
25.413 -1.124 5.138 41
25.424 -1.1390001 5.1810002 34
25.422001 -1.154 5.2220001 45
25.427999 -1.169 5.2639999 43
25.43 -1.183 5.3049998 42
25.452 -1.198 5.3499999 41
25.459 -1.2130001 5.3920002 40
25.462999 -1.229 5.4330001 39
25.486 -1.245 5.4780002 36
25.497 -1.26 5.52 36
25.503 -1.275 5.5599999 34
25.511 -1.291 5.5999999 32
25.546 -1.307 5.6469998 31
25.558001 -1.323 5.6880002 29
25.573 -1.339 5.73 29
25.59 -1.355 5.7719998 28
25.612 -1.372 5.8150001 26
25.643 -1.3890001 5.8600001 22
25.665001 -1.406 5.9029999 21
25.719 -1.424 5.9530001 20
25.756001 -1.442 5.9990001 12
25.788 -1.459 6.0419998 5
0 0 0 31
28.554001 -1.651 6.7719998 28
28.386999 -1.658 6.7709999 28
28.24 -1.6670001 6.776 26
28.111 -1.677 6.7839999 25
27.958 -1.686 6.7859998 26
27.823999 -1.694 6.79 26
27.674 -1.702 6.7909999 27
27.547001 -1.712 6.7969999 26
27.433001 -1.721 6.8049998 27
27.297001 -1.73 6.8070002 26
27.167999 -1.739 6.8099999 24
27.018 -1.7460001 6.8080001 26
26.900999 -1.755 6.8119998 28
26.778999 -1.7640001 6.816 27
26.671 -1.774 6.822 27
26.563999 -1.784 6.8280001 27
26.433001 -1.791 6.8260002 30
26.341999 -1.801 6.835 32
26.219999 -1.8099999 6.835 33
26.118 -1.819 6.8390002 26
26.01 -1.8279999 6.842 25
25.908001 -1.837 6.8449998 31
25.802 -1.845 6.8470001 24
25.681 -1.853 6.8449998 24
25.579 -1.862 6.8470001 25
25.486 -1.872 6.8509998 25
25.403 -1.881 6.8569999 26
25.299999 -1.8890001 6.8569999 30
25.214001 -1.899 6.8610001 25
25.115 -1.9069999 6.862 28
25.028999 -1.9170001 6.8649998 27
24.952999 -1.926 6.8699999 25
24.861 -1.934 6.8709998 25
24.794001 -1.9450001 6.8779998 27
24.691999 -1.952 6.875 31
24.622 -1.962 6.8790002 32
24.532 -1.97 6.8790002 30
24.455 -1.98 6.881 25
24.365999 -1.988 6.8800001 29
24.305 -1.997 6.8860002 26
24.232 -2.007 6.888 26
24.173 -2.017 6.8940001 27
24.094 -2.0250001 6.8940001 30
24.013 -2.033 6.8920002 31
23.952 -2.043 6.8959999 32
23.886 -2.052 6.8979998 27
23.809 -2.0599999 6.8969998 32
23.737 -2.069 6.8959999 32
23.672001 -2.0780001 6.8969998 31
23.613001 -2.0869999 6.9000001 33
23.538 -2.095 6.8969998 33
23.495001 -2.105 6.9029999 33
23.447001 -2.115 6.908 27
23.396999 -2.125 6.9120002 27
23.339001 -2.1340001 6.9120002 32
23.292 -2.1429999 6.9159999 32
23.236 -2.152 6.9169998 32
23.188 -2.161 6.9190001 27
23.131001 -2.1700001 6.9190001 27
23.072001 -2.178 6.9180002 31
23.014999 -2.1860001 6.9159999 32
22.981001 -2.197 6.921 27
22.936001 -2.2060001 6.9229999 32
22.888 -2.214 6.9229999 27
22.853001 -2.2249999 6.927 26
22.783001 -2.2309999 6.9200001 29
22.753 -2.2409999 6.9239998 25
22.702999 -2.25 6.9229999 32
