# .PCD v0.7 - Point Cloud Data file format
VERSION 0.7
FIELDS x y z intensity
SIZE 4 4 4 4
TYPE F F F F
COUNT 1 1 1 1
WIDTH 1692
HEIGHT 1
VIEWPOINT 0 0 0 1 0 0 0
POINTS 1692
DATA ascii
11.696 0.36199999 -0.77899998 2
11.334 0.366 -0.77200001 3
10.987 0.37 -0.76599997 3
10.63 0.373 -0.75700003 3
10.265 0.37400001 -0.74699998 3
9.9370003 0.37599999 -0.73900002 4
9.6859999 0.38 -0.73500001 4
9.4180002 0.382 -0.72899997 4
9.1669998 0.38499999 -0.72399998 4
8.9069996 0.38600001 -0.71700001 5
8.6800003 0.389 -0.71200001 7
8.4750004 0.391 -0.708 13
8.3269997 0.396 -0.708 7
8.1070004 0.39700001 -0.70099998 5
7.8410001 0.39500001 -0.69 4
7.6529999 0.396 -0.685 4
7.4959998 0.39899999 -0.68199998 3
7.3390002 0.40099999 -0.67799997 3
7.1950002 0.403 -0.67500001 3
7.0359998 0.40400001 -0.671 3
6.9060001 0.40599999 -0.66799998 3
6.7719998 0.40799999 -0.66500002 4
6.6459999 0.41 -0.662 3
6.5149999 0.41100001 -0.65899998 3
6.3979998 0.41299999 -0.65600002 4
6.2859998 0.41499999 -0.653 4
6.1690001 0.41600001 -0.64999998 3
6.0710001 0.41800001 -0.648 3
5.948 0.41800001 -0.64300001 3
5.8449998 0.419 -0.63999999 4
5.7509999 0.41999999 -0.63800001 2
5.6609998 0.42199999 -0.63499999 2
5.579 0.42399999 -0.634 3
5.4660001 0.42300001 -0.62900001 3
5.382 0.42500001 -0.62599999 3
5.3010001 0.426 -0.62400001 3
5.2309999 0.428 -0.62199998 3
5.1570001 0.42899999 -0.62 3
5.066 0.42899999 -0.616 3
4.987 0.42899999 -0.61299998 3
4.9250002 0.43099999 -0.61199999 3
4.8400002 0.43099999 -0.60799998 3
4.7940001 0.43399999 -0.60799998 3
4.7210002 0.43399999 -0.60500002 3
4.6669998 0.43599999 -0.60399997 3
4.6220002 0.43799999 -0.60399997 2
4.5500002 0.43799999 -0.60000002 2
4.5100002 0.44 -0.60000002 2
4.4510002 0.44100001 -0.59799999 3
4.395 0.442 -0.59600002 4
4.3969998 0.44800001 -0.602 3
4.368 0.45199999 -0.60299999 4
4.3060002 0.45199999 -0.60000002 2
4.2059999 0.447 -0.59100002 2
4.1750002 0.44999999 -0.59100002 2
4.1160002 0.449 -0.588 2
4.0760002 0.45100001 -0.58700001 2
4.052 0.454 -0.588 2
3.994 0.45300001 -0.58399999 2
4.0890002 0.47 -0.60299999 3
3.9449999 0.45899999 -0.58600003 2
3.915 0.461 -0.58600003 2
3.848 0.45899999 -0.57999998 1
3.858 0.46599999 -0.58600003 3
3.786 0.46200001 -0.579 3
3.76 0.46399999 -0.579 3
3.8010001 0.47499999 -0.58999997 3
3.7460001 0.47299999 -0.58499998 3
3.6340001 0.46399999 -0.57200003 3
3.6129999 0.46700001 -0.57200003 1
3.592 0.46900001 -0.57300001 3
3.592 0.47400001 -0.57599998 1
3.575 0.477 -0.57700002 2
3.5179999 0.47400001 -0.57200003 2
3.503 0.477 -0.57300001 2
3.4430001 0.47400001 -0.56699997 1
3.4519999 0.47999999 -0.57099998 1
3.4219999 0.47999999 -0.56999999 2
3.391 0.48100001 -0.56800002 1
3.424 0.49000001 -0.57700002 1
3.3399999 0.48300001 -0.56599998 2
3.3529999 0.48899999 -0.57099998 1
3.2909999 0.48500001 -0.56400001 1
3.3369999 0.49599999 -0.57499999 1
3.3210001 0.498 -0.57499999 2
3.3039999 0.5 -0.57499999 2
3.3180001 0.50700003 -0.58099997 2
3.211 0.495 -0.565 2
3.2219999 0.50099999 -0.56999999 2
3.247 0.509 -0.57700002 2
3.352 0.52999997 -0.59899998 2
3.267 0.52100003 -0.58600003 2
3.2049999 0.51599997 -0.57800001 1
3.1370001 0.509 -0.56800002 1
3.1530001 0.51599997 -0.574 1
3.115 0.514 -0.56900001 1
3.1140001 0.51800001 -0.57200003 1
3.135 0.52499998 -0.57800001 1
3.052 0.51499999 -0.565 1
3.0009999 0.51099998 -0.55800003 1
3.0209999 0.51800001 -0.56400001 1
3.02 0.52200001 -0.56599998 2
2.9719999 0.51700002 -0.56 2
2.987 0.52399999 -0.565 2
3.0020001 0.52999997 -0.56999999 1
3 0.53399998 -0.57200003 2
2.9119999 0.52200001 -0.55699998 2
2.95 0.53200001 -0.56599998 2
2.908 0.52899998 -0.56 1
2.898 0.52999997 -0.56099999 1
2.9189999 0.53799999 -0.56699997 1
2.8629999 0.53100002 -0.55800003 1
2.8299999 0.528 -0.55299997 1
2.802 0.52700001 -0.54900002 1
2.7750001 0.52499998 -0.546 1
2.8640001 0.54500002 -0.565 1
2.895 0.55500001 -0.57300001 1
2.757 0.53200001 -0.54799998 1
2.776 0.53899997 -0.55299997 1
2.7850001 0.54400003 -0.55599999 1
2.8099999 0.55199999 -0.56300002 1
2.7679999 0.54699999 -0.55699998 1
2.7939999 0.55599999 -0.56300002 1
2.8169999 0.56300002 -0.56900001 1
2.7030001 0.54400003 -0.54799998 1
2.6830001 0.54299998 -0.54500002 1
2.677 0.54500002 -0.54500002 1
2.6619999 0.54500002 -0.54400003 1
2.635 0.542 -0.54000002 1
2.648 0.54799998 -0.54400003 1
2.6619999 0.55299997 -0.54799998 1
2.694 0.56300002 -0.55599999 1
2.642 0.55500001 -0.546 1
2.6819999 0.56699997 -0.55599999 1
2.6429999 0.56099999 -0.54900002 1
2.6110001 0.55699998 -0.54299998 1
2.638 0.56599998 -0.55000001 1
2.698 0.58200002 -0.56400001 1
2.5840001 0.56 -0.54100001 1
2.691 0.58600003 -0.565 1
2.5739999 0.56300002 -0.54100001 1
2.5639999 0.56300002 -0.54000002 1
2.5599999 0.565 -0.54000002 1
2.55 0.56599998 -0.53899997 1
2.552 0.56800002 -0.54000002 1
2.543 0.56900001 -0.53899997 1
2.5339999 0.56999999 -0.53799999 1
2.536 0.57300001 -0.54000002 1
2.53 0.574 -0.53899997 1
2.5309999 0.57599998 -0.54000002 1
2.5139999 0.57499999 -0.537 1
2.516 0.57800001 -0.53799999 1
2.5190001 0.58099997 -0.54000002 1
2.513 0.58200002 -0.53899997 1
2.5109999 0.583 -0.53899997 1
2.51 0.58600003 -0.54000002 1
2.503 0.58600003 -0.53899997 1
2.5039999 0.58899999 -0.54000002 1
2.494 0.588 -0.53799999 1
2.4979999 0.59200001 -0.54000002 1
2.487 0.59100002 -0.53799999 1
2.493 0.59500003 -0.53899997 1
2.4779999 0.59299999 -0.537 1
2.4760001 0.59500003 -0.537 1
2.48 0.59799999 -0.53799999 1
2.47 0.59799999 -0.53600001 1
2.47 0.59899998 -0.53600001 1
2.467 0.60100001 -0.53600001 1
2.4760001 0.60500002 -0.53899997 1
2.4760001 0.60699999 -0.53899997 1
2.467 0.60600001 -0.537 2
2.46 0.60600001 -0.53600001 2
2.4579999 0.60799998 -0.53600001 2
2.461 0.61000001 -0.53600001 2
2.454 0.611 -0.53500003 2
2.4530001 0.61199999 -0.53500003 2
2.454 0.61400002 -0.53500003 3
2.4530001 0.616 -0.53500003 5
2.4590001 0.61900002 -0.537 4
2.4549999 0.61900002 -0.53600001 5
2.4530001 0.62 -0.53600001 5
2.461 0.62400001 -0.537 6
2.4579999 0.625 -0.537 7
2.4590001 0.62699997 -0.537 7
2.4649999 0.63 -0.53799999 8
2.4679999 0.63200003 -0.53899997 8
2.461 0.63200003 -0.537 8
2.464 0.634 -0.53799999 8
2.4630001 0.63499999 -0.537 8
2.4660001 0.63700002 -0.53799999 8
2.467 0.639 -0.53799999 8
2.467 0.63999999 -0.53799999 8
2.467 0.64200002 -0.537 8
2.467 0.64300001 -0.537 8
2.467 0.64399999 -0.537 8
2.471 0.64600003 -0.537 8
2.48 0.64999998 -0.53899997 8
2.477 0.64999998 -0.53799999 8
2.4809999 0.653 -0.53899997 8
2.4860001 0.65499997 -0.53899997 8
2.483 0.65499997 -0.53799999 8
2.483 0.65700001 -0.53799999 8
2.4860001 0.65799999 -0.53799999 8
2.4909999 0.66100001 -0.53899997 8
2.4890001 0.66100001 -0.537 8
2.4909999 0.66299999 -0.53799999 8
2.493 0.66399997 -0.537 8
2.494 0.66500002 -0.537 8
2.4949999 0.66600001 -0.537 8
2.5009999 0.66900003 -0.537 9
2.503 0.67000002 -0.537 8
2.5109999 0.67299998 -0.53799999 8
2.5109999 0.67400002 -0.53799999 8
2.5150001 0.676 -0.53799999 8
2.5150001 0.676 -0.537 8
2.52 0.67799997 -0.537 8
2.5220001 0.68000001 -0.537 8
2.526 0.68099999 -0.537 8
2.5320001 0.68400002 -0.537 8
2.5369999 0.685 -0.53799999 9
2.546 0.68900001 -0.53899997 9
2.543 0.68800002 -0.537 12
2.55 0.69099998 -0.53799999 9
2.553 0.69199997 -0.537 8
2.559 0.69400001 -0.53799999 9
2.5680001 0.69700003 -0.53799999 9
2.572 0.69800001 -0.53799999 9
2.5769999 0.69999999 -0.53799999 9
2.586 0.70300001 -0.53899997 9
2.589 0.704 -0.53899997 9
2.5910001 0.704 -0.53799999 9
2.602 0.708 -0.53899997 9
2.609 0.70999998 -0.54000002 9
2.618 0.71200001 -0.54000002 9
2.6199999 0.713 -0.53899997 9
2.632 0.71600002 -0.54000002 9
2.632 0.71600002 -0.53899997 9
2.641 0.71899998 -0.54000002 8
2.648 0.72100002 -0.54000002 9
2.658 0.72299999 -0.54100001 9
2.665 0.72500002 -0.54100001 9
2.6670001 0.72600001 -0.54000002 8
2.678 0.72799999 -0.54100001 9
2.6849999 0.73000002 -0.54100001 8
2.6949999 0.73299998 -0.54100001 9
2.7019999 0.73500001 -0.54100001 8
2.7079999 0.736 -0.54100001 8
2.7249999 0.74000001 -0.54299998 8
2.7279999 0.741 -0.542 8
2.7379999 0.74299997 -0.542 8
2.7460001 0.745 -0.542 8
2.756 0.74699998 -0.542 8
2.77 0.75 -0.54400003 8
2.777 0.75099999 -0.54299998 8
2.7869999 0.75300002 -0.54299998 8
2.7969999 0.75599998 -0.54400003 8
2.809 0.75800002 -0.54400003 7
2.8180001 0.75999999 -0.54400003 7
2.8299999 0.76300001 -0.54500002 6
2.836 0.764 -0.54400003 5
2.848 0.76599997 -0.54500002 4
2.8559999 0.76700002 -0.54400003 4
2.868 0.76999998 -0.54500002 3
2.8800001 0.77200001 -0.54500002 2
2.892 0.77399999 -0.54500002 2
2.901 0.77600002 -0.54500002 2
2.9089999 0.77700001 -0.54400003 2
2.925 0.77999997 -0.546 2
2.9360001 0.78200001 -0.546 2
2.948 0.78399998 -0.546 2
2.967 0.78799999 -0.54699999 1
2.9920001 0.79299998 -0.54900002 1
3.0569999 0.80900002 -0.55900002 1
3.029 0.80000001 -0.55199999 1
3.0969999 0.81699997 -0.56199998 1
3.141 0.82700002 -0.56800002 1
3.2019999 0.84200001 -0.57599998 1
3.168 0.83099997 -0.56800002 1
3.2079999 0.83999997 -0.57200003 1
3.2090001 0.83899999 -0.56999999 2
3.244 0.84600002 -0.574 2
3.214 0.83700001 -0.56599998 1
3.2349999 0.83999997 -0.56699997 1
3.194 0.82800001 -0.55699998 1
3.2650001 0.84399998 -0.56699997 1
3.2060001 0.82700002 -0.55400002 1
3.312 0.85299999 -0.56999999 2
3.322 0.85299999 -0.56900001 2
3.3239999 0.852 -0.56699997 1
3.3069999 0.84500003 -0.56099999 1
3.3440001 0.85299999 -0.56400001 1
3.3239999 0.84500003 -0.55800003 1
3.368 0.85399997 -0.56300002 2
3.3440001 0.84600002 -0.55599999 2
3.392 0.85600001 -0.56099999 2
3.4000001 0.85500002 -0.55900002 2
3.401 0.85299999 -0.55699998 2
3.4319999 0.85799998 -0.55900002 2
3.451 0.861 -0.55900002 2
3.457 0.86000001 -0.55699998 1
3.503 0.86799997 -0.56099999 2
3.5250001 0.87099999 -0.56199998 2
3.599 0.88700002 -0.56999999 2
3.569 0.87599999 -0.56199998 2
3.6429999 0.89200002 -0.56999999 3
3.6830001 0.89899999 -0.57300001 2
3.6900001 0.89700001 -0.57099998 2
3.6760001 0.89099997 -0.56599998 3
3.6949999 0.89200002 -0.565 4
3.707 0.89200002 -0.56400001 4
3.7290001 0.89399999 -0.56400001 4
3.7460001 0.89499998 -0.56300002 4
3.8199999 0.90899998 -0.56999999 2
3.8169999 0.90499997 -0.56599998 3
3.852 0.90899998 -0.56800002 4
3.891 0.91500002 -0.56999999 4
3.915 0.917 -0.56999999 5
3.9489999 0.921 -0.57099998 5
3.9760001 0.92299998 -0.57099998 4
3.9879999 0.92199999 -0.56900001 3
4.0489998 0.93300003 -0.574 3
4.1110001 0.94300002 -0.579 3
4.112 0.93900001 -0.57499999 3
4.1570001 0.94499999 -0.57800001 2
4.2140002 0.95300001 -0.58099997 2
4.2309999 0.95300001 -0.57999998 2
4.2709999 0.95700002 -0.58099997 2
4.3200002 0.96399999 -0.583 2
4.3559999 0.96700001 -0.58399999 3
4.3889999 0.97000003 -0.58399999 4
4.434 0.97500002 -0.58600003 2
4.4780002 0.97899997 -0.58700001 2
4.5209999 0.98400003 -0.588 2
4.5409999 0.98299998 -0.58700001 4
4.6040001 0.991 -0.58999997 3
4.6440001 0.995 -0.59100002 3
4.6939998 1 -0.59200001 3
4.7309999 1.002 -0.59200001 3
4.7810001 1.007 -0.59399998 4
4.8660002 1.0190001 -0.60000002 3
4.9000001 1.02 -0.59899998 4
4.9660001 1.028 -0.602 2
5.0219998 1.033 -0.60399997 3
5.0640001 1.036 -0.60399997 3
5.1430001 1.046 -0.60799998 3
5.1929998 1.049 -0.60900003 3
5.2480001 1.054 -0.61000001 5
5.323 1.062 -0.61299998 3
5.3790002 1.066 -0.61500001 3
5.4299998 1.069 -0.61500001 3
5.4970002 1.075 -0.61699998 3
5.5640001 1.081 -0.61900002 3
5.6350002 1.087 -0.62099999 3
5.6939998 1.091 -0.62199998 3
5.7839999 1.101 -0.62599999 3
5.8520002 1.1059999 -0.62699997 3
5.9099998 1.109 -0.62800002 3
5.993 1.1160001 -0.63099998 3
6.0770001 1.123 -0.63300002 4
6.1630001 1.131 -0.63599998 4
6.243 1.136 -0.63800001 4
6.3330002 1.1440001 -0.64099997 4
6.4260001 1.151 -0.64399999 3
6.4860001 1.153 -0.64300001 3
6.586 1.161 -0.64700001 3
6.6849999 1.169 -0.64999998 4
6.7680001 1.174 -0.65100002 4
6.921 1.1900001 -0.65899998 6
7.052 1.202 -0.66399997 11
7.0939999 1.199 -0.66100001 11
7.1440001 1.197 -0.65899998 14
7.2459998 1.2029999 -0.66100001 12
7.3319998 1.206 -0.66100001 12
7.4130001 1.2079999 -0.66100001 12
7.5430002 1.2180001 -0.66500002 8
7.6960001 1.23 -0.671 8
7.8330002 1.24 -0.67500001 4
7.9460001 1.2460001 -0.67699999 4
8.0830002 1.255 -0.68099999 4
8.2119999 1.262 -0.68400002 4
8.3470001 1.2690001 -0.68699998 4
8.5170002 1.281 -0.69199997 4
8.6829996 1.2920001 -0.69700003 3
8.823 1.299 -0.69999999 3
8.9589996 1.3049999 -0.70200002 4
9.0950003 1.3099999 -0.704 4
9.2480001 1.317 -0.70700002 4
9.3859997 1.321 -0.708 4
9.5869999 1.3329999 -0.71399999 4
9.7670002 1.342 -0.71799999 3
9.967 1.353 -0.72299999 4
10.172 1.364 -0.72799999 4
10.38 1.374 -0.73299998 3
10.68 1.396 -0.74400002 7
10.902 1.4069999 -0.75 9
11.053 1.4069999 -0.74900001 12
11.142 1.4 -0.745 11
11.321 1.403 -0.74599999 5
11.57 1.414 -0.75199997 3
11.829 1.425 -0.75700003 2
12.115 1.438 -0.764 2
12.426 1.4529999 -0.77200001 3
12.755 1.469 -0.78100002 3
13.066 1.482 -0.78799999 3
13.392 1.495 -0.79500002 3
13.762 1.512 -0.80500001 3
14.086 1.523 -0.81099999 3
14.397 1.53 -0.81599998 3
14.784 1.544 -0.824 3
15.19 1.559 -0.833 2
14.734 1.4859999 -0.79500002 2
15.47 1.5319999 -0.81999999 2
15.557 1.512 -0.81099999 2
16.274 1.552 -0.83399999 2
0 0 0 0
0 0 0 2
17.778 1.597 -0.86500001 1
18.622999 1.638 -0.88999999 1
19.188 1.652 -0.89999998 1
19.789 1.6670001 -0.912 1
0 0 0 12
17.235001 1.387 -0.764 19
17.179001 1.35 -0.74699998 24
17.136 1.314 -0.73100001 27
17.107 1.28 -0.71499997 32
17.093 1.2460001 -0.70099998 35
17.073999 1.212 -0.68599999 40
17.058001 1.178 -0.671 42
17.025 1.143 -0.65600002 44
17.018 1.11 -0.64200002 41
17.011 1.076 -0.62800002 47
17.006001 1.043 -0.61400002 50
16.997999 1.01 -0.60000002 54
17.004999 0.977 -0.58700001 51
17.006001 0.94400001 -0.574 38
17.018 0.91100001 -0.56099999 37
17.018999 0.87800002 -0.54799998 57
0 0 0 12
15.475 0.73799998 -0.47499999 10
15.368 0.70200002 -0.46000001 10
15.272 0.66799998 -0.44499999 8
15.194 0.63499999 -0.43200001 12
15.114 0.60100001 -0.41800001 11
15.008 0.56699997 -0.405 11
14.932 0.53500003 -0.39199999 14
14.841 0.50300002 -0.37900001 14
14.771 0.47099999 -0.366 7
14.654 0.43799999 -0.35299999 17
14.653 0.40799999 -0.34299999 34
14.671 0.37900001 -0.333 26
14.684 0.34999999 -0.32300001 24
14.71 0.32100001 -0.31400001 23
14.714 0.292 -0.30399999 23
14.759 0.26199999 -0.29499999 28
14.808 0.233 -0.28600001 32
14.827 0.204 -0.27700001 35
14.815 0.17299999 -0.26699999 34
14.859 0.14300001 -0.25799999 47
14.823 0.113 -0.248 33
14.816 0.082000002 -0.23800001 34
14.861 0.052000001 -0.23 15
14.837 0.022 -0.22 23
14.831 -0.0080000004 -0.211 13
0 0 0 0
0 0 0 17
35.054001 -0.236 -0.435 20
34.681 -0.30500001 -0.41 6
34.752998 -0.377 -0.391 13
0 0 0 3
13.012 -0.19499999 -0.131 22
12.972 -0.221 -0.124 24
12.89 -0.24600001 -0.116 35
12.815 -0.271 -0.108 43
12.878 -0.29899999 -0.102 37
12.818 -0.324 -0.093999997 37
12.749 -0.34799999 -0.086999997 45
12.617 -0.37099999 -0.079999998 48
12.569 -0.396 -0.072999999 48
12.563 -0.42199999 -0.066 43
12.454 -0.44400001 -0.059999999 39
12.386 -0.46700001 -0.052999999 44
12.34 -0.491 -0.046999998 52
12.422 -0.51999998 -0.041000001 46
12.521 -0.551 -0.035999998 35
12.514 -0.57700002 -0.029999999 43
12.45 -0.60000002 -0.024 41
12.549 -0.63099998 -0.017999999 35
12.501 -0.65499997 -0.013 35
12.418 -0.676 -0.0070000002 33
12.383 -0.69999999 -0.0020000001 41
12.379 -0.72600001 0.0020000001 41
12.438 -0.755 0.0080000004 23
12.435 -0.78100002 0.013 22
12.533 -0.81300002 0.017999999 8
12.481 -0.83600003 0.023 5
12.571 -0.86799997 0.028000001 1
0 0 0 12
30.962999 -2.2679999 0.092 12
31.004 -2.336 0.104 10
30.916 -2.3940001 0.115 5
0 0 0 2
28.531 -2.3280001 0.126 5
28.465 -2.382 0.13500001 7
28.459 -2.4400001 0.145 11
28.457001 -2.5 0.154 19
28.459 -2.5580001 0.163 26
28.462999 -2.618 0.17200001 31
28.478001 -2.6789999 0.18000001 36
28.490999 -2.7379999 0.189 44
28.503 -2.7980001 0.197 43
0 0 0 1
6.4679999 -0.66100001 0.048 1
6.4439998 -0.67199999 0.050000001 3
6.4380002 -0.685 0.050999999 3
6.467 -0.70099998 0.052999999 1
0 0 0 12
28.679001 -3.2309999 0.25099999 45
28.700001 -3.2920001 0.25799999 44
27.879 -3.256 0.257 19
27.775 -3.3010001 0.26300001 28
27.709 -3.3499999 0.26800001 35
27.667 -3.401 0.273 38
27.621 -3.4519999 0.278 42
27.586 -3.5039999 0.28299999 48
27.566999 -3.5580001 0.28799999 51
27.545 -3.6110001 0.29300001 56
27.542 -3.6670001 0.29699999 56
27.541 -3.7219999 0.30199999 56
27.556 -3.779 0.30700001 50
27.575001 -3.8380001 0.31099999 45
27.593 -3.895 0.315 42
27.622999 -3.9560001 0.31900001 39
27.65 -4.0159998 0.32300001 30
27.722 -4.0830002 0.32800001 23
28.118999 -4.198 0.336 13
0 0 0 7
9.8459997 -1.5089999 0.12 18
9.802 -1.521 0.12 13
9.7419996 -1.531 0.12 22
9.7189999 -1.5470001 0.121 17
9.6899996 -1.562 0.121 25
9.6630001 -1.576 0.122 27
9.6440001 -1.592 0.122 28
9.625 -1.608 0.122 28
9.6099997 -1.624 0.123 31
9.5930004 -1.64 0.123 31
9.5649996 -1.654 0.123 31
9.5570002 -1.671 0.123 30
9.5450001 -1.687 0.123 33
9.5340004 -1.704 0.123 35
9.5240002 -1.721 0.124 36
9.5190001 -1.738 0.124 37
9.5150003 -1.756 0.123 39
9.4949999 -1.77 0.123 40
9.493 -1.788 0.123 39
9.4799995 -1.803 0.123 38
9.4809999 -1.821 0.123 45
9.4759998 -1.8380001 0.122 45
9.4630003 -1.853 0.122 47
9.4639997 -1.872 0.121 49
9.4680004 -1.89 0.121 49
9.448 -1.903 0.12 47
9.4569998 -1.923 0.12 46
9.4510002 -1.939 0.119 41
9.4549999 -1.957 0.119 42
9.4569998 -1.975 0.118 37
9.4490004 -1.9910001 0.117 36
9.4610004 -2.0109999 0.117 36
9.4449997 -2.0239999 0.116 21
9.0550003 -1.957 0.11 1
9.0249996 -1.966 0.109 1
0 0 0 0
0 0 0 0
0 0 0 3
9.4779997 -2.1329999 0.11 26
9.4940004 -2.1530001 0.109 28
9.4940004 -2.1700001 0.108 28
9.4890003 -2.1849999 0.107 23
0 0 0 0
0 0 0 1
8.6330004 -2.0320001 0.093000002 1
0 0 0 0
0 0 0 0
0 0 0 0
0 0 0 0
0 0 0 1
0 0 0 0
0 0 0 0
0 0 0 0
0 0 0 0
0 0 0 0
0 0 0 0
0 0 0 0
0 0 0 0
0 0 0 0
0 0 0 0
0 0 0 0
0 0 0 0
0 0 0 0
0 0 0 0
0 0 0 1
0 0 0 0
0 0 0 12
38.636002 -10.531 0.23800001 16
38.687 -10.602 0.229 13
38.693001 -10.661 0.219 15
38.772999 -10.74 0.20900001 25
38.808998 -10.807 0.199 25
38.853001 -10.876 0.18799999 10
0 0 0 0
0 0 0 1
0 0 0 0
0 0 0 0
0 0 0 0
0 0 0 0
0 0 0 0
0 0 0 0
0 0 0 14
49.104 -14.431 0.097000003 13
49.130001 -14.505 0.082000002 15
49.166 -14.58 0.067000002 13
49.161999 -14.644 0.050999999 15
49.249001 -14.734 0.035 14
49.248001 -14.796 0.02 16
0 0 0 3
20.469999 -6.2020001 -0.0040000002 13
20.398001 -6.2059999 -0.011 19
20.334 -6.211 -0.017000001 26
20.311001 -6.2290001 -0.024 28
20.282 -6.2449999 -0.030999999 31
20.242001 -6.257 -0.037999999 32
20.197001 -6.2680001 -0.045000002 39
20.166 -6.2820001 -0.052000001 38
20.15 -6.3000002 -0.057999998 41
20.120001 -6.3140001 -0.064999998 41
20.128 -6.3390002 -0.071999997 45
20.115999 -6.3590002 -0.079999998 47
20.094 -6.3740001 -0.086000003 34
20.075001 -6.3899999 -0.093999997 50
20.059 -6.4070001 -0.1 53
20.063 -6.4299998 -0.108 40
20.048 -6.447 -0.115 40
20.033001 -6.4629998 -0.122 63
20.018 -6.4790001 -0.13 70
20 -6.494 -0.13699999 66
20.006001 -6.5170002 -0.145 76
19.993999 -6.533 -0.152 68
19.992001 -6.552 -0.15899999 67
19.997999 -6.573 -0.167 59
19.996 -6.592 -0.175 43
19.993 -6.6100001 -0.182 61
19.981001 -6.625 -0.19 52
19.982 -6.6440001 -0.198 53
19.975 -6.6599998 -0.205 47
19.985001 -6.6810002 -0.213 50
19.987 -6.6989999 -0.221 47
19.990999 -6.7179999 -0.229 47
19.989 -6.7350001 -0.236 45
19.997 -6.7540002 -0.244 42
19.981001 -6.7659998 -0.252 40
19.981001 -6.7820001 -0.259 40
20.007999 -6.8070002 -0.26800001 30
19.997 -6.8189998 -0.27599999 38
20.013 -6.8400002 -0.28400001 41
20.006001 -6.8530002 -0.29100001 37
20.024 -6.8740001 -0.30000001 36
20.042 -6.895 -0.30899999 32
20.063 -6.9169998 -0.317 30
20.077999 -6.9359999 -0.32499999 28
20.087999 -6.9530001 -0.33399999 26
20.111 -6.9749999 -0.34200001 25
20.122999 -6.9920001 -0.34999999 22
20.136 -7.0100002 -0.35800001 18
20.163 -7.0320001 -0.368 16
20.198999 -7.0570002 -0.37599999 13
20.214001 -7.0749998 -0.38499999 7
20.271 -7.1069999 -0.39399999 3
20.296 -7.1279998 -0.403 1
0 0 0 32
30.677999 -10.808 -0.63499999 35
30.663 -10.819 -0.64700001 38
30.639999 -10.827 -0.65799999 40
30.625 -10.837 -0.671 39
30.608999 -10.847 -0.68300003 41
30.603001 -10.859 -0.69599998 34
30.587 -10.868 -0.70899999 39
30.568001 -10.875 -0.72100002 42
30.545 -10.88 -0.73199999 43
30.540001 -10.891 -0.745 45
30.535999 -10.902 -0.75800002 46
30.544001 -10.917 -0.77100003 48
30.528 -10.923 -0.78299999 48
30.509001 -10.927 -0.79400003 48
30.513 -10.939 -0.80699998 48
30.51 -10.949 -0.81999999 47
30.503 -10.956 -0.833 49
30.504 -10.965 -0.84500003 51
30.49 -10.969 -0.85699999 51
30.487 -10.977 -0.86900002 52
30.489 -10.985 -0.88200003 57
30.474001 -10.987 -0.89499998 54
30.476999 -10.995 -0.90600002 58
30.472 -11 -0.91900003 61
30.468 -11.005 -0.93199998 61
30.466999 -11.01 -0.94400001 61
30.457001 -11.011 -0.95599997 62
30.457001 -11.016 -0.96899998 63
30.461 -11.022 -0.98199999 62
30.455999 -11.024 -0.99299997 63
30.445999 -11.024 -1.0039999 60
30.457001 -11.031 -1.017 58
30.444 -11.028 -1.029 60
30.454 -11.034 -1.0420001 64
30.459999 -11.038 -1.054 64
30.431999 -11.029 -1.0650001 61
30.448999 -11.036 -1.0779999 63
30.436001 -11.031 -1.09 58
30.459999 -11.039 -1.103 52
30.455999 -11.037 -1.1160001 61
30.433001 -11.028 -1.127 61
30.438999 -11.028 -1.1390001 58
30.451 -11.03 -1.151 62
30.451 -11.028 -1.163 50
30.441 -11.021 -1.174 61
30.438999 -11.017 -1.186 62
30.445 -11.015 -1.197 61
30.455 -11.015 -1.211 62
30.455999 -11.01 -1.222 60
30.455 -11.005 -1.234 56
30.448 -10.996 -1.245 58
30.459 -10.994 -1.257 56
30.454 -10.986 -1.268 54
30.469999 -10.984 -1.28 52
30.459999 -10.973 -1.2920001 57
30.461 -10.965 -1.303 52
30.462999 -10.958 -1.3150001 52
30.476 -10.953 -1.327 48
30.483999 -10.947 -1.3380001 46
30.483999 -10.938 -1.349 46
30.485001 -10.928 -1.36 42
30.497999 -10.921 -1.372 45
30.497 -10.91 -1.383 46
30.511999 -10.904 -1.395 46
30.518999 -10.894 -1.406 43
30.518 -10.882 -1.4170001 45
30.527 -10.872 -1.428 44
30.547001 -10.865 -1.4400001 45
30.540001 -10.849 -1.45 40
30.565001 -10.844 -1.462 38
30.575001 -10.833 -1.472 37
30.593 -10.824 -1.483 34
30.587999 -10.807 -1.493 31
30.603001 -10.796 -1.505 31
30.632 -10.79 -1.517 31
30.639999 -10.776 -1.528 27
30.650999 -10.762 -1.539 25
0 0 0 1
20.209999 -7.072 -1.027 4
20.198 -7.0560002 -1.033 11
20.177 -7.0359998 -1.038 15
20.129 -7.006 -1.0420001 17
20.110001 -6.987 -1.0470001 19
20.108 -6.973 -1.054 21
20.076 -6.948 -1.058 23
20.066 -6.9310002 -1.064 29
20.037001 -6.9060001 -1.068 31
20.042 -6.8940001 -1.074 30
20.024 -6.8730001 -1.079 31
20.016001 -6.855 -1.085 30
20.018 -6.8400002 -1.091 34
20.011 -6.822 -1.097 32
19.993 -6.8010001 -1.101 34
19.993999 -6.7849998 -1.107 33
19.966 -6.7589998 -1.1109999 40
19.962 -6.7410002 -1.1160001 40
19.954 -6.7220001 -1.1210001 39
19.961 -6.7069998 -1.127 43
19.952999 -6.6869998 -1.132 43
19.957001 -6.671 -1.138 42
19.944 -6.6479998 -1.142 43
19.947001 -6.631 -1.147 40
19.962 -6.618 -1.153 43
19.944 -6.5929999 -1.1569999 43
19.957001 -6.579 -1.163 47
19.962 -6.5609999 -1.168 47
19.969 -6.5440001 -1.173 33
19.954 -6.5190001 -1.177 45
19.952999 -6.4980001 -1.182 33
19.938999 -6.474 -1.186 29
19.93 -6.4510002 -1.189 29
19.906 -6.4229999 -1.192 25
19.886 -6.395 -1.1950001 29
19.889999 -6.3759999 -1.2 21
18.916 -6.0430002 -1.145 17
0 0 0 0
0 0 0 0
0 0 0 0
0 0 0 0
0 0 0 0
0 0 0 0
0 0 0 1
17.252001 -5.355 -1.071 2
16.943001 -5.2389998 -1.0549999 1
16.719999 -5.1500001 -1.044 1
16.761999 -5.1430001 -1.049 1
16.705 -5.105 -1.048 1
16.382999 -4.987 -1.03 1
16.548 -5.0170002 -1.043 1
16.197001 -4.8899999 -1.024 1
16.187 -4.8660002 -1.026 1
0 0 0 12
8.184 -2.4389999 -0.51999998 42
8.1870003 -2.4289999 -0.52200001 56
8.1789999 -2.4159999 -0.52200001 56
8.1920004 -2.4089999 -0.52399999 58
8.1850004 -2.3959999 -0.52499998 53
8.1750002 -2.3829999 -0.52499998 52
8.1730003 -2.3710001 -0.52600002 42
8.1730003 -2.3599999 -0.52700001 7
0 0 0 0
0 0 0 0
0 0 0 0
0 0 0 0
0 0 0 3
8.1339998 -2.28 -0.528 8
8.1230001 -2.266 -0.528 34
8.1110001 -2.2509999 -0.528 42
8.1199999 -2.2409999 -0.52899998 46
8.118 -2.2290001 -0.52899998 54
8.1140003 -2.2160001 -0.52899998 40
8.0959997 -2.1989999 -0.52899998 49
8.0959997 -2.187 -0.52899998 47
8.0880003 -2.1730001 -0.528 49
8.0979996 -2.1630001 -0.52899998 36
8.1040001 -2.152 -0.52999997 46
8.1099997 -2.141 -0.53100002 40
8.1129999 -2.1300001 -0.53100002 34
8.1479998 -2.1259999 -0.53299999 42
8.1479998 -2.1140001 -0.53299999 39
8.1789999 -2.109 -0.53500003 31
8.2080002 -2.1029999 -0.537 49
8.2279997 -2.096 -0.53799999 47
8.2410002 -2.086 -0.53899997 31
8.2629995 -2.0780001 -0.54000002 40
8.2840004 -2.0699999 -0.54100001 41
8.3100004 -2.063 -0.54299998 29
8.3339996 -2.056 -0.54400003 43
8.3400002 -2.0439999 -0.54400003 36
8.3599997 -2.0350001 -0.54500002 26
8.3979998 -2.03 -0.54699999 43
8.4099998 -2.0190001 -0.54699999 27
8.4370003 -2.0120001 -0.54799998 18
8.5550003 -2.026 -0.55500001 4
8.5979996 -2.0209999 -0.55699998 2
8.6099997 -2.01 -0.55800003 3
8.6110001 -1.995 -0.55699998 3
8.6079998 -1.98 -0.55599999 12
8.5799999 -1.959 -0.55299997 30
8.5979996 -1.948 -0.55299997 18
8.6339998 -1.941 -0.55500001 24
8.6499996 -1.9299999 -0.55500001 26
8.684 -1.9220001 -0.55599999 22
8.6940002 -1.909 -0.55500001 30
8.7329998 -1.903 -0.55599999 21
8.8050003 -1.903 -0.56 35
8.8559999 -1.898 -0.56199998 22
8.8800001 -1.887 -0.56199998 31
8.8940001 -1.874 -0.56099999 25
8.908 -1.8609999 -0.56 22
9.0019999 -1.865 -0.565 30
9.118 -1.872 -0.56999999 25
9.375 -1.908 -0.58399999 35
9.441 -1.905 -0.58700001 37
9.4359999 -1.886 -0.58499998 40
9.441 -1.87 -0.583 42
9.4449997 -1.853 -0.58099997 41
9.4440002 -1.836 -0.579 40
9.4499998 -1.8200001 -0.57700002 43
9.4519997 -1.803 -0.57499999 41
9.4589996 -1.786 -0.57300001 37
9.4689999 -1.771 -0.57099998 37
9.4720001 -1.753 -0.56900001 34
9.4759998 -1.7359999 -0.56699997 33
9.4940004 -1.722 -0.565 31
9.4949999 -1.704 -0.56300002 29
9.5109997 -1.689 -0.56099999 29
9.5290003 -1.674 -0.55900002 29
9.5389996 -1.658 -0.55699998 29
9.5570002 -1.643 -0.55500001 30
9.5640001 -1.626 -0.55299997 27
9.5819998 -1.6109999 -0.551 27
9.6029997 -1.596 -0.54900002 24
9.6059999 -1.579 -0.546 26
9.6359997 -1.5650001 -0.54400003 27
9.6630001 -1.551 -0.54299998 24
9.677 -1.534 -0.54000002 14
9.7040005 -1.52 -0.53799999 22
9.7379999 -1.506 -0.53600001 21
9.7950001 -1.4960001 -0.53600001 18
9.8500004 -1.485 -0.53500003 13
9.9350004 -1.479 -0.53600001 4
0 0 0 2
0 0 0 1
21.355 -3.056 -1.127 2
21.455999 -3.029 -1.124 2
21.006001 -2.924 -1.091 1
22.193001 -3.0450001 -1.143 1
22.665001 -3.0650001 -1.158 1
22.641001 -3.017 -1.146 1
22.879999 -3.003 -1.148 1
0 0 0 0
0 0 0 1
0 0 0 6
0 0 0 1
6.487 -0.787 -0.31 152
6.461 -0.77100003 -0.30599999 155
6.4559999 -0.75800002 -0.30199999 152
6.4159999 -0.74000001 -0.29699999 2
6.3639998 -0.722 -0.29100001 26
6.4330001 -0.71700001 -0.29100001 155
6.4460001 -0.70499998 -0.28799999 155
6.4450002 -0.69199997 -0.285 155
6.4580002 -0.68099999 -0.28200001 157
6.46 -0.66799998 -0.27900001 161
6.461 -0.65600002 -0.27500001 160
6.4380002 -0.63999999 -0.271 159
6.4159999 -0.625 -0.266 155
6.447 -0.61500001 -0.264 155
6.467 -0.60399997 -0.26100001 155
6.5370002 -0.59799999 -0.25999999 58
6.4920001 -0.58099997 -0.25400001 6
0 0 0 38
36.09 -3.086 -1.3710001 8
35.967999 -3.003 -1.344 2
35.875999 -2.925 -1.318 2
0 0 0 33
31.576 -2.447 -1.12 43
31.544001 -2.381 -1.099 44
0 0 0 1
12.305 -0.88 -0.412 21
12.29 -0.85399997 -0.40400001 25
12.293 -0.82999998 -0.396 28
12.282 -0.80400002 -0.38699999 25
12.284 -0.77999997 -0.37900001 23
12.269 -0.75400001 -0.36899999 25
12.264 -0.72899997 -0.361 27
12.237 -0.70300001 -0.35100001 27
12.238 -0.67900002 -0.34299999 25
12.227 -0.65399998 -0.33399999 27
12.221 -0.62900001 -0.32499999 39
12.212 -0.60399997 -0.315 27
12.194 -0.579 -0.30599999 26
12.177 -0.55400002 -0.29699999 22
12.172 -0.52999997 -0.287 22
12.174 -0.50599998 -0.278 21
12.256 -0.48500001 -0.271 8
12.298 -0.46200001 -0.26199999 12
12.366 -0.44 -0.25400001 12
12.432 -0.41800001 -0.245 9
12.568 -0.398 -0.23800001 13
12.645 -0.37599999 -0.23 18
12.471 -0.34599999 -0.21699999 43
12.718 -0.32699999 -0.20999999 36
12.907 -0.30700001 -0.20299999 37
12.891 -0.28200001 -0.192 37
12.936 -0.257 -0.183 19
12.995 -0.233 -0.17299999 24
13.007 -0.208 -0.162 29
13.02 -0.182 -0.15099999 8
13.122 -0.15899999 -0.141 1
0 0 0 10
34.799 -0.28600001 -0.31400001 8
35.062 -0.21799999 -0.28600001 26
35.084999 -0.15000001 -0.255 13
0 0 0 2
14.945 -0.0060000001 -0.082000002 18
14.918 0.022 -0.068000004 31
14.883 0.050000001 -0.055 37
14.93 0.079000004 -0.041000001 40
14.95 0.108 -0.028000001 43
14.942 0.13699999 -0.014 43
15.026 0.16599999 0 41
15.081 0.19599999 0.013 44
15.137 0.22499999 0.027000001 43
15.169 0.25400001 0.041000001 26
15.204 0.28299999 0.056000002 23
15.265 0.31299999 0.07 14
15.201 0.34099999 0.085000001 25
15.172 0.368 0.098999999 7
15.305 0.40000001 0.115 4
15.362 0.43000001 0.13 2
15.376 0.45899999 0.145 2
0 0 0 29
17.229 0.579 0.197 25
17.184999 0.61000001 0.213 36
17.164 0.64099997 0.23 30
17.152 0.67199999 0.24699999 33
17.124001 0.70200002 0.264 33
17.101 0.73299998 0.28099999 34
17.096001 0.764 0.29800001 34
17.063999 0.79299998 0.315 50
17.063999 0.824 0.333 35
17.056999 0.85500002 0.34999999 35
17.041 0.88499999 0.368 37
17.031 0.91500002 0.38499999 41
17.028999 0.94599998 0.403 44
17.041 0.977 0.421 40
17.038 1.007 0.43900001 58
17.046 1.038 0.458 33
17.058001 1.069 0.47600001 32
17.059999 1.099 0.49399999 53
17.073 1.131 0.51300001 42
17.084 1.161 0.53200001 41
17.106001 1.193 0.551 37
17.136999 1.225 0.57099998 27
17.174 1.257 0.59100002 26
17.179001 1.288 0.61000001 31
17.226 1.321 0.63 27
17.275999 1.354 0.65100002 21
17.354 1.39 0.67299998 19
0 0 0 118
33.576 2.803 1.376 123
33.563999 2.859 1.413 132
33.539001 2.914 1.45 92
33.521 2.9679999 1.4859999 124
33.485001 3.0209999 1.522 124
33.487 3.0769999 1.5599999 86
33.458 3.1300001 1.596 122
33.442001 3.1830001 1.6339999 114
33.417999 3.2360001 1.67 127
33.403999 3.2909999 1.7079999 108
33.41 3.346 1.7460001 52
33.435001 3.402 1.786 27
33.612 3.474 1.8329999 14
33.692001 3.5369999 1.877 9
33.644001 3.586 1.913 3
33.59 3.6329999 1.949 6
33.554001 3.6830001 1.985 9
33.514999 3.7309999 2.0220001 13
33.487999 3.7809999 2.059 17
33.469002 3.8310001 2.096 17
33.424999 3.878 2.1329999 14
33.43 3.9300001 2.1719999 19
33.375999 3.9749999 2.2079999 16
33.370998 4.0250001 2.2449999 15
33.331001 4.0710001 2.2820001 13
33.311001 4.119 2.3199999 12
33.296001 4.1680002 2.358 16
33.272999 4.2160001 2.3959999 12
33.303001 4.2690001 2.437 17
33.576 4.3540001 2.497 17
33.351002 4.3740001 2.5190001 20
33.206001 4.4029999 2.5469999 22
0 0 0 7
24.993 3.3870001 1.976 21
24.905001 3.411 1.999 26
24.870001 3.441 2.0250001 31
24.823999 3.471 2.0510001 34
24.795 3.5009999 2.0780001 40
24.764 3.5320001 2.105 43
24.733999 3.562 2.131 48
24.712999 3.5929999 2.158 47
24.698 3.625 2.1860001 51
24.679001 3.6559999 2.214 44
24.649 3.6860001 2.2409999 42
24.653999 3.72 2.2709999 60
24.639 3.7509999 2.299 70
24.650999 3.786 2.329 63
24.659 3.8199999 2.358 46
24.648001 3.8499999 2.3870001 42
24.655001 3.8840001 2.4170001 50
24.663 3.9170001 2.447 48
24.677999 3.951 2.477 36
24.686001 3.984 2.5079999 42
24.700001 4.0180001 2.539 40
24.726999 4.053 2.5710001 37
24.740999 4.0869999 2.602 33
24.771999 4.1230001 2.6340001 32
24.815001 4.1609998 2.6670001 27
24.856001 4.198 2.701 21
24.934999 4.2420001 2.7390001 16
25.037001 4.289 2.779 2
0 0 0 7
0 0 0 0
0 0 0 8
50.507999 8.8929996 5.8449998 6
0 0 0 0
0 0 0 4
0 0 0 0
0 0 0 0
0 0 0 0
0 0 0 0
0 0 0 6
50.728001 9.3850002 6.3400002 6
50.834 9.46 6.4120002 6
0 0 0 0
0 0 0 4
0 0 0 0
0 0 0 2
0 0 0 0
0 0 0 2
32.549999 6.2950001 4.3649998 3
32.547001 6.3270001 4.402 2
32.570999 6.3629999 4.4419999 2
32.43 6.3670001 4.4580002 2
32.328999 6.3790002 4.4819999 7
32.264999 6.3969998 4.5079999 45
32.25 6.4250002 4.5419998 55
32.233002 6.4520001 4.5760002 54
32.23 6.4809999 4.6110001 56
32.222 6.5089998 4.645 55
32.213001 6.5359998 4.6789999 53
32.196999 6.5619998 4.7119999 53
32.192001 6.5890002 4.7459998 52
32.174999 6.6139998 4.7779999 52
32.182999 6.6430001 4.8140001 52
32.16 6.6659999 4.8460002 51
32.154999 6.6919999 4.8800001 51
32.143002 6.717 4.9120002 52
32.125999 6.7399998 4.9439998 55
32.131001 6.7670002 4.9780002 55
32.122002 6.7909999 5.0110002 50
32.120998 6.816 5.0440001 52
32.102001 6.8369999 5.0749998 54
32.098 6.8610001 5.1079998 50
32.078999 6.881 5.138 52
32.088001 6.9070001 5.1729999 51
32.07 6.927 5.2030001 52
32.054001 6.947 5.2329998 52
32.050999 6.9699998 5.2659998 48
32.049 6.9920001 5.2969999 49
32.029999 7.0089998 5.3270001 52
32.030998 7.0320001 5.3590002 53
32.032001 7.0539999 5.3909998 52
32.029999 7.0739999 5.4219999 51
32.008999 7.0900002 5.4510002 52
31.997999 7.1079998 5.48 51
31.996 7.1279998 5.5100002 50
31.99 7.1459999 5.54 50
31.988001 7.165 5.5710001 50
31.973 7.1810002 5.599 50
31.969999 7.1989999 5.6290002 50
31.965 7.2160001 5.6570001 52
31.955999 7.2319999 5.6859999 53
31.959 7.2509999 5.7160001 54
31.940001 7.263 5.743 52
31.941999 7.2810001 5.7729998 53
31.926001 7.2940001 5.7979999 47
31.937 7.3130002 5.829 50
31.931 7.3280001 5.8559999 49
31.910999 7.3379998 5.881 45
31.906 7.3520002 5.908 41
31.915001 7.369 5.9380002 25
32.000999 7.4029999 5.9819999 11
32.181 7.46 6.0430002 7
32.278 7.4959998 6.0890002 8
32.404999 7.539 6.1409998 8
32.598999 7.5970001 6.2059999 10
33.237999 7.7600002 6.3540001 14
33.567001 7.849 6.4450002 25
33.644001 7.8800001 6.4879999 36
33.673 7.8990002 6.5209999 40
33.643002 7.9029999 6.5419998 40
33.652 7.9169998 6.5710001 39
33.631001 7.9239998 6.5929999 40
33.634998 7.9359999 6.6199999 41
33.633999 7.9460001 6.6459999 40
33.627998 7.9549999 6.671 40
33.618 7.9619999 6.6939998 38
33.643002 7.9770002 6.7249999 36
33.673 7.993 6.7550001 30
33.758999 8.0209999 6.7979999 24
34.035999 8.0950003 6.8779998 26
34.377998 8.184 6.9720001 22
34.591999 8.2440004 7.04 27
34.824001 8.3050003 7.112 31
34.933998 8.3380003 7.1589999 36
34.943001 8.3470001 7.184 36
34.949001 8.3549995 7.21 37
34.937 8.3579998 7.23 40
34.955002 8.368 7.257 38
34.950001 8.3710003 7.2789998 37
34.929001 8.3710003 7.2979999 41
34.946999 8.3800001 7.323 39
34.939999 8.382 7.3439999 40
34.933998 8.3839998 7.3649998 39
34.93 8.3850002 7.3850002 38
34.925999 8.3870001 7.4060001 38
34.931 8.3900003 7.428 40
34.944 8.3959999 7.4499998 37
34.941002 8.3959999 7.4699998 37
34.931999 8.3950005 7.4879999 33
34.936001 8.3979998 7.5079999 35
34.938 8.3979998 7.5279999 35
34.943001 8.3990002 7.5479999 32
34.938999 8.3970003 7.5650001 33
34.941002 8.3970003 7.5840001 33
34.941002 8.3959999 7.6009998 32
34.942001 8.3950005 7.6199999 34
34.941002 8.3920002 7.6370001 33
34.945 8.3909998 7.6539998 34
34.942001 8.3879995 7.6700001 35
34.949001 8.3859997 7.6880002 35
34.953999 8.3839998 7.7059999 36
34.949001 8.3789997 7.7199998 35
34.938999 8.3730001 7.7329998 36
34.967999 8.3739996 7.7550001 36
34.950001 8.3649998 7.7659998 36
34.960999 8.3620005 7.7820001 37
34.963001 8.3570004 7.7969999 37
34.971001 8.3520002 7.8119998 35
34.964001 8.3450003 7.823 35
34.962002 8.3369999 7.8369999 37
34.964001 8.3299999 7.8499999 35
34.945 8.3179998 7.8579998 34
34.824001 8.2819996 7.842 27
34.623001 8.2259998 7.8080001 22
34.398998 8.1639996 7.7690001 15
34.069 8.0760002 7.7049999 18
33.813 8.0059996 7.6570001 21
33.695999 7.9689999 7.6409998 19
33.674 7.954 7.6459999 20
33.647999 7.9380002 7.6479998 20
33.651001 7.928 7.658 26
33.654999 7.9180002 7.6680002 25
33.657001 7.908 7.6760001 27
33.681999 7.902 7.6890001 27
33.687 7.8909998 7.698 28
33.674999 7.8759999 7.7020001 29
33.683998 7.8649998 7.711 30
33.688999 7.8530002 7.7189999 28
33.598999 7.8189998 7.7049999 25
33.328999 7.7420001 7.6479998 14
32.724998 7.5890002 7.5149999 10
32.48 7.5180001 7.4629998 8
32.376999 7.4809999 7.4439998 9
32.257 7.4380002 7.421 9
32.145 7.3979998 7.3990002 9
32.064999 7.3639998 7.3839998 8
31.943001 7.322 7.3579998 8
31.851999 7.2849998 7.3400002 7
31.725 7.2399998 7.3140001 8
31.613001 7.1989999 7.289 8
31.546 7.1680002 7.276 8
31.412001 7.1209998 7.2470002 8
31.316 7.0830002 7.2249999 8
31.202 7.04 7.1999998 9
31.086 6.9959998 7.1739998 9
30.955999 6.9489999 7.1440001 8
30.854 6.9089999 7.1199999 8
30.757999 6.869 7.0970001 9
30.674999 6.8330002 7.0770001 9
30.601999 6.7979999 7.059 11
30.549999 6.7680001 7.0450001 12
30.534 6.7449999 7.0409999 15
30.506001 6.7199998 7.0320001 16
30.507999 6.7010002 7.0289998 21
30.482 6.6760001 7.02 20
30.473 6.6539998 7.0149999 24
30.488001 6.6370001 7.0149999 24
30.5 6.618 7.0139999 21
30.504 6.599 7.0110002 24
30.542999 6.586 7.0149999 20
30.524 6.5609999 7.006 22
30.559999 6.5469999 7.0089998 22
30.584999 6.5300002 7.0100002 22
30.591999 6.5100002 7.0050001 21
30.620001 6.493 7.006 22
30.620001 6.4710002 6.9990001 22
30.667999 6.4580002 7.0029998 21
30.700001 6.441 7.0029998 23
30.712 6.421 6.9990001 21
30.726 6.4000001 6.994 22
30.767 6.3839998 6.9949999 20
30.794001 6.3649998 6.993 21
30.804001 6.342 6.987 21
30.862 6.3299999 6.9899998 21
30.9 6.3119998 6.9899998 21
30.922001 6.29 6.9850001 22
30.948 6.27 6.9809999 21
31.004999 6.256 6.9829998 21
31.047001 6.2379999 6.9819999 20
31.087999 6.2189999 6.98 20
31.134001 6.2010002 6.9790001 21
31.188 6.1849999 6.9790001 21
31.219 6.164 6.974 22
31.271999 6.1469998 6.973 21
31.316999 6.1279998 6.9699998 21
31.389999 6.1139998 6.9720001 21
31.429001 6.092 6.9679999 23
31.482 6.0739999 6.9650002 23
31.552 6.059 6.9660001 24
31.605 6.04 6.9629998 23
31.646999 6.0180001 6.9569998 23
31.716999 6.0009999 6.9569998 24
31.759001 5.9790001 6.9499998 27
31.813999 5.9590001 6.9460001 25
31.865999 5.9369998 6.941 26
31.929001 5.9190001 6.9369998 28
31.996 5.9000001 6.9349999 24
32.067001 5.881 6.9320002 23
32.098999 5.855 6.921 23
32.164001 5.835 6.9159999 22
32.252998 5.8179998 6.9159999 23
32.277 5.7909999 6.902 22
32.344002 5.7690001 6.8969998 18
32.396 5.7459998 6.888 18
32.479 5.7270002 6.8850002 15
32.521999 5.7010002 6.8740001 14
32.580002 5.677 6.8649998 10
32.658001 5.6570001 6.8600001 8
32.764 5.6409998 6.8600001 6
32.856998 5.6220002 6.8569999 4
32.984001 5.6090002 6.8610001 3
32.978001 5.572 6.8369999 3
0 0 0 7
24.947001 4.1620002 5.1360002 17
24.909 4.1279998 5.1100001 22
24.881001 4.0970001 5.086 27
24.837999 4.0619998 5.0580001 31
24.826 4.033 5.0370002 33
24.792999 4.0009999 5.0110002 35
24.771 3.97 4.987 37
24.771 3.9419999 4.967 39
24.747999 3.9100001 4.9419999 34
24.739 3.881 4.9200001 41
24.728001 3.852 4.8979998 44
24.702 3.819 4.8720002 48
24.718 3.7939999 4.8540001 50
24.691 3.7609999 4.8280001 49
24.688999 3.733 4.8060002 55
24.716999 3.7090001 4.79 42
24.691999 3.6760001 4.763 50
24.714001 3.651 4.7449999 51
24.735001 3.625 4.7270002 48
24.753 3.5999999 4.7069998 42
24.777 3.5739999 4.6890001 44
24.775999 3.5450001 4.665 44
24.791 3.5179999 4.6440001 41
24.811001 3.4909999 4.6240001 40
24.841 3.4660001 4.6059999 37
24.868999 3.441 4.5869999 38
24.907 3.4159999 4.5689998 29
24.931 3.3889999 4.5489998 31
24.978001 3.3659999 4.5320001 28
25.027 3.342 4.5149999 23
25.1 3.322 4.5029998 17
25.204 3.3050001 4.4959998 3
0 0 0 2
33.250999 4.2810001 5.8610001 4
33.240002 4.2389998 5.8239999 5
33.245998 4.1999998 5.789 5
33.237 4.158 5.7519999 4
33.262001 4.1209998 5.7189999 3
33.266998 4.0799999 5.6830001 2
33.292 4.0430002 5.651 1
33.283001 4.0009999 5.612 7
33.283001 3.961 5.5739999 20
33.287998 3.9200001 5.5370002 10
33.422001 3.895 5.5209999 2
0 0 0 0
0 0 0 2
0 0 0 0
0 0 0 1
33.5 3.697 5.335 1
0 0 0 0
0 0 0 2
0 0 0 1
0 0 0 0
0 0 0 2
33.634998 3.4590001 5.1079998 1
33.658001 3.4200001 5.0679998 1
33.785999 3.3900001 5.0450001 1
33.682999 3.339 4.987 2
0 0 0 0
0 0 0 0
0 0 0 0
0 0 0 1
0 0 0 0
0 0 0 0
0 0 0 0
0 0 0 0
0 0 0 0
0 0 0 0
0 0 0 0
0 0 0 1
33.775002 2.8 4.4120002 5
33.721001 2.7539999 4.3579998 19
33.751999 2.714 4.3150001 14
0 0 0 6
17.374001 1.354 2.1719999 19
17.319 1.3279999 2.1400001 23
17.275999 1.304 2.1099999 22
17.237 1.279 2.0799999 33
17.219 1.256 2.053 35
17.195999 1.233 2.0250001 38
17.183001 1.211 1.998 43
17.158001 1.188 1.97 43
17.143 1.166 1.943 47
17.118999 1.143 1.914 45
17.121 1.122 1.888 34
17.105 1.1 1.8609999 56
17.094 1.0779999 1.8329999 52
17.087 1.057 1.806 36
17.072001 1.035 1.779 59
17.087 1.016 1.7539999 36
17.07 0.99400002 1.726 64
17.073 0.97299999 1.7 40
17.062 0.95099998 1.6720001 43
17.052 0.93000001 1.6440001 67
17.058001 0.91000003 1.618 67
17.068001 0.889 1.591 40
17.07 0.86900002 1.564 42
17.065001 0.84899998 1.5369999 62
17.068001 0.82800001 1.51 58
17.075001 0.80800003 1.483 59
17.087999 0.78799999 1.456 58
17.098 0.76800001 1.429 50
17.108999 0.74800003 1.402 52
17.118 0.72799999 1.374 61
17.111 0.708 1.346 54
17.136 0.68900001 1.319 52
17.148001 0.66900003 1.291 47
17.160999 0.64999998 1.2640001 51
17.177 0.63 1.2359999 31
17.194 0.61000001 1.209 49
17.223 0.59100002 1.181 41
17.242001 0.57200003 1.153 41
17.267 0.55299997 1.126 37
17.294001 0.53399998 1.098 31
17.325001 0.51499999 1.0700001 28
17.388 0.49599999 1.043 22
17.459 0.479 1.018 15
17.500999 0.46000001 0.991 2
0 0 0 2
0 0 0 0
0 0 0 2
0 0 0 0
0 0 0 4
0 0 0 2
0 0 0 4
38.612999 0.66900003 1.641 4
38.654999 0.62800002 1.574 4
38.646999 0.58499998 1.5039999 4
38.616001 0.542 1.433 4
0 0 0 0
0 0 0 0
0 0 0 19
34.842999 0.33899999 1.04 35
34.881001 0.30199999 0.97799999 36
34.84 0.26499999 0.91299999 13
0 0 0 0
0 0 0 0
0 0 0 0
0 0 0 0
0 0 0 4
0 0 0 0
0 0 0 2
0 0 0 25
0 0 0 25
0 0 0 2
35.108002 -0.13 0.205 18
35.084 -0.16500001 0.139 18
35.032001 -0.199 0.074000001 27
34.931999 -0.233 0.0070000002 9
34.596001 -0.264 -0.056000002 39
34.683998 -0.29800001 -0.122 9
34.761002 -0.33199999 -0.18799999 29
34.386002 -0.36199999 -0.25099999 44
0 0 0 5
13.014 -0.161 -0.14399999 6
13.032 -0.17399999 -0.169 4
13.021 -0.186 -0.19400001 10
12.981 -0.198 -0.219 10
12.943 -0.20900001 -0.242 13
12.902 -0.22 -0.26699999 9
12.869 -0.23100001 -0.29100001 10
12.83 -0.242 -0.31400001 12
12.791 -0.25299999 -0.338 15
12.774 -0.264 -0.36199999 12
12.714 -0.27399999 -0.38499999 13
12.68 -0.285 -0.40900001 14
12.684 -0.296 -0.43399999 10
12.624 -0.30599999 -0.456 14
12.614 -0.31600001 -0.48100001 15
12.595 -0.32600001 -0.50400001 9
12.574 -0.33700001 -0.528 8
12.515 -0.34599999 -0.55000001 12
12.483 -0.35499999 -0.57300001 14
12.463 -0.36500001 -0.59600002 13
12.431 -0.37400001 -0.61900002 20
12.415 -0.384 -0.64300001 18
12.394 -0.39300001 -0.66600001 10
12.374 -0.403 -0.68900001 12
12.342 -0.41100001 -0.71200001 11
12.324 -0.421 -0.73500001 10
12.288 -0.42899999 -0.75700003 12
12.217 -0.43599999 -0.77600002 13
12.136 -0.44299999 -0.796 9
11.824 -0.44 -0.79799998 4
11.294 -0.42899999 -0.78399998 2
10.784 -0.41800001 -0.76999998 2
10.346 -0.40799999 -0.759 2
9.9490004 -0.40000001 -0.75 3
9.5810003 -0.39199999 -0.741 3
9.2600002 -0.38600001 -0.73400003 4
8.9580002 -0.37900001 -0.72799999 4
8.6450005 -0.37200001 -0.71899998 5
8.3599997 -0.366 -0.71200001 4
8.1040001 -0.36000001 -0.70599997 4
7.842 -0.354 -0.699 5
7.6370001 -0.34999999 -0.69499999 5
7.4169998 -0.345 -0.69 4
7.2119999 -0.34 -0.685 5
7.0120001 -0.33500001 -0.68000001 6
6.777 -0.329 -0.671 10
6.6279998 -0.32499999 -0.66900003 10
6.4759998 -0.322 -0.66600001 9
6.382 -0.322 -0.66900003 9
6.2270002 -0.31799999 -0.66500002 6
6.0469999 -0.31200001 -0.65799999 3
5.9050002 -0.308 -0.65399998 3
5.7540002 -0.30399999 -0.648 3
5.6360002 -0.301 -0.64600003 4
5.5079999 -0.29699999 -0.64200002 4
5.4000001 -0.29499999 -0.63999999 3
5.276 -0.29100001 -0.63599998 3
5.1570001 -0.287 -0.63200003 3
5.0570002 -0.285 -0.62900001 3
4.9569998 -0.28200001 -0.62599999 3
4.862 -0.27900001 -0.62400001 4
4.7620001 -0.27599999 -0.62 3
4.6630001 -0.27200001 -0.616 3
4.5809999 -0.27000001 -0.61400002 4
4.5040002 -0.26800001 -0.61299998 2
4.4200001 -0.26499999 -0.61000001 2
4.3140001 -0.26100001 -0.60399997 2
4.2859998 -0.26100001 -0.60799998 2
4.1880002 -0.257 -0.602 2
4.1100001 -0.255 -0.59899998 2
4.052 -0.25299999 -0.59799999 2
3.9920001 -0.25099999 -0.597 2
3.9419999 -0.25 -0.597 2
3.914 -0.25 -0.60000002 2
3.8329999 -0.24600001 -0.59500003 2
3.8440001 -0.249 -0.60399997 3
3.704 -0.241 -0.58899999 1
3.6389999 -0.23800001 -0.58600003 2
3.622 -0.23899999 -0.58999997 1
3.585 -0.23800001 -0.59100002 2
3.487 -0.233 -0.58099997 2
3.444 -0.23100001 -0.57999998 2
3.556 -0.23999999 -0.60600001 2
3.402 -0.23100001 -0.58600003 2
3.4170001 -0.233 -0.59500003 2
3.3570001 -0.23100001 -0.59100002 2
3.3269999 -0.23 -0.59200001 2
3.2260001 -0.22400001 -0.57999998 2
3.151 -0.22 -0.57200003 2
3.1159999 -0.21799999 -0.57099998 2
3.0810001 -0.21699999 -0.57099998 2
3.0580001 -0.21600001 -0.57200003 2
3.006 -0.214 -0.56800002 2
2.9660001 -0.212 -0.56599998 2
2.9349999 -0.20999999 -0.565 2
2.9000001 -0.20900001 -0.56400001 2
2.862 -0.207 -0.56099999 2
2.836 -0.206 -0.56099999 2
2.8180001 -0.205 -0.56300002 2
2.779 -0.20299999 -0.56 2
2.7490001 -0.20200001 -0.55900002 2
2.7249999 -0.20100001 -0.55900002 2
2.7 -0.199 -0.55900002 2
2.6730001 -0.198 -0.55800003 1
2.642 -0.197 -0.55599999 1
2.6159999 -0.19499999 -0.55500001 1
2.592 -0.19400001 -0.55400002 1
2.5669999 -0.193 -0.55400002 1
2.546 -0.192 -0.55299997 1
2.517 -0.19 -0.551 1
2.503 -0.189 -0.55299997 1
2.471 -0.18700001 -0.55000001 1
2.447 -0.186 -0.54900002 1
2.438 -0.186 -0.551 1
2.414 -0.184 -0.54900002 1
2.4000001 -0.184 -0.55000001 1
2.3729999 -0.182 -0.54799998 1
2.3529999 -0.18099999 -0.54699999 1
2.335 -0.18000001 -0.54699999 1
2.309 -0.178 -0.54500002 1
2.2980001 -0.178 -0.546 1
2.276 -0.176 -0.54500002 1
2.2639999 -0.176 -0.546 1
2.2490001 -0.175 -0.54500002 1
2.2249999 -0.17299999 -0.54299998 1
2.2149999 -0.17299999 -0.54400003 1
2.1919999 -0.171 -0.542 1
2.1830001 -0.171 -0.54400003 1
2.2449999 -0.176 -0.56300002 1
2.155 -0.169 -0.54299998 1
2.184 -0.171 -0.55400002 1
2.1400001 -0.168 -0.546 1
2.1830001 -0.17200001 -0.56099999 1
2.105 -0.16599999 -0.54400003 1
2.069 -0.163 -0.53799999 1
2.056 -0.162 -0.53799999 1
2.0420001 -0.161 -0.537 1
2.039 -0.161 -0.53899997 1
2.017 -0.15899999 -0.53600001 1
2.007 -0.15800001 -0.537 1
2 -0.15800001 -0.53799999 1
1.987 -0.15700001 -0.537 1
1.974 -0.156 -0.537 1
1.959 -0.155 -0.53500003 1
1.951 -0.154 -0.53600001 1
1.9400001 -0.153 -0.53600001 1
1.9299999 -0.152 -0.53600001 1
1.923 -0.152 -0.537 1
1.911 -0.15099999 -0.53600001 1
1.901 -0.15000001 -0.53600001 1
1.8940001 -0.149 -0.53600001 1
1.8789999 -0.148 -0.53500003 1
1.867 -0.147 -0.53399998 1
1.859 -0.146 -0.53399998 1
1.847 -0.145 -0.53299999 1
1.84 -0.145 -0.53299999 1
1.8380001 -0.14399999 -0.53500003 1
1.824 -0.14300001 -0.53299999 1
1.814 -0.142 -0.53299999 1
1.8049999 -0.141 -0.53299999 1
1.789 -0.14 -0.52999997 1
1.7869999 -0.14 -0.53200001 1
1.78 -0.139 -0.53200001 1
1.771 -0.138 -0.53200001 1
1.766 -0.138 -0.53200001 1
1.7589999 -0.13699999 -0.53200001 1
1.748 -0.13600001 -0.53100002 1
1.7460001 -0.13500001 -0.53299999 1
1.739 -0.13500001 -0.53200001 1
1.709 -0.132 -0.52499998 1
1.722 -0.133 -0.53100002 1
1.704 -0.131 -0.528 1
1.697 -0.13 -0.528 1
1.689 -0.13 -0.52700001 1
1.691 -0.13 -0.52899998 1
1.6799999 -0.12800001 -0.528 1
1.673 -0.12800001 -0.52700001 1
1.663 -0.127 -0.52600002 1
1.663 -0.126 -0.528 1
1.65 -0.125 -0.52499998 1
1.641 -0.124 -0.52399999 1
1.638 -0.124 -0.52499998 1
1.627 -0.122 -0.523 1
1.622 -0.122 -0.523 1
1.615 -0.121 -0.52200001 1
1.609 -0.12 -0.52200001 1
1.601 -0.119 -0.52100003 1
1.599 -0.119 -0.52200001 1
1.604 -0.119 -0.52499998 1
1.596 -0.118 -0.52399999 1
1.586 -0.117 -0.52200001 1
1.584 -0.116 -0.523 1
1.579 -0.116 -0.523 1
1.568 -0.114 -0.51999998 1
1.567 -0.114 -0.52100003 1
1.557 -0.113 -0.51899999 1
1.566 -0.113 -0.52399999 1
1.553 -0.112 -0.52100003 1
1.548 -0.111 -0.51999998 1
1.539 -0.11 -0.51800001 1
1.545 -0.11 -0.52200001 1
1.538 -0.109 -0.52100003 1
1.538 -0.109 -0.52200001 1
1.5369999 -0.108 -0.523 1
1.534 -0.108 -0.523 1
1.5190001 -0.106 -0.51800001 1
1.506 -0.105 -0.51499999 1
1.5140001 -0.105 -0.51899999 1
1.507 -0.104 -0.51700002 1
1.506 -0.104 -0.51800001 1
1.5039999 -0.103 -0.51899999 1
1.498 -0.102 -0.51700002 1
1.499 -0.102 -0.51899999 1
1.493 -0.101 -0.51700002 1
1.498 -0.101 -0.51999998 1
1.492 -0.1 -0.51899999 1
1.489 -0.098999999 -0.51899999 1
1.478 -0.097999997 -0.51599997 1
1.477 -0.097999997 -0.51599997 1
1.477 -0.097000003 -0.51700002 1
1.477 -0.097000003 -0.51800001 1
1.483 -0.097000003 -0.51999998 1
