# .PCD v0.7 - Point Cloud Data file format
VERSION 0.7
FIELDS x y z intensity
SIZE 4 4 4 4
TYPE F F F F
COUNT 1 1 1 1
WIDTH 1711
HEIGHT 1
VIEWPOINT 0 0 0 1 0 0 0
POINTS 1711
DATA ascii
0 0 0 0
0 0 0 0
0 0 0 0
0 0 0 0
0 0 0 4
0 0 0 0
0 0 0 15
51.877998 -1.99 9.7360001 17
51.658001 -2.0079999 9.7840004 14
51.265999 -2.02 9.7969999 20
51.125999 -2.0420001 9.8570004 34
51.112 -2.069 9.9399996 40
51.103001 -2.096 10.022 44
50.825001 -2.112 10.052 38
50.258999 -2.115 10.022 40
50.176998 -2.1389999 10.089 38
50.158001 -2.1659999 10.167 35
50.175999 -2.194 10.254 34
49.778 -2.2049999 10.253 27
48.945 -2.1960001 10.161 36
48.826 -2.2179999 10.214 36
48.812 -2.2449999 10.289 33
48.826 -2.2739999 10.369 30
48.561001 -2.289 10.39 27
47.613998 -2.2720001 10.262 28
47.474998 -2.293 10.305 31
47.477001 -2.3199999 10.378 33
47.485001 -2.348 10.453 30
47.381001 -2.3699999 10.503 27
46.396 -2.348 10.355 26
46.151001 -2.3629999 10.369 32
46.125999 -2.3889999 10.433 30
46.138 -2.4159999 10.503 29
46.119999 -2.4430001 10.567 28
45.644001 -2.4449999 10.525 20
44.862 -2.4300001 10.41 32
44.803001 -2.4530001 10.461 30
44.783001 -2.4790001 10.52 30
44.773998 -2.506 10.582 26
44.702 -2.529 10.628 25
44.047001 -2.5190001 10.534 18
43.500999 -2.513 10.463 32
43.433998 -2.536 10.507 30
43.451 -2.563 10.571 28
43.419998 -2.5880001 10.623 24
43.370998 -2.6110001 10.67 24
42.866001 -2.608 10.603 18
42.176998 -2.592 10.489 30
42.088001 -2.6110001 10.521 28
42.099998 -2.638 10.58 25
42.119999 -2.665 10.638 25
42.082001 -2.688 10.683 24
41.823002 -2.698 10.67 22
40.972 -2.6689999 10.505 25
40.759998 -2.6800001 10.501 27
40.759998 -2.7060001 10.552 29
40.747002 -2.7290001 10.598 27
40.757 -2.756 10.65 26
40.738998 -2.78 10.694 25
40.469002 -2.786 10.671 20
39.577 -2.7509999 10.483 20
39.387001 -2.7609999 10.478 23
39.390999 -2.786 10.525 22
39.389999 -2.8110001 10.57 24
39.382 -2.835 10.612 21
39.383999 -2.8599999 10.657 22
39.195999 -2.8699999 10.649 20
38.320999 -2.8299999 10.453 21
38.062 -2.835 10.424 26
38.049999 -2.858 10.461 24
38.039001 -2.881 10.499 23
38.058998 -2.905 10.544 25
38.061001 -2.9289999 10.583 23
38.07 -2.954 10.625 23
37.566002 -2.938 10.522 17
36.785 -2.8989999 10.34 23
36.701 -2.915 10.352 23
36.702 -2.938 10.388 22
36.693001 -2.96 10.421 23
36.707001 -2.983 10.459 23
36.713001 -3.007 10.496 21
36.696999 -3.027 10.524 21
36.527 -3.0350001 10.509 23
35.716999 -2.99 10.308 16
35.374001 -2.983 10.239 22
35.328999 -3.0009999 10.257 23
35.351002 -3.0250001 10.294 22
35.34 -3.046 10.321 22
35.331001 -3.066 10.347 21
35.368 -3.0910001 10.387 22
35.344002 -3.109 10.409 22
35.078999 -3.1070001 10.359 21
34.279999 -3.0569999 10.149 19
34.018002 -3.0539999 10.098 25
33.974998 -3.0699999 10.111 29
33.978001 -3.0910001 10.137 29
33.991001 -3.1129999 10.165 27
33.976002 -3.132 10.185 28
34.007 -3.155 10.218 21
33.977001 -3.171 10.233 25
33.991001 -3.1930001 10.26 25
33.741001 -3.1889999 10.207 20
33.033001 -3.141 10.014 19
32.664001 -3.1240001 9.9219999 20
32.619999 -3.1389999 9.9289999 24
32.623001 -3.1570001 9.9499998 27
32.625 -3.1760001 9.9700003 25
32.631001 -3.1960001 9.9910002 25
32.626999 -3.214 10.008 24
32.632 -3.233 10.027 24
32.639999 -3.2509999 10.048 23
32.640999 -3.27 10.065 20
32.581001 -3.283 10.063 24
31.927999 -3.234 9.8769999 13
31.343 -3.1919999 9.7119999 20
31.27 -3.201 9.7040005 22
31.259001 -3.217 9.7139997 26
31.25 -3.234 9.7250004 25
31.273001 -3.253 9.7460003 26
31.285999 -3.2709999 9.7629995 25
31.26 -3.286 9.7679996 25
31.271 -3.302 9.783 25
31.267 -3.319 9.7930002 26
31.282 -3.3369999 9.809 25
31.284 -3.3529999 9.8210001 24
31.261999 -3.3670001 9.8240004 21
30.646 -3.316 9.6409998 12
30.066 -3.2690001 9.467 20
29.931999 -3.27 9.434 20
29.917999 -3.2820001 9.4379997 24
29.92 -3.2980001 9.4460001 24
29.929001 -3.3139999 9.4569998 23
29.909 -3.326 9.4569998 24
29.909 -3.3410001 9.4639997 25
29.915001 -3.3559999 9.4720001 25
29.929001 -3.3729999 9.4820004 24
29.931 -3.3870001 9.4879999 24
29.938999 -3.402 9.4960003 24
29.927999 -3.414 9.4969997 25
29.931999 -3.428 9.5019999 22
29.917999 -3.441 9.5010004 22
29.608 -3.4189999 9.4060001 16
29.052 -3.368 9.2320004 15
28.642 -3.3329999 9.1040001 18
28.586 -3.339 9.0889997 21
28.555 -3.349 9.0799999 23
28.552 -3.3610001 9.0799999 23
28.549999 -3.3729999 9.0799999 23
28.565001 -3.3870001 9.0860004 22
28.558001 -3.398 9.0830002 24
28.566999 -3.411 9.0860004 23
28.556 -3.421 9.0819998 22
28.542999 -3.431 9.0760002 22
28.559 -3.4449999 9.0790005 22
28.58 -3.46 9.0839996 21
28.562 -3.4690001 9.0760002 22
28.573999 -3.4820001 9.0769997 22
28.559 -3.49 9.0690002 22
28.559 -3.5009999 9.0649996 22
28.555 -3.5109999 9.0600004 21
28.558001 -3.5220001 9.0570002 20
28.274 -3.4979999 8.9619999 18
27.820999 -3.4519999 8.8129997 14
27.445 -3.415 8.6879997 17
27.254 -3.401 8.6219997 18
27.211 -3.4059999 8.6029997 18
27.173 -3.4100001 8.5839996 20
27.191 -3.421 8.5830002 22
27.173 -3.428 8.5699997 23
27.186001 -3.4389999 8.566 23
27.174 -3.4460001 8.5550003 23
27.201 -3.4579999 8.5550003 22
27.18 -3.464 8.54 23
27.181999 -3.473 8.5310001 22
27.188999 -3.4809999 8.5240002 22
27.191 -3.49 8.5150003 22
27.193001 -3.4979999 8.5059996 23
27.188999 -3.5050001 8.4940004 22
27.184 -3.5120001 8.4809999 20
27.187 -3.52 8.4709997 22
27.188 -3.527 8.46 22
27.188999 -3.5350001 8.448 21
27.186001 -3.5420001 8.4350004 22
27.177 -3.5480001 8.4189997 22
27.179001 -3.5550001 8.4069996 22
27.181999 -3.562 8.3940001 22
27.198 -3.5699999 8.3859997 21
27.18 -3.5739999 8.3660002 22
27.200001 -3.5829999 8.3570004 22
27.184 -3.5869999 8.3380003 21
27.153 -3.589 8.3129997 19
26.934999 -3.5650001 8.2309999 16
26.655001 -3.533 8.1300001 13
26.407 -3.506 8.0380001 16
26.216 -3.4860001 7.9640002 15
26.009001 -3.4630001 7.8850002 14
25.92 -3.4549999 7.842 17
25.896999 -3.457 7.8179998 20
25.874001 -3.4579999 7.7940001 20
25.844 -3.4590001 7.7670002 21
25.84 -3.4630001 7.7480001 21
25.809 -3.4619999 7.7210002 20
25.789 -3.464 7.6960001 19
25.761 -3.4630001 7.6690001 15
25.712 -3.46 7.6360002 12
25.656 -3.4560001 7.5999999 11
25.607 -3.4519999 7.566 10
25.546 -3.447 7.5279999 9
25.554001 -3.451 7.5100002 10
25.523001 -3.4489999 7.48 10
25.478001 -3.4449999 7.4460001 9
25.48 -3.448 7.4260001 9
25.473 -3.4489999 7.4029999 9
25.465 -3.45 7.3790002 9
25.450001 -3.4489999 7.3530002 9
25.436001 -3.4489999 7.3270001 9
25.421 -3.4489999 7.3000002 9
25.410999 -3.4489999 7.2740002 9
25.410999 -3.45 7.2509999 9
25.389999 -3.448 7.2210002 9
25.388 -3.4489999 7.197 9
25.379 -3.448 7.1700001 9
25.377001 -3.448 7.1459999 8
25.360001 -3.447 7.1170001 9
25.355 -3.4449999 7.0900002 8
25.364 -3.447 7.0679998 9
25.365 -3.4460001 7.0430002 9
25.371 -3.447 7.0190001 8
25.365 -3.4460001 6.9910002 9
25.374001 -3.4460001 6.9679999 10
25.382999 -3.447 6.9439998 8
25.379 -3.4449999 6.9159999 8
25.391001 -3.4460001 6.8920002 9
25.417999 -3.448 6.8730001 10
25.483 -3.4549999 6.862 11
25.528999 -3.46 6.8470001 15
25.617001 -3.47 6.842 20
25.698999 -3.4790001 6.835 24
25.792 -3.4890001 6.8309999 26
25.882 -3.4990001 6.8249998 24
25.973 -3.5079999 6.8189998 26
26.068001 -3.5179999 6.8140001 27
26.187 -3.5309999 6.8150001 24
26.290001 -3.5420001 6.8099999 26
26.413 -3.5550001 6.8109999 24
26.49 -3.562 6.7989998 28
26.603001 -3.573 6.796 29
26.714001 -3.5840001 6.7919998 25
26.830999 -3.596 6.7880001 26
26.951 -3.6070001 6.7849998 27
27.084999 -3.6199999 6.7849998 28
27.198999 -3.6300001 6.7789998 27
27.32 -3.642 6.7740002 25
27.447001 -3.654 6.7709999 25
27.579 -3.6659999 6.7680001 27
27.723 -3.6789999 6.7680001 28
27.844 -3.6889999 6.7610002 28
27.959 -3.698 6.7519999 28
28.093 -3.71 6.7480001 24
28.216 -3.7190001 6.7399998 24
28.368 -3.7320001 6.7379999 22
28.528999 -3.7460001 6.7379999 25
28.669001 -3.757 6.7319999 24
28.802 -3.767 6.724 25
28.958 -3.78 6.7199998 24
29.111 -3.7909999 6.7150002 24
29.280001 -3.8039999 6.7129998 26
29.426001 -3.8150001 6.7049999 25
29.6 -3.829 6.7030001 23
29.754999 -3.839 6.697 24
29.921 -3.8510001 6.691 23
30.094 -3.8640001 6.6859999 23
30.266001 -3.8759999 6.6810002 22
30.450001 -3.8889999 6.677 21
30.622 -3.901 6.6700001 23
30.825001 -3.915 6.6700001 21
31.004 -3.927 6.6620002 21
31.184 -3.9389999 6.6539998 25
31.372999 -3.95 6.6490002 21
31.554001 -3.961 6.6399999 22
31.750999 -3.973 6.6329999 22
31.952999 -3.9849999 6.6269999 22
32.175999 -4 6.625 22
32.359001 -4.0089998 6.6129999 21
32.575001 -4.0219998 6.6069999 22
32.776001 -4.033 6.598 23
32.998001 -4.046 6.592 23
33.227001 -4.059 6.586 24
33.452999 -4.072 6.5799999 24
33.682999 -4.0840001 6.572 24
33.931 -4.099 6.566 25
34.161999 -4.1100001 6.5580001 25
34.381001 -4.1199999 6.5450001 25
34.537998 -4.1220002 6.52 23
34.705002 -4.125 6.4970002 15
34.875999 -4.1279998 6.473 8
34.988998 -4.1230001 6.4369998 4
35.048 -4.112 6.3920002 4
34.981998 -4.085 6.3239999 3
34.971001 -4.0650001 6.2659998 4
34.929001 -4.0409999 6.2020001 4
34.880001 -4.0159998 6.1360002 4
34.823002 -3.99 6.0689998 13
34.804001 -3.9690001 6.0079999 36
34.806999 -3.9489999 5.9510002 48
34.793999 -3.927 5.8920002 51
34.793999 -3.9070001 5.835 50
34.782001 -3.8840001 5.776 54
34.791 -3.8640001 5.7189999 53
34.785 -3.8429999 5.6599998 55
34.777 -3.8199999 5.5999999 58
34.778 -3.7980001 5.5419998 58
34.785999 -3.777 5.4850001 57
34.769001 -3.753 5.4239998 56
34.765999 -3.73 5.3629999 55
34.762001 -3.707 5.3049998 57
34.757999 -3.6830001 5.2449999 58
34.766998 -3.6600001 5.1859999 52
34.758999 -3.6359999 5.1259999 52
34.756001 -3.612 5.066 53
34.743999 -3.586 5.0050001 54
34.747002 -3.562 4.9460001 56
34.743 -3.5369999 4.8860002 53
34.743 -3.5120001 4.8260002 45
34.731998 -3.4849999 4.7639999 53
34.749001 -3.461 4.7069998 47
34.723 -3.4330001 4.6430001 53
34.712002 -3.4059999 4.5809999 53
34.737999 -3.382 4.5240002 53
34.709 -3.3529999 4.461 51
34.715 -3.326 4.401 52
34.716999 -3.299 4.3410001 51
34.695 -3.27 4.2779999 53
34.689999 -3.2420001 4.2160001 52
34.695999 -3.214 4.1560001 52
34.682999 -3.1849999 4.0929999 55
34.698002 -3.158 4.0339999 55
34.689999 -3.128 3.9719999 50
34.686001 -3.098 3.9100001 53
34.676998 -3.0680001 3.848 54
34.667 -3.0380001 3.7850001 49
34.68 -3.0090001 3.7249999 53
34.658001 -2.977 3.661 52
34.661999 -2.947 3.5999999 53
34.667999 -2.9170001 3.54 52
34.654999 -2.885 3.477 53
34.653 -2.8529999 3.414 49
34.653999 -2.823 3.3529999 44
34.812 -2.8039999 3.3080001 9
34.986 -2.786 3.2620001 12
35.096001 -2.7620001 3.21 20
34.685001 -2.697 3.1099999 31
34.611 -2.6589999 3.043 42
34.613998 -2.6259999 2.9809999 43
34.601002 -2.592 2.918 46
34.605999 -2.559 2.8570001 38
34.798 -2.539 2.8110001 21
34.823002 -2.507 2.7520001 27
35.058998 -2.49 2.7079999 18
35.495998 -2.4849999 2.6789999 23
35.676998 -2.4630001 2.6289999 25
36.062 -2.454 2.5940001 42
36.175999 -2.425 2.539 17
36.563 -2.4130001 2.5 26
36.797001 -2.391 2.451 23
37.158001 -2.3759999 2.4100001 23
37.508999 -2.3599999 2.3659999 16
37.825001 -2.3399999 2.3180001 21
38.148998 -2.3199999 2.27 18
38.667999 -2.3099999 2.233 27
38.890999 -2.2820001 2.1760001 22
39.341 -2.266 2.1329999 8
39.745998 -2.2449999 2.0840001 23
40.064999 -2.2190001 2.0280001 33
40.516998 -2.2 1.9809999 28
40.911999 -2.1760001 1.928 27
41.327 -2.152 1.873 12
42.132999 -2.1470001 1.835 3
0 0 0 11
46.827 -2.2809999 1.876 37
0 0 0 16
43.412998 -2.0120001 1.582 150
43.423 -1.9630001 1.506 150
43.452999 -1.913 1.431 90
43.481998 -1.865 1.357 61
43.466999 -1.813 1.28 41
43.469002 -1.762 1.205 31
43.443001 -1.709 1.128 11
0 0 0 0
0 0 0 0
0 0 0 0
0 0 0 0
0 0 0 0
0 0 0 0
0 0 0 14
58.803001 -1.742 0.713 57
59.414001 -1.687 0.61799997 22
59.403 -1.612 0.51599997 22
59.334999 -1.536 0.414 34
59.323002 -1.461 0.31200001 5
0 0 0 150
66.739998 -1.476 0.126 98
66.714996 -1.39 0.012 72
66.722 -1.304 -0.1 73
66.880997 -1.223 -0.211 105
66.945999 -1.136 -0.32600001 28
67.592003 -1.0599999 -0.44100001 14
0 0 0 75
72.440002 -0.94700003 -0.71600002 59
73.186996 -0.861 -0.84500003 39
0 0 0 78
0 0 0 0
0 0 0 0
0 0 0 31
117.042 -0.597 -2.322 44
117.027 -0.442 -2.5120001 52
116.971 -0.28400001 -2.7019999 33
0 0 0 25
0 0 0 25
0 0 0 25
0 0 0 0
0 0 0 163
60.797001 0.34799999 -1.993 170
60.740002 0.43099999 -2.0880001 154
0 0 0 150
65.501999 0.648 -2.4619999 15
0 0 0 0
0 0 0 0
0 0 0 0
0 0 0 0
0 0 0 0
0 0 0 1
25.007999 0.493 -1.215 1
0 0 0 1
0 0 0 1
19.167999 0.46000001 -1.02 2
18.207001 0.463 -0.99599999 2
0 0 0 0
0 0 0 5
15.633 0.465 -0.926 4
15.352 0.47799999 -0.93300003 5
14.554 0.47499999 -0.90600002 3
13.894 0.47299999 -0.88599998 3
13.445 0.47799999 -0.87699997 3
12.953 0.479 -0.86400002 3
12.598 0.48500001 -0.85900003 3
12.235 0.48800001 -0.852 3
11.83 0.48899999 -0.84100002 2
11.433 0.49000001 -0.82999998 2
11.088 0.491 -0.82099998 2
10.764 0.493 -0.81199998 3
10.489 0.49599999 -0.80699998 3
10.219 0.498 -0.80000001 3
9.9569998 0.5 -0.79400003 3
9.7030001 0.50199997 -0.78799999 3
9.4680004 0.50400001 -0.78200001 3
9.1949997 0.50300002 -0.773 3
8.967 0.50400001 -0.76599997 3
8.7250004 0.50300002 -0.75700003 3
8.5019999 0.50300002 -0.74900001 4
8.2880001 0.50300002 -0.74199998 4
8.1219997 0.505 -0.73900002 3
7.9250002 0.505 -0.73100001 3
7.717 0.50300002 -0.72299999 4
7.539 0.50300002 -0.71600002 4
7.3610001 0.50199997 -0.70899999 4
7.2179999 0.50300002 -0.70499998 3
7.0510001 0.50199997 -0.69800001 3
6.9120002 0.50300002 -0.69300002 3
6.783 0.50400001 -0.68900001 3
6.6300001 0.50199997 -0.68199998 3
6.526 0.50400001 -0.68000001 3
6.4109998 0.505 -0.676 3
6.2859998 0.505 -0.671 3
6.1869998 0.50599998 -0.66900003 3
6.1020002 0.509 -0.667 3
5.9949999 0.509 -0.66299999 3
5.8850002 0.50800002 -0.65799999 4
5.803 0.50999999 -0.65600002 3
5.7069998 0.50999999 -0.65200001 4
5.6430001 0.51300001 -0.65200001 4
5.566 0.51499999 -0.64999998 4
5.4819999 0.51499999 -0.64700001 4
5.414 0.51700002 -0.64499998 4
5.3319998 0.51700002 -0.64200002 4
5.2519999 0.51800001 -0.639 4
5.2069998 0.52100003 -0.639 5
5.1469998 0.523 -0.63800001 3
5.1059999 0.52600002 -0.639 3
5.0380001 0.52700001 -0.63599998 3
4.9689999 0.52700001 -0.63300002 2
4.9200001 0.52999997 -0.63200003 3
4.8509998 0.52999997 -0.62900001 2
4.7950001 0.52999997 -0.62699997 2
4.7410002 0.53200001 -0.625 2
4.6900001 0.53299999 -0.62400001 2
4.6360002 0.53399998 -0.62199998 2
4.5809999 0.53500003 -0.61900002 3
4.54 0.537 -0.61900002 3
4.4970002 0.53799999 -0.61799997 2
4.4429998 0.53899997 -0.61500001 2
4.4060001 0.54100001 -0.61500001 2
4.3930001 0.546 -0.61699998 2
4.302 0.54100001 -0.60900003 2
4.263 0.542 -0.60799998 2
4.2140002 0.542 -0.60500002 2
4.2049999 0.54699999 -0.60799998 3
4.1750002 0.55000001 -0.60799998 2
4.1139998 0.54799998 -0.60399997 2
4.1589999 0.56 -0.61400002 2
4.0250001 0.54799998 -0.59799999 2
4.0739999 0.56099999 -0.61000001 2
4.0430002 0.56199998 -0.60900003 2
3.9890001 0.56099999 -0.60500002 2
3.9130001 0.55599999 -0.597 2
3.9860001 0.57200003 -0.61199999 2
3.9059999 0.56599998 -0.60299999 2
3.8729999 0.56699997 -0.60100001 2
3.8269999 0.56599998 -0.59799999 2
3.8770001 0.579 -0.60900003 2
3.7739999 0.56900001 -0.59600002 2
3.8510001 0.58600003 -0.61199999 3
3.767 0.579 -0.602 2
3.7290001 0.57800001 -0.59899998 2
3.6719999 0.574 -0.59299999 2
3.6470001 0.57599998 -0.59200001 2
3.6730001 0.58499998 -0.59899998 2
3.5910001 0.57700002 -0.58899999 2
3.563 0.57800001 -0.58700001 2
3.622 0.59299999 -0.60000002 2
3.585 0.59100002 -0.597 2
3.5109999 0.58399999 -0.58700001 2
3.4760001 0.583 -0.58399999 2
3.4719999 0.58700001 -0.58600003 2
3.461 0.58999997 -0.58700001 2
3.5020001 0.602 -0.597 2
3.461 0.60000002 -0.59200001 2
3.5109999 0.61299998 -0.60299999 2
3.425 0.60299999 -0.59100002 2
3.378 0.59899998 -0.58499998 2
3.4230001 0.61199999 -0.59600002 2
3.368 0.60699999 -0.588 2
3.3640001 0.611 -0.58999997 2
3.3510001 0.61299998 -0.58999997 2
3.293 0.60600001 -0.58200002 2
3.3 0.61199999 -0.58600003 2
3.2460001 0.60699999 -0.57800001 2
3.302 0.62099999 -0.58999997 2
3.26 0.61799997 -0.58499998 2
3.319 0.63300002 -0.59799999 2
3.1700001 0.60900003 -0.57300001 2
3.1500001 0.60900003 -0.57099998 2
3.2 0.62300003 -0.58200002 2
3.1800001 0.62300003 -0.58099997 2
3.2149999 0.634 -0.58899999 2
3.1040001 0.616 -0.56999999 1
3.098 0.61900002 -0.57099998 2
3.0799999 0.61900002 -0.56900001 2
3.076 0.62199998 -0.56999999 2
3.0680001 0.625 -0.57099998 2
3.0599999 0.62699997 -0.57099998 1
3.036 0.62599999 -0.56800002 2
3.03 0.62800002 -0.56800002 2
3.02 0.63 -0.56800002 2
3.0050001 0.63 -0.56699997 2
3.0020001 0.63300002 -0.56800002 2
3.0869999 0.65499997 -0.58499998 2
3.063 0.653 -0.58200002 2
2.9820001 0.639 -0.56800002 2
2.967 0.63999999 -0.56599998 2
3.0339999 0.65799999 -0.58099997 1
2.993 0.65200001 -0.574 1
3.029 0.66399997 -0.58200002 2
3.0409999 0.67000002 -0.58600003 2
3.0639999 0.67799997 -0.59100002 2
3.036 0.67500001 -0.58700001 2
2.9119999 0.65100002 -0.56400001 2
2.898 0.65100002 -0.56300002 2
2.8940001 0.65399998 -0.56300002 2
2.891 0.65600002 -0.56300002 2
2.885 0.65799999 -0.56300002 2
2.881 0.66000003 -0.56400001 2
2.862 0.65799999 -0.56099999 2
2.8659999 0.662 -0.56300002 2
2.8570001 0.66299999 -0.56199998 2
2.8499999 0.66399997 -0.56099999 2
2.8499999 0.66799998 -0.56199998 2
2.848 0.67000002 -0.56199998 2
2.8369999 0.67000002 -0.56099999 2
2.835 0.67299998 -0.56099999 2
2.835 0.67500001 -0.56199998 2
2.825 0.676 -0.56099999 2
2.8099999 0.67500001 -0.55900002 2
2.8099999 0.67799997 -0.55900002 2
2.8139999 0.68099999 -0.56099999 2
2.8150001 0.68400002 -0.56199998 2
2.8150001 0.68699998 -0.56199998 2
2.7980001 0.685 -0.55900002 2
2.793 0.68699998 -0.55900002 2
2.796 0.69 -0.56 2
2.7980001 0.69300002 -0.56099999 2
2.783 0.69199997 -0.55800003 2
2.79 0.69599998 -0.56 2
2.786 0.69700003 -0.56 2
2.7850001 0.699 -0.56 2
2.7809999 0.70099998 -0.56 2
2.7809999 0.70300001 -0.56 2
2.78 0.70499998 -0.56 2
2.776 0.70599997 -0.55900002 2
2.7809999 0.70999998 -0.56099999 2
2.77 0.70899999 -0.55900002 2
2.7739999 0.713 -0.56 2
2.7679999 0.713 -0.55800003 2
2.7679999 0.71499997 -0.55900002 2
2.767 0.71700001 -0.55900002 2
2.763 0.71799999 -0.55800003 2
2.7720001 0.722 -0.56 2
2.7650001 0.72299999 -0.55900002 2
2.7709999 0.72600001 -0.56 2
2.7750001 0.72899997 -0.56 2
2.7739999 0.73100001 -0.56 2
2.7720001 0.73199999 -0.56 2
2.7780001 0.736 -0.56099999 2
2.7709999 0.73500001 -0.56 2
2.7709999 0.73699999 -0.55900002 2
2.773 0.74000001 -0.56 2
2.7709999 0.741 -0.55900002 2
2.7739999 0.74299997 -0.55900002 2
2.7690001 0.74400002 -0.55800003 2
2.776 0.74699998 -0.55900002 2
2.776 0.74900001 -0.55900002 2
2.7739999 0.75 -0.55900002 2
2.78 0.75300002 -0.56 2
2.7820001 0.755 -0.55900002 2
2.7739999 0.75400001 -0.55800003 2
2.7780001 0.75599998 -0.55800003 2
2.786 0.75999999 -0.55900002 2
2.7869999 0.76200002 -0.55900002 2
2.79 0.764 -0.55900002 2
2.79 0.76499999 -0.55900002 2
2.7850001 0.76499999 -0.55699998 2
2.8010001 0.77100003 -0.56 2
2.796 0.77100003 -0.55800003 2
2.7980001 0.773 -0.55800003 2
2.803 0.77499998 -0.55900002 2
2.8069999 0.77700001 -0.55900002 2
2.8139999 0.77999997 -0.55900002 2
2.809 0.77999997 -0.55800003 2
2.816 0.78299999 -0.55800003 2
2.816 0.78399998 -0.55800003 2
2.825 0.787 -0.55900002 2
2.8199999 0.787 -0.55699998 2
2.8280001 0.79000002 -0.55800003 2
2.8310001 0.792 -0.55800003 2
2.836 0.79400003 -0.55800003 2
2.849 0.79799998 -0.56 2
2.8559999 0.801 -0.56 2
2.8559999 0.80199999 -0.55900002 2
2.869 0.80599999 -0.56099999 2
2.8659999 0.80599999 -0.55900002 2
2.875 0.80900002 -0.56 1
2.8829999 0.81199998 -0.56 2
3.033 0.85500002 -0.588 2
2.9719999 0.838 -0.57599998 1
2.8989999 0.81800002 -0.56 2
3.006 0.84899998 -0.57999998 2
2.9230001 0.82599998 -0.56300002 1
3.007 0.85000002 -0.57800001 2
3.086 0.87199998 -0.59200001 1
3.043 0.86000001 -0.58200002 2
3.0369999 0.85900003 -0.57999998 1
3.066 0.86799997 -0.58399999 1
3.1029999 0.87800002 -0.58999997 2
2.9960001 0.84799999 -0.56800002 1
0 0 0 2
3.207 0.90799999 -0.60500002 2
3.073 0.87 -0.579 1
3.2190001 0.91100001 -0.60399997 2
0 0 0 1
3.142 0.88999999 -0.58700001 2
3.191 0.903 -0.59500003 1
3.1800001 0.89999998 -0.59100002 2
3.194 0.90399998 -0.59200001 2
3.145 0.88999999 -0.58099997 1
3.247 0.91900003 -0.59899998 2
3.165 0.89499998 -0.58200002 1
3.2 0.90399998 -0.58600003 1
3.3239999 0.93900001 -0.60699999 2
3.171 0.89499998 -0.57800001 1
3.253 0.91799998 -0.59100002 2
3.2030001 0.90399998 -0.57999998 1
3.2520001 0.917 -0.58700001 2
3.312 0.93300003 -0.59600002 2
3.2520001 0.91500002 -0.583 2
3.244 0.91299999 -0.57999998 2
3.1930001 0.898 -0.56900001 1
3.2809999 0.921 -0.583 1
3.2780001 0.92000002 -0.57999998 2
3.336 0.935 -0.588 2
3.319 0.92900002 -0.583 1
3.3940001 0.94999999 -0.59399998 2
3.385 0.94599998 -0.59100002 1
3.388 0.94599998 -0.58899999 2
3.3789999 0.94199997 -0.58499998 2
3.3340001 0.92799997 -0.57499999 1
3.3889999 0.94199997 -0.583 2
3.398 0.94400001 -0.58200002 2
3.3670001 0.93400002 -0.574 1
3.4100001 0.94400001 -0.579 2
3.4749999 0.96100003 -0.588 2
3.4760001 0.95999998 -0.58600003 3
3.513 0.96899998 -0.58999997 2
3.4349999 0.94599998 -0.574 1
3.4979999 0.96100003 -0.58200002 2
3.563 0.97799999 -0.59100002 2
3.6359999 0.99599999 -0.60000002 3
3.6210001 0.99000001 -0.59500003 3
3.6199999 0.98799998 -0.59200001 3
3.6210001 0.98699999 -0.58999997 3
3.6070001 0.98100001 -0.58499998 2
3.655 0.99199998 -0.58999997 2
3.6789999 0.99599999 -0.59100002 2
3.793 1.025 -0.60699999 3
3.6589999 0.98699999 -0.583 2
3.73 1.0039999 -0.59100002 3
3.779 1.015 -0.59600002 3
3.816 1.022 -0.59899998 3
3.799 1.015 -0.59299999 3
3.8410001 1.024 -0.597 3
3.8629999 1.027 -0.597 2
3.8640001 1.025 -0.59399998 2
3.9000001 1.0319999 -0.597 3
3.984 1.051 -0.60600001 3
3.9059999 1.028 -0.59200001 2
3.9170001 1.028 -0.58999997 2
3.9260001 1.028 -0.588 2
4.0430002 1.0549999 -0.60299999 4
4.0430002 1.052 -0.59899998 4
4.033 1.046 -0.59500003 2
4.073 1.054 -0.597 2
4.118 1.062 -0.60000002 2
4.2030001 1.081 -0.60900003 4
4.2379999 1.086 -0.611 4
4.184 1.069 -0.59899998 4
4.2090001 1.072 -0.59899998 4
4.25 1.079 -0.602 4
4.2940001 1.086 -0.60399997 2
4.3340001 1.092 -0.60600001 2
4.3600001 1.095 -0.60600001 2
4.3899999 1.099 -0.60699999 2
4.4369998 1.107 -0.60900003 2
4.473 1.112 -0.61000001 2
4.4910002 1.112 -0.60900003 4
4.5300002 1.117 -0.61000001 4
4.5780001 1.125 -0.61299998 2
4.6220002 1.131 -0.61500001 2
4.6680002 1.138 -0.61699998 2
4.7059999 1.142 -0.61799997 3
4.7589998 1.151 -0.62 4
4.8099999 1.158 -0.62300003 4
4.8439999 1.161 -0.62300003 3
4.8759999 1.164 -0.62199998 3
4.9239998 1.17 -0.62400001 3
4.9549999 1.1720001 -0.62400001 2
5.013 1.181 -0.62699997 3
5.053 1.184 -0.62699997 3
5.099 1.1900001 -0.62800002 3
5.1409998 1.194 -0.62900001 6
5.1869998 1.199 -0.63 5
5.244 1.206 -0.63200003 3
5.3130002 1.216 -0.63499999 2
5.3779998 1.225 -0.63800001 2
5.4109998 1.226 -0.63700002 2
5.4759998 1.234 -0.63999999 2
5.513 1.2359999 -0.639 3
5.598 1.248 -0.64399999 2
5.652 1.2539999 -0.64499998 2
5.7069998 1.2589999 -0.64600003 2
5.7719998 1.266 -0.648 4
5.8610001 1.279 -0.653 3
5.914 1.283 -0.653 3
5.993 1.293 -0.65600002 3
6.053 1.298 -0.65700001 3
6.1469998 1.3099999 -0.662 4
6.211 1.316 -0.66299999 4
6.2859998 1.324 -0.66500002 4
6.3520002 1.329 -0.66600001 4
6.448 1.341 -0.67000002 4
6.5250001 1.348 -0.67199999 4
6.6220002 1.359 -0.676 5
6.7150002 1.369 -0.68000001 5
6.8070002 1.3789999 -0.68300003 5
6.9369998 1.396 -0.68900001 7
7.02 1.403 -0.69099998 10
7.0910001 1.4069999 -0.69099998 11
7.164 1.411 -0.69199997 11
7.2470002 1.418 -0.69300002 8
7.3800001 1.433 -0.699 8
7.4980001 1.446 -0.70300001 7
7.619 1.4579999 -0.708 4
7.7350001 1.469 -0.71100003 5
7.8850002 1.4859999 -0.71799999 4
8.0539999 1.506 -0.72600001 5
8.2030001 1.522 -0.73199999 5
8.3780003 1.5420001 -0.74000001 5
8.4530001 1.543 -0.73900002 5
8.6230001 1.561 -0.74599999 4
8.7530003 1.572 -0.74900001 4
8.9289999 1.59 -0.75599998 4
9.0819998 1.603 -0.76099998 5
9.2250004 1.614 -0.764 5
9.3739996 1.626 -0.76800001 5
9.5369997 1.6390001 -0.773 5
9.6789999 1.648 -0.77499998 5
9.8400002 1.66 -0.77999997 4
10.022 1.675 -0.78500003 3
10.171 1.684 -0.787 3
10.372 1.7 -0.79299998 4
10.515 1.707 -0.79500002 4
10.698 1.719 -0.79900002 4
10.894 1.733 -0.80400002 3
11.105 1.748 -0.81 2
11.308 1.762 -0.81400001 2
11.509 1.774 -0.81900001 3
11.771 1.795 -0.82700002 5
11.946 1.802 -0.829 3
12.174 1.816 -0.83399999 3
12.447 1.835 -0.84200001 3
12.723 1.855 -0.84899998 3
12.951 1.8660001 -0.85399997 3
13.206 1.88 -0.85900003 3
13.531 1.903 -0.86799997 3
13.717 1.906 -0.86799997 4
14.001 1.921 -0.87400001 3
14.317 1.9400001 -0.88200003 3
14.599 1.952 -0.88700002 3
15.003 1.98 -0.89899999 2
15.378 2.003 -0.90799999 2
15.748 2.023 -0.917 3
16.228001 2.056 -0.93199998 3
16.506001 2.062 -0.93400002 3
16.252001 2.0009999 -0.90600002 2
16.518999 2.0039999 -0.90700001 3
16.945999 2.026 -0.917 2
17.497999 2.0599999 -0.93199998 2
17.832001 2.0669999 -0.93599999 1
18.062 2.0610001 -0.93300003 1
0 0 0 2
20.438 2.257 -1.023 4
0 0 0 0
0 0 0 1
0 0 0 0
0 0 0 3
0 0 0 0
0 0 0 4
0 0 0 2
0 0 0 0
0 0 0 0
0 0 0 0
0 0 0 0
0 0 0 0
0 0 0 0
0 0 0 0
0 0 0 3
0 0 0 0
0 0 0 12
39.341 3.003 -1.432 17
39.271 2.9219999 -1.402 23
39.199001 2.8399999 -1.372 28
39.139999 2.7590001 -1.342 30
39.033001 2.675 -1.312 35
38.973 2.5940001 -1.283 38
38.904999 2.513 -1.2539999 38
38.819 2.4300001 -1.224 35
38.817001 2.352 -1.198 11
38.707001 2.2690001 -1.169 10
38.719002 2.194 -1.1440001 5
38.624001 2.1110001 -1.1160001 10
38.688 2.0369999 -1.092 7
38.487999 1.949 -1.062 5
38.404999 1.869 -1.035 18
38.370998 1.79 -1.01 51
38.335999 1.711 -0.98500001 51
38.303001 1.632 -0.95999998 54
38.277 1.554 -0.93599999 57
38.268002 1.476 -0.91299999 72
38.268002 1.399 -0.88999999 74
38.305 1.321 -0.86699998 38
38.384998 1.245 -0.84600002 26
38.452999 1.17 -0.82599998 37
38.555 1.094 -0.80599999 26
38.616001 1.016 -0.78500003 152
38.702 0.93800002 -0.764 153
38.813999 0.86000001 -0.745 152
38.917999 0.78399998 -0.72500002 152
39.062 0.70499998 -0.70599997 38
39.189999 0.62599999 -0.68699998 12
0 0 0 0
0 0 0 0
0 0 0 0
0 0 0 0
0 0 0 0
0 0 0 0
0 0 0 0
0 0 0 0
0 0 0 113
0 0 0 0
0 0 0 0
0 0 0 0
0 0 0 30
72.149002 -0.95099998 -0.76999998 107
69.873001 -1.068 -0.71499997 72
66.982002 -1.165 -0.65600002 38
66.704002 -1.302 -0.62400001 79
66.719002 -1.443 -0.59600002 120
66.691002 -1.5829999 -0.56800002 124
66.763 -1.724 -0.542 31
0 0 0 22
58.673 -1.762 -0.43000001 123
58.671001 -1.886 -0.40700001 131
57.624001 -1.971 -0.37900001 68
57.573002 -2.092 -0.35699999 129
55.298 -2.1270001 -0.322 11
0 0 0 9
43.890999 -1.872 -0.22499999 24
43.817001 -1.962 -0.20900001 6
43.98 -2.062 -0.19499999 6
44.778 -2.194 -0.184 8
43.226002 -2.21 -0.163 14
43.290001 -2.3039999 -0.15000001 22
42.904999 -2.375 -0.13500001 25
42.754002 -2.457 -0.122 38
42.716 -2.5439999 -0.109 40
42.584 -2.6259999 -0.097000003 43
42.436001 -2.7060001 -0.085000001 86
42.466999 -2.7980001 -0.072999999 93
40.234001 -2.7360001 -0.057999998 21
40.153 -2.8150001 -0.048 3
39.34 -2.8399999 -0.037 6
38.751999 -2.8789999 -0.027000001 6
38.264999 -2.924 -0.017000001 15
38.321999 -3.0090001 -0.0089999996 23
38.451 -3.0999999 0 20
36.542999 -3.023 0.0070000002 2
0 0 0 1
0 0 0 0
0 0 0 0
0 0 0 0
0 0 0 1
19.915001 -1.898 0.027000001 5
19.84 -1.932 0.029999999 10
19.808001 -1.971 0.033 9
19.672001 -1.999 0.035999998 1
0 0 0 25
0 0 0 25
0 0 0 25
0 0 0 1
19.297001 -2.161 0.048 1
19.336 -2.2049999 0.050999999 1
19.243 -2.234 0.052999999 1
19.176001 -2.266 0.054000001 1
19.254999 -2.3150001 0.056000002 1
19.245001 -2.3540001 0.057999998 1
19.308001 -2.402 0.059999999 1
19.231001 -2.431 0.061000001 1
19.216 -2.4679999 0.061999999 1
19.444 -2.5369999 0.064000003 1
19.110001 -2.533 0.064000003 1
19.174999 -2.5810001 0.064999998 1
19.181999 -2.6210001 0.066 1
19.216 -2.664 0.067000002 1
19.308001 -2.7160001 0.068000004 1
19.370001 -2.7639999 0.068000004 1
19.229 -2.7820001 0.068000004 1
19.288 -2.829 0.068000004 1
19.43 -2.8889999 0.068999998 1
19.487 -2.937 0.068999998 1
19.131001 -2.921 0.068000004 1
19.083 -2.9519999 0.067000002 1
19.135 -2.9979999 0.067000002 1
19.176001 -3.043 0.066 1
19.098 -3.0680001 0.064999998 1
19 -3.0899999 0.064000003 1
19.179001 -3.1570001 0.064000003 1
19.245001 -3.2060001 0.063000001 1
19.327 -3.2579999 0.061999999 1
19.422001 -3.312 0.061000001 1
19.603001 -3.3800001 0.061000001 1
19.587999 -3.4159999 0.059 1
19.694 -3.473 0.057999998 2
19.448999 -3.467 0.055 1
19.799 -3.5680001 0.054000001 2
19.862 -3.618 0.052999999 3
19.889999 -3.661 0.050999999 1
0 0 0 39
34.993 -6.5739999 0.081 14
35.132 -6.665 0.077 1
0 0 0 0
0 0 0 0
0 0 0 0
0 0 0 7
64.903 -12.927 0.096000001 7
0 0 0 22
35.034 -7.1069999 0.041000001 19
34.831001 -7.1300001 0.035 39
34.814999 -7.1919999 0.028999999 52
34.783001 -7.2490001 0.023 113
34.790001 -7.3119998 0.016000001 88
34.780998 -7.375 0.0099999998 109
34.789001 -7.4390001 0.003 115
34.799 -7.5040002 -0.003 115
0 0 0 14
18.865999 -4.1350002 -0.0089999996 21
18.816999 -4.158 -0.013 21
18.742001 -4.1750002 -0.017000001 29
18.704 -4.1989999 -0.021 33
18.67 -4.2249999 -0.025 36
18.646999 -4.2519999 -0.029999999 40
18.612 -4.276 -0.034000002 43
18.596001 -4.3049998 -0.039000001 45
18.577999 -4.3319998 -0.043000001 52
18.566999 -4.362 -0.046999998 36
18.548 -4.3889999 -0.052000001 37
18.547001 -4.4200001 -0.057 39
18.530001 -4.447 -0.061999999 43
18.506001 -4.4720001 -0.067000002 76
18.495001 -4.5009999 -0.071999997 76
18.495001 -4.5320001 -0.077 73
18.496 -4.5630002 -0.082000002 64
18.106001 -4.4959998 -0.085000001 42
0 0 0 4
16.667 -4.1929998 -0.088 38
16.796 -4.2529998 -0.093999997 41
16.716999 -4.2600002 -0.097999997 24
16.631001 -4.2639999 -0.103 32
16.514 -4.2610002 -0.107 66
16.455 -4.2709999 -0.112 65
16.408001 -4.2849998 -0.117 65
16.51 -4.3369999 -0.123 5
16.375999 -4.3280001 -0.127 65
16.476999 -4.3790002 -0.133 30
16.423 -4.3899999 -0.139 52
16.561001 -4.4520001 -0.145 13
16.552999 -4.474 -0.15099999 53
16.552 -4.4990001 -0.156 54
16.514999 -4.5139999 -0.162 42
16.496 -4.533 -0.167 52
16.447001 -4.5440001 -0.17299999 63
16.409 -4.5570002 -0.178 57
16.415001 -4.5830002 -0.184 48
16.392 -4.5999999 -0.189 34
16.281 -4.592 -0.19400001 38
16.257999 -4.6079998 -0.199 39
16.254 -4.6300001 -0.206 39
16.226 -4.645 -0.211 37
16.205 -4.6609998 -0.21699999 36
16.226999 -4.6890001 -0.223 26
16.216999 -4.7090001 -0.229 25
16.247999 -4.7389998 -0.236 16
16.254999 -4.763 -0.242 4
0 0 0 0
0 0 0 0
0 0 0 8
35.278999 -10.522 -0.58099997 20
0 0 0 5
14.366 -4.3210001 -0.248 10
14.312 -4.323 -0.25299999 10
14.264 -4.3260002 -0.25799999 20
14.192 -4.322 -0.26199999 26
14.14 -4.323 -0.26699999 35
14.153 -4.3449998 -0.273 44
14.148 -4.3600001 -0.278 49
14.095 -4.3600001 -0.28400001 49
14.09 -4.375 -0.289 49
14.057 -4.382 -0.294 49
13.955 -4.3660002 -0.29800001 48
13.919 -4.3699999 -0.303 48
13.922 -4.3860002 -0.30899999 48
13.892 -4.3920002 -0.315 48
13.779 -4.3709998 -0.317 46
13.736 -4.3730001 -0.322 38
13.785 -4.4029999 -0.329 38
13.715 -4.3959999 -0.333 33
13.705 -4.4060001 -0.33899999 36
13.743 -4.4330001 -0.34599999 46
13.67 -4.4229999 -0.34999999 44
13.682 -4.441 -0.35600001 47
13.663 -4.448 -0.36199999 47
13.584 -4.4359999 -0.366 46
13.543 -4.4359999 -0.37 41
13.515 -4.4390001 -0.375 38
13.523 -4.4549999 -0.38100001 38
13.497 -4.4590001 -0.38699999 32
13.494 -4.4699998 -0.39300001 35
13.468 -4.474 -0.398 45
13.463 -4.4840002 -0.40400001 30
13.451 -4.4920001 -0.40900001 28
13.451 -4.5029998 -0.41499999 27
0 0 0 3
7.9889998 -2.688 -0.25400001 11
7.9679999 -2.687 -0.25600001 36
7.9710002 -2.6949999 -0.25999999 67
7.9660001 -2.6989999 -0.264 140
7.9840002 -2.7119999 -0.26800001 157
7.9850001 -2.7179999 -0.271 159
7.9980001 -2.7290001 -0.27500001 159
7.9699998 -2.7249999 -0.278 159
7.9720001 -2.7309999 -0.28200001 158
7.9590001 -2.733 -0.285 158
7.9590001 -2.7379999 -0.28799999 159
7.928 -2.733 -0.29100001 153
7.9819999 -2.757 -0.296 150
7.9749999 -2.76 -0.29899999 152
7.9840002 -2.7679999 -0.303 154
7.987 -2.7739999 -0.30700001 159
7.9679999 -2.7720001 -0.31 159
7.9689999 -2.777 -0.31299999 159
7.9689999 -2.7820001 -0.317 159
7.9650002 -2.7850001 -0.31999999 160
7.9699998 -2.7909999 -0.324 163
7.9689999 -2.7950001 -0.32800001 166
7.9619999 -2.796 -0.331 168
7.9569998 -2.799 -0.33399999 169
7.9650002 -2.8050001 -0.338 164
7.9710002 -2.812 -0.34200001 166
7.9910002 -2.822 -0.34599999 169
7.9749999 -2.8199999 -0.34900001 171
7.9699998 -2.822 -0.352 172
7.9710002 -2.826 -0.35600001 168
7.974 -2.8299999 -0.359 161
7.9650002 -2.8299999 -0.36199999 161
7.9710002 -2.835 -0.366 159
7.948 -2.8299999 -0.36899999 159
7.9400001 -2.8299999 -0.37200001 159
7.9349999 -2.8310001 -0.375 159
7.9400001 -2.835 -0.37900001 159
7.9569998 -2.8429999 -0.38299999 159
7.96 -2.8469999 -0.38600001 159
7.96 -2.849 -0.38999999 159
7.947 -2.846 -0.39199999 159
7.967 -2.8559999 -0.39700001 159
7.9499998 -2.8510001 -0.39899999 159
7.9569998 -2.8559999 -0.403 159
7.9569998 -2.8570001 -0.40599999 159
7.9450002 -2.8540001 -0.41 159
7.98 -2.868 -0.41499999 159
7.9390001 -2.855 -0.41600001 159
7.941 -2.8570001 -0.419 159
7.9829998 -2.8729999 -0.42500001 159
7.96 -2.8659999 -0.42699999 159
7.9530001 -2.8640001 -0.43000001 159
7.9320002 -2.8570001 -0.43200001 159
7.9520001 -2.865 -0.43599999 159
7.941 -2.8610001 -0.43900001 159
7.948 -2.8640001 -0.44299999 159
7.9439998 -2.8629999 -0.44600001 159
7.967 -2.8710001 -0.44999999 159
7.9520001 -2.8659999 -0.45199999 159
7.9369998 -2.8599999 -0.45500001 159
7.9549999 -2.8659999 -0.45899999 159
7.9650002 -2.869 -0.46200001 159
7.9510002 -2.8640001 -0.465 159
7.9619999 -2.8670001 -0.46799999 159
7.934 -2.8559999 -0.47 159
7.9759998 -2.8710001 -0.47499999 159
7.9200001 -2.8499999 -0.47499999 160
7.9689999 -2.8659999 -0.48100001 161
7.9489999 -2.858 -0.48300001 162
7.96 -2.8599999 -0.48699999 163
7.9689999 -2.862 -0.49000001 163
7.9679999 -2.8599999 -0.493 163
7.9499998 -2.852 -0.495 163
7.934 -2.845 -0.49700001 162
7.9640002 -2.8529999 -0.50199997 163
7.9349999 -2.8410001 -0.50199997 161
7.9229999 -2.835 -0.505 160
7.9120002 -2.8280001 -0.50700003 160
7.9289999 -2.832 -0.51099998 159
7.927 -2.829 -0.51300001 159
7.9460001 -2.8329999 -0.51700002 159
7.948 -2.8310001 -0.51999998 159
7.914 -2.816 -0.52100003 159
7.9419999 -2.823 -0.52600002 159
7.9219999 -2.813 -0.52700001 159
7.8940001 -2.8 -0.528 159
7.915 -2.8039999 -0.53200001 159
7.9460001 -2.8110001 -0.53600001 159
7.9349999 -2.8039999 -0.53799999 159
7.9029999 -2.789 -0.53799999 159
7.9330001 -2.796 -0.54299998 159
7.934 -2.7920001 -0.546 159
7.9169998 -2.7820001 -0.54699999 159
7.9060001 -2.7739999 -0.54900002 159
7.9250002 -2.777 -0.55299997 159
7.9239998 -2.7720001 -0.55500001 157
7.9299998 -2.77 -0.55800003 156
7.9169998 -2.7609999 -0.55900002 154
7.9530001 -2.7690001 -0.56400001 155
7.9099998 -2.7490001 -0.56300002 153
7.9099998 -2.744 -0.56599998 154
7.934 -2.747 -0.56999999 154
7.9120002 -2.7349999 -0.56999999 154
7.928 -2.7349999 -0.574 153
7.941 -2.734 -0.57700002 154
7.9299998 -2.7249999 -0.57800001 155
7.948 -2.7260001 -0.58200002 156
7.908 -2.7060001 -0.58099997 159
7.9190001 -2.704 -0.583 159
7.9400001 -2.7060001 -0.58700001 156
7.9439998 -2.701 -0.58899999 158
7.9510002 -2.697 -0.59200001 159
7.9320002 -2.6849999 -0.59200001 159
7.9310002 -2.678 -0.59399998 158
7.98 -2.688 -0.60000002 155
7.9489999 -2.671 -0.59899998 152
7.9390001 -2.661 -0.60100001 110
7.9460001 -2.6570001 -0.60299999 34
7.9530001 -2.652 -0.60500002 21
7.9780002 -2.6530001 -0.60900003 10
8.0139999 -2.658 -0.61299998 9
8.0369997 -2.6589999 -0.61699998 6
8.0740004 -2.664 -0.62099999 3
0 0 0 3
11.728 -3.848 -0.90700001 3
11.664 -3.8150001 -0.90499997 3
11.609 -3.786 -0.903 2
11.547 -3.7550001 -0.89999998 2
11.504 -3.7290001 -0.898 2
11.448 -3.7 -0.89600003 2
11.408 -3.675 -0.89499998 2
11.38 -3.655 -0.89499998 2
11.315 -3.622 -0.89099997 2
11.323 -3.6129999 -0.89399999 2
11.268 -3.5829999 -0.89099997 2
11.205 -3.5510001 -0.88800001 2
11.175 -3.529 -0.88700002 2
11.141 -3.507 -0.88599998 2
11.116 -3.4860001 -0.88599998 2
11.059 -3.4560001 -0.88200003 2
11.001 -3.425 -0.87900001 2
10.961 -3.4000001 -0.87699997 3
10.959 -3.3870001 -0.87800002 3
10.948 -3.3710001 -0.87800002 2
10.946 -3.3570001 -0.88 2
10.921 -3.336 -0.87900001 3
10.888 -3.313 -0.87699997 3
10.858 -3.2909999 -0.87599999 3
10.839 -3.2720001 -0.875 3
10.815 -3.2509999 -0.87400001 3
10.785 -3.2279999 -0.87199998 3
10.752 -3.2049999 -0.87 3
10.77 -3.197 -0.87300003 3
10.751 -3.177 -0.87199998 3
10.741 -3.1600001 -0.87199998 2
10.729 -3.142 -0.87099999 3
10.696 -3.119 -0.86900002 3
10.703 -3.1059999 -0.87 3
10.695 -3.0899999 -0.87 3
10.676 -3.0699999 -0.86900002 3
10.678 -3.056 -0.86900002 3
10.673 -3.04 -0.86900002 3
10.666 -3.023 -0.86900002 3
10.65 -3.0039999 -0.86699998 2
10.644 -2.9879999 -0.86699998 3
10.659 -2.9760001 -0.86799997 4
10.642 -2.957 -0.86699998 4
10.636 -2.9400001 -0.866 3
10.627 -2.9219999 -0.86500001 3
10.634 -2.908 -0.86500001 3
10.637 -2.8940001 -0.86500001 2
10.655 -2.8829999 -0.866 3
10.634 -2.862 -0.86400002 3
10.663 -2.8540001 -0.866 3
10.67 -2.839 -0.866 3
10.672 -2.8239999 -0.866 3
10.695 -2.8139999 -0.86699998 3
10.699 -2.799 -0.866 3
10.702 -2.783 -0.86500001 3
10.712 -2.7690001 -0.866 3
10.733 -2.7579999 -0.866 3
10.707 -2.734 -0.86299998 3
10.768 -2.733 -0.86699998 3
10.78 -2.7190001 -0.86699998 2
10.798 -2.7060001 -0.86699998 3
10.808 -2.6919999 -0.86699998 3
10.827 -2.6789999 -0.86699998 2
10.863 -2.6700001 -0.86900002 3
10.894 -2.6600001 -0.86900002 3
10.887 -2.641 -0.86699998 3
10.937 -2.635 -0.87 3
10.966 -2.6240001 -0.87 3
11.022 -2.6199999 -0.87300003 3
11.025 -2.602 -0.87099999 3
11.059 -2.592 -0.87199998 3
11.096 -2.582 -0.87300003 3
11.157 -2.5769999 -0.87599999 3
11.159 -2.559 -0.87400001 3
11.198 -2.549 -0.87400001 3
11.248 -2.5420001 -0.87599999 2
11.392 -2.5550001 -0.88499999 4
11.435 -2.5450001 -0.88599998 5
11.355 -2.5079999 -0.87699997 2
11.407 -2.5 -0.87800002 2
11.462 -2.4920001 -0.88 2
11.506 -2.4809999 -0.88099998 2
11.549 -2.471 -0.88099998 2
11.64 -2.47 -0.88499999 2
11.722 -2.4660001 -0.88800001 2
11.762 -2.454 -0.88800001 2
11.846 -2.451 -0.89099997 3
11.902 -2.441 -0.89200002 3
11.988 -2.437 -0.89499998 3
12.051 -2.428 -0.89600003 3
12.123 -2.421 -0.89700001 3
12.223 -2.4189999 -0.90100002 3
12.26 -2.404 -0.89999998 3
12.367 -2.4030001 -0.90399998 3
12.427 -2.392 -0.90399998 3
12.559 -2.395 -0.91000003 3
12.634 -2.3859999 -0.91100001 3
12.709 -2.3770001 -0.912 3
12.788 -2.368 -0.91299999 3
12.892 -2.3640001 -0.91500002 3
12.974 -2.355 -0.91600001 3
13.11 -2.355 -0.921 3
13.191 -2.346 -0.92199999 3
13.308 -2.342 -0.92500001 3
13.405 -2.3340001 -0.926 3
13.538 -2.332 -0.93000001 3
13.668 -2.3280001 -0.93300003 3
13.844 -2.332 -0.93900001 4
13.973 -2.3269999 -0.94199997 4
14.127 -2.326 -0.94599998 4
14.297 -2.3269999 -0.95099998 3
14.603 -2.349 -0.96499997 3
14.565 -2.316 -0.95599997 4
13.997 -2.1989999 -0.912 3
14.065 -2.1830001 -0.91000003 2
0 0 0 2
15.464 -2.3410001 -0.986 2
15.682 -2.3440001 -0.99199998 3
15.9 -2.346 -0.99800003 3
16.169001 -2.3559999 -1.007 3
16.468 -2.3670001 -1.017 3
16.629999 -2.359 -1.018 2
16.811001 -2.352 -1.02 2
17.174999 -2.3699999 -1.033 2
16.610001 -2.26 -0.99000001 2
0 0 0 2
18.395 -2.4319999 -1.077 2
18.688999 -2.4349999 -1.0829999 2
19.086 -2.4489999 -1.096 2
19.393999 -2.451 -1.102 2
19.752001 -2.457 -1.1109999 2
20.132 -2.4649999 -1.12 1
20.458 -2.4649999 -1.126 1
0 0 0 0
0 0 0 1
20.851999 -2.3900001 -1.109 1
0 0 0 0
0 0 0 6
19.209 -2.0899999 -0.98500001 5
19.018999 -2.0320001 -0.963 6
18.921 -1.984 -0.94599998 3
18.902 -1.9450001 -0.93199998 3
18.91 -1.909 -0.92000002 4
18.919001 -1.873 -0.90799999 3
18.91 -1.835 -0.89499998 3
18.927 -1.799 -0.88200003 3
0 0 0 1
0 0 0 3
21.531 -1.92 -0.958 3
21.542 -1.88 -0.94300002 3
21.539 -1.836 -0.92699999 4
21.545 -1.795 -0.912 3
21.655001 -1.761 -0.89999998 5
22.08 -1.752 -0.90100002 4
0 0 0 22
38.252998 -2.8859999 -1.5039999 48
38.970001 -2.8629999 -1.502 6
0 0 0 112
26.32 -1.831 -0.97399998 164
26.281 -1.776 -0.95099998 161
26.309 -1.727 -0.93199998 186
26.327999 -1.676 -0.91100001 153
26.386 -1.628 -0.89200002 1
0 0 0 0
0 0 0 1
0 0 0 0
0 0 0 1
30.424999 -1.581 -0.90200001 7
30.882 -1.545 -0.889 153
30.921 -1.488 -0.86500001 182
30.931 -1.428 -0.838 156
0 0 0 33
40.141998 -1.698 -1.018 27
0 0 0 37
43.280998 -1.663 -1.021 38
43.435001 -1.585 -0.986 39
43.799 -1.512 -0.954 42
43.923 -1.432 -0.917 36
43.933998 -1.349 -0.87699997 32
44.025002 -1.268 -0.83899999 25
0 0 0 0
0 0 0 88
66.686996 -1.534 -1.0829999 60
66.711998 -1.411 -1.023 79
66.683998 -1.283 -0.95899999 72
0 0 0 0
0 0 0 41
72.223999 -0.97500002 -0.82800001 84
0 0 0 0
0 0 0 0
0 0 0 35
133.70599 -0.79500002 -1.008 53
133.56 -0.54299998 -0.87300003 104
133.603 -0.29100001 -0.73900002 94
133.556 -0.041000001 -0.60399997 107
133.534 0.212 -0.46599999 96
133.47099 0.46200001 -0.329 66
133.457 0.71100003 -0.191 48
0 0 0 0
0 0 0 0
0 0 0 0
0 0 0 0
0 0 0 0
0 0 0 0
0 0 0 0
0 0 0 14
88.447998 1.937 0.71200001 19
88.343002 2.095 0.80699998 17
0 0 0 0
0 0 0 0
0 0 0 0
0 0 0 0
0 0 0 0
0 0 0 18
89.039001 3.23 1.498 13
89.044998 3.3889999 1.598 16
0 0 0 0
0 0 0 16
87.734001 3.803 1.87 31
87.686996 3.9549999 1.969 22
0 0 0 0
0 0 0 21
89.954002 4.527 2.3280001 17
90.022003 4.6869998 2.434 39
92.441002 4.9749999 2.608 24
92.357002 5.1300001 2.7130001 19
92.074997 5.2719998 2.813 17
0 0 0 0
0 0 0 29
88.557999 5.5240002 3.0179999 29
0 0 0 0
0 0 0 23
0 0 0 0
0 0 0 0
0 0 0 0
0 0 0 16
91.452003 6.777 3.881 21
91.224998 6.9099998 3.9809999 15
0 0 0 0
0 0 0 23
89.744003 7.2379999 4.244 17
0 0 0 113
116.82 9.8000002 5.8099999 133
116.764 9.9820004 5.9510002 113
116.789 10.171 6.0960002 102
116.781 10.356 6.2389998 92
0 0 0 17
44.879002 4.1230001 2.5090001 29
44.825001 4.1880002 2.5610001 31
44.866001 4.2600002 2.618 40
44.82 4.3249998 2.671 44
44.82 4.3959999 2.727 42
44.831001 4.4660001 2.7839999 42
44.592999 4.5110002 2.825 54
44.601002 4.5799999 2.881 53
44.598 4.6469998 2.937 49
44.605999 4.7150002 2.994 53
44.498001 4.77 3.0420001 50
44.446999 4.8309999 3.095 41
44.462002 4.8979998 3.151 36
44.473999 4.9650002 3.2079999 26
44.518002 5.0359998 3.267 18
44.632 5.1149998 3.332 13
0 0 0 0
0 0 0 0
0 0 0 3
0 0 0 0
0 0 0 0
0 0 0 0
0 0 0 13
34.188999 4.3060002 2.898 10
34.136002 4.348 2.937 10
34.188999 4.402 2.9849999 5
34.132999 4.441 3.0239999 2
0 0 0 38
46.214001 6.1389999 4.2119999 4
47.977001 6.4369998 4.4330001 39
45.814999 6.2080002 4.2919998 3
45.740002 6.257 4.3429999 3
45.778 6.3239999 4.4050002 20
45.724998 6.3769999 4.4580002 25
45.645 6.4250002 4.507 27
45.695 6.4910002 4.5700002 44
45.807999 6.566 4.6399999 36
45.830002 6.6269999 4.7010002 45
46.055 6.7179999 4.7810001 45
46.234001 6.802 4.8590002 35
45.601002 6.7659998 4.8509998 26
45.909 6.868 4.9419999 21
0 0 0 0
0 0 0 29
48.132 7.3759999 5.362 39
48.431 7.4809999 5.4569998 37
48.627998 7.5689998 5.5419998 39
48.696999 7.6389999 5.6110001 41
48.747002 7.704 5.6789999 40
48.623001 7.7410002 5.724 35
48.258999 7.7389998 5.743 28
0 0 0 0
0 0 0 0
0 0 0 18
46.898998 7.7309999 5.8130002 25
46.700001 7.75 5.8470001 27
46.563 7.7779999 5.888 38
46.556999 7.8280001 5.9450002 47
46.577999 7.8829999 6.0050001 39
46.556999 7.9289999 6.0599999 44
46.479 7.9650002 6.1079998 40
46.383999 7.9980001 6.152 37
46.233002 8.0200005 6.1890001 35
46.159 8.0539999 6.2350001 39
45.955002 8.066 6.2639999 35
45.638 8.0559998 6.276 34
44.209999 7.849 6.1339998 23
0 0 0 3
41.226002 7.4000001 5.8200002 7
41.174 7.4310002 5.8610001 18
41.169998 7.4699998 5.9109998 31
41.098999 7.4959998 5.9499998 34
41.069 7.5289998 5.9949999 37
41.099998 7.573 6.0469999 42
41.034 7.599 6.0869999 40
41.008999 7.631 6.132 43
40.976002 7.6620002 6.1750002 40
40.918999 7.6880002 6.2150002 35
40.813999 7.704 6.2459998 36
40.738998 7.7259998 6.2820001 35
40.665001 7.7470002 6.3189998 27
40.694 7.7870002 6.3709998 21
41.078999 7.895 6.4770002 19
0 0 0 0
0 0 0 21
42.112 8.1969995 6.7859998 23
41.997002 8.2089996 6.8150001 17
41.937 8.2299995 6.8520002 10
0 0 0 24
46.639 9.2250004 7.7259998 20
47.756001 9.4820004 7.9640002 29
0 0 0 3
0 0 0 29
47.755001 9.5880003 8.1219997 34
45.233002 9.1140003 7.743 5
45.189999 9.1379995 7.7839999 11
0 0 0 0
0 0 0 18
43.729 8.9320002 7.6750002 22
43.870998 8.9910002 7.7470002 31
43.703999 8.9849997 7.7639999 33
43.637001 8.9989996 7.7989998 34
43.659 9.0319996 7.8470001 31
43.615002 9.0500002 7.8850002 31
43.580002 9.0690002 7.9250002 35
43.542999 9.0880003 7.9619999 35
43.497002 9.1040001 8 34
43.450001 9.1199999 8.0340004 36
43.417 9.1379995 8.0719995 31
43.382999 9.1549997 8.1099997 32
43.375999 9.1780005 8.151 33
43.342999 9.1940002 8.1879997 32
43.264 9.1999998 8.217 31
43.233002 9.2150002 8.2530003 33
43.139 9.217 8.2770004 41
42.907001 9.1899996 8.2740002 34
42.707001 9.1680002 8.276 32
42.597 9.165 8.2959995 23
42.599998 9.1850004 8.3369999 29
42.632 9.2119999 8.382 30
42.570999 9.217 8.4119997 31
42.480999 9.2159996 8.4320002 31
42.368 9.21 8.4490004 31
42.334999 9.2200003 8.4799995 28
42.298 9.2290001 8.5109997 23
42.325001 9.2519999 8.5539999 20
42.328999 9.2690001 8.5930004 15
42.334 9.2860003 8.6309996 11
42.314999 9.2969999 8.665 12
42.278999 9.3039999 8.6929998 13
42.066002 9.2709999 8.6850004 20
41.793999 9.2250004 8.665 20
40.747002 9.007 8.4809999 16
41.324001 9.1470003 8.6359997 22
41.265999 9.1470003 8.658 22
41.271 9.1590004 8.6929998 29
41.372002 9.1929998 8.7480001 27
41.521 9.2370005 8.8129997 30
41.612 9.2690001 8.8640003 31
41.766998 9.3129997 8.9300003 31
41.793999 9.3290005 8.9689999 31
41.766998 9.3319998 8.9949999 32
41.784 9.3459997 9.0299997 32
41.783001 9.3540001 9.0609999 31
41.738998 9.3520002 9.0830002 31
41.712002 9.3529997 9.1079998 30
41.709999 9.3590002 9.1370001 31
41.77 9.3800001 9.1800003 30
41.712002 9.3739996 9.1969995 29
41.706001 9.3769999 9.224 28
41.634998 9.368 9.2370005 30
41.568001 9.3570004 9.25 32
41.479 9.342 9.2580004 39
41.471001 9.3439999 9.2840004 39
41.460999 9.3450003 9.309 39
41.466 9.349 9.3369999 39
41.541 9.3690004 9.3809996 39
41.636002 9.3920002 9.4280005 39
41.821999 9.4370003 9.4949999 29
41.330002 9.3260002 9.4099998 17
41.280998 9.316 9.4219999 16
41.214001 9.302 9.4309998 13
42.462002 9.5839996 9.7410002 31
42.609001 9.6160002 9.7989998 32
42.652 9.6260004 9.8319998 33
42.617001 9.6160002 9.8479996 40
42.567001 9.6040001 9.8579998 33
42.509998 9.5889997 9.868 33
42.428001 9.5679998 9.8710003 31
42.375999 9.552 9.8800001 30
42.344002 9.5419998 9.8940001 31
42.337002 9.5369997 9.9119997 30
42.358002 9.5369997 9.9379997 27
42.435001 9.5489998 9.9759998 24
42.403999 9.5369997 9.9879999 24
42.390999 9.5290003 10.003 24
42.366001 9.5170002 10.017 24
42.341999 9.5059996 10.029 24
42.257999 9.4799995 10.027 24
42.108002 9.4379997 10.009 30
42.026001 9.4119997 10.006 31
41.904999 9.3769999 9.993 31
41.846001 9.3559999 9.9940004 32
41.799 9.3360004 9.9980001 30
41.759998 9.3179998 10.004 30
41.702999 9.2959995 10.005 30
41.66 9.2770004 10.008 26
41.659 9.2650003 10.021 23
41.613998 9.2440004 10.024 22
41.631001 9.2370005 10.041 17
41.584 9.2150002 10.041 11
41.534 9.1920004 10.04 7
41.623001 9.1990004 10.073 6
41.599998 9.1809998 10.078 4
0 0 0 0
0 0 0 29
116.233 25.537001 28.243999 34
116.225 25.493999 28.268 32
116.152 25.434999 28.275 30
116.218 25.409 28.312 23
116.178 25.355 28.323999 31
116.15 25.306 28.336 25
116.232 25.277 28.375 28
116.163 25.214001 28.375999 28
116.123 25.156 28.382999 31
116.169 25.115999 28.41 29
116.218 25.075001 28.437 30
116.065 24.99 28.412001 32
116.155 24.959 28.444 35
116.232 24.921 28.474001 31
116.122 24.841999 28.455999 32
116.174 24.796 28.476999 36
116.105 24.726 28.464001 32
116.117 24.667 28.475 34
116.159 24.615999 28.489 36
116.131 24.549999 28.485001 38
116.155 24.495001 28.489 39
116.201 24.441999 28.500999 36
116.102 24.360001 28.474001 37
116.14 24.304001 28.482 39
116.247 24.26 28.504 34
116.169 24.179001 28.478001 36
116.214 24.120001 28.482 40
116.278 24.063999 28.49 35
116.273 23.993 28.48 43
116.191 23.905001 28.450001 39
116.321 23.858999 28.469999 37
116.305 23.783001 28.452999 38
116.366 23.721001 28.454 32
116.26 23.628 28.410999 40
116.26 23.548 28.396 36
116.303 23.483 28.386999 38
116.353 23.414 28.378 38
116.394 23.346001 28.365999 37
116.322 23.252001 28.327 35
116.427 23.191999 28.329 36
116.335 23.087999 28.283001 32
116.39 23.02 28.268999 32
116.472 22.952 28.261999 32
116.426 22.858 28.222 36
116.39 22.766001 28.183001 30
