# .PCD v0.7 - Point Cloud Data file format
VERSION 0.7
FIELDS x y z intensity
SIZE 4 4 4 4
TYPE F F F F
COUNT 1 1 1 1
WIDTH 1857
HEIGHT 1
VIEWPOINT 0 0 0 1 0 0 0
POINTS 1857
DATA ascii
5.2810001 1.65 -0.68000001 3
5.3060002 1.658 -0.68099999 3
5.3319998 1.666 -0.68199998 3
5.3569999 1.674 -0.68300003 3
5.3860002 1.683 -0.68400002 3
5.4099998 1.6900001 -0.685 3
5.4359999 1.698 -0.68599999 3
5.4619999 1.706 -0.68699998 3
5.4959998 1.716 -0.68800002 3
5.5209999 1.724 -0.68900001 3
5.5500002 1.732 -0.69 3
5.5630002 1.7359999 -0.68900001 4
5.6069999 1.749 -0.69199997 2
5.618 1.752 -0.69099998 3
5.664 1.765 -0.69400001 2
5.697 1.774 -0.69499999 2
5.73 1.784 -0.69599998 3
5.7579999 1.791 -0.69700003 2
5.783 1.798 -0.69700003 3
5.8439999 1.8150001 -0.70099998 3
5.8740001 1.823 -0.70200002 3
5.9089999 1.8329999 -0.70300001 3
5.9419999 1.841 -0.704 3
5.98 1.851 -0.70499998 2
6.0159998 1.8609999 -0.70599997 3
6.0380001 1.8660001 -0.70599997 2
6.0700002 1.874 -0.70599997 3
6.1259999 1.8890001 -0.70999998 2
6.1830001 1.904 -0.713 3
6.2210002 1.914 -0.71399999 3
6.276 1.929 -0.71700001 3
6.3189998 1.939 -0.71799999 3
6.3779998 1.955 -0.722 3
6.4089999 1.962 -0.722 4
6.4660001 1.977 -0.72399998 4
6.5180001 1.989 -0.72600001 4
6.5679998 2.0020001 -0.72799999 4
6.625 2.016 -0.73100001 4
6.6690001 2.026 -0.73199999 4
6.7280002 2.0409999 -0.73500001 5
6.7930002 2.0569999 -0.73799998 5
6.8210001 2.062 -0.73699999 4
6.8889999 2.079 -0.74000001 4
6.9580002 2.096 -0.74400002 4
7.0120001 2.108 -0.745 4
7.0869999 2.1270001 -0.74900001 4
7.1469998 2.141 -0.75099999 4
7.2210002 2.158 -0.755 4
7.2989998 2.177 -0.759 4
7.3530002 2.1889999 -0.75999999 4
7.4239998 2.2049999 -0.76300001 4
7.4879999 2.2190001 -0.76499999 4
7.5689998 2.2379999 -0.76800001 4
7.6599998 2.26 -0.773 4
7.7529998 2.2820001 -0.778 7
7.8270001 2.2980001 -0.77999997 7
7.9299998 2.323 -0.78600001 9
8.0010004 2.3380001 -0.78799999 10
8.0459995 2.345 -0.787 10
8.118 2.3599999 -0.78899997 12
8.1899996 2.3740001 -0.79100001 7
8.2659998 2.3900001 -0.79299998 7
8.3559999 2.4089999 -0.796 5
8.4510002 2.4300001 -0.80000001 5
8.6029997 2.4660001 -0.80900002 4
8.7279997 2.4949999 -0.815 5
8.9020004 2.5369999 -0.82599998 3
9.026 2.5650001 -0.83099997 3
9.177 2.5999999 -0.83899999 4
9.3140001 2.6300001 -0.84600002 4
9.4200001 2.651 -0.85000002 5
9.54 2.6760001 -0.85399997 5
9.6669998 2.7030001 -0.85900003 6
9.8000002 2.7309999 -0.86500001 4
9.9750004 2.77 -0.87400001 5
10.076 2.789 -0.87599999 14
10.185 2.809 -0.87900001 12
10.293 2.829 -0.88099998 15
10.42 2.8529999 -0.88499999 11
10.533 2.8729999 -0.88800001 10
10.637 2.891 -0.88999999 12
10.768 2.915 -0.89399999 11
10.882 2.9349999 -0.89600003 12
11.014 2.9579999 -0.89999998 7
11.112 2.973 -0.89999998 7
11.241 2.9949999 -0.90399998 6
11.364 3.016 -0.90600002 4
11.502 3.039 -0.90899998 4
11.692 3.076 -0.917 3
11.923 3.1240001 -0.92699999 3
12.077 3.1500001 -0.93099999 4
12.277 3.1889999 -0.93800002 3
12.448 3.2179999 -0.94300002 3
12.714 3.2720001 -0.95499998 3
12.909 3.3069999 -0.96100003 4
13.093 3.3380001 -0.96600002 5
13.234 3.358 -0.96799999 5
13.367 3.3759999 -0.96899998 3
13.553 3.4059999 -0.97299999 3
13.706 3.427 -0.97500002 3
13.935 3.467 -0.98199999 4
14.16 3.5039999 -0.98900002 4
14.381 3.5409999 -0.995 3
14.684 3.596 -1.006 4
15.04 3.664 -1.02 4
15.258 3.697 -1.025 4
15.506 3.737 -1.0319999 3
15.869 3.803 -1.045 4
16.274 3.878 -1.061 4
16.419001 3.8900001 -1.0599999 3
16.049 3.7809999 -1.026 4
16.049999 3.7590001 -1.016 3
16.356001 3.8080001 -1.024 3
16.796 3.8870001 -1.041 3
17.245001 3.9660001 -1.057 3
17.862 4.0819998 -1.084 3
18.204 4.1350002 -1.0930001 3
18.426001 4.1589999 -1.094 3
18.475 4.1430001 -1.085 1
19.211 4.2800002 -1.1160001 1
0 0 0 1
21.700001 4.77 -1.234 3
22.690001 4.954 -1.275 2
22.747 4.9320002 -1.2640001 3
22.881001 4.9260001 -1.257 3
0 0 0 0
0 0 0 0
0 0 0 3
0 0 0 0
0 0 0 0
0 0 0 2
0 0 0 0
0 0 0 1
31.993999 6.4369998 -1.58 2
31.844 6.3559999 -1.553 2
31.823999 6.3000002 -1.533 2
0 0 0 0
0 0 0 2
31.740999 6.1279998 -1.472 2
31.778999 6.0830002 -1.455 3
31.701 6.0149999 -1.432 3
31.721001 5.967 -1.415 3
31.705999 5.9099998 -1.395 5
31.783001 5.8709998 -1.381 5
31.702999 5.802 -1.358 5
31.743999 5.756 -1.342 5
31.754999 5.7030001 -1.325 4
31.728001 5.6430001 -1.306 4
31.718 5.586 -1.2869999 7
31.761999 5.5380001 -1.271 7
31.719 5.4749999 -1.252 9
31.885 5.4489999 -1.2410001 6
31.823999 5.3829999 -1.221 5
31.739 5.3119998 -1.2 15
31.761999 5.2600002 -1.1849999 15
31.893 5.2249999 -1.1720001 17
31.726 5.1409998 -1.15 95
31.742001 5.0879998 -1.1339999 42
31.804001 5.04 -1.12 18
31.816 4.9840002 -1.103 9
31.809 4.9250002 -1.087 11
31.820999 4.8660002 -1.0700001 8
31.768999 4.8010001 -1.053 12
31.775 4.743 -1.0369999 6
31.802 4.6880002 -1.022 64
31.849001 4.6360002 -1.008 150
31.912001 4.585 -0.99400002 150
31.985001 4.5359998 -0.98100001 125
32.063999 4.487 -0.96799999 54
32.096001 4.4299998 -0.95300001 11
32.118999 4.3730001 -0.93900001 4
0 0 0 32
49.252998 6.5190001 -1.395 78
49.27 6.427 -1.373 114
49.297001 6.336 -1.351 100
49.285 6.2379999 -1.329 103
49.296001 6.1440001 -1.308 83
49.313999 6.0510001 -1.2869999 63
49.334 5.9569998 -1.266 54
49.354 5.8629999 -1.245 31
49.381001 5.77 -1.225 26
49.421001 5.6760001 -1.206 18
49.471001 5.5840001 -1.187 8
0 0 0 0
0 0 0 0
0 0 0 0
0 0 0 47
85.848 8.842 -1.892 54
85.809998 8.6660004 -1.859 55
85.825996 8.4960003 -1.8279999 69
85.791 8.3219995 -1.7970001 152
85.862 8.1560001 -1.768 90
85.882004 7.9840002 -1.738 42
0 0 0 2
0 0 0 0
0 0 0 4
40.241001 3.4130001 -0.75999999 3
40.187 3.326 -0.74599999 3
40.23 3.247 -0.73400003 3
40.240002 3.1659999 -0.72100002 3
40.076 3.0699999 -0.70599997 4
40.033001 2.9860001 -0.69400001 4
40.030998 2.9030001 -0.68199998 4
40.001999 2.8180001 -0.67000002 5
39.950001 2.733 -0.65899998 4
39.867001 2.645 -0.64600003 5
39.868 2.563 -0.63599998 5
39.785999 2.4760001 -0.62400001 6
39.765999 2.391 -0.61400002 8
39.740002 2.306 -0.60399997 5
0 0 0 0
0 0 0 38
117.496 6.0819998 -1.704 37
0 0 0 4
40.108002 1.9069999 -0.56400001 8
0 0 0 112
133.498 5.7909999 -1.825 142
133.506 5.5100002 -1.799 117
133.549 5.2290001 -1.774 100
133.55701 4.9510002 -1.751 99
133.593 4.6690001 -1.728 101
0 0 0 35
0 0 0 89
0 0 0 29
0 0 0 78
133.72 3.2609999 -1.628 71
133.686 2.9760001 -1.61 60
133.763 2.6919999 -1.594 61
133.826 2.408 -1.579 47
133.80499 2.1259999 -1.564 52
133.78999 1.836 -1.549 38
133.763 1.55 -1.536 34
133.819 1.26 -1.524 32
133.88 0.97399998 -1.5140001 30
133.88699 0.68800002 -1.5039999 33
134.07201 0.40599999 -1.4960001 29
133.98801 0.122 -1.487 27
0 0 0 0
0 0 0 0
0 0 0 0
0 0 0 69
73.459 -0.72000003 -0.79900002 71
73.491997 -0.87800002 -0.79799998 71
73.531998 -1.036 -0.79699999 72
72.632004 -1.1799999 -0.787 108
0 0 0 12
67.425003 -1.383 -0.73100001 33
67.193001 -1.522 -0.72899997 75
67.214996 -1.6670001 -0.73100001 110
67.165001 -1.808 -0.73199999 129
0 0 0 21
59.32 -1.851 -0.65100002 58
59.136002 -1.971 -0.65200001 115
59.153 -2.098 -0.65499997 127
58.251999 -2.191 -0.64899999 67
56.217999 -2.2349999 -0.63 15
0 0 0 11
44.379002 -1.955 -0.50400001 7
0 0 0 96
51.035999 -2.467 -0.58899999 86
0 0 0 20
47.438 -2.4949999 -0.55800003 38
47.223 -2.5840001 -0.56099999 65
0 0 0 5
43.800999 -2.5810001 -0.53100002 40
43.233002 -2.6389999 -0.52999997 26
43.178001 -2.7290001 -0.53600001 31
42.922001 -2.8039999 -0.53899997 75
42.938999 -2.895 -0.546 80
40.687 -2.829 -0.52399999 19
42.949001 -3.0780001 -0.56 91
0 0 0 9
39.419998 -2.9909999 -0.528 5
38.901001 -3.0339999 -0.52899998 79
38.891998 -3.115 -0.53600001 85
38.898998 -3.198 -0.54400003 44
0 0 0 1
0 0 0 0
0 0 0 0
0 0 0 0
0 0 0 0
0 0 0 1
20.198999 -1.956 -0.315 1
0 0 0 0
0 0 0 25
0 0 0 25
0 0 0 25
0 0 0 1
19.261999 -2.105 -0.331 2
19.289 -2.148 -0.338 154
19.231001 -2.181 -0.34200001 107
19.16 -2.2119999 -0.347 3
19.059 -2.2390001 -0.35100001 2
19.069 -2.279 -0.35699999 3
19.037001 -2.3139999 -0.36300001 3
19.018 -2.3499999 -0.368 2
18.975 -2.3829999 -0.37400001 2
18.948999 -2.418 -0.38 2
18.896 -2.4489999 -0.38499999 2
18.868 -2.483 -0.391 2
18.903999 -2.526 -0.39899999 3
18.905001 -2.5650001 -0.40599999 4
18.875999 -2.598 -0.412 8
18.812 -2.6270001 -0.417 35
18.853001 -2.6700001 -0.426 7
18.872999 -2.711 -0.433 4
18.909 -2.753 -0.442 4
18.886999 -2.7869999 -0.449 4
18.884001 -2.8239999 -0.456 4
18.721001 -2.836 -0.46000001 9
18.750999 -2.8770001 -0.46799999 3
18.761 -2.9159999 -0.47600001 1
18.827 -2.9619999 -0.486 5
18.893999 -3.01 -0.49599999 6
18.899 -3.0469999 -0.50400001 6
18.893999 -3.082 -0.51200002 6
18.892 -3.118 -0.51999998 9
18.902 -3.1559999 -0.52899998 10
18.872999 -3.188 -0.537 10
18.9 -3.2279999 -0.546 5
18.811001 -3.2490001 -0.55199999 1
18.879999 -3.296 -0.56300002 1
18.853001 -3.3269999 -0.57099998 1
0 0 0 0
0 0 0 0
0 0 0 0
0 0 0 0
0 0 0 0
0 0 0 0
0 0 0 1
19.152 -3.6630001 -0.65499997 1
19.034 -3.675 -0.66100001 1
0 0 0 34
21.636 -4.256 -0.77399999 33
21.638 -4.296 -0.78500003 36
21.618 -4.3299999 -0.79500002 25
21.620001 -4.368 -0.80699998 14
21.643999 -4.4109998 -0.81900001 5
0 0 0 47
35.215 -7.302 -1.3710001 22
35.195 -7.3590002 -1.39 50
35.112 -7.4039998 -1.406 42
34.652 -7.3670001 -1.406 43
0 0 0 3
19.358999 -4.1820002 -0.80699998 17
19.280001 -4.198 -0.81400001 23
19.207001 -4.2150002 -0.82200003 33
19.159 -4.237 -0.83099997 35
19.132999 -4.2639999 -0.84100002 36
19.107 -4.29 -0.85100001 41
19.065001 -4.3119998 -0.86000001 39
19.052 -4.3400002 -0.87 43
19.037001 -4.368 -0.88099998 45
19.028 -4.3969998 -0.89099997 36
18.995001 -4.421 -0.90100002 51
18.974001 -4.4460001 -0.91100001 49
18.983 -4.4790001 -0.92299998 36
18.948999 -4.5009999 -0.93199998 59
18.940001 -4.5289998 -0.94300002 65
18.927999 -4.5560002 -0.954 65
17.879 -4.3319998 -0.912 6
17.385 -4.2399998 -0.89700001 7
17.297001 -4.2449999 -0.903 6
17.195 -4.2459998 -0.90799999 5
17.112 -4.2519999 -0.91500002 8
17.013 -4.2529998 -0.92000002 8
16.924999 -4.257 -0.926 9
16.844 -4.2620001 -0.93199998 11
16.752001 -4.2639999 -0.93699998 10
16.681999 -4.2709999 -0.94300002 9
16.614 -4.2779999 -0.94999999 8
16.535999 -4.2820001 -0.95599997 33
16.549999 -4.3109999 -0.96700001 27
16.542 -4.3319998 -0.977 38
16.549999 -4.3579998 -0.98699999 34
16.546 -4.3800001 -0.99800003 30
16.554001 -4.4060001 -1.008 43
16.542999 -4.4260001 -1.018 33
16.566 -4.4549999 -1.03 25
16.538 -4.4699998 -1.039 39
16.554001 -4.4970002 -1.05 41
16.546 -4.5170002 -1.0599999 40
16.556 -4.5419998 -1.071 42
16.552999 -4.5630002 -1.082 40
16.563 -4.5879998 -1.0930001 38
16.552999 -4.6069999 -1.103 39
16.540001 -4.625 -1.113 41
16.559 -4.652 -1.125 50
16.551001 -4.671 -1.135 46
16.591999 -4.7030001 -1.148 8
0 0 0 1
18.365 -5.2519999 -1.295 1
18.834 -5.4089999 -1.34 1
0 0 0 1
17.068001 -4.9439998 -1.2359999 2
16.724001 -4.8629999 -1.222 2
16.66 -4.8649998 -1.228 2
0 0 0 3
14.816 -4.3610001 -1.1109999 8
14.757 -4.3600001 -1.115 9
14.7 -4.3600001 -1.1210001 8
14.653 -4.3629999 -1.127 12
14.574 -4.355 -1.13 9
14.514 -4.3530002 -1.1339999 11
14.421 -4.3410001 -1.136 10
14.328 -4.3280001 -1.138 12
14.225 -4.3119998 -1.1390001 10
14.104 -4.29 -1.138 9
13.991 -4.27 -1.138 7
13.858 -4.244 -1.136 6
13.682 -4.204 -1.13 4
13.43 -4.1399999 -1.118 4
13.203 -4.0830002 -1.107 3
12.938 -4.0139999 -1.0930001 3
12.697 -3.951 -1.081 3
12.459 -3.8889999 -1.068 3
12.281 -3.845 -1.061 3
12.09 -3.796 -1.052 3
11.945 -3.7620001 -1.0470001 2
0 0 0 2
8.4759998 -2.684 -0.75300002 4
8.46 -2.6860001 -0.75700003 5
8.4350004 -2.6860001 -0.75999999 4
8.4180002 -2.687 -0.764 3
8.382 -2.6830001 -0.76499999 2
8.3669996 -2.6849999 -0.76899999 2
8.3620005 -2.6900001 -0.77399999 2
8.3520002 -2.694 -0.778 2
8.3369999 -2.6949999 -0.78200001 4
8.3339996 -2.701 -0.78600001 5
8.3339996 -2.707 -0.792 4
8.3330002 -2.7130001 -0.796 5
8.3299999 -2.7179999 -0.801 4
8.3269997 -2.723 -0.80599999 4
8.3179998 -2.7249999 -0.81 4
8.3219995 -2.733 -0.815 4
8.3280001 -2.74 -0.82099998 4
8.3190002 -2.743 -0.82499999 4
8.3170004 -2.747 -0.829 3
8.3249998 -2.7550001 -0.83499998 2
8.2959995 -2.7509999 -0.83700001 3
8.2950001 -2.7550001 -0.84100002 3
8.283 -2.756 -0.84500003 3
8.2670002 -2.756 -0.84799999 3
8.2810001 -2.7650001 -0.85399997 3
8.2609997 -2.763 -0.85699999 4
8.2419996 -2.7609999 -0.86000001 4
8.2390003 -2.7639999 -0.86400002 5
8.2229996 -2.763 -0.86699998 5
8.2130003 -2.7639999 -0.87 6
8.1809998 -2.757 -0.87099999 5
8.1560001 -2.753 -0.87300003 5
8.1239996 -2.7449999 -0.87400001 6
8.059 -2.727 -0.87099999 7
8.026 -2.7190001 -0.87199998 7
7.9559999 -2.6989999 -0.86900002 7
7.8839998 -2.677 -0.86500001 8
7.8060002 -2.654 -0.861 13
7.7649999 -2.6429999 -0.86000001 9
7.6929998 -2.6210001 -0.85600001 12
7.632 -2.6029999 -0.85399997 12
7.598 -2.5929999 -0.85399997 13
7.5669999 -2.585 -0.85399997 10
7.5479999 -2.5810001 -0.85600001 11
7.5209999 -2.5739999 -0.85600001 8
7.4949999 -2.5669999 -0.85699999 6
7.4699998 -2.5599999 -0.85799998 4
7.4439998 -2.553 -0.85900003 3
7.401 -2.54 -0.85699999 3
7.368 -2.53 -0.85699999 2
7.3140001 -2.513 -0.85399997 2
7.2729998 -2.5009999 -0.85299999 1
7.2270002 -2.4860001 -0.85100001 1
7.1690001 -2.467 -0.84799999 1
7.098 -2.444 -0.84200001 1
7.0650001 -2.4330001 -0.84200001 1
6.9879999 -2.408 -0.83600003 1
6.9489999 -2.395 -0.83399999 1
6.9089999 -2.382 -0.83200002 1
6.8569999 -2.3640001 -0.829 1
6.8109999 -2.349 -0.82599998 1
6.77 -2.335 -0.824 1
6.7389998 -2.3239999 -0.824 1
6.4619999 -2.2290001 -0.792 1
6.434 -2.2190001 -0.792 1
6.3940001 -2.2049999 -0.78899997 1
6.3579998 -2.1919999 -0.78799999 1
6.3179998 -2.1789999 -0.78500003 1
6.2729998 -2.1630001 -0.78200001 1
6.2480001 -2.1530001 -0.78100002 1
6.2140002 -2.141 -0.77999997 1
6.1810002 -2.1289999 -0.778 2
6.1420002 -2.115 -0.77499998 1
6.132 -2.1110001 -0.77600002 1
6.1079998 -2.102 -0.77499998 1
6.0840001 -2.0929999 -0.77399999 1
6.1550002 -2.1159999 -0.78600001 1
6.1100001 -2.099 -0.78200001 1
6.0869999 -2.0899999 -0.78100002 2
6.0539999 -2.0769999 -0.77899998 2
6.0310001 -2.0680001 -0.778 2
5.9959998 -2.0550001 -0.77600002 2
5.96 -2.0409999 -0.773 3
5.96 -2.039 -0.77499998 3
5.9349999 -2.029 -0.77399999 3
5.9039998 -2.017 -0.77100003 4
5.8920002 -2.0109999 -0.77200001 3
5.8709998 -2.0020001 -0.77100003 3
5.8390002 -1.989 -0.76800001 3
5.8150001 -1.979 -0.76700002 3
5.7989998 -1.971 -0.76599997 3
5.777 -1.961 -0.76499999 3
5.7610002 -1.954 -0.764 3
5.743 -1.9450001 -0.764 3
5.7220001 -1.9349999 -0.76200002 3
5.7020001 -1.926 -0.76099998 3
5.6830001 -1.9170001 -0.75999999 3
5.664 -1.908 -0.759 3
5.6440001 -1.899 -0.75800002 3
5.6350002 -1.893 -0.75800002 3
5.612 -1.882 -0.75599998 3
5.5900002 -1.872 -0.75400001 3
5.5799999 -1.8660001 -0.75400001 3
5.566 -1.858 -0.75300002 3
5.5510001 -1.85 -0.75199997 3
5.5289998 -1.84 -0.75 3
5.5110002 -1.83 -0.74900001 3
5.507 -1.826 -0.75 3
5.4949999 -1.818 -0.74900001 3
5.4770002 -1.809 -0.74699998 3
5.4879999 -1.809 -0.75 3
5.4619999 -1.7970001 -0.74699998 3
5.4549999 -1.791 -0.74699998 3
5.454 -1.7869999 -0.74800003 4
5.447 -1.781 -0.74800003 4
5.4159999 -1.767 -0.74400002 4
5.4109998 -1.762 -0.74400002 4
5.4120002 -1.758 -0.745 4
5.3979998 -1.749 -0.74400002 4
5.3800001 -1.739 -0.74199998 4
5.3759999 -1.734 -0.74199998 4
5.3850002 -1.733 -0.74400002 4
5.3720002 -1.724 -0.74199998 4
5.3610001 -1.716 -0.741 4
5.3530002 -1.71 -0.741 4
5.3579998 -1.707 -0.74199998 4
5.3540001 -1.701 -0.74199998 4
5.3340001 -1.6900001 -0.73900002 4
5.342 -1.688 -0.741 4
5.3270001 -1.678 -0.73900002 4
5.329 -1.674 -0.73900002 3
5.3280001 -1.669 -0.73900002 4
5.323 -1.663 -0.73900002 3
5.3270001 -1.659 -0.73900002 4
5.3239999 -1.653 -0.73900002 4
5.3140001 -1.645 -0.73799998 3
5.3260002 -1.643 -0.73900002 4
5.302 -1.631 -0.736 3
5.309 -1.628 -0.73699999 4
5.3249998 -1.627 -0.73900002 4
5.3099999 -1.617 -0.73699999 3
5.3080001 -1.612 -0.73699999 3
5.3109999 -1.607 -0.73699999 3
5.3189998 -1.604 -0.73799998 3
5.3179998 -1.598 -0.73699999 3
5.3179998 -1.592 -0.73699999 3
5.3119998 -1.585 -0.736 3
5.3369999 -1.586 -0.73900002 4
5.3280001 -1.5779999 -0.73699999 3
5.3299999 -1.572 -0.73699999 3
5.3390002 -1.569 -0.73799998 3
5.3410001 -1.564 -0.73799998 4
5.342 -1.558 -0.73699999 4
5.3400002 -1.551 -0.736 4
5.3569999 -1.55 -0.73799998 3
5.3600001 -1.544 -0.73799998 3
5.3709998 -1.541 -0.73799998 4
5.3850002 -1.539 -0.74000001 3
5.3899999 -1.533 -0.74000001 4
5.3930001 -1.528 -0.73900002 3
5.4159999 -1.528 -0.741 3
5.4260001 -1.524 -0.74199998 3
5.4099998 -1.513 -0.73900002 3
5.428 -1.511 -0.74000001 3
5.4499998 -1.51 -0.74199998 3
5.4530001 -1.5039999 -0.741 3
5.4660001 -1.5 -0.74199998 4
5.4889998 -1.5 -0.74400002 4
5.494 -1.494 -0.74400002 4
5.5 -1.488 -0.74299997 4
5.5180001 -1.4859999 -0.74400002 4
5.526 -1.4809999 -0.74400002 3
5.5370002 -1.476 -0.74400002 3
5.552 -1.473 -0.745 3
5.5710001 -1.47 -0.74599999 3
5.5869999 -1.467 -0.74599999 3
5.5929999 -1.46 -0.74599999 3
5.6279998 -1.462 -0.74900001 3
5.6399999 -1.457 -0.74900001 3
5.6529999 -1.4529999 -0.74900001 3
5.6789999 -1.451 -0.75 3
5.7069998 -1.45 -0.75199997 3
5.7220001 -1.446 -0.75199997 3
5.7379999 -1.442 -0.75300002 3
5.7620001 -1.439 -0.75400001 3
5.7950001 -1.439 -0.75599998 4
5.8049998 -1.433 -0.75599998 3
5.8280001 -1.4299999 -0.75599998 3
5.8499999 -1.427 -0.75700003 4
5.8740001 -1.424 -0.75800002 4
5.8940001 -1.42 -0.75800002 3
5.9239998 -1.419 -0.75999999 3
5.96 -1.418 -0.76200002 3
5.9790001 -1.414 -0.76200002 3
6.007 -1.411 -0.76300001 3
6.0250001 -1.4069999 -0.76300001 3
6.0570002 -1.405 -0.764 3
6.0819998 -1.401 -0.76499999 3
6.1240001 -1.401 -0.76800001 4
6.145 -1.397 -0.76700002 4
6.1789999 -1.395 -0.76899999 4
6.1989999 -1.3890001 -0.76800001 4
6.2399998 -1.3890001 -0.77100003 4
6.283 -1.388 -0.773 4
6.3309999 -1.3890001 -0.77600002 4
6.3759999 -1.3890001 -0.778 3
6.428 -1.39 -0.78100002 4
6.4450002 -1.383 -0.77999997 4
6.5009999 -1.385 -0.78299999 4
6.5409999 -1.383 -0.78500003 4
6.585 -1.381 -0.78600001 4
6.6360002 -1.381 -0.78899997 4
6.6750002 -1.378 -0.79000002 4
6.7280002 -1.378 -0.792 4
6.7740002 -1.376 -0.79400003 4
6.8130002 -1.373 -0.79500002 4
6.882 -1.376 -0.79900002 4
6.9390001 -1.375 -0.801 4
6.987 -1.373 -0.80299997 4
7.053 -1.374 -0.80599999 5
7.1030002 -1.372 -0.80699998 5
7.1599998 -1.3710001 -0.80900002 4
7.2309999 -1.373 -0.81300002 5
7.2719998 -1.368 -0.81300002 5
7.355 -1.3710001 -0.81800002 4
7.4120002 -1.369 -0.81900001 4
7.4959998 -1.372 -0.82300001 4
7.5679998 -1.372 -0.82599998 4
7.6539998 -1.375 -0.82999998 4
7.7360001 -1.376 -0.83399999 4
7.8039999 -1.375 -0.83600003 3
7.8909998 -1.377 -0.83999997 3
7.9959998 -1.381 -0.84500003 4
8.1020002 -1.385 -0.85100001 4
8.1700001 -1.383 -0.852 4
8.2779999 -1.387 -0.85699999 4
8.3950005 -1.392 -0.86299998 4
8.526 -1.399 -0.87 3
8.625 -1.4 -0.87400001 4
8.7580004 -1.406 -0.88099998 4
8.8459997 -1.405 -0.88300002 5
8.9870005 -1.411 -0.88999999 4
9.0810003 -1.41 -0.89200002 4
9.2119999 -1.414 -0.898 4
9.3240004 -1.415 -0.90100002 4
9.4729996 -1.421 -0.90799999 4
9.6040001 -1.424 -0.91299999 4
9.757 -1.429 -0.91900003 3
9.9329996 -1.437 -0.92799997 3
10.072 -1.439 -0.93199998 3
10.232 -1.444 -0.93900001 3
10.437 -1.455 -0.949 3
10.636 -1.4630001 -0.958 2
10.812 -1.4680001 -0.96399999 2
10.994 -1.473 -0.97100002 3
11.186 -1.479 -0.97799999 2
11.396 -1.4859999 -0.986 2
11.63 -1.497 -0.99599999 2
11.85 -1.5039999 -1.0039999 2
12.095 -1.513 -1.0140001 3
12.338 -1.521 -1.023 3
12.605 -1.531 -1.033 3
12.801 -1.5319999 -1.0369999 3
13.13 -1.548 -1.052 3
13.451 -1.562 -1.0650001 3
13.755 -1.572 -1.076 3
14.035 -1.579 -1.084 3
14.381 -1.592 -1.096 3
14.741 -1.605 -1.109 4
15.124 -1.62 -1.123 2
15.526 -1.635 -1.138 2
15.993 -1.656 -1.156 3
16.507 -1.679 -1.177 3
16.120001 -1.6109999 -1.133 2
16.924 -1.661 -1.1720001 4
0 0 0 0
0 0 0 0
0 0 0 4
19.474001 -1.771 -1.267 4
0 0 0 3
21.632 -1.89 -1.362 5
21.923 -1.876 -1.3559999 5
22.094 -1.85 -1.3430001 3
22.201 -1.8200001 -1.325 5
22.457001 -1.8 -1.316 4
0 0 0 0
0 0 0 25
0 0 0 25
0 0 0 105
26.68 -1.903 -1.416 150
26.681999 -1.855 -1.386 154
26.709 -1.8099999 -1.357 172
26.715 -1.763 -1.326 153
26.775 -1.72 -1.299 152
0 0 0 3
39.109001 -2.3729999 -1.8049999 3
38.963001 -2.2950001 -1.752 10
0 0 0 1
29.749001 -1.648 -1.268 1
31.344999 -1.681 -1.298 101
31.333 -1.626 -1.26 188
31.360001 -1.572 -1.224 255
31.434999 -1.522 -1.189 159
0 0 0 26
40.733002 -1.83 -1.441 26
0 0 0 41
43.703999 -1.813 -1.439 39
43.956001 -1.747 -1.393 40
44.423 -1.689 -1.352 41
44.415001 -1.613 -1.2970001 29
44.476002 -1.538 -1.243 13
44.484001 -1.462 -1.187 9
44.564999 -1.3890001 -1.133 6
0 0 0 30
67.166 -1.864 -1.536 141
67.149002 -1.749 -1.449 150
67.164001 -1.636 -1.362 77
67.162003 -1.522 -1.275 79
67.400002 -1.413 -1.191 68
67.874001 -1.3099999 -1.112 31
0 0 0 90
73.504997 -1.171 -1.01 48
73.460999 -1.0470001 -0.912 70
73.473 -0.92299998 -0.81300002 75
73.467003 -0.80000001 -0.71399999 76
73.495003 -0.68000001 -0.61699998 59
73.498001 -0.56 -0.51899999 25
0 0 0 0
0 0 0 0
0 0 0 36
86.208 -0.089000002 -0.14 27
86.400002 0.050999999 -0.022 30
86.190002 0.191 0.096000001 43
85.821999 0.329 0.215 30
85.815002 0.46799999 0.33399999 23
0 0 0 0
0 0 0 25
0 0 0 0
0 0 0 14
89.864998 1.209 0.977 16
89.765999 1.35 1.103 18
0 0 0 0
0 0 0 14
0 0 0 0
0 0 0 19
88.021004 2.0139999 1.709 32
87.796997 2.145 1.831 32
0 0 0 0
0 0 0 0
0 0 0 0
0 0 0 0
0 0 0 24
88.417 2.9649999 2.6059999 30
88.225998 3.092 2.73 38
87.975998 3.2149999 2.8510001 32
87.600998 3.3310001 2.9649999 31
87.545998 3.4590001 3.092 13
0 0 0 0
0 0 0 30
88.991997 3.911 3.5380001 25
88.767998 4.0289998 3.6589999 28
88.791 4.164 3.796 19
90.593002 4.3779998 4.006 26
89.612999 4.46 4.0960002 18
89.221001 4.5689998 4.211 15
89.250999 4.6939998 4.3429999 21
0 0 0 0
0 0 0 16
0 0 0 0
0 0 0 20
89.711998 5.3520002 5.0419998 20
90.336998 5.5149999 5.2129998 33
90.224998 5.632 5.3429999 41
90.195999 5.757 5.4790001 34
90.045998 5.8699999 5.6069999 16
0 0 0 29
118.028 8.0089998 7.7030001 43
117.993 8.1680002 7.882 44
117.883 8.3140001 8.0489998 55
117.846 8.467 8.2259998 58
117.809 8.6199999 8.4029999 45
117.847 8.7810001 8.5869999 50
122.846 9.3140001 9.1389999 26
0 0 0 0
0 0 0 28
127.949 10.196 10.106 31
127.964 10.36 10.303 47
127.96 10.522 10.499 45
127.916 10.678 10.687 43
0 0 0 0
0 0 0 28
117.544 10.248 10.355 83
117.54 10.393 10.538 106
117.487 10.531 10.71 110
117.49 10.674 10.894 107
117.471 10.817 11.073 104
117.493 10.955 11.251 82
117.441 11.09 11.426 76
117.543 11.237 11.613 80
117.436 11.368 11.786 66
117.464 11.507 11.966 50
117.525 11.648 12.152 26
0 0 0 0
0 0 0 0
0 0 0 0
0 0 0 0
0 0 0 0
0 0 0 0
0 0 0 23
117.899 12.734 13.623 33
117.732 12.843 13.783 24
0 0 0 0
0 0 0 0
0 0 0 0
0 0 0 25
117.663 13.453 14.656 34
117.571 13.564 14.823 52
117.462 13.67 14.983 46
117.412 13.783 15.153 58
117.422 13.903 15.335 61
117.363 14.012 15.5 71
117.393 14.131 15.68 70
117.41 14.251 15.859 63
117.396 14.36 16.031 48
117.371 14.469 16.202999 37
117.516 14.598 16.395 27
117.571 14.716 16.577 24
117.748 14.848 16.777 22
117.592 14.94 16.929001 24
117.641 15.054 17.110001 25
117.591 15.154 17.275999 26
117.584 15.259 17.448 34
117.508 15.353 17.608999 30
117.575 15.469 17.792 25
117.491 15.56 17.951 30
117.532 15.667 18.128 27
117.575 15.773 18.306 29
117.481 15.859 18.461 27
117.465 15.955 18.628 25
117.391 16.042 18.785999 35
117.391 16.138 18.951 43
117.365 16.229 19.115 46
117.381 16.325001 19.285 59
117.337 16.412001 19.441 61
117.322 16.500999 19.605 70
117.371 16.599001 19.778999 68
117.335 16.684 19.934999 66
117.289 16.764999 20.091999 77
117.33 16.858999 20.26 67
117.355 16.945 20.427999 59
117.329 17.030001 20.587 49
117.358 17.118999 20.754 52
117.37 17.204 20.917999 51
117.344 17.278999 21.070999 51
117.343 17.363001 21.232 55
117.309 17.438 21.386 52
117.305 17.517 21.544001 53
117.331 17.598 21.708 48
117.315 17.673 21.858999 58
117.34 17.753 22.021 53
117.358 17.830999 22.177999 52
117.349 17.903 22.332001 53
117.323 17.972 22.482 50
117.286 18.037001 22.629999 67
117.323 18.113001 22.790001 59
117.347 18.186001 22.948 55
117.28 18.243999 23.087 53
117.328 18.32 23.245001 58
117.276 18.379999 23.388 48
117.344 18.457001 23.548 47
117.313 18.516001 23.691 57
117.302 18.577 23.837 46
117.269 18.634001 23.978001 57
117.242 18.690001 24.118999 48
117.365 18.768999 24.290001 42
117.283 18.816 24.415001 49
117.316 18.878 24.566 54
117.3 18.933001 24.702 50
117.277 18.985001 24.84 47
117.359 19.049 24.999001 49
117.334 19.099001 25.131001 51
117.36 19.156 25.277 53
117.291 19.198999 25.4 50
117.304 19.252001 25.538 47
117.289 19.298 25.674999 63
117.318 19.351999 25.813999 75
117.299 19.395 25.945 53
0 0 0 0
0 0 0 0
0 0 0 0
0 0 0 0
0 0 0 0
0 0 0 27
117.679 19.76 26.944 27
117.544 19.775999 27.041 38
117.456 19.796 27.143999 36
117.343 19.813 27.243999 47
117.42 19.865 27.385 43
117.343 19.886 27.49 57
117.373 19.924 27.620001 58
117.341 19.952 27.73 62
117.36 19.987 27.855 67
117.326 20.011 27.966 53
117.377 20.049999 28.093 44
117.358 20.073999 28.205 32
117.226 20.077999 28.289 26
0 0 0 0
0 0 0 0
0 0 0 0
0 0 0 0
0 0 0 0
0 0 0 0
0 0 0 0
0 0 0 0
0 0 0 0
0 0 0 0
0 0 0 0
0 0 0 0
0 0 0 0
0 0 0 0
0 0 0 0
0 0 0 0
0 0 0 0
0 0 0 0
0 0 0 0
0 0 0 0
0 0 0 0
0 0 0 0
0 0 0 0
0 0 0 0
0 0 0 25
117.611 20.488001 30.965 27
117.538 20.474001 31.030001 28
117.532 20.471001 31.110001 35
117.584 20.48 31.204 29
117.461 20.455 31.250999 32
117.43 20.444 31.320999 39
117.462 20.444 31.406 52
117.447 20.434 31.478001 57
117.468 20.429001 31.558001 54
117.444 20.419001 31.622999 59
117.449 20.41 31.695999 52
117.459 20.400999 31.768999 58
117.408 20.379999 31.823999 70
117.473 20.378 31.909 54
117.418 20.354 31.959999 60
117.477 20.35 32.042 55
117.494 20.34 32.108002 51
117.465 20.318001 32.161999 40
117.496 20.305 32.231998 39
117.525 20.294001 32.297001 39
117.541 20.274 32.361 33
117.488 20.243999 32.403999 27
117.455 20.219 32.446999 23
0 0 0 0
0 0 0 0
0 0 0 0
0 0 0 0
0 0 0 0
0 0 0 0
0 0 0 0
0 0 0 0
0 0 0 0
0 0 0 0
0 0 0 0
0 0 0 24
0 0 0 0
0 0 0 28
117.646 19.822001 33.153 24
117.72 19.797001 33.206001 27
0 0 0 0
0 0 0 26
117.787 19.691999 33.313999 24
0 0 0 0
0 0 0 0
0 0 0 0
0 0 0 0
0 0 0 0
0 0 0 0
0 0 0 0
0 0 0 0
0 0 0 28
117.636 19.236 33.466999 42
117.558 19.171 33.458 71
117.574 19.124001 33.473 68
117.665 19.091 33.507 53
117.621 19.032 33.501999 43
117.626 18.98 33.509998 44
117.644 18.93 33.519001 38
117.707 18.886 33.541 38
117.636 18.819 33.521999 42
117.667 18.771 33.528999 45
117.666 18.715 33.528 50
117.649 18.655001 33.52 40
117.694 18.603001 33.528 49
117.687 18.547001 33.519001 44
117.633 18.478001 33.497002 50
117.7 18.427999 33.507 47
117.675 18.365999 33.487 47
117.659 18.301001 33.471001 45
117.684 18.242001 33.465 41
117.724 18.184 33.460999 43
117.685 18.114 33.433998 44
117.764 18.061001 33.438999 42
117.747 17.992001 33.415001 48
117.704 17.922001 33.379002 44
117.689 17.851999 33.353001 63
117.678 17.782 33.326 58
117.693 17.715 33.305 45
117.738 17.653 33.291 40
117.744 17.583 33.264 43
117.703 17.509001 33.221001 39
117.771 17.447001 33.209 50
117.752 17.372 33.169998 47
117.731 17.295 33.130001 45
117.786 17.229 33.110001 47
117.791 17.159 33.073002 53
117.754 17.077999 33.023998 47
117.806 17.01 32.998001 41
117.785 16.933001 32.950001 47
117.796 16.858 32.91 51
117.822 16.787001 32.872002 51
117.791 16.704 32.817001 49
117.803 16.627001 32.772999 46
117.738 16.534 32.706001 53
117.813 16.464001 32.675999 73
117.818 16.386999 32.625 41
117.993 16.33 32.619999 24
0 0 0 0
0 0 0 0
0 0 0 0
0 0 0 26
117.854 15.9 32.290001 25
117.731 15.798 32.194 28
117.883 15.736 32.172001 39
117.937 15.657 32.120998 36
117.91 15.567 32.047001 38
117.84 15.47 31.959 51
117.868 15.386 31.896999 59
117.909 15.302 31.837 63
117.849 15.209 31.747999 60
117.882 15.124 31.683001 60
117.907 15.039 31.611 60
117.903 14.948 31.533001 52
117.977 14.866 31.474001 53
117.922 14.768 31.379999 55
117.915 14.675 31.296 51
117.91 14.581 31.212 45
117.912 14.489 31.128 39
117.999 14.406 31.065001 38
117.979 14.313 30.973 31
118.065 14.229 30.907 28
118.252 14.158 30.863001 28
118.095 14.044 30.73 27
118.264 13.968 30.681 29
118.295 13.877 30.598 26
118.355 13.787 30.517 26
0 0 0 0
0 0 0 31
118.225 13.483 30.188 29
118.305 13.396 30.104 28
0 0 0 0
0 0 0 0
0 0 0 0
0 0 0 0
0 0 0 0
0 0 0 0
0 0 0 0
0 0 0 0
0 0 0 23
0 0 0 0
0 0 0 24
118.236 12.193 28.761999 27
118.147 12.085 28.622 31
0 0 0 0
0 0 0 26
118.096 11.772 28.243999 31
118.118 11.671 28.125 32
118.04 11.56 27.981001 40
118.096 11.462 27.867001 56
118.081 11.357 27.735001 67
118.09 11.253 27.607 76
118.057 11.149 27.469 70
118.067 11.049 27.34 62
118.082 10.943 27.209 60
118.102 10.843 27.08 42
118.115 10.739 26.945999 40
118.149 10.638 26.816 41
118.329 10.552 26.719 32
118.385 10.451 26.591999 28
0 0 0 0
0 0 0 0
0 0 0 0
0 0 0 0
0 0 0 0
0 0 0 0
0 0 0 32
118.577 9.6199999 25.461 26
0 0 0 0
0 0 0 0
0 0 0 0
0 0 0 0
0 0 0 0
0 0 0 0
0 0 0 0
0 0 0 0
0 0 0 37
118.149 8.5279999 23.799 53
118.155 8.4219999 23.636999 66
118.19 8.3210001 23.481001 61
118.154 8.2139997 23.305 56
118.13 8.1029997 23.131001 56
118.249 8.0080004 22.988001 51
118.291 7.9050002 22.827 47
118.261 7.7979999 22.650999 36
118.26 7.6919999 22.479 30
118.439 7.598 22.34 26
0 0 0 0
0 0 0 0
0 0 0 0
0 0 0 23
118.409 7.0749998 21.458 25
118.468 6.973 21.289 26
118.446 6.8670001 21.105 29
0 0 0 0
0 0 0 0
0 0 0 0
0 0 0 0
0 0 0 29
118.306 6.2360001 19.972 46
118.201 6.1279998 19.767 61
118.224 6.0289998 19.584 67
118.261 5.928 19.400999 72
118.25 5.8249998 19.209 70
118.273 5.724 19.021 55
118.234 5.6230001 18.823999 46
118.312 5.5250001 18.643 36
118.477 5.428 18.472 30
118.584 5.3319998 18.289 33
118.525 5.2290001 18.083 29
0 0 0 0
0 0 0 0
0 0 0 0
0 0 0 0
0 0 0 22
120.958 4.73 17.233 28
120.914 4.6279998 17.018999 33
120.851 4.5279999 16.804001 32
120.852 4.428 16.594999 29
121.021 4.3379998 16.410999 31
120.977 4.237 16.194 30
120.869 4.1350002 15.967 51
120.812 4.0339999 15.747 55
120.786 3.9360001 15.53 75
120.763 3.836 15.306 72
120.751 3.7409999 15.096 70
120.741 3.6470001 14.881 68
120.823 3.553 14.674 54
121.012 3.4630001 14.479 36
120.989 3.3699999 14.26 35
121.027 3.2739999 14.042 25
0 0 0 0
0 0 0 0
0 0 0 0
0 0 0 0
0 0 0 0
0 0 0 0
0 0 0 0
0 0 0 0
0 0 0 0
0 0 0 40
120.698 2.266 11.55 61
120.717 2.178 11.323 77
120.708 2.0929999 11.096 91
120.75 2.006 10.87 91
120.726 1.92 10.634 82
120.767 1.834 10.407 79
120.757 1.749 10.174 62
120.832 1.665 9.948 42
120.865 1.582 9.717 37
120.852 1.5 9.4849997 37
120.848 1.4170001 9.2510004 39
120.79 1.336 9.0139999 35
120.868 1.255 8.7840004 40
120.761 1.175 8.5430002 37
120.757 1.094 8.3059998 48
120.784 1.015 8.0740004 44
120.904 0.93699998 7.8410001 38
120.899 0.85799998 7.6020002 32
120.923 0.78100002 7.3639998 29
120.906 0.70499998 7.1259999 31
0 0 0 0
0 0 0 0
0 0 0 36
120.989 0.405 6.1690001 39
120.824 0.329 5.915 47
120.734 0.25600001 5.6680002 59
120.726 0.184 5.421 75
120.71 0.114 5.184 72
0 0 0 0
0 0 0 28
84.040001 -0.064999998 3.1010001 28
87.019997 -0.117 3.0339999 24
86.584999 -0.16500001 2.8429999 30
0 0 0 0
0 0 0 0
0 0 0 25
87.056999 -0.354 2.152 24
83.513 -0.384 1.893 34
83.862 -0.43000001 1.728 28
0 0 0 0
0 0 0 0
0 0 0 0
0 0 0 15
73.139 -0.56 0.75300002 26
72.742996 -0.59200001 0.59899998 59
72.428001 -0.625 0.44400001 48
71.747002 -0.653 0.29100001 31
71.248001 -0.68099999 0.14300001 15
0 0 0 10
0 0 0 0
0 0 0 19
73.500999 -0.83600003 -0.463 51
73.478996 -0.86799997 -0.61900002 73
73.458 -0.898 -0.76999998 71
73.484001 -0.93000001 -0.92400002 39
0 0 0 0
0 0 0 33
0 0 0 13
73.664001 -1.051 -1.5420001 39
73.623001 -1.079 -1.696 40
73.583 -1.107 -1.849 41
72.998001 -1.126 -1.99 54
72.573997 -1.145 -2.1259999 99
72.533997 -1.171 -2.279 119
72.521004 -1.197 -2.431 59
72.498001 -1.221 -2.5810001 9
0 0 0 0
0 0 0 6
57.914001 -1.033 -2.4230001 27
57.903 -1.051 -2.5439999 45
57.965 -1.0700001 -2.6689999 14
0 0 0 0
0 0 0 0
0 0 0 0
0 0 0 0
0 0 0 0
0 0 0 1
21.280001 -0.435 -1.291 2
0 0 0 1
18.099001 -0.38 -1.175 1
0 0 0 2
15.697 -0.33700001 -1.085 4
15.285 -0.331 -1.0880001 5
14.425 -0.31600001 -1.057 3
13.558 -0.30000001 -1.022 3
12.943 -0.289 -1.002 3
12.334 -0.278 -0.98100001 3
11.739 -0.26699999 -0.958 2
11.219 -0.257 -0.93900001 3
10.743 -0.248 -0.92199999 3
10.355 -0.241 -0.91000003 3
9.9569998 -0.233 -0.89499998 3
9.5360003 -0.22499999 -0.87800002 3
9.1599998 -0.21799999 -0.86199999 3
8.7799997 -0.20999999 -0.84399998 4
8.4440002 -0.20299999 -0.829 4
8.158 -0.197 -0.81800002 3
7.8509998 -0.191 -0.80299997 4
7.5929999 -0.186 -0.79299998 7
7.3899999 -0.18099999 -0.787 6
7.1700001 -0.177 -0.778 6
6.9109998 -0.171 -0.764 4
6.7030001 -0.167 -0.755 5
6.5009999 -0.162 -0.74599999 5
6.323 -0.15800001 -0.73799998 5
6.1589999 -0.155 -0.73199999 4
6.0240002 -0.152 -0.72799999 4
5.8319998 -0.147 -0.71700001 7
5.6820002 -0.14399999 -0.70999998 7
5.6059999 -0.142 -0.71200001 7
5.5019999 -0.14 -0.70999998 7
5.3769999 -0.13699999 -0.704 4
5.2119999 -0.133 -0.69300002 3
5.0900002 -0.13 -0.68699998 3
5.0110002 -0.12800001 -0.68699998 3
4.9099998 -0.125 -0.68300003 3
4.7989998 -0.123 -0.67699999 2
4.704 -0.12 -0.67299998 4
4.6409998 -0.119 -0.67299998 2
4.5240002 -0.115 -0.66500002 3
4.4629998 -0.114 -0.66500002 2
4.368 -0.111 -0.66000003 2
4.2919998 -0.109 -0.65700001 2
4.21 -0.107 -0.65200001 2
4.1750002 -0.106 -0.65499997 2
4.0419998 -0.102 -0.64200002 2
3.9979999 -0.101 -0.64300001 2
3.9100001 -0.098999999 -0.63700002 2
3.8540001 -0.097000003 -0.63499999 3
3.8729999 -0.097000003 -0.64600003 2
3.803 -0.094999999 -0.64099997 3
3.7739999 -0.093999997 -0.64399999 3
3.6789999 -0.090999998 -0.63499999 2
3.6289999 -0.090000004 -0.63300002 1
3.5969999 -0.089000002 -0.634 3
3.49 -0.086000003 -0.62199998 2
3.46 -0.083999999 -0.62300003 2
3.5380001 -0.086000003 -0.64399999 2
3.398 -0.082000002 -0.625 1
3.3859999 -0.081 -0.62900001 1
3.2739999 -0.078000002 -0.61500001 1
3.299 -0.078000002 -0.62599999 1
3.1900001 -0.075000003 -0.611 1
3.3039999 -0.078000002 -0.639 2
3.3699999 -0.079000004 -0.65799999 2
0 0 0 1
3.043 -0.07 -0.60500002 2
3.0109999 -0.068999998 -0.60399997 2
2.9749999 -0.067000002 -0.60299999 2
3.0079999 -0.068000004 -0.61500001 2
2.904 -0.064999998 -0.59899998 2
2.9489999 -0.064999998 -0.61299998 2
2.925 -0.064000003 -0.61400002 1
2.809 -0.061000001 -0.59399998 1
2.7850001 -0.059999999 -0.59399998 1
2.7520001 -0.059 -0.59200001 1
2.73 -0.057999998 -0.59200001 1
2.697 -0.056000002 -0.58999997 2
2.6789999 -0.055 -0.58999997 2
2.654 -0.054000001 -0.58899999 2
2.6300001 -0.052999999 -0.58899999 2
2.6059999 -0.052000001 -0.588 2
2.5799999 -0.050999999 -0.58600003 1
2.5610001 -0.050000001 -0.58600003 1
2.5339999 -0.048999999 -0.58499998 1
2.5209999 -0.048 -0.58600003 1
2.4879999 -0.046 -0.58200002 1
2.474 -0.046 -0.583 1
2.45 -0.044 -0.58200002 1
2.4389999 -0.044 -0.583 1
2.4100001 -0.041999999 -0.57999998 1
2.391 -0.041000001 -0.57999998 1
2.368 -0.039999999 -0.57800001 1
2.3559999 -0.039000001 -0.579 1
2.332 -0.037999999 -0.57700002 1
2.3169999 -0.037 -0.57700002 2
2.3050001 -0.037 -0.57700002 3
2.2909999 -0.035999998 -0.57800001 3
2.2709999 -0.035 -0.57599998 2
2.2550001 -0.034000002 -0.57599998 2
2.234 -0.033 -0.574 2
2.214 -0.032000002 -0.57200003 1
2.2 -0.030999999 -0.57200003 1
2.1830001 -0.029999999 -0.57099998 2
2.1670001 -0.028999999 -0.56999999 2
2.158 -0.028000001 -0.57099998 2
2.141 -0.027000001 -0.56900001 2
2.125 -0.026000001 -0.56900001 2
2.122 -0.025 -0.57099998 2
2.108 -0.024 -0.56999999 2
2.0929999 -0.024 -0.56900001 2
2.0710001 -0.023 -0.56599998 2
2.0580001 -0.022 -0.56599998 2
2.053 -0.021 -0.56699997 3
2.033 -0.02 -0.565 3
2.027 -0.018999999 -0.56599998 3
2.0150001 -0.017999999 -0.565 3
2.0050001 -0.017999999 -0.565 3
1.9960001 -0.017000001 -0.565 3
1.984 -0.016000001 -0.565 3
1.98 -0.015 -0.56599998 2
1.9630001 -0.014 -0.56400001 2
1.948 -0.013 -0.56199998 1
1.9349999 -0.013 -0.56099999 1
1.931 -0.012 -0.56300002 1
1.911 -0.011 -0.55900002 1
1.9 -0.0099999998 -0.55800003 1
1.8940001 -0.0089999996 -0.55900002 1
1.876 -0.0080000004 -0.55599999 1
1.873 -0.0080000004 -0.55800003 1
1.8660001 -0.0070000002 -0.55800003 1
1.858 -0.0060000001 -0.55800003 1
1.846 -0.0049999999 -0.55699998 1
1.8380001 -0.0049999999 -0.55599999 1
1.834 -0.0040000002 -0.55699998 1
1.823 -0.003 -0.55599999 1
1.819 -0.0020000001 -0.55699998 1
1.8099999 -0.0020000001 -0.55599999 1
1.802 -0.001 -0.55599999 1
1.784 0 -0.55199999 1
1.778 0 -0.55299997 1
1.775 0 -0.55400002 1
1.7690001 0.001 -0.55400002 1
1.756 0.0020000001 -0.551 1
1.75 0.003 -0.55199999 1
1.747 0.003 -0.55199999 1
1.734 0.0040000002 -0.55000001 1
1.721 0.0049999999 -0.54799998 1
1.724 0.0060000001 -0.55000001 1
1.715 0.0060000001 -0.54900002 1
1.705 0.0070000002 -0.54799998 1
1.706 0.0080000004 -0.55000001 1
1.701 0.0080000004 -0.55000001 1
1.694 0.0089999996 -0.55000001 1
1.692 0.0099999998 -0.55000001 1
1.684 0.011 -0.54900002 1
1.673 0.011 -0.54699999 1
1.673 0.012 -0.54900002 1
1.665 0.013 -0.54799998 1
1.663 0.013 -0.54900002 1
1.661 0.014 -0.54900002 1
1.653 0.015 -0.54799998 1
1.647 0.015 -0.54699999 1
1.641 0.016000001 -0.54699999 1
1.637 0.017000001 -0.54699999 1
1.638 0.017000001 -0.54799998 1
1.619 0.017999999 -0.54299998 1
1.627 0.018999999 -0.54699999 1
1.625 0.02 -0.54799998 1
1.615 0.02 -0.546 1
1.607 0.021 -0.54400003 1
1.603 0.021 -0.54400003 1
1.603 0.022 -0.54500002 1
1.605 0.023 -0.54699999 1
1.5930001 0.023 -0.54400003 1
1.591 0.024 -0.54400003 1
1.582 0.025 -0.542 1
1.577 0.025 -0.542 1
1.577 0.026000001 -0.54299998 1
1.58 0.027000001 -0.54500002 1
1.568 0.027000001 -0.54100001 1
1.567 0.028000001 -0.542 1
1.571 0.028999999 -0.54400003 1
1.562 0.028999999 -0.542 1
1.556 0.029999999 -0.54100001 1
1.557 0.029999999 -0.542 1
1.553 0.030999999 -0.54100001 1
1.541 0.032000002 -0.53799999 1
1.55 0.032000002 -0.542 1
1.549 0.033 -0.542 1
1.549 0.034000002 -0.54299998 1
1.5420001 0.034000002 -0.54100001 1
1.543 0.035 -0.542 1
1.536 0.035 -0.54000002 1
1.538 0.035999998 -0.542 1
1.534 0.037 -0.54100001 1
1.534 0.037 -0.54100001 1
1.531 0.037999999 -0.54100001 1
1.533 0.039000001 -0.542 1
1.5319999 0.039000001 -0.542 1
1.534 0.039999999 -0.54400003 1
1.529 0.041000001 -0.542 1
1.526 0.041000001 -0.54100001 1
1.525 0.041999999 -0.542 1
1.526 0.043000001 -0.542 1
1.528 0.043000001 -0.54299998 1
1.52 0.044 -0.54100001 1
1.52 0.044 -0.54100001 1
1.516 0.045000002 -0.54000002 1
1.525 0.046 -0.54299998 1
1.525 0.046 -0.54400003 1
1.518 0.046999998 -0.54100001 1
1.517 0.046999998 -0.54100001 1
1.52 0.048 -0.542 1
1.522 0.048999999 -0.54400003 1
1.505 0.048999999 -0.537 1
1.5190001 0.050000001 -0.542 1
1.522 0.050999999 -0.54400003 1
1.522 0.050999999 -0.54400003 1
1.516 0.052000001 -0.542 1
1.518 0.052000001 -0.54299998 1
1.516 0.052999999 -0.542 1
1.518 0.054000001 -0.54299998 1
1.511 0.054000001 -0.54000002 1
1.518 0.055 -0.542 1
1.511 0.055 -0.54000002 1
1.516 0.056000002 -0.54100001 1
1.516 0.057 -0.54100001 1
1.516 0.057 -0.54100001 1
1.516 0.057999998 -0.54100001 1
1.516 0.057999998 -0.54100001 1
1.5140001 0.059 -0.54000002 1
1.516 0.059 -0.54000002 1
1.528 0.061000001 -0.54400003 1
1.5190001 0.061000001 -0.54100001 1
1.522 0.061000001 -0.54100001 1
1.522 0.061999999 -0.54100001 1
1.516 0.061999999 -0.53899997 1
1.529 0.063000001 -0.54299998 1
1.529 0.064000003 -0.542 1
1.522 0.064000003 -0.54000002 1
1.53 0.064999998 -0.542 1
1.533 0.066 -0.54299998 1
1.529 0.066 -0.54100001 1
1.53 0.067000002 -0.54100001 1
1.53 0.067000002 -0.54000002 1
1.535 0.068000004 -0.54100001 1
1.535 0.068000004 -0.54100001 1
1.534 0.068999998 -0.54000002 1
1.538 0.07 -0.54000002 1
1.5420001 0.07 -0.54100001 1
1.544 0.071000002 -0.54100001 1
1.55 0.071999997 -0.542 1
1.5470001 0.071999997 -0.54100001 1
1.552 0.072999999 -0.542 1
1.562 0.074000001 -0.54400003 1
1.562 0.074000001 -0.54400003 1
1.561 0.075000003 -0.54299998 1
1.568 0.075999998 -0.54400003 1
1.568 0.075999998 -0.54299998 1
1.557 0.075999998 -0.53899997 1
1.574 0.077 -0.54400003 1
1.58 0.078000002 -0.54500002 1
1.576 0.078000002 -0.542 1
1.575 0.079000004 -0.54100001 1
1.572 0.079000004 -0.53899997 1
1.582 0.079999998 -0.542 1
1.598 0.081 -0.546 1
1.581 0.081 -0.53899997 1
1.584 0.081 -0.53899997 1
1.599 0.082000002 -0.54299998 1
1.602 0.082999997 -0.54299998 1
1.607 0.083999999 -0.54299998 1
1.613 0.083999999 -0.54400003 1
1.613 0.085000001 -0.54299998 1
1.626 0.086000003 -0.546 1
1.627 0.086000003 -0.54500002 1
1.64 0.086999997 -0.54799998 1
1.64 0.088 -0.54699999 1
1.6339999 0.088 -0.54299998 1
1.638 0.089000002 -0.54299998 1
1.65 0.090000004 -0.546 1
1.656 0.090000004 -0.54699999 1
1.6619999 0.090999998 -0.54699999 1
1.6619999 0.090999998 -0.54500002 1
1.665 0.092 -0.54500002 1
1.675 0.093000002 -0.54699999 1
1.681 0.093000002 -0.54699999 1
1.684 0.093999997 -0.54699999 1
1.691 0.094999999 -0.54699999 1
1.698 0.094999999 -0.54799998 1
1.705 0.096000001 -0.54799998 1
1.706 0.096000001 -0.54699999 1
1.707 0.097000003 -0.546 1
1.7180001 0.097999997 -0.54699999 1
1.732 0.098999999 -0.55000001 1
1.727 0.098999999 -0.54699999 1
1.7359999 0.098999999 -0.54799998 1
1.743 0.1 -0.54799998 1
1.749 0.101 -0.54799998 1
1.763 0.102 -0.55000001 1
1.773 0.103 -0.55199999 1
1.781 0.103 -0.55199999 1
1.786 0.104 -0.55199999 1
1.795 0.105 -0.55299997 1
1.799 0.105 -0.55199999 1
1.808 0.106 -0.55199999 1
1.812 0.106 -0.551 1
1.829 0.107 -0.55400002 1
1.836 0.108 -0.55400002 1
1.844 0.109 -0.55400002 1
1.849 0.109 -0.55400002 1
1.853 0.109 -0.55299997 1
1.87 0.111 -0.55599999 1
1.885 0.112 -0.55800003 1
1.8940001 0.112 -0.55800003 1
1.908 0.113 -0.55900002 1
1.914 0.114 -0.55900002 1
1.92 0.114 -0.55800003 1
1.928 0.115 -0.55800003 1
1.936 0.115 -0.55800003 1
1.948 0.116 -0.55800003 1
1.955 0.117 -0.55800003 1
1.962 0.117 -0.55699998 1
1.9809999 0.118 -0.56 1
1.983 0.118 -0.55800003 1
2 0.119 -0.56 1
2.016 0.12 -0.56099999 1
2.029 0.121 -0.56199998 1
2.0339999 0.121 -0.56099999 1
2.052 0.122 -0.56300002 1
2.059 0.123 -0.56099999 1
2.0739999 0.124 -0.56300002 1
2.0899999 0.125 -0.56400001 1
2.099 0.125 -0.56300002 1
2.1170001 0.126 -0.565 1
2.1340001 0.127 -0.56599998 1
2.1400001 0.127 -0.565 1
2.161 0.12800001 -0.56699997 1
2.1700001 0.12899999 -0.56599998 1
2.188 0.13 -0.56800002 1
2.1989999 0.13 -0.56699997 1
2.221 0.131 -0.56900001 1
2.2360001 0.132 -0.56999999 1
2.2509999 0.133 -0.56999999 1
2.2709999 0.133 -0.57200003 1
2.29 0.134 -0.57300001 1
2.3180001 0.13600001 -0.57599998 1
2.325 0.13600001 -0.574 1
2.3499999 0.13699999 -0.57700002 1
2.368 0.138 -0.57700002 1
2.3889999 0.139 -0.579 1
2.401 0.139 -0.57800001 1
2.424 0.14 -0.579 1
2.444 0.141 -0.57999998 1
2.4660001 0.142 -0.58099997 1
2.48 0.142 -0.57999998 1
2.5090001 0.14300001 -0.583 1
2.5309999 0.14399999 -0.58399999 1
2.559 0.145 -0.58600003 1
2.572 0.145 -0.58399999 1
2.595 0.146 -0.58499998 1
2.6140001 0.147 -0.58499998 2
2.645 0.148 -0.58700001 2
2.6700001 0.149 -0.58899999 2
2.6930001 0.149 -0.58899999 2
2.7079999 0.149 -0.588 2
2.7420001 0.15099999 -0.58999997 2
2.7750001 0.152 -0.59200001 2
2.799 0.152 -0.59299999 2
2.8329999 0.153 -0.59500003 2
2.8540001 0.154 -0.59399998 2
2.885 0.155 -0.59600002 2
2.9289999 0.156 -0.59899998 2
2.9630001 0.15700001 -0.60100001 2
2.9960001 0.15800001 -0.60299999 2
3.027 0.15899999 -0.60299999 2
3.053 0.15899999 -0.60299999 2
3.0910001 0.16 -0.60500002 2
3.118 0.161 -0.60500002 2
3.1619999 0.162 -0.60699999 2
3.1960001 0.162 -0.60799998 2
3.233 0.163 -0.60900003 2
3.345 0.168 -0.62400001 2
3.345 0.16599999 -0.61799997 2
3.411 0.169 -0.62400001 2
3.562 0.175 -0.64499998 2
3.4879999 0.17 -0.625 2
3.483 0.168 -0.61799997 2
3.5580001 0.17 -0.625 2
3.632 0.17200001 -0.63099998 2
3.7119999 0.175 -0.63800001 2
3.711 0.17299999 -0.63099998 2
3.8 0.176 -0.639 2
3.845 0.176 -0.639 2
3.9059999 0.177 -0.64200002 2
4.026 0.18099999 -0.65399998 2
4.0180001 0.17900001 -0.64499998 2
4.0669999 0.17900001 -0.64499998 2
4.1100001 0.17900001 -0.64499998 2
4.2249999 0.182 -0.65499997 3
4.289 0.183 -0.65600002 2
4.336 0.183 -0.65499997 2
4.4169998 0.184 -0.65899998 2
4.4990001 0.185 -0.66299999 3
4.579 0.186 -0.66600001 2
4.6570001 0.18700001 -0.66799998 3
4.7340002 0.18700001 -0.67000002 3
4.8340001 0.189 -0.67500001 3
4.9439998 0.19 -0.68099999 3
5.0349998 0.191 -0.68400002 5
5.1459999 0.192 -0.68900001 3
5.2600002 0.19400001 -0.69400001 3
5.3899999 0.19499999 -0.70099998 3
5.5209999 0.197 -0.70700002 4
5.6399999 0.198 -0.71200001 4
5.7490001 0.198 -0.71399999 4
5.8959999 0.2 -0.72100002 5
6.0190001 0.2 -0.72399998 5
6.1479998 0.20100001 -0.72799999 5
6.309 0.20200001 -0.73500001 5
6.5139999 0.205 -0.74599999 5
6.704 0.207 -0.75400001 4
6.8839998 0.208 -0.76099998 4
7.0650001 0.20900001 -0.76800001 4
7.2989998 0.211 -0.77899998 4
7.546 0.213 -0.79000002 4
7.7820001 0.214 -0.80000001 4
8.0430002 0.21600001 -0.81099999 4
8.3380003 0.21799999 -0.824 4
8.6660004 0.221 -0.83999997 3
9.0039997 0.223 -0.85500002 5
9.3479996 0.22499999 -0.86900002 4
9.7390003 0.228 -0.88700002 3
10.12 0.229 -0.90100002 4
10.464 0.229 -0.912 3
10.913 0.23100001 -0.92900002 3
11.344 0.23199999 -0.94400001 3
11.929 0.235 -0.97000003 3
12.587 0.23800001 -0.99800003 7
13.103 0.23800001 -1.013 10
13.447 0.234 -1.0140001 8
13.955 0.23199999 -1.024 3
0 0 0 2
0 0 0 3
16.636 0.237 -1.123 2
0 0 0 2
17.969999 0.226 -1.143 1
0 0 0 1
0 0 0 1
0 0 0 0
0 0 0 0
0 0 0 0
0 0 0 0
0 0 0 0
0 0 0 0
0 0 0 39
61.209999 0.25 -2.7030001 157
61.282001 0.19499999 -2.5869999 184
61.258999 0.14 -2.467 191
61.259998 0.083999999 -2.348 152
0 0 0 0
0 0 0 25
0 0 0 25
0 0 0 28
117.431 -0.37599999 -3.378 32
117.418 -0.48699999 -3.151 23
0 0 0 114
133.967 -0.81199998 -3.0799999 107
134.125 -0.94499999 -2.823 112
0 0 0 0
0 0 0 41
0 0 0 0
0 0 0 39
73.448997 -0.87800002 -0.84600002 72
73.485001 -0.95300001 -0.70700002 83
73.505997 -1.027 -0.56699997 59
73.514 -1.102 -0.428 70
72.859001 -1.1670001 -0.287 13
0 0 0 0
0 0 0 13
68.710999 -1.313 0.115 28
68.601997 -1.383 0.244 19
67.206001 -1.425 0.36399999 80
67.217003 -1.497 0.49000001 9
0 0 0 0
0 0 0 0
0 0 0 7
56.727001 -1.506 0.833 36
56.523998 -1.561 0.93300003 56
56.310001 -1.6160001 1.034 43
55.27 -1.647 1.1160001 18
54.064999 -1.671 1.192 18
53.353001 -1.709 1.274 32
52.333 -1.734 1.345 42
51.585999 -1.767 1.42 42
51.423 -1.819 1.508 84
51.375 -1.875 1.599 63
51.360001 -1.933 1.691 20
0 0 0 0
0 0 0 0
0 0 0 0
0 0 0 0
0 0 0 0
0 0 0 0
0 0 0 70
47.328999 -2.2179999 2.2309999 73
0 0 0 7
43.797001 -2.155 2.217 20
43.344002 -2.184 2.2709999 30
43.387001 -2.2379999 2.348 12
42.792999 -2.2590001 2.3900001 3
0 0 0 19
47.419998 -2.6170001 2.812 8
0 0 0 4
43.347 -2.497 2.7190001 23
43.332001 -2.549 2.7909999 51
42.862 -2.572 2.8329999 38
42.355 -2.5940001 2.8710001 65
42.359001 -2.645 2.9419999 66
41.862999 -2.6659999 2.9779999 36
41.037998 -2.664 2.9879999 66
41.014 -2.7130001 3.053 64
40.965 -2.7609999 3.119 58
39.678001 -2.723 3.086 43
39.672001 -2.7720001 3.1500001 57
39.675999 -2.8210001 3.214 56
38.881001 -2.813 3.2130001 31
38.339001 -2.822 3.23 58
38.34 -2.869 3.2920001 54
38.334 -2.9170001 3.3529999 60
37.066002 -2.8670001 3.3 29
36.98 -2.9070001 3.352 56
36.974998 -2.954 3.4100001 58
36.604 -2.97 3.4330001 21
35.507 -2.9260001 3.3859999 11
35.174999 -2.9430001 3.4089999 37
35.161999 -2.9860001 3.4619999 60
35.171001 -3.033 3.5179999 59
35.175999 -3.0780001 3.572 60
35.168999 -3.122 3.625 61
35.185001 -3.1689999 3.681 60
35.176998 -3.2130001 3.733 60
35.185001 -3.2590001 3.7869999 59
35.201 -3.306 3.8410001 48
35.203999 -3.352 3.8940001 56
35.201 -3.3970001 3.9460001 57
35.213001 -3.444 4.0009999 53
35.219002 -3.4909999 4.053 53
35.216 -3.536 4.1040001 54
35.233002 -3.5840001 4.158 55
35.231998 -3.6300001 4.2090001 55
35.234001 -3.6760001 4.2589998 59
35.235001 -3.721 4.3099999 57
35.243 -3.7679999 4.3610001 58
35.244999 -3.8139999 4.4109998 56
35.247002 -3.8599999 4.461 58
35.251999 -3.9070001 4.5100002 55
35.268002 -3.9549999 4.5630002 56
35.258999 -4 4.6100001 56
35.271 -4.0479999 4.6599998 55
35.308998 -4.098 4.7129998 11
35.467999 -4.1630001 4.7820001 3
35.492001 -4.2119999 4.8330002 3
35.511002 -4.2610002 4.8829999 2
0 0 0 0
0 0 0 0
0 0 0 0
0 0 0 0
0 0 0 0
0 0 0 0
0 0 0 0
0 0 0 2
35.548 -4.6830001 5.303 2
0 0 0 0
0 0 0 2
35.612 -4.8299999 5.4439998 2
35.535999 -4.8660002 5.4759998 2
0 0 0 0
0 0 0 4
27.610001 -3.888 4.3540001 16
27.539 -3.914 4.3769999 24
27.476 -3.9400001 4.3990002 28
27.438999 -3.97 4.4250002 33
27.399 -4 4.4499998 35
27.374001 -4.0310001 4.4770002 40
