# .PCD v0.7 - Point Cloud Data file format
VERSION 0.7
FIELDS x y z intensity
SIZE 4 4 4 4
TYPE F F F F
COUNT 1 1 1 1
WIDTH 1821
HEIGHT 1
VIEWPOINT 0 0 0 1 0 0 0
POINTS 1821
DATA ascii
8.3710003 1.528 -0.71700001 4
8.4840002 1.535 -0.71899998 4
8.6059999 1.545 -0.722 4
8.7290001 1.553 -0.72399998 4
8.8620005 1.563 -0.727 4
9.0120001 1.575 -0.73100001 3
9.1730003 1.589 -0.736 3
9.2969999 1.596 -0.73799998 4
9.4750004 1.612 -0.74299997 5
9.5970001 1.617 -0.74400002 4
9.7589998 1.6289999 -0.74800003 3
9.9090004 1.638 -0.75099999 3
10.072 1.649 -0.755 2
10.287 1.668 -0.76200002 2
10.501 1.686 -0.76800001 4
10.679 1.697 -0.77200001 4
10.857 1.707 -0.77499998 4
11.055 1.72 -0.77999997 4
11.396 1.755 -0.79400003 6
11.379 1.733 -0.78299999 11
11.569 1.743 -0.78600001 9
11.738 1.748 -0.787 7
11.936 1.758 -0.79100001 4
12.161 1.77 -0.79500002 2
12.434 1.789 -0.80199999 3
12.779 1.817 -0.81400001 2
13.099 1.84 -0.82300001 2
13.421 1.862 -0.83200002 2
13.705 1.877 -0.838 2
13.977 1.89 -0.84299999 2
14.246 1.902 -0.847 2
14.627 1.927 -0.85799998 2
15.017 1.952 -0.86799997 2
15.353 1.9680001 -0.875 2
15.669 1.9809999 -0.88 2
16.118999 2.0090001 -0.89200002 2
16.531 2.03 -0.90100002 3
16.999001 2.0569999 -0.91299999 2
17.454 2.0810001 -0.92299998 1
17.952 2.1070001 -0.935 1
18.473 2.135 -0.94800001 1
19.155001 2.1789999 -0.96799999 1
19.606001 2.194 -0.97500002 1
19.556 2.152 -0.95700002 1
0 0 0 0
0 0 0 2
0 0 0 1
23.686001 2.431 -1.086 1
24.289 2.447 -1.095 1
0 0 0 0
0 0 0 1
27.653 2.6300001 -1.184 2
28.587 2.665 -1.202 2
0 0 0 0
0 0 0 0
0 0 0 2
0 0 0 12
40.922001 3.425 -1.572 15
40.879002 3.342 -1.541 24
40.743999 3.2520001 -1.507 65
0 0 0 48
29.502001 2.2379999 -1.049 153
29.524 2.184 -1.03 160
29.496 2.1229999 -1.008 160
29.579 2.0710001 -0.991 117
0 0 0 5
36.991001 2.4430001 -1.189 8
37.257 2.3870001 -1.1720001 3
37.657001 2.3380001 -1.16 2
38.305 2.302 -1.155 24
0 0 0 54
25.000999 1.403 -0.72100002 152
24.968 1.351 -0.704 187
24.982 1.301 -0.68900001 159
25.056 1.256 -0.67500001 155
24.979 1.201 -0.65700001 1
0 0 0 32
36.786999 1.62 -0.92299998 79
36.040001 1.5140001 -0.88200003 75
0 0 0 7
20.671 0.78399998 -0.48100001 7
20.245001 0.727 -0.45899999 1
19.788 0.66900003 -0.43700001 1
19.452999 0.61900002 -0.419 1
19.211 0.57200003 -0.403 1
19.014 0.52600002 -0.38800001 1
18.773001 0.48100001 -0.37200001 1
18.517 0.43599999 -0.35699999 1
18.289 0.39300001 -0.34299999 3
18.058001 0.35100001 -0.329 5
17.917 0.31200001 -0.317 4
17.636999 0.26899999 -0.30199999 1
0 0 0 0
0 0 0 0
0 0 0 0
0 0 0 1
17.375999 0.085000001 -0.25400001 1
17.403 0.048999999 -0.24600001 1
0 0 0 0
0 0 0 0
0 0 0 0
0 0 0 0
0 0 0 0
0 0 0 0
0 0 0 1
17.259001 -0.23899999 -0.182 1
17.169001 -0.273 -0.17299999 1
17.171 -0.31 -0.16599999 1
17.304001 -0.34900001 -0.16 4
17.304001 -0.38499999 -0.153 14
17.309999 -0.42199999 -0.146 12
17.305 -0.458 -0.14 7
17.343 -0.49599999 -0.133 5
17.325001 -0.53200001 -0.127 4
17.325001 -0.56800002 -0.12 4
17.327 -0.60500002 -0.114 4
17.273001 -0.63999999 -0.108 5
17.221001 -0.67400002 -0.101 4
17.237 -0.71100003 -0.094999999 5
17.249001 -0.74800003 -0.090000004 4
17.23 -0.78299999 -0.083999999 10
17.273001 -0.82200003 -0.079000004 4
17.282 -0.86000001 -0.072999999 3
17.281 -0.89600003 -0.068000004 3
17.309 -0.93400002 -0.063000001 3
17.309 -0.97100002 -0.057999998 3
17.268999 -1.005 -0.052999999 1
17.4 -1.05 -0.048 2
17.416 -1.087 -0.044 2
17.445 -1.126 -0.039000001 1
17.441 -1.163 -0.035 1
17.523001 -1.205 -0.029999999 1
17.483 -1.239 -0.026000001 1
17.709 -1.293 -0.022 1
17.812 -1.339 -0.017999999 152
17.853001 -1.3789999 -0.014 153
17.782 -1.411 -0.0099999998 1
0 0 0 0
0 0 0 17
34.32 -2.941 0 42
34.105999 -2.994 0.0049999999 54
34.085999 -3.063 0.012 105
34.09 -3.135 0.017000001 118
34.122002 -3.21 0.023 110
34.134998 -3.283 0.028999999 114
34.165001 -3.3570001 0.034000002 87
34.168999 -3.4289999 0.039000001 113
34.172001 -3.5 0.043000001 111
34.206001 -3.576 0.048 89
0 0 0 4
17.948 -1.951 0.028999999 19
17.878 -1.98 0.030999999 24
17.820999 -2.0109999 0.033 32
17.782 -2.0420001 0.035 32
17.743 -2.075 0.035999998 37
17.715 -2.1070001 0.037999999 40
17.694 -2.141 0.039000001 42
17.672001 -2.175 0.039999999 44
17.669001 -2.211 0.041000001 32
17.632999 -2.243 0.041999999 53
17.625999 -2.2780001 0.043000001 60
17.604 -2.312 0.044 60
17.611 -2.348 0.044 66
17.6 -2.3829999 0.045000002 60
17.607 -2.4200001 0.045000002 36
17.618 -2.457 0.046 49
17.625 -2.494 0.046 43
17.618 -2.529 0.046 51
17.655001 -2.5699999 0.046 31
17.645 -2.6029999 0.046 43
17.67 -2.642 0.046 38
17.688999 -2.6800001 0.045000002 35
17.714001 -2.7190001 0.045000002 31
17.747 -2.7590001 0.045000002 26
17.83 -2.8080001 0.044 21
0 0 0 1
0 0 0 0
0 0 0 0
0 0 0 0
0 0 0 0
0 0 0 4
38.766998 -6.6399999 0.079000004 4
38.689999 -6.7020001 0.075999998 4
38.750999 -6.7870002 0.072999999 3
0 0 0 0
0 0 0 1
30.466 -5.513 0.046999998 1
30.316 -5.5440001 0.043000001 1
0 0 0 0
0 0 0 0
0 0 0 0
0 0 0 0
0 0 0 0
0 0 0 11
35.112 -6.8860002 0.017000001 15
34.964001 -6.9219999 0.011 8
34.827999 -6.96 0.0049999999 9
34.797001 -7.0170002 0 27
0 0 0 1
27.861 -5.7210002 -0.0099999998 2
27.948999 -5.79 -0.015 3
0 0 0 2
34.886002 -7.3540001 -0.033 7
34.865002 -7.4120002 -0.039000001 9
34.879002 -7.4780002 -0.046999998 9
0 0 0 1
13.06 -2.8469999 -0.023 1
12.967 -2.8499999 -0.026000001 1
12.864 -2.8499999 -0.028000001 1
13.052 -2.914 -0.032000002 1
13.081 -2.944 -0.035 1
13.033 -2.9560001 -0.037999999 2
12.824 -2.931 -0.039999999 8
12.944 -2.9809999 -0.044 20
12.781 -2.9660001 -0.046 8
12.804 -2.993 -0.050000001 12
13.002 -3.062 -0.054000001 29
12.922 -3.0650001 -0.057 20
12.877 -3.076 -0.059999999 19
12.785 -3.075 -0.064000003 28
12.782 -3.096 -0.067000002 28
12.776 -3.1159999 -0.071000002 19
12.792 -3.141 -0.074000001 21
12.775 -3.158 -0.078000002 23
12.811 -3.188 -0.082000002 16
12.793 -3.204 -0.086000003 26
12.811 -3.23 -0.090000004 26
12.898 -3.2720001 -0.094999999 10
12.894 -3.2909999 -0.097999997 4
0 0 0 0
0 0 0 4
28.080999 -7.3010001 -0.242 10
28.056 -7.3390002 -0.25099999 17
28.054001 -7.382 -0.26100001 27
28.049 -7.4229999 -0.27000001 37
28.040001 -7.4640002 -0.27900001 44
28.044001 -7.5079999 -0.289 48
28.052999 -7.553 -0.29899999 42
28.108 -7.6100001 -0.30899999 5
0 0 0 1
6.9429998 -1.9 -0.081 1
6.915 -1.903 -0.082999997 2
6.9070001 -1.91 -0.085000001 3
6.914 -1.9220001 -0.088 2
6.927 -1.936 -0.090999998 2
6.9169998 -1.943 -0.093000002 2
6.9060001 -1.95 -0.094999999 3
6.9120002 -1.961 -0.097999997 3
6.902 -1.9680001 -0.101 3
6.915 -1.9809999 -0.103 2
6.921 -1.993 -0.106 2
6.9299998 -2.0039999 -0.109 1
0 0 0 42
28.188999 -8.2299995 -0.46700001 42
28.195 -8.2700005 -0.47799999 50
28.198999 -8.3079996 -0.48899999 52
28.198 -8.3450003 -0.5 52
28.219999 -8.3879995 -0.51200002 49
28.218 -8.4239998 -0.52399999 43
28.226999 -8.4630003 -0.53500003 31
28.219999 -8.4969997 -0.546 21
28.235001 -8.5360003 -0.55900002 11
0 0 0 0
0 0 0 0
0 0 0 9
0 0 0 7
27.473 -8.4729996 -0.60000002 16
27.391001 -8.4799995 -0.61000001 22
27.357 -8.5 -0.62099999 27
27.309 -8.5170002 -0.63200003 30
27.277 -8.5380001 -0.64300001 33
27.246 -8.559 -0.65399998 35
27.205999 -8.5769997 -0.66399997 37
27.18 -8.599 -0.676 37
27.167999 -8.625 -0.68699998 44
27.139 -8.6450005 -0.69700003 46
27.125 -8.6689997 -0.70899999 47
27.108999 -8.6929998 -0.72000003 46
27.093 -8.7159996 -0.73199999 49
27.077 -8.7379999 -0.74299997 56
27.056 -8.7589998 -0.755 49
27.052 -8.7849998 -0.76599997 58
27.042999 -8.809 -0.778 58
27.049 -8.8369999 -0.79000002 46
27.049 -8.8629999 -0.80199999 42
27.044001 -8.8870001 -0.81400001 47
27.038 -8.9099998 -0.82499999 38
27.025999 -8.9300003 -0.838 44
27.042 -8.96 -0.85000002 42
0 0 0 3
10.144 -3.3789999 -0.32699999 10
10.118 -3.3789999 -0.331 12
10.101 -3.382 -0.33500001 10
10.073 -3.381 -0.33899999 17
10.042 -3.3789999 -0.34200001 19
10.01 -3.3759999 -0.34599999 21
9.9910002 -3.378 -0.34900001 24
9.9860001 -3.3840001 -0.354 15
9.9610004 -3.3829999 -0.35800001 16
9.9440002 -3.385 -0.361 25
9.9399996 -3.391 -0.366 19
9.941 -3.3989999 -0.37 19
9.915 -3.3970001 -0.37400001 17
9.8990002 -3.398 -0.37799999 16
9.9020004 -3.4059999 -0.382 20
9.8870001 -3.408 -0.38600001 19
9.8719997 -3.4089999 -0.38999999 18
9.8620005 -3.4119999 -0.39399999 24
9.8669996 -3.4200001 -0.39899999 18
9.8579998 -3.4230001 -0.403 18
9.8459997 -3.425 -0.40700001 26
9.8439999 -3.4300001 -0.41100001 27
9.8360004 -3.4330001 -0.41499999 28
9.8280001 -3.4349999 -0.419 28
9.8290005 -3.441 -0.42399999 25
9.823 -3.444 -0.428 21
9.8179998 -3.448 -0.43200001 20
9.8129997 -3.451 -0.43599999 26
9.8210001 -3.4579999 -0.44100001 27
9.809 -3.4590001 -0.44499999 28
9.7910004 -3.457 -0.44800001 28
9.802 -3.4649999 -0.45300001 29
9.7959995 -3.467 -0.45699999 29
9.7860003 -3.4679999 -0.461 29
9.7860003 -3.4719999 -0.465 29
9.7770004 -3.473 -0.47 29
9.7749996 -3.4760001 -0.47400001 29
9.7729998 -3.4779999 -0.47799999 29
9.7679996 -3.48 -0.48199999 29
9.7690001 -3.483 -0.486 30
9.75 -3.48 -0.48899999 30
9.7589998 -3.4860001 -0.49399999 30
9.7600002 -3.4890001 -0.49900001 30
9.7609997 -3.4920001 -0.50300002 31
9.7690001 -3.497 -0.50700003 32
9.7510004 -3.493 -0.51099998 32
9.75 -3.4949999 -0.51499999 32
9.7480001 -3.4960001 -0.51899999 32
9.7440004 -3.497 -0.523 33
9.7469997 -3.5 -0.52700001 33
9.7419996 -3.5 -0.53100002 32
9.7399998 -3.5 -0.53500003 32
9.7360001 -3.5 -0.53899997 31
9.7399998 -3.503 -0.54299998 31
9.7340002 -3.5020001 -0.54699999 31
9.743 -3.506 -0.551 32
9.7449999 -3.507 -0.55500001 31
9.7390003 -3.506 -0.55900002 31
9.743 -3.5079999 -0.56300002 31
9.743 -3.5079999 -0.56699997 31
9.7510004 -3.5109999 -0.57099998 31
9.7349997 -3.5050001 -0.574 31
9.7410002 -3.507 -0.579 32
9.7309999 -3.5039999 -0.58200002 32
9.743 -3.507 -0.58600003 32
9.7340002 -3.5039999 -0.58999997 32
9.7449999 -3.507 -0.59399998 32
9.7480001 -3.507 -0.59799999 32
9.7399998 -3.503 -0.602 31
9.7410002 -3.503 -0.60600001 31
9.7370005 -3.5 -0.60900003 30
9.7419996 -3.5 -0.61299998 30
9.743 -3.4990001 -0.61699998 30
9.7460003 -3.4979999 -0.62099999 30
9.7440004 -3.4960001 -0.62400001 30
9.7469997 -3.4949999 -0.62800002 30
9.7379999 -3.49 -0.63099998 30
9.7530003 -3.493 -0.63499999 30
9.7469997 -3.4879999 -0.639 30
9.7469997 -3.4849999 -0.64200002 30
9.7550001 -3.4860001 -0.64600003 29
9.7489996 -3.4809999 -0.64899999 30
9.7609997 -3.4820001 -0.65399998 30
9.7679996 -3.4809999 -0.65799999 29
9.7720003 -3.48 -0.66100001 29
9.7639999 -3.473 -0.66399997 29
9.7670002 -3.471 -0.667 29
9.7749996 -3.47 -0.671 29
9.7790003 -3.467 -0.67500001 29
9.7799997 -3.464 -0.67799997 28
9.7749996 -3.4579999 -0.68099999 27
9.783 -3.4560001 -0.685 19
9.79 -3.4549999 -0.68800002 18
9.7910004 -3.45 -0.69099998 19
9.7959995 -3.447 -0.69499999 19
9.7939997 -3.4419999 -0.69800001 18
9.7969999 -3.438 -0.70099998 19
9.7989998 -3.434 -0.704 17
9.8219995 -3.437 -0.70899999 18
9.8149996 -3.4289999 -0.71100003 24
9.8269997 -3.427 -0.71499997 16
9.8330002 -3.4230001 -0.71799999 17
9.8330002 -3.418 -0.722 24
9.8509998 -3.418 -0.72600001 17
9.8620005 -3.4159999 -0.72899997 17
9.8540001 -3.4059999 -0.73100001 24
9.8699999 -3.4059999 -0.73500001 15
9.8739996 -3.401 -0.73799998 14
9.8859997 -3.398 -0.74199998 16
9.9029999 -3.3970001 -0.74599999 16
9.8929996 -3.3870001 -0.74699998 25
9.9169998 -3.388 -0.75199997 24
9.9169998 -3.3800001 -0.75400001 21
9.9440002 -3.382 -0.759 21
9.9519997 -3.3770001 -0.76200002 20
9.9650002 -3.3740001 -0.76499999 20
9.9799995 -3.3710001 -0.76899999 20
9.9940004 -3.368 -0.77200001 17
10.013 -3.3659999 -0.77600002 15
10.04 -3.3670001 -0.78100002 14
10.063 -3.3659999 -0.78500003 12
10.088 -3.3659999 -0.78899997 11
10.125 -3.369 -0.79400003 7
10.521 -3.4920001 -0.82700002 2
10.906 -3.6099999 -0.86000001 2
11.038 -3.6440001 -0.87199998 2
10.981 -3.615 -0.87 2
10.933 -3.589 -0.86799997 2
10.86 -3.5550001 -0.86500001 2
10.845 -3.539 -0.86500001 2
10.813 -3.5190001 -0.86500001 3
10.748 -3.487 -0.86199999 3
10.711 -3.464 -0.86000001 3
10.674 -3.4419999 -0.85900003 3
10.614 -3.411 -0.85600001 4
10.593 -3.3940001 -0.85600001 3
10.535 -3.3640001 -0.85299999 3
10.499 -3.3410001 -0.85100001 3
10.458 -3.3169999 -0.85000002 3
10.433 -3.2980001 -0.84899998 3
10.402 -3.277 -0.84799999 4
10.355 -3.2509999 -0.84500003 5
10.348 -3.237 -0.84600002 4
10.337 -3.2219999 -0.847 5
10.306 -3.2 -0.84500003 5
10.283 -3.1819999 -0.84500003 5
10.244 -3.1570001 -0.84299999 6
10.213 -3.1359999 -0.84100002 7
10.212 -3.1229999 -0.84200001 5
10.199 -3.1070001 -0.84200001 7
10.164 -3.0840001 -0.83999997 8
10.173 -3.0739999 -0.84100002 7
0 0 0 1
6.8309999 -2.0480001 -0.56599998 23
6.882 -2.0539999 -0.56999999 152
6.8829999 -2.046 -0.57099998 156
6.8730001 -2.0339999 -0.57099998 156
6.8759999 -2.026 -0.57099998 156
6.8930001 -2.0220001 -0.57300001 156
6.8730001 -2.0079999 -0.57200003 156
6.8670001 -1.997 -0.57099998 156
6.882 -1.992 -0.57300001 156
6.8829999 -1.983 -0.57300001 156
6.836 -1.96 -0.56900001 156
6.855 -1.956 -0.57099998 156
6.8769999 -1.9529999 -0.57300001 156
6.8769999 -1.944 -0.57300001 156
6.8909998 -1.938 -0.574 156
6.855 -1.918 -0.57099998 156
6.8509998 -1.908 -0.56999999 156
6.8600001 -1.901 -0.57099998 152
6.9089999 -1.904 -0.57499999 153
6.8470001 -1.877 -0.56999999 152
6.816 -1.859 -0.56699997 13
6.8460002 -1.857 -0.56900001 152
6.8530002 -1.849 -0.56900001 153
6.8940001 -1.85 -0.57200003 151
6.888 -1.8380001 -0.57200003 154
6.8969998 -1.83 -0.57200003 150
6.9299998 -1.8279999 -0.574 28
6.941 -1.821 -0.574 21
6.9790001 -1.8200001 -0.57700002 15
7.0089998 -1.817 -0.579 5
0 0 0 2
10.077 -2.582 -0.83099997 3
10.07 -2.5639999 -0.829 2
10.106 -2.5580001 -0.83099997 3
10.116 -2.5439999 -0.82999998 2
10.125 -2.53 -0.82999998 3
10.151 -2.5209999 -0.83099997 3
10.168 -2.5090001 -0.83099997 2
10.199 -2.5009999 -0.83200002 2
10.233 -2.4920001 -0.833 3
10.227 -2.474 -0.83099997 3
10.273 -2.4679999 -0.833 3
10.291 -2.4549999 -0.833 3
10.317 -2.444 -0.833 3
10.36 -2.437 -0.83499998 3
10.384 -2.4260001 -0.83499998 3
10.431 -2.4189999 -0.83700001 3
10.46 -2.408 -0.83700001 2
10.485 -2.3959999 -0.83600003 3
10.541 -2.391 -0.83899999 3
10.584 -2.3829999 -0.83999997 2
10.646 -2.3789999 -0.84200001 2
10.667 -2.365 -0.84200001 3
10.703 -2.355 -0.84200001 3
10.771 -2.3510001 -0.84500003 2
10.816 -2.342 -0.84600002 2
10.869 -2.3340001 -0.847 2
10.919 -2.326 -0.84799999 2
10.97 -2.3169999 -0.84899998 2
11.036 -2.312 -0.85100001 2
11.087 -2.303 -0.85100001 2
11.187 -2.3039999 -0.85600001 2
11.246 -2.296 -0.85699999 3
11.309 -2.289 -0.85900003 2
11.397 -2.286 -0.86199999 2
11.468 -2.28 -0.86299998 2
11.546 -2.2750001 -0.86500001 2
11.625 -2.2690001 -0.86799997 3
11.716 -2.266 -0.87 2
11.776 -2.256 -0.87099999 3
11.874 -2.253 -0.87400001 3
11.959 -2.2479999 -0.87599999 3
12.044 -2.2409999 -0.87800002 3
12.106 -2.2309999 -0.87800002 3
12.202 -2.2249999 -0.88 3
12.269 -2.2149999 -0.88 3
12.376 -2.2119999 -0.88300002 3
12.454 -2.2019999 -0.88300002 3
12.596 -2.204 -0.88800001 3
12.699 -2.198 -0.88999999 3
12.81 -2.194 -0.89300001 3
12.943 -2.1919999 -0.89600003 3
13.093 -2.1930001 -0.90100002 3
13.214 -2.1889999 -0.903 3
13.346 -2.1849999 -0.90700001 3
13.543 -2.1919999 -0.91399997 3
13.718 -2.194 -0.91900003 3
13.957 -2.2060001 -0.92900002 3
14.179 -2.214 -0.93699998 3
14.369 -2.217 -0.94199997 3
14.612 -2.2260001 -0.95099998 3
14.847 -2.234 -0.95899999 4
14.966 -2.223 -0.95899999 4
15.132 -2.2190001 -0.96200001 4
15.286 -2.2119999 -0.96399999 5
15.458 -2.2079999 -0.96600002 8
15.614 -2.1989999 -0.96700001 8
15.754 -2.188 -0.96799999 7
15.426 -2.1129999 -0.93900001 5
15.833 -2.1389999 -0.95499998 5
16.087 -2.142 -0.96100003 10
16.379 -2.1489999 -0.96899998 14
16.273001 -2.1029999 -0.954 19
0 0 0 27
17.569 -2.2030001 -1.0089999 25
17.604 -2.1730001 -1 25
17.639 -2.1429999 -0.99199998 25
17.663 -2.112 -0.98199999 38
17.684 -2.079 -0.972 25
17.712999 -2.0480001 -0.96200001 33
17.740999 -2.017 -0.95300001 26
17.76 -1.984 -0.94199997 27
17.851999 -1.96 -0.93599999 21
17.903 -1.9299999 -0.92699999 18
18.021999 -1.9069999 -0.921 5
0 0 0 0
0 0 0 1
24.493999 -2.4489999 -1.202 1
25.195 -2.47 -1.219 2
0 0 0 25
0 0 0 25
0 0 0 17
20.149 -1.817 -0.917 44
20.110001 -1.774 -0.89999998 67
20.108999 -1.734 -0.88599998 45
20.097 -1.694 -0.87 59
20.082001 -1.653 -0.85399997 32
0 0 0 3
17.726999 -1.39 -0.727 3
17.625 -1.348 -0.70999998 3
17.545 -1.307 -0.69300002 2
17.468 -1.268 -0.676 2
17.398001 -1.229 -0.66000003 2
17.341 -1.191 -0.64399999 2
17.365 -1.159 -0.63099998 2
17.302 -1.1210001 -0.61400002 2
17.274 -1.086 -0.59899998 2
17.287001 -1.053 -0.58499998 2
17.284 -1.0190001 -0.57099998 2
17.302 -0.986 -0.55699998 2
17.183001 -0.94599998 -0.53899997 150
17.190001 -0.91299999 -0.52399999 165
17.16 -0.87800002 -0.509 200
17.145 -0.84399998 -0.493 185
17.191999 -0.81300002 -0.47999999 186
17.176001 -0.77899998 -0.46399999 186
17.166 -0.74599999 -0.449 186
17.179001 -0.713 -0.43399999 186
17.155001 -0.68000001 -0.41800001 186
17.177 -0.64700001 -0.403 186
17.142 -0.61299998 -0.38600001 185
17.096001 -0.57800001 -0.37 174
17.143999 -0.54699999 -0.35499999 168
17.121 -0.51300001 -0.33899999 157
17.278 -0.48500001 -0.32499999 8
17.233999 -0.44999999 -0.308 11
17.243999 -0.41800001 -0.292 11
17.225 -0.38499999 -0.27599999 3
17.150999 -0.34999999 -0.25799999 1
17.162001 -0.31799999 -0.241 1
17.212 -0.287 -0.226 1
17.212 -0.25400001 -0.20900001 1
17.188999 -0.221 -0.191 1
17.186001 -0.189 -0.17399999 1
0 0 0 0
0 0 0 1
17.393999 -0.093999997 -0.125 1
17.385 -0.061000001 -0.107 1
17.436001 -0.028000001 -0.089000002 1
17.493 0.003 -0.071999997 4
17.622999 0.035999998 -0.054000001 152
17.607 0.068999998 -0.035999998 152
17.572001 0.101 -0.017000001 2
17.506001 0.133 0 1
17.559 0.16599999 0.018999999 1
0 0 0 0
0 0 0 0
0 0 0 1
18.544001 0.31200001 0.098999999 1
18.621 0.347 0.119 3
18.679001 0.382 0.14 5
18.690001 0.41600001 0.16 3
18.747999 0.45100001 0.18099999 2
18.903999 0.48899999 0.204 1
0 0 0 1
0 0 0 1
34.063 1.0650001 0.48100001 8
34.446999 1.138 0.52499998 8
34.869999 1.214 0.56999999 10
35.300999 1.2920001 0.61799997 8
37.259998 1.429 0.69400001 20
37.241001 1.494 0.736 21
37.219002 1.559 0.778 33
37.209999 1.625 0.82099998 94
37.458 1.701 0.87 5
37.984001 1.791 0.926 6
38.666 1.891 0.98799998 13
38.702 1.96 1.034 56
39.054001 2.0450001 1.089 9
41.233002 2.2290001 1.198 109
41.223999 2.299 1.2460001 114
41.220001 2.369 1.295 81
41.702999 2.4679999 1.359 5
42.235001 2.5710001 1.427 8
43.782001 2.7379999 1.531 23
42.085999 2.7030001 1.522 43
42.068001 2.7720001 1.572 150
42.07 2.8429999 1.622 107
42.062 2.9119999 1.673 147
42.047001 2.98 1.722 149
42.019001 3.0469999 1.772 150
42.039001 3.118 1.824 11
0 0 0 80
45.393002 3.5150001 2.0810001 84
45.373001 3.5869999 2.1359999 61
0 0 0 0
0 0 0 0
0 0 0 0
0 0 0 0
0 0 0 0
0 0 0 0
0 0 0 23
53.789001 4.9349999 3.063 60
55.007999 5.1329999 3.2019999 67
55.605 5.2750001 3.306 55
56.479 5.4450002 3.4289999 66
57.811001 5.6620002 3.5829999 60
59.130001 5.881 3.7379999 63
60.310001 6.0900002 3.888 75
61.215 6.2740002 4.0240002 46
62.297001 6.4790001 4.1739998 48
63.448002 6.6929998 4.3319998 49
64.781998 6.9330001 4.506 52
66.174004 7.1799998 4.6859999 53
67.552002 7.4289999 4.8699999 49
69.166 7.7080002 5.0749998 44
70.889999 8.0019999 5.29 62
72.460999 8.2860003 5.5009999 79
73.800003 8.5450001 5.697 60
0 0 0 44
118.274 14.032 9.4300003 50
118.205 14.191 9.5760002 44
118.158 14.352 9.724 45
118.119 14.513 9.8719997 40
118.114 14.677 10.023 29
0 0 0 0
0 0 0 0
0 0 0 0
0 0 0 0
0 0 0 0
0 0 0 37
117.939 15.774 11.063 41
117.843 15.917 11.205 38
117.863 16.075001 11.359 42
117.864 16.228001 11.507 34
117.769 16.368 11.649 42
117.707 16.511 11.794 54
117.617 16.649 11.936 72
117.602 16.797001 12.085 79
117.585 16.941999 12.231 87
117.514 17.079 12.374 94
117.513 17.225 12.525 72
117.499 17.368 12.674 85
117.454 17.504999 12.816 79
117.467 17.65 12.968 69
117.414 17.778999 13.108 77
117.434 17.923 13.26 59
117.356 18.054001 13.401 44
117.382 18.197001 13.554 44
117.478 18.344999 13.711 22
0 0 0 0
0 0 0 0
0 0 0 0
0 0 0 0
0 0 0 0
0 0 0 31
0 0 0 0
0 0 0 0
0 0 0 25
0 0 0 0
0 0 0 0
0 0 0 0
0 0 0 0
0 0 0 0
0 0 0 0
0 0 0 35
114.861 20.061001 15.843 35
114.77 20.16 15.972 30
114.623 20.247999 16.091999 29
114.56 20.349001 16.224001 30
114.512 20.452 16.357 39
114.488 20.556999 16.493 47
114.381 20.646999 16.615999 49
114.356 20.75 16.750999 72
114.34 20.854 16.886999 71
114.268 20.945999 17.014 66
114.274 21.051001 17.148001 73
114.246 21.149 17.281 72
114.224 21.246 17.413 57
114.269 21.355 17.556 47
114.173 21.437 17.677 42
114.213 21.542 17.816999 34
114.269 21.65 17.957001 26
114.413 21.774 18.114 29
114.286 21.844 18.226999 24
114.342 21.952 18.368 25
114.312 22.039 18.495001 27
114.293 22.124001 18.625 27
114.359 22.226999 18.763 31
114.242 22.296 18.874001 31
114.161 22.365 18.990999 28
114.189 22.457001 19.125 30
114.18 22.541 19.249001 30
114.19 22.628 19.375 25
114.111 22.695 19.49 30
114.143 22.780001 19.622999 35
114.109 22.857 19.742001 31
114.303 22.976 19.902 24
114.067 23.007 19.986 28
114.043 23.079 20.106001 32
114.004 23.146999 20.223 29
113.99 23.219999 20.34 32
113.94 23.283001 20.452999 54
113.889 23.344999 20.565001 58
113.841 23.406 20.677 63
113.82 23.472 20.794001 73
113.817 23.540001 20.912001 74
113.785 23.6 21.025 71
113.775 23.667999 21.139999 72
113.793 23.737 21.26 69
113.781 23.798 21.375 70
113.778 23.860001 21.489 69
113.791 23.924 21.607 47
113.811 23.989 21.725 43
113.781 24.041 21.832001 44
113.741 24.091 21.937 40
113.884 24.177999 22.076 32
113.783 24.212 22.167999 27
113.914 24.295 22.299999 24
113.863 24.339001 22.402 31
113.79 24.375999 22.493 34
113.849 24.440001 22.612 31
113.796 24.475 22.709999 32
113.781 24.523001 22.812 36
113.798 24.573 22.92 31
113.832 24.627001 23.031 28
113.958 24.700001 23.157 24
113.772 24.702999 23.222 24
113.733 24.736 23.316 24
113.808 24.794001 23.431999 24
113.814 24.836 23.530001 23
113.898 24.893 23.646 23
113.703 24.888 23.704 28
113.765 24.937 23.813999 28
113.678 24.952999 23.892 24
113.867 25.028 24.027 24
113.725 25.030001 24.091999 28
113.832 25.084 24.208 26
113.784 25.104 24.290001 23
113.779 25.132 24.381001 26
113.68 25.139 24.447001 32
113.64 25.156 24.528 34
113.602 25.173 24.608 44
113.613 25.202999 24.695999 48
113.491 25.197001 24.759001 49
113.483 25.216999 24.843 61
113.571 25.257999 24.944 63
113.519 25.266001 25.016001 65
113.56 25.292999 25.107 60
113.56 25.309999 25.188999 59
113.498 25.312 25.254999 65
113.556 25.339001 25.348 61
113.483 25.336 25.41 55
113.554 25.365 25.5 60
113.495 25.363001 25.563 51
113.484 25.372 25.632999 42
113.479 25.379 25.705999 38
113.546 25.400999 25.794001 33
113.474 25.391001 25.85 30
113.481 25.398001 25.922001 24
0 0 0 0
0 0 0 0
0 0 0 0
0 0 0 0
0 0 0 0
0 0 0 0
0 0 0 0
0 0 0 0
0 0 0 0
0 0 0 0
0 0 0 0
0 0 0 0
0 0 0 0
0 0 0 0
0 0 0 0
0 0 0 0
0 0 0 0
0 0 0 0
0 0 0 0
0 0 0 0
0 0 0 0
0 0 0 0
0 0 0 0
0 0 0 0
0 0 0 0
0 0 0 0
0 0 0 0
0 0 0 0
0 0 0 0
0 0 0 0
0 0 0 0
0 0 0 0
0 0 0 0
0 0 0 0
0 0 0 0
0 0 0 0
0 0 0 0
0 0 0 0
0 0 0 0
0 0 0 0
0 0 0 0
0 0 0 0
0 0 0 0
0 0 0 0
0 0 0 0
0 0 0 0
0 0 0 0
0 0 0 0
0 0 0 0
0 0 0 0
0 0 0 0
0 0 0 0
0 0 0 26
114.056 24.1 28.155001 26
114.252 24.084 28.209 25
0 0 0 0
0 0 0 22
0 0 0 0
0 0 0 0
0 0 0 24
114.197 23.708 28.202 24
114.297 23.664 28.224001 25
114.241 23.59 28.204 24
114.43 23.563 28.243999 23
0 0 0 0
0 0 0 0
0 0 0 0
0 0 0 24
0 0 0 0
0 0 0 23
0 0 0 0
0 0 0 24
114.537 22.948 28.155001 22
114.429 22.85 28.110001 23
114.468 22.784 28.098 24
0 0 0 0
0 0 0 27
0 0 0 0
0 0 0 0
0 0 0 0
0 0 0 0
0 0 0 0
0 0 0 0
0 0 0 22
0 0 0 0
0 0 0 0
0 0 0 0
0 0 0 0
0 0 0 0
0 0 0 0
0 0 0 24
114.86 21.416 27.646 28
0 0 0 0
0 0 0 0
0 0 0 0
0 0 0 0
0 0 0 0
0 0 0 0
0 0 0 0
0 0 0 0
0 0 0 0
0 0 0 25
114.989 20.379999 27.125 34
114.995 20.278999 27.069 26
115.082 20.191999 27.030001 30
115.062 20.084999 26.965 28
114.978 19.968 26.879999 31
115.136 19.889999 26.853001 29
115.138 19.785 26.789 33
115.174 19.688999 26.731001 38
0 0 0 0
0 0 0 0
0 0 0 0
0 0 0 0
0 0 0 0
0 0 0 53
140.151 23.035 31.923 41
140.31599 22.926001 31.868 37
0 0 0 0
0 0 0 0
0 0 0 0
0 0 0 0
0 0 0 52
143.071 22.537001 31.898001 53
143.19701 22.413 31.82 43
145.78799 22.673 32.283001 42
145.77901 22.523001 32.169998 46
145.826 22.382 32.068001 59
145.90199 22.243999 31.971001 71
146.01801 22.112 31.879999 53
146.144 21.98 31.791 50
0 0 0 0
0 0 0 49
148.778 21.910999 31.996 61
148.855 21.77 31.886 55
148.774 21.597 31.742001 52
148.942 21.464001 31.648001 52
148.935 21.311001 31.511999 63
149.009 21.158001 31.395 59
149.213 21.027 31.302999 44
0 0 0 0
0 0 0 0
0 0 0 0
0 0 0 49
154.879 20.993 31.771 49
154.911 20.827999 31.629 57
0 0 0 0
0 0 0 58
0 0 0 0
0 0 0 50
157.644 20.329 31.399 63
157.77 20.17 31.261999 87
157.806 19.999001 31.106001 59
157.85699 19.829 30.951 46
0 0 0 0
0 0 0 33
118.326 14.466 22.818001 45
118.312 14.334 22.691 66
118.333 14.203 22.565001 74
118.422 14.08 22.451 88
118.454 13.95 22.325001 80
118.429 13.812 22.187 78
118.495 13.689 22.065001 82
118.527 13.558 21.934999 80
118.564 13.43 21.806 91
118.595 13.298 21.674 88
118.603 13.164 21.535999 97
118.603 13.028 21.395 78
118.654 12.898 21.261999 72
118.68 12.764 21.124001 72
118.707 12.634 20.986 31
0 0 0 0
0 0 0 0
0 0 0 0
0 0 0 0
0 0 0 0
0 0 0 0
0 0 0 0
0 0 0 0
0 0 0 0
0 0 0 0
0 0 0 22
116.448 10.786 18.805 23
116.358 10.643 18.635 25
0 0 0 0
0 0 0 30
116.434 10.248 18.176001 25
0 0 0 0
0 0 0 0
0 0 0 0
0 0 0 18
49.530998 4.0739999 7.388 51
48.819 3.9590001 7.2129998 42
48.603001 3.885 7.1110001 40
47.896 3.773 6.9390001 28
47.249001 3.6689999 6.7789998 51
46.358002 3.546 6.5840001 11
45.591999 3.4349999 6.4089999 19
45.536999 3.3800001 6.335 47
45.554001 3.3280001 6.27 57
45.548 3.277 6.2020001 56
45.549999 3.2249999 6.1339998 57
45.577999 3.174 6.0700002 59
45.581001 3.122 6.0009999 58
0 0 0 8
41.845001 2.7720001 5.3829999 9
41.535999 2.704 5.2789998 46
41.563 2.658 5.2179999 50
41.087002 2.5810001 5.0949998 35
40.550999 2.5009999 4.9650002 55
40.564999 2.4560001 4.9029999 52
40.292999 2.395 4.8080001 42
39.254002 2.289 4.6220002 53
39.256001 2.2449999 4.5599999 54
39.257 2.2 4.4959998 54
38.443001 2.1110001 4.3400002 31
37.879002 2.0380001 4.217 54
37.874001 1.9960001 4.1539998 52
37.895 1.954 4.0949998 53
36.988998 1.868 3.938 27
36.563999 1.8049999 3.8329999 54
36.555 1.765 3.7720001 63
36.574001 1.726 3.714 53
0 0 0 8
33.368999 1.501 3.277 28
33.384998 1.466 3.223 22
33.355 1.428 3.164 45
33.363998 1.393 3.1099999 47
33.369999 1.357 3.0539999 46
33.368999 1.321 2.997 45
33.389 1.286 2.9419999 47
33.366001 1.25 2.8829999 83
33.373001 1.214 2.826 85
33.377998 1.179 2.7690001 85
33.368 1.143 2.71 68
33.362999 1.107 2.651 90
33.380001 1.073 2.595 96
33.382 1.038 2.536 94
33.41 1.0039999 2.4790001 82
33.412998 0.96899998 2.421 78
33.425999 0.93400002 2.362 52
33.411999 0.89899999 2.302 88
33.408001 0.86500001 2.2420001 105
33.437 0.83099997 2.184 52
33.41 0.796 2.122 23
32.93 0.75099999 2.0309999 7
32.727001 0.713 1.959 42
32.911999 0.68400002 1.9119999 33
33.249001 0.65799999 1.87 120
33.450001 0.62800002 1.8200001 112
33.453999 0.59600002 1.761 103
33.443001 0.56199998 1.699 105
33.464001 0.52999997 1.638 107
33.469002 0.49700001 1.577 115
33.465 0.465 1.515 105
33.478001 0.43200001 1.4529999 103
33.478001 0.40000001 1.391 102
33.48 0.36700001 1.329 110
33.485001 0.336 1.267 102
33.505001 0.30399999 1.205 79
33.508999 0.27200001 1.142 58
33.521 0.241 1.079 30
33.521 0.20900001 1.0140001 1
0 0 0 0
0 0 0 0
0 0 0 0
0 0 0 0
0 0 0 0
0 0 0 0
0 0 0 0
0 0 0 0
0 0 0 25
0 0 0 25
0 0 0 1
17.862 -0.081 0.12899999 1
17.705 -0.096000001 0.093000002 1
0 0 0 0
0 0 0 1
17.396 -0.138 -0.0089999996 2
17.368999 -0.153 -0.044 3
17.349001 -0.167 -0.078000002 2
17.221001 -0.18000001 -0.111 1
17.200001 -0.19400001 -0.145 1
17.207001 -0.208 -0.178 1
17.184 -0.222 -0.212 1
17.181999 -0.235 -0.24600001 1
17.139 -0.249 -0.27900001 1
17.146999 -0.26199999 -0.31299999 1
17.122999 -0.27500001 -0.347 12
17.112 -0.28799999 -0.38 13
17.097 -0.301 -0.414 9
17.148001 -0.315 -0.449 2
17.152 -0.32800001 -0.484 2
17.127001 -0.34099999 -0.51800001 2
17.139999 -0.354 -0.55199999 3
17.275 -0.36899999 -0.59100002 8
17.281 -0.382 -0.625 7
17.281 -0.39399999 -0.66000003 3
17.365 -0.40900001 -0.69800001 3
17.718 -0.43000001 -0.74699998 2
17.936001 -0.447 -0.792 1
0 0 0 26
0 0 0 0
0 0 0 1
0 0 0 1
17.622999 -0.5 -0.95499998 2
0 0 0 0
0 0 0 2
15.24 -0.46200001 -0.917 2
0 0 0 4
13.666 -0.43200001 -0.87800002 3
13.179 -0.42500001 -0.87300003 4
12.492 -0.41 -0.85299999 3
11.892 -0.398 -0.83499998 2
11.371 -0.38699999 -0.82200003 2
10.918 -0.37900001 -0.81099999 3
10.484 -0.37 -0.80000001 2
10.093 -0.36199999 -0.79000002 3
9.7309999 -0.35499999 -0.78100002 4
9.4110003 -0.34799999 -0.77499998 3
9.0570002 -0.34 -0.764 4
8.717 -0.33199999 -0.75300002 4
8.4090004 -0.32499999 -0.74299997 4
8.1230001 -0.31900001 -0.73400003 8
7.8600001 -0.31299999 -0.72600001 14
7.6490002 -0.308 -0.722 14
7.4920001 -0.30599999 -0.722 12
7.3140001 -0.30199999 -0.72000003 12
7.1230001 -0.29800001 -0.71499997 7
6.849 -0.28999999 -0.70099998 4
6.6240001 -0.28400001 -0.69199997 3
6.4650002 -0.28 -0.68800002 3
6.263 -0.27399999 -0.67900002 3
6.1409998 -0.27200001 -0.67799997 4
5.987 -0.26800001 -0.67299998 4
5.836 -0.264 -0.66799998 4
5.678 -0.259 -0.66100001 3
5.5469999 -0.25600001 -0.65700001 4
5.4180002 -0.252 -0.65200001 3
5.3080001 -0.249 -0.64999998 3
5.2010002 -0.24699999 -0.64700001 4
5.0830002 -0.243 -0.64200002 3
4.9899998 -0.241 -0.63999999 2
4.8870001 -0.23800001 -0.63700002 2
4.77 -0.234 -0.63099998 4
4.6960001 -0.23199999 -0.63 2
4.5999999 -0.229 -0.62699997 3
4.5310001 -0.227 -0.62599999 2
4.4460001 -0.22499999 -0.62300003 2
4.3590002 -0.222 -0.62 2
4.296 -0.22 -0.61900002 3
4.1750002 -0.21600001 -0.61000001 3
4.1279998 -0.215 -0.611 2
4.0560002 -0.212 -0.60799998 3
4.04 -0.213 -0.61400002 3
3.974 -0.211 -0.61199999 2
3.8759999 -0.207 -0.60399997 2
3.925 -0.20999999 -0.61900002 3
3.753 -0.20200001 -0.59899998 2
3.7149999 -0.20100001 -0.60000002 2
3.6730001 -0.2 -0.60100001 2
3.5840001 -0.19599999 -0.59299999 3
3.516 -0.19400001 -0.588 1
3.506 -0.19400001 -0.59399998 1
3.424 -0.19 -0.58600003 1
3.411 -0.191 -0.58999997 1
3.4289999 -0.192 -0.60000002 2
3.368 -0.19 -0.59600002 1
3.332 -0.189 -0.59600002 1
3.2690001 -0.186 -0.59100002 1
3.3050001 -0.189 -0.60299999 2
3.2750001 -0.18700001 -0.60399997 2
3.1819999 -0.183 -0.59299999 2
3.198 -0.184 -0.602 2
3.1210001 -0.18099999 -0.59299999 1
3.0380001 -0.176 -0.583 1
3 -0.175 -0.58099997 1
2.9820001 -0.17399999 -0.583 1
2.9879999 -0.175 -0.58899999 1
2.9389999 -0.17299999 -0.58499998 1
2.8659999 -0.169 -0.57599998 1
2.825 -0.167 -0.57300001 1
2.7850001 -0.16500001 -0.56999999 1
2.7679999 -0.164 -0.57099998 1
2.79 -0.16599999 -0.58099997 1
2.7179999 -0.162 -0.57099998 1
2.71 -0.162 -0.574 1
2.6860001 -0.161 -0.57300001 1
2.6229999 -0.15700001 -0.565 1
2.6010001 -0.156 -0.565 1
2.579 -0.155 -0.56400001 1
2.5510001 -0.154 -0.56199998 1
2.5250001 -0.152 -0.56099999 1
2.503 -0.15099999 -0.56099999 1
2.4809999 -0.15000001 -0.56 1
2.4519999 -0.148 -0.55800003 1
2.4289999 -0.147 -0.55699998 1
2.405 -0.146 -0.55500001 1
2.3889999 -0.145 -0.55599999 1
2.3629999 -0.14399999 -0.55400002 1
2.3499999 -0.14300001 -0.55400002 1
2.3239999 -0.141 -0.55199999 1
2.309 -0.141 -0.55299997 1
2.2980001 -0.14 -0.55400002 1
2.2690001 -0.138 -0.551 1
2.2520001 -0.13699999 -0.55000001 1
2.244 -0.13699999 -0.55199999 1
2.2309999 -0.13600001 -0.55199999 1
2.2130001 -0.13500001 -0.551 1
2.1900001 -0.133 -0.54900002 1
2.174 -0.132 -0.54900002 1
2.142 -0.13 -0.54400003 1
2.131 -0.13 -0.54400003 1
2.1140001 -0.12800001 -0.54299998 1
2.105 -0.12800001 -0.54400003 1
2.0910001 -0.127 -0.54400003 1
2.0780001 -0.126 -0.54400003 1
2.0639999 -0.125 -0.54400003 1
2.056 -0.124 -0.54400003 1
2.0380001 -0.123 -0.54299998 1
2.0280001 -0.123 -0.54299998 1
2.016 -0.122 -0.54299998 1
2.006 -0.121 -0.54299998 1
1.988 -0.12 -0.54100001 1
1.9809999 -0.119 -0.542 1
1.965 -0.118 -0.54100001 1
1.952 -0.117 -0.54000002 1
1.937 -0.116 -0.53899997 1
1.928 -0.115 -0.53899997 1
1.921 -0.114 -0.54000002 1
1.911 -0.114 -0.54000002 1
1.901 -0.113 -0.54000002 1
1.8890001 -0.112 -0.53899997 1
1.886 -0.111 -0.54100001 1
1.87 -0.11 -0.53899997 1
1.863 -0.11 -0.53899997 1
1.85 -0.109 -0.53799999 1
1.846 -0.108 -0.53899997 1
1.831 -0.107 -0.537 1
1.825 -0.106 -0.53799999 1
1.814 -0.105 -0.537 1
1.806 -0.105 -0.537 1
1.796 -0.104 -0.53600001 1
1.79 -0.103 -0.537 1
1.781 -0.102 -0.53600001 1
1.771 -0.101 -0.53500003 1
1.768 -0.101 -0.537 1
1.755 -0.1 -0.53500003 1
1.749 -0.098999999 -0.53500003 1
1.747 -0.098999999 -0.537 1
1.7410001 -0.097999997 -0.537 1
1.73 -0.097000003 -0.53500003 1
1.707 -0.094999999 -0.52999997 1
1.698 -0.093999997 -0.52999997 1
1.6950001 -0.093999997 -0.52999997 1
1.693 -0.093000002 -0.53200001 1
1.691 -0.093000002 -0.53299999 1
1.681 -0.092 -0.53200001 1
1.67 -0.090999998 -0.52999997 1
1.665 -0.090000004 -0.52999997 1
1.6619999 -0.090000004 -0.53100002 1
1.655 -0.089000002 -0.53100002 1
1.645 -0.088 -0.52899998 1
1.645 -0.088 -0.53100002 1
1.6440001 -0.086999997 -0.53200001 1
1.628 -0.086000003 -0.52899998 1
1.625 -0.085000001 -0.52899998 1
1.61 -0.083999999 -0.52600002 1
1.605 -0.082999997 -0.52600002 1
1.605 -0.082999997 -0.52700001 1
1.6 -0.082000002 -0.52700001 1
1.599 -0.082000002 -0.52899998 1
1.597 -0.081 -0.52899998 1
1.595 -0.081 -0.52999997 1
1.585 -0.079999998 -0.528 1
1.582 -0.079000004 -0.528 1
1.573 -0.078000002 -0.52700001 1
1.572 -0.078000002 -0.528 1
1.562 -0.077 -0.52600002 1
1.566 -0.075999998 -0.528 1
1.561 -0.075999998 -0.528 1
1.561 -0.075000003 -0.52899998 1
1.552 -0.074000001 -0.528 1
1.546 -0.074000001 -0.52700001 1
1.543 -0.072999999 -0.52700001 1
1.543 -0.071999997 -0.528 1
1.5420001 -0.071999997 -0.528 1
1.536 -0.071000002 -0.528 1
1.523 -0.07 -0.52399999 1
1.528 -0.07 -0.52700001 1
1.523 -0.068999998 -0.52600002 1
1.518 -0.068000004 -0.52600002 1
1.521 -0.068000004 -0.528 1
1.5140001 -0.067000002 -0.52600002 1
1.521 -0.067000002 -0.52999997 1
1.51 -0.066 -0.52600002 1
1.507 -0.064999998 -0.52600002 1
1.5039999 -0.064999998 -0.52600002 1
1.499 -0.064000003 -0.52499998 1
1.502 -0.064000003 -0.52700001 1
1.503 -0.063000001 -0.528 1
1.493 -0.061999999 -0.52600002 1
1.487 -0.061000001 -0.52399999 1
1.492 -0.061000001 -0.52700001 1
1.492 -0.059999999 -0.52700001 1
1.48 -0.059 -0.52399999 1
1.487 -0.059 -0.52700001 1
1.482 -0.057999998 -0.52600002 1
1.482 -0.057999998 -0.52600002 1
1.4809999 -0.057 -0.52700001 1
1.474 -0.057 -0.52499998 1
1.479 -0.056000002 -0.52700001 1
1.476 -0.056000002 -0.52700001 1
1.476 -0.055 -0.52700001 1
1.4579999 -0.054000001 -0.52100003 1
1.4630001 -0.052999999 -0.523 1
1.479 -0.052999999 -0.52899998 1
1.471 -0.052999999 -0.52700001 1
1.464 -0.052000001 -0.52499998 1
1.4630001 -0.050999999 -0.52499998 1
1.456 -0.050000001 -0.523 1
1.456 -0.050000001 -0.523 1
1.459 -0.048999999 -0.52499998 1
1.451 -0.048 -0.52200001 1
1.4579999 -0.048 -0.52499998 1
1.45 -0.046999998 -0.52200001 1
1.449 -0.046999998 -0.52200001 1
1.449 -0.046 -0.52200001 1
1.456 -0.046 -0.52499998 1
1.451 -0.045000002 -0.523 1
1.4450001 -0.044 -0.52100003 1
1.449 -0.044 -0.523 1
1.449 -0.043000001 -0.523 1
1.45 -0.043000001 -0.523 1
1.448 -0.041999999 -0.523 1
1.4529999 -0.041999999 -0.52399999 1
1.447 -0.041000001 -0.52200001 1
1.451 -0.039999999 -0.52399999 1
1.457 -0.039999999 -0.52600002 1
1.446 -0.039000001 -0.52200001 1
1.451 -0.039000001 -0.52399999 1
1.4529999 -0.037999999 -0.52399999 1
1.452 -0.037999999 -0.52399999 1
1.45 -0.037 -0.523 1
1.451 -0.035999998 -0.523 1
1.457 -0.035999998 -0.52499998 1
1.451 -0.035 -0.52200001 1
1.457 -0.035 -0.52499998 1
1.4579999 -0.034000002 -0.52399999 1
1.457 -0.034000002 -0.52399999 1
1.462 -0.033 -0.52499998 1
1.459 -0.032000002 -0.52399999 1
1.46 -0.032000002 -0.52399999 1
1.459 -0.030999999 -0.523 1
1.459 -0.030999999 -0.523 1
1.472 -0.029999999 -0.52700001 1
1.459 -0.028999999 -0.52200001 1
1.457 -0.028999999 -0.52100003 1
1.469 -0.028999999 -0.52499998 1
1.475 -0.028000001 -0.52600002 1
1.472 -0.027000001 -0.52499998 1
1.478 -0.027000001 -0.52600002 1
1.482 -0.026000001 -0.52700001 1
1.479 -0.026000001 -0.52499998 1
1.4809999 -0.025 -0.52499998 1
1.489 -0.025 -0.528 1
1.488 -0.024 -0.52700001 1
1.484 -0.023 -0.52499998 1
1.488 -0.023 -0.52499998 1
1.499 -0.022 -0.528 1
1.493 -0.022 -0.52600002 1
1.499 -0.021 -0.52700001 1
1.495 -0.021 -0.52499998 1
1.503 -0.02 -0.52700001 1
1.503 -0.018999999 -0.52600002 1
1.505 -0.018999999 -0.52600002 1
1.502 -0.017999999 -0.52399999 1
1.503 -0.017999999 -0.523 1
1.518 -0.017000001 -0.528 1
1.512 -0.017000001 -0.52399999 1
1.525 -0.016000001 -0.528 1
1.524 -0.016000001 -0.52700001 1
1.524 -0.015 -0.52600002 1
1.53 -0.014 -0.52700001 1
1.5369999 -0.014 -0.528 1
1.536 -0.013 -0.52600002 1
1.541 -0.013 -0.52700001 1
1.54 -0.012 -0.52600002 1
1.54 -0.011 -0.52499998 1
1.545 -0.011 -0.52499998 1
1.554 -0.0099999998 -0.52700001 1
1.556 -0.0099999998 -0.52600002 1
1.55 -0.0089999996 -0.523 1
1.557 -0.0089999996 -0.52399999 1
1.566 -0.0080000004 -0.52600002 1
1.566 -0.0080000004 -0.52399999 1
1.581 -0.0070000002 -0.528 1
1.589 -0.0060000001 -0.52999997 1
1.595 -0.0060000001 -0.52999997 1
1.596 -0.0049999999 -0.52899998 1
1.598 -0.0049999999 -0.528 1
1.603 -0.0040000002 -0.528 1
1.607 -0.0040000002 -0.528 1
1.613 -0.003 -0.528 1
1.62 -0.0020000001 -0.52899998 1
1.619 -0.0020000001 -0.52700001 1
1.633 -0.001 -0.52999997 1
1.636 -0.001 -0.52899998 1
1.6440001 0 -0.52999997 1
1.647 0 -0.52999997 1
1.654 0 -0.52999997 1
1.66 0.001 -0.52999997 1
1.669 0.001 -0.53100002 1
1.6720001 0.0020000001 -0.53100002 1
1.679 0.0020000001 -0.53100002 1
1.684 0.003 -0.52999997 1
1.689 0.003 -0.52999997 1
1.7079999 0.0040000002 -0.53399998 1
1.716 0.0049999999 -0.53500003 1
1.717 0.0049999999 -0.53299999 1
1.73 0.0060000001 -0.53500003 1
1.737 0.0060000001 -0.53500003 1
1.7410001 0.0070000002 -0.53399998 1
1.75 0.0070000002 -0.53500003 1
1.762 0.0080000004 -0.537 1
1.77 0.0089999996 -0.537 1
1.772 0.0089999996 -0.53500003 1
1.78 0.0099999998 -0.53500003 1
1.7869999 0.0099999998 -0.53500003 1
1.801 0.011 -0.537 1
1.807 0.011 -0.537 1
1.821 0.012 -0.53799999 1
1.827 0.013 -0.53799999 1
1.8329999 0.013 -0.537 1
1.846 0.014 -0.53799999 1
1.849 0.014 -0.537 1
1.864 0.015 -0.53899997 1
1.877 0.016000001 -0.54000002 1
1.8839999 0.016000001 -0.53899997 1
1.8940001 0.017000001 -0.53899997 1
1.905 0.017000001 -0.54000002 1
1.915 0.017999999 -0.54000002 1
1.924 0.017999999 -0.54000002 1
1.938 0.018999999 -0.54100001 1
1.951 0.02 -0.54100001 1
1.9630001 0.02 -0.542 1
1.964 0.021 -0.53899997 1
1.982 0.021 -0.54100001 1
2.0039999 0.022 -0.54400003 1
2.0109999 0.022 -0.54400003 1
2.0179999 0.023 -0.542 1
2.029 0.024 -0.542 1
2.0420001 0.024 -0.54299998 1
2.062 0.025 -0.54500002 1
2.0680001 0.025 -0.54299998 1
2.085 0.026000001 -0.54400003 1
2.1010001 0.026000001 -0.54500002 1
2.1099999 0.027000001 -0.54400003 1
2.1240001 0.027000001 -0.54400003 1
2.1500001 0.028000001 -0.54799998 1
2.168 0.028999999 -0.54900002 1
2.1819999 0.028999999 -0.54900002 1
2.197 0.029999999 -0.54900002 1
2.2079999 0.029999999 -0.54799998 1
2.234 0.030999999 -0.551 1
2.2460001 0.032000002 -0.55000001 1
2.2620001 0.032000002 -0.55000001 1
2.2820001 0.033 -0.55199999 1
2.3010001 0.033 -0.55199999 1
2.3169999 0.034000002 -0.55199999 1
2.3410001 0.035 -0.55400002 1
2.3540001 0.035 -0.55299997 1
2.3789999 0.035999998 -0.55500001 1
2.3929999 0.035999998 -0.55400002 1
2.4130001 0.037 -0.55500001 1
2.4389999 0.037 -0.55599999 1
2.47 0.037999999 -0.55900002 1
2.4820001 0.037999999 -0.55699998 1
2.507 0.039000001 -0.55800003 1
2.543 0.039999999 -0.56199998 1
2.559 0.039999999 -0.56099999 1
2.5829999 0.041000001 -0.56199998 1
2.605 0.041000001 -0.56199998 1
2.6289999 0.041999999 -0.56199998 1
2.655 0.041999999 -0.56300002 1
2.6900001 0.043000001 -0.56599998 1
2.75 0.044 -0.57300001 1
2.7509999 0.044 -0.56800002 1
2.836 0.046 -0.58099997 1
2.9389999 0.046999998 -0.59600002 2
2.8239999 0.045000002 -0.56800002 1
2.8710001 0.046 -0.57200003 2
2.918 0.046999998 -0.57599998 4
2.938 0.046999998 -0.57499999 6
2.954 0.048 -0.57200003 5
2.9879999 0.048 -0.57300001 4
3.0179999 0.048999999 -0.57300001 2
3.1530001 0.050999999 -0.59299999 2
3.1919999 0.050999999 -0.59399998 1
3.1559999 0.050000001 -0.58200002 1
3.302 0.052999999 -0.602 1
3.2679999 0.052000001 -0.58999997 1
3.3640001 0.052999999 -0.60100001 2
3.434 0.054000001 -0.60699999 2
3.414 0.054000001 -0.59600002 2
3.434 0.054000001 -0.59299999 2
3.4519999 0.054000001 -0.58999997 2
3.4719999 0.054000001 -0.58600003 2
3.559 0.055 -0.59399998 2
3.635 0.055 -0.60000002 2
3.79 0.057 -0.61799997 3
3.724 0.056000002 -0.60000002 2
3.8310001 0.057 -0.61000001 2
3.9089999 0.057999998 -0.61400002 3
3.9289999 0.057999998 -0.61000001 2
3.937 0.057 -0.60299999 2
4.013 0.057999998 -0.60699999 2
4.0900002 0.057999998 -0.61000001 2
4.1430001 0.057999998 -0.61000001 2
4.2010002 0.057999998 -0.61000001 2
4.3039999 0.059 -0.616 2
4.3979998 0.059 -0.62099999 2
4.4660001 0.059 -0.62199998 4
4.5419998 0.059999999 -0.62300003 3
4.6160002 0.059999999 -0.62400001 3
4.7179999 0.059999999 -0.62900001 3
4.8099999 0.059999999 -0.63099998 4
4.9050002 0.059999999 -0.634 5
5.0310001 0.061000001 -0.63999999 4
5.1430001 0.061000001 -0.64300001 4
5.2509999 0.061000001 -0.64600003 4
5.381 0.061000001 -0.65100002 3
5.4980001 0.061000001 -0.65399998 4
5.6570001 0.061000001 -0.662 4
5.7979999 0.061000001 -0.667 3
5.9489999 0.061000001 -0.67199999 4
6.1160002 0.061000001 -0.67799997 4
6.2670002 0.059999999 -0.68199998 4
6.454 0.059999999 -0.68900001 4
6.6479998 0.059999999 -0.69599998 4
6.8080001 0.059 -0.699 4
7.0300002 0.059 -0.70700002 4
7.2680001 0.059 -0.71600002 4
7.4889998 0.057999998 -0.722 5
7.7340002 0.057 -0.73000002 5
7.948 0.056000002 -0.73400003 4
8.217 0.055 -0.741 4
8.6289997 0.055 -0.76099998 6
8.8950005 0.052999999 -0.76599997 12
9.1160002 0.050999999 -0.76599997 14
9.4630003 0.048999999 -0.77499998 8
9.7740002 0.046999998 -0.78100002 5
10.219 0.045000002 -0.79500002 4
10.687 0.043000001 -0.80900002 3
11.126 0.039999999 -0.81900001 3
11.668 0.037 -0.83499998 3
12.182 0.033 -0.847 3
12.727 0.028999999 -0.85799998 3
13.441 0.025 -0.87800002 3
14.2 0.02 -0.898 3
0 0 0 4
15.937 0.0080000004 -0.94099998 5
15.838 0 -0.90200001 3
0 0 0 2
0 0 0 1
0 0 0 1
0 0 0 1
0 0 0 1
17.722 -0.052000001 -0.78899997 3
17.606001 -0.059999999 -0.74699998 5
17.431999 -0.068999998 -0.704 3
17.253 -0.078000002 -0.66100001 2
17.188999 -0.086000003 -0.62400001 2
17.169001 -0.096000001 -0.58700001 2
17.166 -0.105 -0.55199999 2
17.148001 -0.115 -0.51499999 1
17.150999 -0.125 -0.47999999 1
17.086 -0.134 -0.442 1
17.15 -0.145 -0.40900001 4
17.129999 -0.155 -0.373 7
17.139999 -0.16500001 -0.338 2
17.163 -0.176 -0.303 1
17.209999 -0.18700001 -0.26800001 1
17.225 -0.198 -0.233 1
17.238001 -0.208 -0.198 1
17.23 -0.219 -0.162 1
17.207001 -0.23 -0.126 1
17.294001 -0.242 -0.090999998 2
17.271999 -0.25299999 -0.056000002 3
17.264999 -0.26499999 -0.021 1
0 0 0 0
0 0 0 0
0 0 0 1
17.955999 -0.324 0.124 1
18.039 -0.338 0.161 1
0 0 0 0
0 0 0 0
0 0 0 0
0 0 0 0
0 0 0 1
0 0 0 0
0 0 0 0
0 0 0 0
0 0 0 0
0 0 0 2
25.686001 -0.68699998 0.79699999 21
25.674999 -0.70599997 0.847 47
25.643999 -0.72500002 0.89700001 55
25.641001 -0.745 0.94700003 58
25.639999 -0.76499999 0.99800003 59
25.628 -0.78399998 1.048 59
25.612 -0.80400002 1.099 58
25.620001 -0.82499999 1.149 61
25.618 -0.84600002 1.2 63
25.615999 -0.86699998 1.25 64
25.618 -0.88800001 1.3 68
25.622 -0.90899998 1.35 75
25.596001 -0.92900002 1.398 73
25.611 -0.95099998 1.448 79
25.606001 -0.972 1.497 70
25.620001 -0.99400002 1.5470001 67
25.613001 -1.016 1.596 66
25.618 -1.0369999 1.645 58
25.625 -1.0599999 1.694 56
25.646999 -1.0829999 1.744 60
25.646 -1.105 1.7920001 56
25.667 -1.128 1.842 55
25.674 -1.151 1.891 50
25.686001 -1.174 1.9400001 48
25.698 -1.197 1.989 44
25.711 -1.221 2.0380001 43
25.73 -1.245 2.0869999 42
25.747999 -1.2690001 2.1370001 38
25.761 -1.293 2.1860001 36
25.792 -1.318 2.2360001 33
25.82 -1.3430001 2.286 30
25.868999 -1.369 2.3369999 27
25.917 -1.396 2.3889999 23
25.962 -1.423 2.441 18
26.044001 -1.451 2.4949999 8
0 0 0 5
0 0 0 0
0 0 0 0
0 0 0 0
0 0 0 0
0 0 0 0
0 0 0 0
0 0 0 0
0 0 0 0
0 0 0 0
0 0 0 0
0 0 0 8
34.147999 -2.3280001 4.0549998 31
34.139 -2.3610001 4.1139998 31
34.176998 -2.3970001 4.177 11
34.201 -2.4319999 4.237 2
0 0 0 0
0 0 0 0
0 0 0 0
0 0 0 0
0 0 0 1
34.249001 -2.641 4.5890002 2
0 0 0 0
0 0 0 0
0 0 0 0
0 0 0 0
0 0 0 2
34.433998 -2.865 4.9499998 1
34.374001 -2.8940001 4.9959998 2
34.381001 -2.9300001 5.052 2
34.529999 -2.9790001 5.1290002 2
34.383999 -3.0009999 5.1609998 1
0 0 0 0
0 0 0 0
0 0 0 0
0 0 0 0
0 0 0 0
0 0 0 0
0 0 0 2
34.540001 -3.3010001 5.6100001 1
34.537998 -3.3369999 5.6620002 2
34.473999 -3.3670001 5.7030001 2
34.506001 -3.4059999 5.7589998 1
34.884998 -3.48 5.8740001 3
34.914001 -3.52 5.9299998 4
34.793999 -3.5439999 5.961 4
34.655998 -3.566 5.9879999 6
34.375 -3.573 5.9889998 14
34.235001 -3.5940001 6.0120001 20
34.063999 -3.612 6.0300002 25
33.896 -3.6300001 6.0479999 24
33.882 -3.664 6.0929999 24
0 0 0 1
18.131001 -1.998 3.3099999 10
18.075001 -2.0109999 3.325 17
18.047001 -2.027 3.3440001 19
17.993999 -2.039 3.359 22
17.945999 -2.053 3.3740001 26
17.943001 -2.0710001 3.3959999 26
17.893999 -2.0840001 3.411 30
17.888 -2.102 3.4330001 34
17.882 -2.1199999 3.4549999 26
17.855 -2.135 3.473 36
17.827999 -2.151 3.4909999 37
17.82 -2.168 3.5109999 41
17.816999 -2.1860001 3.5339999 41
17.805 -2.2030001 3.553 44
17.794001 -2.22 3.573 48
17.771999 -2.2349999 3.5899999 49
17.778 -2.2550001 3.6129999 34
17.767 -2.2720001 3.632 51
17.768 -2.2909999 3.654 35
17.740999 -2.3050001 3.6689999 48
17.761 -2.326 3.6949999 35
17.746 -2.3429999 3.7119999 56
17.73 -2.359 3.73 51
17.726999 -2.3770001 3.7490001 51
17.733 -2.3959999 3.7709999 36
17.722 -2.4130001 3.7880001 56
17.721001 -2.4300001 3.8080001 59
17.726 -2.4489999 3.829 60
17.726999 -2.467 3.848 35
17.715 -2.483 3.865 56
17.726 -2.503 3.8859999 48
17.711 -2.5179999 3.902 54
17.723 -2.5380001 3.9230001 52
17.725 -2.556 3.9419999 54
17.743 -2.576 3.964 45
17.729 -2.592 3.9790001 42
17.737 -2.6110001 3.9990001 46
17.742001 -2.6289999 4.0180001 42
17.747999 -2.6470001 4.0370002 44
17.768 -2.668 4.059 49
17.766001 -2.6849999 4.0749998 43
17.780001 -2.7049999 4.0960002 44
17.795 -2.724 4.1160002 43
17.802 -2.743 4.1339998 41
17.809 -2.7609999 4.152 26
17.823999 -2.78 4.1719999 36
17.837 -2.8 4.191 34
17.858 -2.8199999 4.2119999 31
17.860001 -2.8380001 4.2280002 30
17.882 -2.858 4.2480001 28
17.917 -2.8800001 4.2719998 25
17.934999 -2.9000001 4.2909999 22
17.997 -2.927 4.3210001 20
18.042999 -2.9519999 4.3470001 16
18.075001 -2.974 4.369 7
18.191999 -3.01 4.4120002 1
0 0 0 24
27.455 -4.5929999 6.7010002 25
27.372999 -4.6040001 6.7020001 24
27.313999 -4.619 6.7080002 25
27.211 -4.6259999 6.7030001 28
27.136999 -4.638 6.7049999 30
27.072001 -4.652 6.7080002 24
27.01 -4.665 6.711 25
26.954 -4.678 6.7160001 25
26.878 -4.6890001 6.7150002 24
26.804001 -4.6999998 6.7150002 27
26.735001 -4.711 6.7150002 29
26.673 -4.723 6.717 28
26.614 -4.7360001 6.7189999 28
26.562 -4.7480001 6.7220001 25
26.509001 -4.7620001 6.7249999 29
26.451 -4.7740002 6.7259998 26
26.405001 -4.7870002 6.7290001 25
26.348 -4.7989998 6.73 28
26.302 -4.8119998 6.7329998 23
26.243999 -4.823 6.7319999 27
26.188999 -4.835 6.7319999 24
26.157 -4.8499999 6.7379999 25
26.09 -4.8579998 6.7350001 25
26.044001 -4.8699999 6.7350001 26
25.989 -4.881 6.7340002 26
25.947001 -4.8930001 6.7350001 30
25.914 -4.9070001 6.7389998 28
25.874001 -4.9190001 6.7399998 32
25.837999 -4.9320002 6.7420001 25
25.802 -4.9439998 6.744 26
25.759001 -4.9559999 6.743 26
25.726999 -4.9689999 6.7449999 26
25.688 -4.9809999 6.7449999 27
25.650999 -4.9920001 6.7449999 25
25.617001 -5.0040002 6.7459998 26
25.584999 -5.0159998 6.7459998 27
25.552 -5.027 6.7459998 30
25.528 -5.04 6.7480001 27
25.492001 -5.0510001 6.7470002 30
25.482 -5.0669999 6.7519999 26
25.445999 -5.0770001 6.75 26
25.424 -5.0890002 6.7519999 27
25.403999 -5.1030002 6.7529998 25
25.370001 -5.1129999 6.7509999 26
25.341999 -5.1240001 6.75 25
25.316999 -5.1350002 6.7490001 29
25.302 -5.1479998 6.7509999 29
25.282 -5.1599998 6.7509999 25
