# .PCD v0.7 - Point Cloud Data file format
VERSION 0.7
FIELDS x y z intensity
SIZE 4 4 4 4
TYPE F F F F
COUNT 1 1 1 1
WIDTH 1744
HEIGHT 1
VIEWPOINT 0 0 0 1 0 0 0
POINTS 1744
DATA ascii
3.6860001 -0.046 -0.61299998 2
3.698 -0.045000002 -0.62199998 2
3.6059999 -0.043000001 -0.61400002 3
3.5420001 -0.041999999 -0.61000001 2
3.4690001 -0.039999999 -0.60399997 2
3.4909999 -0.039000001 -0.61400002 2
3.447 -0.037999999 -0.61299998 2
3.3900001 -0.037 -0.60900003 2
3.3729999 -0.035 -0.61199999 1
3.467 -0.035999998 -0.63599998 2
3.329 -0.033 -0.61699998 2
3.2550001 -0.032000002 -0.60900003 2
3.2130001 -0.029999999 -0.60699999 2
3.0869999 -0.028000001 -0.58899999 2
3.062 -0.027000001 -0.58999997 3
3.0280001 -0.026000001 -0.58899999 3
2.9949999 -0.025 -0.588 3
2.961 -0.023 -0.58700001 3
2.9319999 -0.022 -0.58600003 3
2.9030001 -0.021 -0.58600003 3
2.8759999 -0.02 -0.58600003 3
2.8310001 -0.018999999 -0.58099997 2
2.8 -0.017999999 -0.57999998 3
2.7739999 -0.016000001 -0.57999998 3
2.757 -0.015 -0.58099997 3
2.7219999 -0.014 -0.57800001 2
2.684 -0.013 -0.57499999 2
2.6630001 -0.012 -0.57499999 2
2.6289999 -0.011 -0.57200003 2
2.6040001 -0.0099999998 -0.57200003 2
2.5880001 -0.0089999996 -0.57200003 2
2.5650001 -0.0080000004 -0.57200003 2
2.539 -0.0070000002 -0.56999999 2
2.5190001 -0.0060000001 -0.56999999 2
2.4949999 -0.0049999999 -0.56900001 2
2.467 -0.0040000002 -0.56699997 2
2.4519999 -0.003 -0.56699997 2
2.4289999 -0.0020000001 -0.56599998 2
2.411 -0.001 -0.56599998 2
2.395 0 -0.56599998 2
2.378 0 -0.56599998 2
2.349 0.001 -0.56300002 2
2.332 0.0020000001 -0.56300002 1
2.322 0.003 -0.56400001 2
2.2950001 0.0040000002 -0.56099999 1
2.279 0.0049999999 -0.56099999 1
2.2639999 0.0060000001 -0.56099999 1
2.2449999 0.0070000002 -0.55900002 1
2.2309999 0.0080000004 -0.56 1
2.21 0.0080000004 -0.55800003 1
2.2019999 0.0089999996 -0.55900002 1
2.1819999 0.0099999998 -0.55699998 1
2.1689999 0.011 -0.55699998 1
2.151 0.012 -0.55599999 1
2.1340001 0.013 -0.55500001 1
2.1289999 0.014 -0.55699998 1
2.1110001 0.015 -0.55500001 1
2.0899999 0.015 -0.55299997 1
2.0829999 0.016000001 -0.55400002 1
2.0610001 0.017000001 -0.551 1
2.049 0.017999999 -0.551 1
2.0320001 0.018999999 -0.54900002 1
2.0250001 0.02 -0.55000001 1
2.017 0.02 -0.551 1
1.9910001 0.021 -0.546 1
1.987 0.022 -0.54799998 1
1.972 0.023 -0.54699999 1
1.962 0.024 -0.54699999 1
1.951 0.024 -0.546 1
1.941 0.025 -0.546 1
1.939 0.026000001 -0.54799998 1
1.923 0.027000001 -0.546 1
1.9119999 0.028000001 -0.546 1
1.906 0.028000001 -0.546 1
1.9 0.028999999 -0.54699999 1
1.888 0.029999999 -0.546 1
1.88 0.030999999 -0.546 1
1.864 0.030999999 -0.54400003 1
1.862 0.032000002 -0.546 1
1.859 0.033 -0.54699999 1
1.847 0.034000002 -0.546 1
1.835 0.035 -0.54400003 1
1.831 0.035999998 -0.54500002 1
1.817 0.035999998 -0.54400003 1
1.811 0.037 -0.54400003 1
1.8049999 0.037999999 -0.54400003 1
1.794 0.037999999 -0.54299998 1
1.796 0.039000001 -0.54500002 1
1.781 0.039999999 -0.54299998 1
1.771 0.041000001 -0.542 1
1.761 0.041000001 -0.54100001 1
1.7589999 0.041999999 -0.542 1
1.753 0.043000001 -0.542 1
1.739 0.043000001 -0.54000002 1
1.73 0.044 -0.53899997 1
1.715 0.044 -0.53600001 1
1.72 0.046 -0.53899997 1
1.707 0.046 -0.537 1
1.7 0.046999998 -0.53600001 1
1.6950001 0.046999998 -0.53600001 1
1.692 0.048 -0.537 1
1.686 0.048999999 -0.537 1
1.689 0.050000001 -0.53899997 1
1.686 0.050999999 -0.54000002 1
1.679 0.050999999 -0.53899997 1
1.66 0.052000001 -0.53500003 1
1.658 0.052000001 -0.53600001 1
1.668 0.054000001 -0.54000002 1
1.641 0.054000001 -0.53299999 1
1.641 0.054000001 -0.53399998 1
1.641 0.055 -0.53600001 1
1.628 0.056000002 -0.53299999 1
1.624 0.056000002 -0.53299999 1
1.624 0.057 -0.53399998 1
1.619 0.057999998 -0.53399998 1
1.615 0.057999998 -0.53399998 1
1.614 0.059 -0.53500003 1
1.599 0.059 -0.53100002 1
1.599 0.059999999 -0.53200001 1
1.597 0.061000001 -0.53299999 1
1.59 0.061999999 -0.53100002 1
1.5880001 0.061999999 -0.53200001 1
1.581 0.063000001 -0.53100002 1
1.577 0.063000001 -0.53100002 1
1.5700001 0.064000003 -0.52899998 1
1.568 0.064999998 -0.52899998 1
1.558 0.064999998 -0.52700001 1
1.567 0.066 -0.53100002 1
1.559 0.067000002 -0.52899998 1
1.563 0.068000004 -0.53200001 1
1.557 0.068000004 -0.52999997 1
1.548 0.068000004 -0.528 1
1.546 0.068999998 -0.528 1
1.551 0.07 -0.53100002 1
1.5420001 0.07 -0.52899998 1
1.5470001 0.071000002 -0.53100002 1
1.538 0.071999997 -0.52899998 1
1.541 0.072999999 -0.53100002 1
1.536 0.072999999 -0.52999997 1
1.54 0.074000001 -0.53200001 1
1.536 0.075000003 -0.53100002 1
1.536 0.075000003 -0.53200001 1
1.5319999 0.075999998 -0.53100002 1
1.533 0.077 -0.53200001 1
1.528 0.077 -0.53100002 1
1.521 0.078000002 -0.52899998 1
1.521 0.078000002 -0.52899998 1
1.518 0.079000004 -0.52899998 1
1.522 0.079999998 -0.53100002 1
1.522 0.079999998 -0.53100002 1
1.5190001 0.081 -0.53100002 1
1.521 0.082000002 -0.53200001 1
1.515 0.082000002 -0.52999997 1
1.5089999 0.082999997 -0.528 1
1.5089999 0.082999997 -0.52899998 1
1.508 0.083999999 -0.52899998 1
1.515 0.085000001 -0.53100002 1
1.511 0.085000001 -0.52999997 1
1.502 0.086000003 -0.52700001 1
1.505 0.086000003 -0.52899998 1
1.506 0.086999997 -0.52899998 1
1.499 0.086999997 -0.52700001 1
1.499 0.088 -0.52700001 1
1.5140001 0.089000002 -0.53299999 1
1.503 0.089000002 -0.52899998 1
1.503 0.090000004 -0.52899998 1
1.5039999 0.090999998 -0.52899998 1
1.507 0.092 -0.53100002 1
1.508 0.092 -0.53100002 1
1.499 0.092 -0.528 1
1.505 0.093000002 -0.52999997 1
1.508 0.093999997 -0.53100002 1
1.498 0.093999997 -0.528 1
1.508 0.094999999 -0.53100002 1
1.498 0.094999999 -0.52700001 1
1.507 0.096000001 -0.52999997 1
1.498 0.096000001 -0.52700001 1
1.497 0.097000003 -0.52700001 1
1.501 0.097999997 -0.528 1
1.501 0.097999997 -0.528 1
1.501 0.098999999 -0.52700001 1
1.507 0.1 -0.52899998 1
1.516 0.101 -0.53200001 1
1.508 0.101 -0.52899998 1
1.51 0.102 -0.52899998 1
1.499 0.102 -0.52499998 1
1.499 0.102 -0.52499998 1
1.507 0.103 -0.52700001 1
1.51 0.104 -0.528 1
1.5140001 0.105 -0.52899998 1
1.513 0.105 -0.528 1
1.515 0.106 -0.52899998 1
1.5190001 0.107 -0.52899998 1
1.529 0.108 -0.53200001 1
1.5190001 0.108 -0.528 1
1.528 0.109 -0.53100002 1
1.528 0.109 -0.52999997 1
1.528 0.11 -0.52999997 1
1.535 0.111 -0.53200001 1
1.525 0.11 -0.52700001 1
1.538 0.112 -0.53100002 1
1.538 0.112 -0.53100002 1
1.5369999 0.113 -0.52999997 1
1.539 0.113 -0.52899998 1
1.538 0.114 -0.528 1
1.5420001 0.114 -0.52899998 1
1.5470001 0.115 -0.52999997 1
1.5470001 0.116 -0.52899998 1
1.549 0.116 -0.52899998 1
1.55 0.117 -0.528 1
1.559 0.118 -0.53100002 1
1.563 0.118 -0.53100002 1
1.568 0.119 -0.53200001 1
1.575 0.12 -0.53299999 1
1.579 0.121 -0.53399998 1
1.568 0.12 -0.52899998 1
1.579 0.122 -0.53200001 1
1.587 0.123 -0.53299999 1
1.5880001 0.123 -0.53299999 1
1.587 0.123 -0.53100002 1
1.59 0.124 -0.53100002 1
1.589 0.124 -0.52899998 1
1.5930001 0.125 -0.52999997 1
1.604 0.126 -0.53200001 1
1.603 0.126 -0.53100002 1
1.613 0.127 -0.53299999 1
1.624 0.12800001 -0.53500003 1
1.625 0.12899999 -0.53399998 1
1.63 0.13 -0.53399998 1
1.631 0.13 -0.53399998 1
1.648 0.131 -0.53799999 1
1.646 0.132 -0.53600001 1
1.65 0.132 -0.53500003 1
1.658 0.133 -0.53600001 1
1.6619999 0.134 -0.53600001 1
1.658 0.134 -0.53399998 1
1.67 0.13500001 -0.53600001 1
1.674 0.13500001 -0.53500003 1
1.67 0.13500001 -0.53299999 1
1.683 0.13600001 -0.53500003 1
1.689 0.13699999 -0.53600001 1
1.696 0.138 -0.53600001 1
1.702 0.139 -0.537 1
1.707 0.139 -0.53600001 1
1.7079999 0.139 -0.53500003 1
1.719 0.14 -0.537 1
1.7180001 0.14 -0.53399998 1
1.7309999 0.142 -0.537 1
1.7410001 0.14300001 -0.53799999 1
1.7410001 0.14300001 -0.53600001 1
1.755 0.14399999 -0.53899997 1
1.761 0.145 -0.53899997 1
1.7690001 0.145 -0.53899997 1
1.766 0.145 -0.53600001 1
1.777 0.146 -0.537 1
1.789 0.147 -0.53899997 1
1.804 0.148 -0.54100001 1
1.804 0.148 -0.53899997 1
1.816 0.15000001 -0.54100001 1
1.8200001 0.15000001 -0.54000002 1
1.837 0.15099999 -0.54299998 1
1.848 0.152 -0.54400003 1
1.851 0.152 -0.542 1
1.859 0.153 -0.542 1
1.865 0.153 -0.542 1
1.8789999 0.155 -0.54400003 1
1.8890001 0.155 -0.54400003 1
1.899 0.156 -0.54400003 1
1.91 0.15700001 -0.54500002 1
1.913 0.15700001 -0.54400003 1
1.931 0.15800001 -0.546 1
1.939 0.15899999 -0.546 1
1.95 0.16 -0.546 1
1.9630001 0.161 -0.54799998 1
1.969 0.161 -0.546 1
1.98 0.162 -0.54699999 1
1.992 0.163 -0.54699999 1
2.0039999 0.163 -0.54799998 1
2.0190001 0.164 -0.54900002 1
2.0239999 0.164 -0.54799998 1
2.0320001 0.16500001 -0.54699999 1
2.056 0.167 -0.551 1
2.073 0.168 -0.55199999 1
2.085 0.168 -0.55199999 2
2.1029999 0.17 -0.55400002 2
2.122 0.171 -0.55599999 2
2.1289999 0.171 -0.55500001 2
2.145 0.17200001 -0.55599999 2
2.1559999 0.17200001 -0.55599999 2
2.171 0.17299999 -0.55599999 2
2.1830001 0.17399999 -0.55599999 2
2.2 0.175 -0.55699998 2
2.214 0.175 -0.55699998 2
2.227 0.176 -0.55699998 2
2.2409999 0.177 -0.55699998 2
2.2579999 0.177 -0.55800003 2
2.276 0.178 -0.55900002 2
2.2920001 0.17900001 -0.55900002 2
2.302 0.17900001 -0.55800003 2
2.3299999 0.18099999 -0.56099999 2
2.346 0.182 -0.56099999 2
2.3670001 0.183 -0.56300002 2
2.381 0.183 -0.56199998 2
2.3970001 0.184 -0.56199998 2
2.4219999 0.185 -0.56400001 2
2.4400001 0.186 -0.56400001 1
2.4619999 0.18700001 -0.565 2
2.487 0.18799999 -0.56699997 2
2.506 0.18799999 -0.56699997 2
2.5250001 0.189 -0.56699997 2
2.5409999 0.189 -0.56699997 2
2.5669999 0.19 -0.56800002 2
2.585 0.191 -0.56800002 2
2.612 0.192 -0.56999999 2
2.635 0.193 -0.56999999 2
2.654 0.193 -0.56999999 1
2.6860001 0.19400001 -0.57200003 1
2.7590001 0.199 -0.583 1
2.744 0.197 -0.57499999 1
2.77 0.197 -0.57599998 2
2.7950001 0.198 -0.57599998 2
2.8110001 0.198 -0.57499999 1
2.905 0.204 -0.58899999 1
2.9660001 0.207 -0.59600002 1
3.029 0.20999999 -0.60399997 1
3.0699999 0.211 -0.60600001 2
2.9849999 0.204 -0.58399999 2
3.0139999 0.205 -0.58499998 2
3.0550001 0.206 -0.58700001 2
3.0869999 0.207 -0.588 2
3.128 0.208 -0.58999997 2
3.164 0.20900001 -0.59200001 2
3.1989999 0.20999999 -0.59299999 2
3.2309999 0.20999999 -0.59299999 2
3.2739999 0.212 -0.59500003 2
3.3870001 0.21699999 -0.60900003 2
3.3670001 0.214 -0.60000002 2
3.4059999 0.215 -0.60000002 2
3.46 0.21600001 -0.60399997 2
3.5139999 0.21799999 -0.60699999 2
3.5369999 0.21699999 -0.60399997 2
3.641 0.222 -0.61500001 2
3.7119999 0.22400001 -0.62099999 2
3.7720001 0.226 -0.62400001 2
3.753 0.222 -0.61400002 2
3.8659999 0.227 -0.625 2
3.852 0.22400001 -0.616 2
3.934 0.226 -0.62199998 2
3.983 0.227 -0.62199998 2
4.0419998 0.228 -0.62400001 2
4.1339998 0.23 -0.63099998 2
4.2020001 0.23100001 -0.63300002 2
4.2150002 0.229 -0.62800002 2
4.2880001 0.23100001 -0.63 2
4.414 0.234 -0.64099997 4
4.4439998 0.233 -0.63700002 3
4.5300002 0.235 -0.64099997 3
4.6139998 0.236 -0.64399999 3
4.6989999 0.237 -0.64700001 3
4.7800002 0.23800001 -0.64899999 3
4.8699999 0.23899999 -0.65200001 4
4.974 0.241 -0.65700001 3
5.0799999 0.242 -0.66100001 3
5.1900001 0.244 -0.66600001 3
5.3010001 0.245 -0.67000002 3
5.4029999 0.24600001 -0.67299998 3
5.5300002 0.248 -0.67799997 3
5.6570001 0.249 -0.68300003 4
5.7670002 0.25 -0.68599999 3
5.9260001 0.252 -0.69300002 3
6.1209998 0.25600001 -0.70499998 7
6.2329998 0.255 -0.70599997 7
6.3579998 0.25600001 -0.708 7
6.5409999 0.25799999 -0.71600002 5
6.724 0.25999999 -0.72299999 7
6.8909998 0.26100001 -0.72799999 6
7.0700002 0.26199999 -0.73400003 6
7.2969999 0.264 -0.74400002 5
7.507 0.26499999 -0.75099999 4
7.7490001 0.26699999 -0.75999999 4
8.0240002 0.27000001 -0.77200001 4
8.3319998 0.27399999 -0.78600001 5
8.6300001 0.27599999 -0.79799998 3
8.9530001 0.27900001 -0.81099999 4
9.2550001 0.28 -0.81999999 3
9.632 0.28299999 -0.83600003 2
10.074 0.287 -0.85500002 3
10.511 0.28999999 -0.87300003 3
10.944 0.292 -0.88800001 3
11.353 0.29300001 -0.89999998 3
11.835 0.294 -0.91500002 2
12.368 0.296 -0.93300003 3
12.979 0.29899999 -0.954 3
13.682 0.30199999 -0.98000002 9
13.907 0.294 -0.97000003 8
14.023 0.28299999 -0.95200002 3
14.752 0.28400001 -0.97399998 3
0 0 0 3
17.356001 0.30000001 -1.08 2
17.825001 0.29100001 -1.076 2
0 0 0 1
20.724001 0.29699999 -1.173 1
0 0 0 1
0 0 0 0
0 0 0 0
0 0 0 0
0 0 0 0
0 0 0 0
0 0 0 0
0 0 0 152
62.007 0.317 -2.464 165
62.034 0.25099999 -2.3499999 191
62.057999 0.185 -2.2349999 141
0 0 0 77
94.116997 0.078000002 -3.0439999 65
94.135002 -0.023 -2.8699999 41
94.081001 -0.126 -2.6949999 29
94.139 -0.23 -2.523 33
94.157997 -0.33399999 -2.3499999 32
94.197998 -0.43900001 -2.178 27
94.188004 -0.54400003 -2.0050001 19
0 0 0 0
0 0 0 27
94.417 -0.86799997 -1.49 51
94.539001 -0.977 -1.3200001 42
0 0 0 42
0 0 0 64
74.152 -1.021 -0.63499999 64
73.356003 -1.095 -0.498 129
0 0 0 26
68.648003 -1.187 -0.21699999 32
68.709999 -1.27 -0.093999997 25
68.068001 -1.3380001 0.026000001 56
68.055 -1.418 0.145 36
0 0 0 0
0 0 0 0
0 0 0 0
0 0 0 0
0 0 0 0
0 0 0 0
0 0 0 0
0 0 0 10
0 0 0 0
0 0 0 0
0 0 0 0
0 0 0 0
0 0 0 0
0 0 0 0
0 0 0 0
0 0 0 0
0 0 0 0
0 0 0 78
48.056 -2.1389999 1.686 95
0 0 0 17
44.104 -2.0780001 1.696 58
44.103001 -2.135 1.7690001 40
43.832001 -2.1800001 1.831 20
43.056 -2.198 1.87 43
42.523998 -2.227 1.919 36
41.845001 -2.247 1.957 31
41.571999 -2.2869999 2.013 71
41.515999 -2.339 2.0780001 15
40.306999 -2.325 2.0829999 19
39.966 -2.359 2.131 30
39.502998 -2.385 2.1700001 21
39.153999 -2.4159999 2.214 24
38.633999 -2.4360001 2.247 24
38.137001 -2.4560001 2.279 20
37.791 -2.484 2.3180001 26
37.331001 -2.5050001 2.349 34
36.955002 -2.53 2.3829999 27
36.563 -2.553 2.415 21
36.104 -2.569 2.441 21
36.021 -2.6129999 2.4909999 21
35.846001 -2.6489999 2.5339999 54
35.861 -2.6989999 2.5899999 50
35.866001 -2.7479999 2.645 48
35.874001 -2.799 2.701 48
35.870998 -2.848 2.7550001 44
35.875 -2.898 2.8110001 43
35.900002 -2.95 2.8670001 68
35.915001 -3.0009999 2.9219999 63
35.910999 -3.0510001 2.9749999 59
35.907001 -3.102 3.03 64
35.924 -3.154 3.0840001 60
35.931999 -3.204 3.1370001 61
35.928001 -3.253 3.188 59
35.935001 -3.3050001 3.2420001 57
35.937 -3.355 3.2950001 60
35.942001 -3.405 3.346 55
35.941002 -3.4560001 3.398 58
35.952 -3.5079999 3.45 59
35.965 -3.5599999 3.5020001 57
35.965 -3.609 3.5510001 60
35.966 -3.6600001 3.6029999 57
35.971001 -3.7119999 3.654 57
35.969002 -3.7620001 3.7030001 56
35.981998 -3.813 3.753 58
35.978001 -3.8640001 3.802 58
35.988998 -3.9170001 3.8529999 58
36.007999 -3.97 3.904 57
36.005001 -4.02 3.9519999 18
36.176998 -4.0910001 4.0190001 3
36.319 -4.1589999 4.0830002 3
36.245998 -4.2020001 4.1230001 2
0 0 0 0
0 0 0 0
0 0 0 0
0 0 0 0
0 0 0 0
0 0 0 0
0 0 0 0
0 0 0 0
0 0 0 0
0 0 0 0
0 0 0 0
0 0 0 0
0 0 0 5
28.329 -3.8469999 3.723 18
28.253 -3.8770001 3.747 26
28.205999 -3.9089999 3.773 30
28.158001 -3.9419999 3.8 36
28.118999 -3.977 3.8280001 39
28.096001 -4.013 3.8570001 44
28.066 -4.0469999 3.8840001 45
28.048 -4.0840001 3.914 48
28.021 -4.1199999 3.9419999 49
28.003 -4.1560001 3.971 52
27.990999 -4.1939998 4.0009999 58
27.985001 -4.2319999 4.0310001 60
27.997 -4.2719998 4.0630002 46
27.988001 -4.3099999 4.092 53
28.002001 -4.3499999 4.1230001 46
28 -4.388 4.1529999 50
28.002001 -4.427 4.1830001 48
28.028 -4.4699998 4.2160001 43
28.039 -4.5100002 4.2470002 42
28.077 -4.5549998 4.2820001 38
28.098 -4.5970001 4.3130002 34
28.132 -4.6409998 4.3470001 30
28.157 -4.684 4.3800001 25
28.259001 -4.7389998 4.4229999 17
28.375999 -4.7979999 4.4699998 3
0 0 0 21
36.273998 -6.2319999 5.7849998 23
36.276001 -6.2810001 5.8200002 21
36.285999 -6.3309999 5.8559999 22
36.272999 -6.3779998 5.888 24
36.290001 -6.4299998 5.9239998 23
36.290001 -6.4770002 5.9569998 23
36.292999 -6.527 5.9910002 22
36.298 -6.5760002 6.0240002 24
36.325001 -6.6290002 6.0609999 24
36.265999 -6.665 6.0830002 21
36.230999 -6.7069998 6.1090002 22
36.158001 -6.7410002 6.1279998 16
36.035999 -6.7649999 6.138 21
35.952 -6.7969999 6.1529999 23
35.848999 -6.8239999 6.1659999 28
35.708 -6.842 6.171 27
35.599998 -6.868 6.1810002 27
35.492001 -6.8930001 6.191 27
35.368 -6.9130001 6.197 27
35.259998 -6.9369998 6.2059999 27
35.125999 -6.9549999 6.21 27
34.981998 -6.9710002 6.211 27
34.847 -6.987 6.2129998 27
34.737 -7.0079999 6.2189999 26
34.601002 -7.0240002 6.2199998 26
34.493999 -7.0440001 6.2259998 26
34.368999 -7.0609999 6.2280002 26
34.257999 -7.0809999 6.2319999 26
34.140999 -7.099 6.2350001 26
0 0 0 1
20.325001 -4.2750001 3.7390001 15
20.264999 -4.2870002 3.7420001 19
20.236 -4.3049998 3.75 23
20.172001 -4.3150001 3.7509999 27
20.136999 -4.3319998 3.757 27
20.106001 -4.349 3.7639999 31
20.056 -4.362 3.767 34
20.045 -4.3829999 3.7780001 37
20.016001 -4.4000001 3.7839999 39
20.004999 -4.4200001 3.7939999 29
19.975 -4.4369998 3.799 39
19.966999 -4.4580002 3.809 41
19.974001 -4.4819999 3.822 31
19.944 -4.4970002 3.8269999 42
19.927999 -4.5170002 3.8340001 46
19.924999 -4.5370002 3.8440001 47
19.924 -4.559 3.855 47
19.906 -4.5770001 3.8610001 48
19.912001 -4.5999999 3.872 56
19.896 -4.618 3.8789999 55
19.899 -4.6399999 3.8889999 51
19.889999 -4.658 3.8970001 48
19.884001 -4.678 3.904 48
19.886 -4.6989999 3.9130001 50
19.892 -4.7210002 3.9230001 36
19.863001 -4.7340002 3.9260001 51
19.875999 -4.7579999 3.937 46
19.878 -4.7789998 3.9449999 42
19.884001 -4.8010001 3.9549999 41
19.895 -4.823 3.964 47
19.886999 -4.8400002 3.97 46
19.889 -4.8610001 3.9779999 45
19.908001 -4.8850002 3.9890001 33
19.903999 -4.9029999 3.9949999 44
19.903 -4.9219999 4.0019999 40
19.905001 -4.941 4.0089998 39
19.917 -4.9629998 4.0170002 40
19.931999 -4.9850001 4.027 35
19.957001 -5.0100002 4.0370002 35
19.955999 -5.0279999 4.0430002 33
19.989 -5.0539999 4.0560002 31
20.003 -5.0760002 4.0640001 29
20.027 -5.0999999 4.0739999 27
20.034 -5.119 4.0799999 25
20.080999 -5.1490002 4.0939999 21
20.097 -5.1700001 4.1020002 17
20.162001 -5.2030001 4.1199999 13
20.198999 -5.23 4.132 3
0 0 0 21
30.889 -8.0489998 6.3299999 22
30.872 -8.0699997 6.3319998 21
30.848 -8.0880003 6.3330002 21
30.823999 -8.1059999 6.3330002 22
30.799 -8.1239996 6.3319998 22
30.768 -8.1400003 6.3299999 24
30.749001 -8.1569996 6.3299999 21
30.75 -8.1809998 6.3340001 22
30.725 -8.1969995 6.3319998 23
30.702 -8.2139997 6.3309999 24
30.694 -8.2340002 6.3319998 26
30.681 -8.2519999 6.3309999 25
30.677 -8.2720003 6.3330002 24
30.666 -8.29 6.3330002 28
30.643999 -8.3050003 6.3299999 27
30.615 -8.3179998 6.3249998 28
30.604 -8.3339996 6.3239999 27
30.558001 -8.342 6.3150001 29
30.518 -8.3500004 6.3070002 28
30.486 -8.3610001 6.3010001 29
30.443001 -8.3669996 6.2919998 29
30.384001 -8.3699999 6.2789998 27
30.351 -8.3789997 6.2709999 26
30.309 -8.3850002 6.2610002 27
30.238001 -8.3830004 6.2449999 26
30.198 -8.3889999 6.2350001 26
30.135 -8.3879995 6.2199998 29
30.093 -8.3929996 6.2090001 28
30.034 -8.3920002 6.1950002 25
29.972 -8.3900003 6.1789999 25
29.899 -8.3859997 6.1609998 25
29.815001 -8.3769999 6.1399999 24
29.707001 -8.3610001 6.1139998 22
29.563 -8.335 6.0799999 20
29.458 -8.3190002 6.0549998 20
29.354 -8.3030005 6.0289998 20
29.259001 -8.2889996 6.0040002 19
29.146999 -8.2700005 5.9759998 18
29.065001 -8.2589998 5.954 18
28.986 -8.2480001 5.9330001 19
28.93 -8.2440004 5.9159999 19
28.906 -8.2480001 5.9050002 23
28.903 -8.2580004 5.8979998 27
28.917999 -8.2729998 5.8940001 24
28.937 -8.2880001 5.8920002 24
28.966999 -8.3059998 5.8899999 25
28.983 -8.3210001 5.8860002 25
29.021 -8.3409996 5.8860002 28
29.059 -8.3599997 5.8870001 24
29.097 -8.3800001 5.8860002 24
29.135 -8.3990002 5.8860002 25
29.171 -8.4169998 5.8839998 26
29.212 -8.4359999 5.8829999 23
29.26 -8.4569998 5.8839998 26
29.298 -8.4750004 5.882 27
29.327999 -8.4899998 5.8779998 26
29.377001 -8.5109997 5.8779998 26
29.396999 -8.5220003 5.8709998 28
29.431999 -8.5380001 5.868 26
29.476 -8.5559998 5.8660002 29
29.513 -8.5710001 5.862 29
29.566 -8.5909996 5.8610001 26
29.618999 -8.6110001 5.8600001 27
29.652 -8.6239996 5.8540001 31
29.700001 -8.6420002 5.8509998 25
29.768 -8.6639996 5.8530002 26
29.827 -8.6850004 5.8499999 24
29.893 -8.7060003 5.8509998 26
29.938999 -8.7209997 5.8460002 26
30.003 -8.7419996 5.8449998 26
30.047001 -8.7550001 5.8400002 26
30.112 -8.7749996 5.8379998 24
30.177999 -8.7950001 5.836 25
30.233999 -8.8120003 5.8319998 24
30.302 -8.8319998 5.8299999 25
30.356001 -8.8470001 5.8249998 24
30.436001 -8.8690004 5.8249998 24
30.497999 -8.8859997 5.8210001 26
30.565001 -8.9040003 5.8179998 27
30.649 -8.9259996 5.8169999 23
30.716 -8.9440002 5.8130002 23
30.795 -8.9639997 5.8119998 22
30.874001 -8.9840002 5.809 24
30.945999 -9.0010004 5.8049998 23
31.018 -9.0179996 5.8010001 23
31.091 -9.0349998 5.796 23
31.164 -9.0509996 5.7909999 22
31.25 -9.0710001 5.7880001 28
31.348 -9.0939999 5.7870002 24
31.429001 -9.1120005 5.783 23
31.49 -9.1230001 5.7750001 25
31.604 -9.1490002 5.776 23
31.700001 -9.1700001 5.7729998 22
31.778999 -9.1850004 5.7670002 22
31.875 -9.2049999 5.7639999 22
31.968 -9.224 5.7589998 23
32.076 -9.2460003 5.757 23
32.200001 -9.2729998 5.7579999 24
32.290001 -9.2889996 5.7529998 24
32.377998 -9.3039999 5.7459998 23
32.493999 -9.3269997 5.744 24
32.598999 -9.3459997 5.7389998 24
32.728001 -9.3719997 5.7379999 24
32.801998 -9.3809996 5.7290001 24
32.925999 -9.4049997 5.7249999 25
33.035999 -9.4239998 5.7210002 25
33.153 -9.4449997 5.717 25
33.264999 -9.4630003 5.711 25
33.369999 -9.4790001 5.7049999 25
33.491001 -9.4989996 5.7010002 25
33.631001 -9.5240002 5.6989999 26
33.747002 -9.5419998 5.6919999 26
33.867001 -9.5600004 5.6859999 26
33.991001 -9.5790005 5.6810002 26
34.120998 -9.5979996 5.6750002 26
34.250999 -9.618 5.6690001 26
34.375 -9.6350002 5.6630001 27
34.529999 -9.6599998 5.6599998 27
34.664001 -9.6789999 5.6539998 27
34.792999 -9.6960001 5.6459999 27
34.958 -9.7220001 5.6440001 23
35.098 -9.7410002 5.6389999 27
35.255001 -9.7639999 5.6339998 28
35.387001 -9.7790003 5.625 28
35.544998 -9.8009996 5.6199999 28
35.683998 -9.8179998 5.612 29
35.816002 -9.8299999 5.6020002 24
35.959 -9.8470001 5.5929999 24
36.091 -9.8590002 5.5819998 23
36.157001 -9.8529997 5.5609999 17
36.297001 -9.8660002 5.5510001 16
36.417999 -9.8739996 5.5380001 11
36.494999 -9.8699999 5.5170002 7
36.804001 -9.927 5.5300002 3
36.896999 -9.9250002 5.5110002 2
37.162998 -9.9689999 5.5170002 3
37.463001 -10.022 5.5279999 2
0 0 0 0
0 0 0 0
0 0 0 0
0 0 0 0
0 0 0 0
0 0 0 0
0 0 0 0
0 0 0 2
36.404999 -9.4750004 5.0689998 3
36.418999 -9.448 5.0359998 4
36.390999 -9.4090004 4.9970002 5
0 0 0 3
20.120001 -5.1659999 2.724 13
20.059999 -5.132 2.697 17
20.017 -5.1030002 2.671 21
19.996 -5.0799999 2.6489999 24
19.972 -5.0549998 2.6259999 25
19.951 -5.0310001 2.6040001 30
19.927999 -5.006 2.582 32
19.912001 -4.9819999 2.5599999 33
19.877001 -4.954 2.5350001 32
19.865999 -4.9310002 2.5150001 39
19.865 -4.9109998 2.4949999 41
19.855 -4.8889999 2.474 43
19.848 -4.8660002 2.4530001 34
19.836 -4.8429999 2.4319999 44
19.834999 -4.8210001 2.4119999 50
19.823999 -4.7979999 2.391 51
19.834 -4.7800002 2.3710001 51
19.820999 -4.7550001 2.3499999 43
19.806999 -4.73 2.3280001 46
19.816999 -4.711 2.309 55
19.827 -4.691 2.29 40
19.82 -4.6669998 2.2690001 59
19.825001 -4.6459999 2.25 41
19.84 -4.6269999 2.2309999 41
19.829 -4.6020002 2.2090001 65
19.837 -4.5799999 2.1889999 42
19.84 -4.5580001 2.1689999 37
19.843 -4.5349998 2.1489999 57
19.853001 -4.513 2.1289999 55
19.865 -4.4920001 2.1099999 57
19.851 -4.4650002 2.0880001 53
19.877001 -4.4460001 2.0699999 53
19.913 -4.4289999 2.053 36
19.923 -4.4070001 2.033 34
19.927 -4.3829999 2.013 44
19.945 -4.362 1.994 29
19.959 -4.3390002 1.975 36
19.98 -4.3179998 1.955 37
20.035 -4.3039999 1.9400001 31
20.066999 -4.2849998 1.9220001 29
20.097 -4.2649999 1.903 27
20.153 -4.25 1.888 23
20.200001 -4.2329998 1.8710001 19
20.274 -4.2220001 1.8559999 10
0 0 0 0
0 0 0 0
0 0 0 0
0 0 0 0
0 0 0 0
0 0 0 0
0 0 0 0
0 0 0 0
0 0 0 2
36.174999 -7.0289998 2.9319999 6
36.192001 -6.98 2.895 15
36.185001 -6.9260001 2.8570001 23
36.167999 -6.8699999 2.8169999 38
36.152 -6.8140001 2.7780001 46
36.151001 -6.7600002 2.74 51
36.132999 -6.7020001 2.701 49
36.117001 -6.645 2.661 50
36.09 -6.585 2.622 49
36.092999 -6.533 2.585 51
36.084999 -6.4770002 2.546 53
36.089001 -6.4219999 2.5090001 53
36.080002 -6.3639998 2.471 55
36.073002 -6.3070002 2.4330001 55
36.083 -6.2540002 2.3970001 55
36.061001 -6.1950002 2.359 55
36.055 -6.1360002 2.3199999 50
36.063 -6.0809999 2.2839999 52
0 0 0 3
28.138 -4.6550002 1.724 17
28.056999 -4.5970001 1.6900001 26
27.989 -4.5409999 1.6569999 29
27.962 -4.4910002 1.627 34
27.952999 -4.4439998 1.598 38
27.912001 -4.3920002 1.567 43
27.912001 -4.3460002 1.539 47
27.888 -4.2969999 1.51 52
27.886 -4.2509999 1.4809999 52
27.889 -4.2049999 1.4529999 60
27.889 -4.158 1.425 59
27.908001 -4.1139998 1.398 45
27.914 -4.0679998 1.37 52
27.938999 -4.0229998 1.3430001 47
27.968 -3.9809999 1.317 45
27.992001 -3.937 1.291 41
28.031 -3.8940001 1.265 37
28.080999 -3.852 1.239 32
28.159 -3.8139999 1.215 26
28.254999 -3.7780001 1.191 16
0 0 0 18
36.191002 -4.7129998 1.455 13
36.200001 -4.6500001 1.42 13
35.881001 -4.546 1.373 107
35.912998 -4.487 1.34 96
35.905998 -4.4229999 1.3049999 97
35.898998 -4.3579998 1.271 106
35.895 -4.2930002 1.2359999 102
35.880001 -4.2270002 1.202 105
35.882 -4.1630001 1.169 94
35.870998 -4.0970001 1.1339999 110
35.865002 -4.0310001 1.1 98
35.858002 -3.9649999 1.067 102
35.848999 -3.8989999 1.033 95
35.845001 -3.832 1 104
35.842999 -3.766 0.96700001 96
35.842999 -3.7 0.93400002 103
35.816002 -3.631 0.89999998 103
35.827999 -3.5680001 0.86900002 93
35.808998 -3.4990001 0.83600003 103
35.832001 -3.4349999 0.80500001 77
35.821999 -3.3670001 0.773 102
35.813 -3.299 0.741 99
35.833 -3.234 0.70999998 40
36.272999 -3.2049999 0.68599999 7
36.785 -3.181 0.66399997 8
37.294998 -3.154 0.64099997 8
37.808998 -3.125 0.616 8
39.712002 -3.207 0.61299998 81
39.707001 -3.1300001 0.579 86
39.700001 -3.0539999 0.546 74
39.748001 -2.9820001 0.51300001 15
40.448002 -2.957 0.48800001 6
41.136002 -2.928 0.46200001 7
41.48 -2.872 0.43200001 12
43.759998 -2.944 0.419 88
43.742001 -2.858 0.38299999 103
43.738998 -2.773 0.34799999 69
44.317001 -2.7249999 0.31799999 10
44.561001 -2.6530001 0.28400001 41
44.539001 -2.566 0.249 41
44.615002 -2.4820001 0.213 10
0 0 0 39
48.063999 -2.4860001 0.155 35
48.145 -2.395 0.118 25
48.813 -2.332 0.082000002 14
0 0 0 95
51.851002 -2.273 0.0099999998 58
52.023998 -2.178 -0.028000001 39
0 0 0 0
0 0 0 58
59.339001 -2.131 -0.163 73
59.921001 -2.0320001 -0.208 130
59.91 -1.9119999 -0.25099999 106
60.02 -1.795 -0.294 56
60.216 -1.6799999 -0.338 24
0 0 0 113
67.954002 -1.6210001 -0.47600001 143
67.966003 -1.485 -0.523 78
67.998001 -1.352 -0.56800002 63
68.286003 -1.22 -0.61699998 22
0 0 0 56
74.332001 -1.03 -0.76999998 28
0 0 0 0
0 0 0 0
0 0 0 29
0 0 0 45
0 0 0 17
94.301003 -0.156 -1.339 25
94.528999 0.032000002 -1.4 34
94.441002 0.22499999 -1.456 30
94.174004 0.41600001 -1.5089999 29
94.207001 0.60299999 -1.564 19
94.249001 0.79500002 -1.62 19
94.172997 0.98400003 -1.673 16
94.141998 1.176 -1.727 26
94.158997 1.369 -1.78 15
94.081001 1.5599999 -1.832 31
94.111 1.753 -1.885 43
94.119003 1.943 -1.936 43
0 0 0 0
0 0 0 0
0 0 0 0
0 0 0 0
0 0 0 32
0 0 0 0
0 0 0 39
0 0 0 0
0 0 0 0
0 0 0 9
40.907001 1.76 -1.069 108
40.700001 1.835 -1.082 127
40.492001 1.909 -1.096 19
40.352001 1.985 -1.11 24
40.23 2.0599999 -1.124 36
40.174999 2.141 -1.141 60
40.141998 2.22 -1.1569999 97
40.148998 2.302 -1.174 70
40.158001 2.385 -1.191 66
40.150002 2.4660001 -1.207 74
40.162998 2.5480001 -1.224 70
40.186001 2.631 -1.2410001 22
40.293999 2.72 -1.26 8
40.446999 2.8139999 -1.28 7
40.330002 2.8859999 -1.291 10
40.465 2.9779999 -1.311 8
40.377998 3.053 -1.322 9
40.389 3.135 -1.337 5
40.402 3.2179999 -1.352 25
40.421001 3.3010001 -1.3660001 48
40.456001 3.3859999 -1.381 50
40.486 3.47 -1.395 51
40.526001 3.556 -1.409 50
40.573002 3.6400001 -1.424 49
40.594002 3.724 -1.437 46
40.625999 3.8080001 -1.45 49
40.648998 3.892 -1.4630001 47
40.686001 3.9760001 -1.476 49
40.705002 4.059 -1.488 46
40.751999 4.145 -1.501 46
40.772999 4.2290001 -1.512 43
40.834 4.316 -1.525 41
40.854 4.4000001 -1.536 36
40.926998 4.4889998 -1.549 35
40.945999 4.5710001 -1.559 34
40.966999 4.6539998 -1.569 32
41.007999 4.7420001 -1.581 33
41.103001 4.8319998 -1.5930001 28
0 0 0 27
37.960999 4.612 -1.487 59
37.868999 4.6750002 -1.4910001 6
37.658001 4.723 -1.49 23
37.576 4.7859998 -1.494 53
37.530998 4.8540001 -1.499 30
37.498001 4.921 -1.5039999 25
37.469002 4.9899998 -1.5089999 30
37.453999 5.0599999 -1.5140001 28
37.429001 5.1290002 -1.5190001 22
37.414001 5.1989999 -1.524 17
0 0 0 0
0 0 0 0
0 0 0 0
0 0 0 5
33.659 4.9980001 -1.392 4
0 0 0 0
0 0 0 18
32.472 5.006 -1.352 73
32.507 5.073 -1.357 26
32.611 5.1500001 -1.364 9
32.473 5.1890001 -1.3609999 28
32.460999 5.2480001 -1.363 60
32.479 5.3099999 -1.3660001 8
32.535 5.3790002 -1.37 1
33.150002 5.5419998 -1.397 2
32.653999 5.5190001 -1.378 4
32.700001 5.5869999 -1.381 3
32.546001 5.6199999 -1.376 3
32.992001 5.756 -1.396 4
32.522999 5.7329998 -1.376 3
32.729 5.8299999 -1.386 2
32.603001 5.8649998 -1.38 2
32.595001 5.9219999 -1.38 3
32.550999 5.9720001 -1.378 2
32.806 6.0760002 -1.3890001 2
32.924 6.1560001 -1.3940001 2
33.022999 6.2329998 -1.397 3
32.883999 6.2649999 -1.39 2
33.095001 6.3629999 -1.398 3
0 0 0 0
0 0 0 2
32.608002 6.4400001 -1.374 2
0 0 0 3
0 0 0 0
0 0 0 0
0 0 0 1
32.606998 6.7160001 -1.364 1
32.59 6.7659998 -1.36 2
0 0 0 2
37.137001 7.835 -1.544 4
37.167 7.9029999 -1.5420001 4
0 0 0 0
0 0 0 2
0 0 0 17
13.19 2.8900001 -0.54100001 136
13.081 2.888 -0.53500003 150
12.976 2.885 -0.52899998 150
12.915 2.892 -0.52499998 151
12.838 2.895 -0.51999998 150
12.845 2.9170001 -0.51899999 11
12.846 2.937 -0.51700002 9
12.83 2.9530001 -0.514 5
12.872 2.983 -0.514 3
12.823 2.9909999 -0.50999999 2
12.782 3.0009999 -0.50599998 3
12.64 2.987 -0.49900001 3
12.62 3.0009999 -0.49599999 4
12.59 3.013 -0.49200001 4
12.552 3.023 -0.48800001 4
0 0 0 8
10.886 2.654 -0.41999999 2
10.769 2.641 -0.41299999 2
10.697 2.6389999 -0.40799999 2
10.607 2.632 -0.40200001 32
10.565 2.6359999 -0.39899999 74
10.769 2.7030001 -0.40400001 4
10.797 2.7249999 -0.403 2
10.785 2.737 -0.40000001 2
10.742 2.7409999 -0.396 2
10.573 2.7130001 -0.38800001 2
10.497 2.7079999 -0.382 2
10.428 2.704 -0.37799999 2
10.416 2.7149999 -0.375 2
10.36 2.714 -0.37 2
10.293 2.71 -0.36500001 2
10.352 2.74 -0.36500001 2
10.238 2.723 -0.35800001 2
10.202 2.727 -0.354 2
10.191 2.737 -0.35100001 2
10.177 2.7460001 -0.34799999 3
10.156 2.753 -0.345 2
10.144 2.7620001 -0.34200001 3
10.139 2.7739999 -0.33899999 3
10.108 2.777 -0.33500001 3
10.102 2.7880001 -0.33199999 3
10.09 2.7969999 -0.32800001 3
10.078 2.8050001 -0.32499999 3
10.057 2.8110001 -0.32100001 3
10.052 2.822 -0.31900001 3
10.045 2.832 -0.315 4
10.027 2.8380001 -0.31200001 4
10.011 2.845 -0.308 4
9.9980001 2.852 -0.30500001 4
9.9940004 2.862 -0.301 5
9.9759998 2.868 -0.29800001 5
9.9750004 2.8789999 -0.29499999 6
9.9569998 2.8840001 -0.29100001 7
9.9469995 2.892 -0.28799999 8
9.9099998 2.892 -0.28299999 9
9.9130001 2.9030001 -0.28 13
9.9189997 2.915 -0.27700001 16
9.9029999 2.9200001 -0.273 20
9.882 2.924 -0.27000001 24
9.8859997 2.934 -0.266 29
9.8859997 2.944 -0.26300001 34
9.8839998 2.9530001 -0.25999999 46
9.875 2.96 -0.25600001 62
9.8640003 2.9660001 -0.252 80
9.8739996 2.9779999 -0.249 98
9.8800001 2.9890001 -0.24600001 123
9.8739996 2.9960001 -0.242 143
9.8859997 3.0079999 -0.23899999 150
9.8800001 3.0150001 -0.235 150
9.875 3.0220001 -0.23199999 150
9.8879995 3.0339999 -0.229 150
9.8760004 3.039 -0.22499999 150
9.8730001 3.046 -0.221 150
9.8760004 3.0550001 -0.21799999 154
9.9069996 3.072 -0.215 163
9.8950005 3.076 -0.211 163
9.8719997 3.076 -0.207 153
9.868 3.0829999 -0.20299999 150
9.8669996 3.0899999 -0.199 150
9.8710003 3.098 -0.19599999 150
9.8760004 3.1070001 -0.192 150
9.8590002 3.108 -0.18799999 150
9.8640003 3.1170001 -0.184 150
9.8590002 3.122 -0.18000001 150
9.8610001 3.1289999 -0.177 150
9.8500004 3.131 -0.17299999 150
9.8570004 3.1400001 -0.169 150
9.842 3.141 -0.16500001 150
9.8579998 3.152 -0.162 150
9.8540001 3.1570001 -0.15800001 150
9.8389997 3.158 -0.153 150
9.8430004 3.164 -0.15000001 150
9.8470001 3.171 -0.146 150
9.8369999 3.1730001 -0.142 150
9.8330002 3.177 -0.138 150
9.8269997 3.1800001 -0.134 150
9.8310003 3.1860001 -0.13 150
9.8369999 3.1930001 -0.126 150
9.8360004 3.197 -0.122 150
9.8260002 3.198 -0.119 146
9.8339996 3.2049999 -0.115 145
9.8240004 3.2060001 -0.111 141
9.8280001 3.211 -0.107 145
9.8310003 3.2160001 -0.103 145
9.8280001 3.2190001 -0.098999999 138
9.8179998 3.2190001 -0.094999999 134
9.8170004 3.2219999 -0.090999998 131
9.8120003 3.224 -0.086999997 125
9.8129997 3.227 -0.082999997 123
9.8129997 3.2309999 -0.079000004 122
9.8059998 3.2309999 -0.075000003 119
9.8000002 3.2320001 -0.071000002 111
9.8070002 3.237 -0.067000002 108
9.8120003 3.2409999 -0.063000001 107
9.8129997 3.244 -0.059 100
9.7980003 3.2409999 -0.055 95
9.8109999 3.247 -0.050999999 87
9.809 3.2479999 -0.046999998 86
9.8179998 3.253 -0.043000001 81
9.809 3.2520001 -0.039000001 79
9.8059998 3.2520001 -0.035 76
9.8000002 3.2520001 -0.029999999 73
9.7989998 3.2520001 -0.027000001 69
9.8050003 3.2550001 -0.023 65
9.7950001 3.253 -0.018999999 59
9.7950001 3.2539999 -0.015 59
9.8009996 3.256 -0.011 57
9.7989998 3.256 -0.0070000002 55
9.7950001 3.2550001 -0.003 53
9.802 3.2579999 0 52
9.7980003 3.257 0.0040000002 49
9.8030005 3.2579999 0.0080000004 47
9.8129997 3.2609999 0.012 46
9.8030005 3.2579999 0.016000001 44
9.809 3.2590001 0.02 43
9.8079996 3.2579999 0.024 39
9.8120003 3.2590001 0.028000001 38
9.809 3.256 0.032000002 37
9.8120003 3.256 0.035999998 35
9.8120003 3.2550001 0.039999999 34
9.8140001 3.2539999 0.044 33
9.8269997 3.257 0.048 32
9.8210001 3.2539999 0.052000001 31
9.823 3.2520001 0.056000002 30
9.8290005 3.253 0.059 29
9.8260002 3.2490001 0.063000001 29
9.8319998 3.2490001 0.067000002 28
9.8249998 3.2449999 0.071000002 25
9.8199997 3.24 0.075000003 24
9.8260002 3.24 0.079000004 24
9.8409996 3.2420001 0.082999997 16
9.8380003 3.2379999 0.086000003 15
9.8260002 3.2309999 0.090000004 24
9.8450003 3.234 0.093999997 14
9.835 3.227 0.097999997 21
9.8509998 3.2290001 0.102 21
9.8509998 3.2260001 0.106 17
9.8520002 3.2219999 0.109 15
9.8520002 3.2179999 0.113 13
9.8699999 3.22 0.117 11
9.8549995 3.211 0.12 8
9.8780003 3.214 0.124 5
9.875 3.2090001 0.12800001 4
9.8940001 3.21 0.132 1
9.8970003 3.2060001 0.13600001 1
9.9309998 3.2119999 0.14 1
9.9139996 3.2019999 0.14300001 1
9.948 3.207 0.147 1
9.9370003 3.198 0.15099999 1
9.9359999 3.1930001 0.154 1
9.9390001 3.188 0.15800001 6
9.9379997 3.1819999 0.161 18
9.9589996 3.1830001 0.16500001 30
9.9469995 3.1730001 0.169 58
9.9350004 3.1630001 0.17200001 72
9.9560003 3.1630001 0.176 103
9.9510002 3.155 0.17900001 121
9.9829998 3.1589999 0.183 130
9.9890003 3.154 0.18700001 135
9.974 3.142 0.19 150
9.9899998 3.1400001 0.19400001 150
10.005 3.138 0.197 150
9.9940004 3.1270001 0.2 150
9.9659996 3.1110001 0.20299999 78
9.9610004 3.1010001 0.206 35
9.9680004 3.096 0.20999999 16
9.9759998 3.0910001 0.213 9
10.008 3.0929999 0.21699999 6
10.009 3.085 0.22 4
10.023 3.0810001 0.223 3
10.064 3.085 0.227 2
10.084 3.0829999 0.23100001 1
10.083 3.073 0.234 1
10.128 3.0780001 0.23800001 1
10.185 3.0869999 0.243 1
10.263 3.1010001 0.248 1
10.29 3.0999999 0.25099999 1
10.407 3.125 0.257 1
10.495 3.142 0.26199999 1
10.452 3.119 0.264 1
10.533 3.1329999 0.26899999 1
10.706 3.174 0.27700001 1
0 0 0 0
0 0 0 0
0 0 0 0
0 0 0 0
0 0 0 12
36.465 10.589 1.001 74
36.459 10.548 1.011 96
36.5 10.521 1.021 58
0 0 0 0
0 0 0 14
0 0 0 35
38.386002 10.893 1.1109999 59
38.388 10.851 1.12 59
38.425999 10.818 1.13 47
38.474998 10.787 1.141 13
0 0 0 33
53.557999 14.89 1.6109999 27
53.625 14.844 1.625 34
53.557999 14.761 1.6339999 32
53.951 14.803 1.658 27
54.041 14.762 1.671 28
54.355 14.78 1.691 28
54.500999 14.751 1.707 27
53.164001 14.322 1.675 7
52.976002 14.204 1.679 5
52.865002 14.107 1.684 4
53.099998 14.101 1.702 4
0 0 0 45
42.743 11.238 1.385 60
0 0 0 6
37.627998 9.7919998 1.23 22
37.754002 9.7729998 1.2410001 8
37.619999 9.6870003 1.242 10
37.615002 9.6350002 1.247 20
37.804001 9.6309996 1.258 5
37.800999 9.5780001 1.2640001 24
37.796001 9.5229998 1.2690001 44
37.792999 9.4700003 1.274 64
37.794998 9.4160004 1.278 67
37.805 9.3640003 1.283 45
37.799 9.309 1.288 57
37.814999 9.257 1.2920001 46
37.803001 9.198 1.295 37
0 0 0 25
0 0 0 22
62.118 14.838 2.1470001 26
62.227001 14.77 2.1559999 20
0 0 0 0
0 0 0 0
0 0 0 0
0 0 0 0
0 0 0 33
51.412998 11.73 1.802 21
0 0 0 0
0 0 0 0
0 0 0 14
0 0 0 13
55.097 12.132 1.9400001 24
55.136002 12.053 1.942 20
0 0 0 0
0 0 0 17
47.707001 10.196 1.682 19
0 0 0 0
0 0 0 16
39.143002 8.1730003 1.38 43
39.077999 8.0950003 1.376 38
38.932999 8 1.37 37
38.652 7.8759999 1.359 32
38.709999 7.8239999 1.359 32
37.965 7.6079998 1.332 29
37.875 7.526 1.327 39
37.813 7.4489999 1.322 50
37.880001 7.3969998 1.322 39
37.762001 7.3109999 1.316 25
37.734001 7.2399998 1.312 20
37.734001 7.1739998 1.309 8
0 0 0 17
52.791 9.8509998 1.823 19
0 0 0 7
47.792999 8.75 1.64 7
47.678001 8.6440001 1.631 8
47.797001 8.5810003 1.63 10
48.026001 8.5369997 1.631 28
47.716 8.3959999 1.615 28
0 0 0 10
44.367001 7.6459999 1.489 17
44.055 7.513 1.472 24
44.743 7.5489998 1.488 42
44.390999 7.4099998 1.469 18
44.604 7.3629999 1.4680001 12
44.888 7.3280001 1.47 34
44.905998 7.2480001 1.462 34
44.904999 7.1659999 1.455 17
0 0 0 0
0 0 0 6
0 0 0 22
60.254002 9.1680002 1.903 22
60.268002 9.0570002 1.89 28
60.478001 8.974 1.883 24
0 0 0 19
68.214996 9.8660002 2.0910001 18
0 0 0 13
0 0 0 0
0 0 0 10
71.498001 9.7980003 2.118 18
71.549004 9.6680002 2.099 27
71.676003 9.5469999 2.0829999 31
72.003998 9.4540005 2.0710001 26
71.933998 9.3100004 2.049 34
0 0 0 0
0 0 0 12
75.166 9.29 2.0699999 28
75.592003 9.1949997 2.0569999 18
78.581001 9.4060001 2.1129999 15
0 0 0 0
0 0 0 15
0 0 0 0
0 0 0 14
74.445999 8.184 1.87 20
74.422997 8.0349998 1.842 40
74.521004 7.8979998 1.816 39
74.838997 7.7839999 1.795 29
75.001999 7.6529999 1.7690001 23
0 0 0 0
0 0 0 0
0 0 0 21
78.358002 7.375 1.7180001 22
78.931999 7.2719998 1.697 17
0 0 0 0
0 0 0 0
0 0 0 0
0 0 0 0
0 0 0 0
0 0 0 0
0 0 0 14
0 0 0 0
0 0 0 18
91.065002 6.5679998 1.527 20
90.757004 6.3629999 1.476 14
90.367996 6.1539998 1.423 20
90.130997 5.9559999 1.372 20
90.202003 5.7789998 1.325 14
0 0 0 0
0 0 0 0
0 0 0 23
118.277 6.6279998 1.476 25
118.246 6.3909998 1.409 28
0 0 0 18
91.181 4.5599999 0.98100001 14
0 0 0 0
0 0 0 0
0 0 0 0
0 0 0 0
0 0 0 0
0 0 0 0
0 0 0 0
0 0 0 16
89.737999 2.8599999 0.465 17
89.655998 2.674 0.405 19
89.710999 2.494 0.34599999 14
89.732002 2.3139999 0.28600001 18
89.710999 2.132 0.22499999 15
0 0 0 0
0 0 0 0
0 0 0 0
0 0 0 0
0 0 0 0
0 0 0 0
0 0 0 0
0 0 0 0
0 0 0 0
0 0 0 29
134.77499 0.233 -0.72399998 39
134.81599 -0.035999998 -0.82599998 52
134.784 -0.30500001 -0.92900002 67
134.81 -0.57099998 -1.0319999 79
0 0 0 32
74.241997 -0.61000001 -0.68400002 26
0 0 0 0
0 0 0 33
73.351997 -1.04 -0.852 101
0 0 0 10
68.208 -1.2359999 -0.903 44
67.924004 -1.365 -0.95499998 78
67.947998 -1.5 -1.012 79
67.893997 -1.631 -1.067 92
67.942001 -1.765 -1.125 69
0 0 0 0
0 0 0 111
59.865002 -1.9069999 -1.145 124
0 0 0 13
45.612 -1.631 -0.95200002 41
45.104 -1.701 -0.98100001 42
44.717999 -1.773 -1.012 41
44.549 -1.853 -1.048 41
0 0 0 3
0 0 0 33
0 0 0 3
0 0 0 48
39.849998 -2.0420001 -1.118 13
39.933998 -2.122 -1.1569999 13
39.946999 -2.1989999 -1.1950001 14
41.240002 -2.349 -1.272 5
0 0 0 1
27.702 -1.683 -0.90700001 10
27.502001 -1.723 -0.92699999 151
27.497 -1.775 -0.95300001 165
27.524 -1.8279999 -0.98000002 161
27.507999 -1.8789999 -1.006 152
0 0 0 7
40.249001 -2.901 -1.552 8
39.613998 -2.9289999 -1.566 75
0 0 0 5
23.107 -1.794 -0.95899999 5
22.783001 -1.8099999 -0.96799999 4
22.705 -1.847 -0.98799998 3
22.649 -1.8839999 -1.008 3
22.683001 -1.929 -1.033 3
22.750999 -1.976 -1.059 4
0 0 0 0
0 0 0 3
20.15 -1.86 -1 3
20.129 -1.895 -1.02 3
20.150999 -1.933 -1.0420001 4
20.143 -1.969 -1.063 3
20.177999 -2.0079999 -1.086 3
20.219 -2.049 -1.109 5
20.389999 -2.102 -1.14 5
20.629 -2.1630001 -1.175 5
21.209999 -2.2620001 -1.2309999 1
0 0 0 1
18.365 -2.023 -1.105 1
17.829 -1.995 -1.092 3
17.441 -1.983 -1.0880001 3
16.844999 -1.944 -1.068 5
17.183001 -2.013 -1.109 4
0 0 0 4
15.515 -1.8710001 -1.035 4
14.793 -1.809 -1.003 2
15.139 -1.877 -1.043 2
14.67 -1.844 -1.027 3
14.266 -1.817 -1.015 3
13.869 -1.79 -1.002 3
13.492 -1.7640001 -0.99000001 3
13.13 -1.739 -0.97799999 3
12.831 -1.72 -0.97000003 3
12.485 -1.694 -0.958 3
12.047 -1.655 -0.93800002 2
11.915 -1.656 -0.94099998 3
11.65 -1.638 -0.93300003 2
11.289 -1.6059999 -0.917 2
11.004 -1.5829999 -0.90600002 2
10.727 -1.561 -0.89499998 2
10.494 -1.543 -0.88800001 2
10.242 -1.523 -0.87800002 3
10.04 -1.5089999 -0.87199998 3
9.7980003 -1.488 -0.86199999 3
9.6059999 -1.474 -0.85600001 3
9.3900003 -1.455 -0.84799999 3
9.184 -1.437 -0.83999997 2
8.9960003 -1.4220001 -0.833 3
8.7810001 -1.401 -0.82300001 2
8.5810003 -1.383 -0.81400001 3
8.4069996 -1.368 -0.80800003 3
8.2290001 -1.351 -0.80000001 4
8.0649996 -1.336 -0.79400003 4
7.915 -1.323 -0.78799999 5
7.7740002 -1.311 -0.78299999 5
7.6399999 -1.3 -0.778 5
7.5089998 -1.289 -0.77399999 5
7.3839998 -1.278 -0.76899999 5
7.2459998 -1.265 -0.764 4
7.1199999 -1.2539999 -0.759 4
7.0050001 -1.243 -0.75400001 4
6.9070001 -1.2359999 -0.75199997 4
6.7940001 -1.225 -0.74699998 4
6.6739998 -1.2130001 -0.74199998 3
6.5650001 -1.202 -0.73799998 3
6.473 -1.194 -0.73500001 3
6.3670001 -1.184 -0.73000002 3
6.289 -1.178 -0.72799999 4
6.1939998 -1.169 -0.72500002 4
6.1149998 -1.1619999 -0.72299999 3
6.0349998 -1.155 -0.72000003 3
5.9109998 -1.14 -0.713 3
5.8369999 -1.133 -0.70999998 3
5.7329998 -1.12 -0.704 4
5.6589999 -1.114 -0.70200002 3
5.5900002 -1.107 -0.69999999 3
5.5320001 -1.103 -0.699 3
5.4400001 -1.092 -0.69400001 3
5.3740001 -1.085 -0.69199997 3
5.3039999 -1.0779999 -0.68900001 3
5.256 -1.075 -0.68900001 3
5.1950002 -1.069 -0.68699998 2
5.1240001 -1.061 -0.68300003 2
5.0570002 -1.053 -0.68000001 2
4.9889998 -1.045 -0.67699999 3
4.9439998 -1.041 -0.676 4
4.8909998 -1.036 -0.67500001 4
4.8449998 -1.0319999 -0.67400002 2
4.7849998 -1.025 -0.671 2
4.7119999 -1.015 -0.66600001 2
4.651 -1.007 -0.66299999 2
4.605 -1.003 -0.662 2
4.5580001 -0.99800003 -0.66000003 4
4.5110002 -0.99199998 -0.65799999 3
4.4889998 -0.99299997 -0.66000003 2
4.421 -0.98299998 -0.65499997 3
4.3909998 -0.98100001 -0.65600002 2
4.3449998 -0.97500002 -0.65399998 3
4.2930002 -0.96799999 -0.65100002 4
4.2509999 -0.963 -0.64899999 2
4.178 -0.95099998 -0.64300001 2
4.1739998 -0.95499998 -0.64700001 2
4.1230001 -0.94700003 -0.64399999 2
4.1220002 -0.95099998 -0.648 2
4.0479999 -0.93800002 -0.64099997 2
4.0500002 -0.94300002 -0.64600003 2
3.9960001 -0.93400002 -0.64099997 3
4.0139999 -0.94300002 -0.64899999 2
3.948 -0.93099999 -0.64200002 2
3.888 -0.921 -0.63700002 2
3.859 -0.917 -0.63599998 2
3.8789999 -0.926 -0.64399999 2
3.7909999 -0.90799999 -0.63300002 2
3.8340001 -0.92199999 -0.64499998 2
3.698 -0.89300001 -0.62599999 2
3.7320001 -0.90499997 -0.63499999 2
3.743 -0.91100001 -0.64099997 3
3.6500001 -0.89099997 -0.62900001 3
3.5969999 -0.88099998 -0.62400001 1
3.596 -0.884 -0.62699997 3
3.5739999 -0.88200003 -0.62699997 3
3.517 -0.87099999 -0.62099999 1
3.4820001 -0.86500001 -0.61799997 1
3.4590001 -0.86199999 -0.61799997 1
3.441 -0.86000001 -0.61799997 1
3.425 -0.85900003 -0.61900002 1
3.391 -0.85299999 -0.616 2
3.3610001 -0.84799999 -0.61400002 2
3.3410001 -0.84600002 -0.61400002 1
3.3410001 -0.84899998 -0.61699998 2
3.2880001 -0.83700001 -0.611 1
3.3429999 -0.85399997 -0.62400001 1
3.2850001 -0.84100002 -0.616 1
3.2820001 -0.84299999 -0.61900002 2
3.273 -0.84299999 -0.62099999 2
3.283 -0.84799999 -0.62599999 2
3.263 -0.84500003 -0.625 2
3.1659999 -0.82200003 -0.61000001 2
3.158 -0.82200003 -0.611 3
3.141 -0.81900001 -0.611 2
3.1129999 -0.81400001 -0.60799998 2
3.092 -0.81 -0.60699999 2
3.0840001 -0.81 -0.60799998 2
3.069 -0.80800003 -0.60799998 2
3.0439999 -0.80299997 -0.60600001 2
3.026 -0.80000001 -0.60500002 2
3.007 -0.79699999 -0.60399997 2
2.9909999 -0.79400003 -0.60299999 2
2.9719999 -0.79100001 -0.602 2
2.9549999 -0.78799999 -0.60100001 2
2.938 -0.78500003 -0.60000002 2
2.931 -0.78399998 -0.602 1
2.9890001 -0.801 -0.616 1
3.053 -0.81999999 -0.63200003 2
2.964 -0.79699999 -0.616 1
2.9030001 -0.78299999 -0.60600001 1
2.9679999 -0.801 -0.62199998 2
2.8139999 -0.76099998 -0.59200001 2
2.8110001 -0.76099998 -0.59299999 2
2.799 -0.759 -0.59299999 2
2.7839999 -0.75599998 -0.59200001 3
2.777 -0.755 -0.59299999 4
2.7709999 -0.755 -0.59399998 5
2.7609999 -0.75300002 -0.59399998 6
2.757 -0.75300002 -0.59500003 6
2.7539999 -0.75300002 -0.597 6
2.7479999 -0.75199997 -0.597 6
2.7420001 -0.75199997 -0.59799999 5
2.7279999 -0.74900001 -0.597 4
2.714 -0.74599999 -0.59600002 3
2.6989999 -0.74199998 -0.59500003 3
2.675 -0.736 -0.59100002 2
2.6470001 -0.72899997 -0.58700001 2
2.6400001 -0.72799999 -0.58700001 2
2.6340001 -0.727 -0.588 2
2.6159999 -0.72299999 -0.58600003 2
2.6059999 -0.72000003 -0.58499998 2
2.6010001 -0.71899998 -0.58600003 2
2.5899999 -0.71700001 -0.58499998 2
2.5880001 -0.71700001 -0.58600003 2
2.5710001 -0.713 -0.58399999 2
2.566 -0.71200001 -0.58499998 2
2.563 -0.71100003 -0.58499998 2
2.5439999 -0.70599997 -0.583 1
2.533 -0.70300001 -0.58200002 1
2.527 -0.70200002 -0.58200002 1
2.526 -0.70200002 -0.583 1
2.51 -0.69800001 -0.58099997 1
2.5050001 -0.69700003 -0.58099997 1
2.4960001 -0.69400001 -0.57999998 1
2.4949999 -0.69400001 -0.58200002 1
2.49 -0.69300002 -0.58200002 1
2.473 -0.68800002 -0.579 1
2.474 -0.68800002 -0.58099997 1
2.4579999 -0.68400002 -0.57800001 1
2.4560001 -0.68300003 -0.579 1
2.448 -0.68099999 -0.57800001 1
2.447 -0.68099999 -0.579 1
2.438 -0.67799997 -0.57800001 1
2.4260001 -0.67500001 -0.57700002 1
2.4330001 -0.67699999 -0.579 1
2.418 -0.67199999 -0.57700002 1
2.4189999 -0.67199999 -0.57800001 1
2.402 -0.667 -0.57499999 1
2.4059999 -0.66799998 -0.57700002 1
2.392 -0.66399997 -0.57499999 1
2.3900001 -0.66299999 -0.57499999 1
2.385 -0.66100001 -0.57499999 1
2.3900001 -0.662 -0.57700002 1
2.381 -0.65899998 -0.57599998 1
2.3789999 -0.65799999 -0.57599998 1
2.372 -0.65600002 -0.57499999 1
2.3710001 -0.65499997 -0.57599998 1
2.3570001 -0.65100002 -0.57300001 1
2.3570001 -0.64999998 -0.574 1
2.349 -0.648 -0.57300001 1
2.3510001 -0.64700001 -0.574 1
2.3499999 -0.64700001 -0.57499999 1
2.345 -0.64399999 -0.574 1
2.3340001 -0.64099997 -0.57200003 1
2.332 -0.63999999 -0.57200003 1
2.339 -0.64099997 -0.57499999 1
2.3369999 -0.63999999 -0.57499999 1
2.3299999 -0.63700002 -0.57300001 1
2.332 -0.63700002 -0.574 1
2.323 -0.63300002 -0.57300001 1
2.325 -0.63300002 -0.574 1
2.323 -0.63099998 -0.574 1
2.316 -0.62900001 -0.57200003 1
2.323 -0.63 -0.57499999 1
2.3169999 -0.62699997 -0.574 1
2.3169999 -0.62599999 -0.574 1
2.3099999 -0.62300003 -0.57200003 1
2.309 -0.62199998 -0.57300001 1
2.306 -0.62 -0.57200003 1
2.309 -0.62 -0.57300001 1
2.3069999 -0.61799997 -0.57300001 1
2.3080001 -0.61799997 -0.57300001 1
2.3050001 -0.616 -0.57300001 1
2.3069999 -0.61500001 -0.57300001 1
2.2969999 -0.611 -0.57099998 1
2.302 -0.611 -0.57200003 1
2.3 -0.61000001 -0.57200003 1
2.3050001 -0.61000001 -0.57300001 1
2.303 -0.60799998 -0.57300001 1
2.2980001 -0.60500002 -0.57200003 1
2.303 -0.60500002 -0.57300001 1
2.3 -0.60299999 -0.57200003 1
2.302 -0.602 -0.57300001 1
2.302 -0.60100001 -0.57300001 1
2.3050001 -0.60000002 -0.57300001 1
2.3039999 -0.59799999 -0.57300001 1
2.3 -0.59600002 -0.57200003 2
2.2980001 -0.59399998 -0.57099998 2
2.2969999 -0.59200001 -0.57099998 2
2.3050001 -0.59299999 -0.57300001 1
2.3080001 -0.59200001 -0.57300001 1
2.3080001 -0.58999997 -0.57300001 1
2.309 -0.58899999 -0.57200003 1
2.3239999 -0.59100002 -0.57599998 1
2.3139999 -0.58700001 -0.57300001 1
2.316 -0.58600003 -0.57300001 1
2.3180001 -0.58499998 -0.57300001 1
2.316 -0.58200002 -0.57200003 1
2.316 -0.58099997 -0.57200003 1
2.325 -0.58099997 -0.574 1
2.319 -0.57800001 -0.57200003 1
2.326 -0.57800001 -0.57300001 1
2.3310001 -0.57700002 -0.574 1
2.3310001 -0.57499999 -0.57300001 1
2.332 -0.574 -0.57300001 1
2.335 -0.57300001 -0.57300001 1
2.339 -0.57200003 -0.57300001 1
2.3380001 -0.56900001 -0.57200003 1
2.346 -0.56900001 -0.574 1
2.3429999 -0.56699997 -0.57200003 1
2.3540001 -0.56699997 -0.574 1
2.355 -0.56599998 -0.574 1
2.355 -0.56400001 -0.57300001 1
2.359 -0.56300002 -0.57300001 1
2.3740001 -0.56400001 -0.57599998 1
2.3740001 -0.56199998 -0.57499999 1
