# .PCD v0.7 - Point Cloud Data file format
VERSION 0.7
FIELDS x y z intensity
SIZE 4 4 4 4
TYPE F F F F
COUNT 1 1 1 1
WIDTH 1757
HEIGHT 1
VIEWPOINT 0 0 0 1 0 0 0
POINTS 1757
DATA ascii
67.046997 -1.363 4.5209999 58
67.026001 -1.386 4.658 70
66.699997 -1.402 4.7709999 51
66.120003 -1.413 4.8660002 53
65.781998 -1.4299999 4.9759998 71
65.75 -1.4529999 5.1069999 67
65.710999 -1.476 5.2379999 59
65.300003 -1.492 5.3379998 45
64.476997 -1.498 5.4029999 46
64.399002 -1.521 5.5250001 28
63.972 -1.536 5.618 11
63.375 -1.548 5.6939998 10
63.136002 -1.568 5.8000002 10
62.813 -1.586 5.8969998 10
62.583 -1.6059999 5.9990001 9
62.216999 -1.623 6.0890002 9
61.909 -1.642 6.1830001 9
61.640999 -1.661 6.277 8
0 0 0 0
0 0 0 0
0 0 0 0
0 0 0 0
0 0 0 25
120.459 -3.5769999 13.695 32
120.525 -3.6359999 13.942 43
120.415 -3.691 14.164 33
0 0 0 0
0 0 0 0
0 0 0 30
120.329 -3.9260001 15.079 55
120.293 -3.9849999 15.309 53
120.225 -4.0419998 15.528 44
120.265 -4.1079998 15.766 57
120.255 -4.1680002 15.99 66
120.348 -4.2350001 16.231001 32
0 0 0 0
0 0 0 25
120.449 -4.4330001 16.924 25
0 0 0 0
0 0 0 0
0 0 0 0
0 0 0 0
0 0 0 0
0 0 0 9
53.431999 -2.175 8.1999998 22
53.321999 -2.201 8.2790003 38
53.319 -2.2309999 8.375 46
53.244999 -2.26 8.46 60
52.688 -2.267 8.4659996 34
52.393002 -2.2839999 8.5109997 38
52.368999 -2.3150001 8.6000004 39
52.375 -2.3469999 8.6949997 41
51.912998 -2.358 8.71 31
51.085999 -2.3510001 8.6630001 41
51.043999 -2.3800001 8.7419996 37
51.028999 -2.4100001 8.8299999 40
50.994999 -2.4400001 8.9130001 43
50.132 -2.4300001 8.8479996 30
49.706001 -2.4389999 8.8570004 36
49.682999 -2.47 8.9379997 40
49.679001 -2.5009999 9.0220003 37
49.528999 -2.5250001 9.0780001 39
48.571999 -2.507 8.9849997 35
48.342999 -2.526 9.0229998 42
48.349998 -2.5580001 9.1049995 36
48.353001 -2.5880001 9.1850004 40
48.133999 -2.608 9.2220001 35
47.150002 -2.585 9.1110001 35
47.004002 -2.608 9.158 33
47.006001 -2.6389999 9.2340002 34
47.007999 -2.6689999 9.309 33
46.808998 -2.6889999 9.3450003 34
45.861 -2.665 9.2290001 34
45.668999 -2.6830001 9.2620001 35
45.653999 -2.7130001 9.3310003 34
45.655998 -2.744 9.4029999 35
45.639 -2.7739999 9.4700003 34
44.867001 -2.756 9.3789997 25
44.321999 -2.753 9.3330002 30
44.303001 -2.7820001 9.3959999 30
44.318001 -2.813 9.467 29
44.318001 -2.842 9.533 31
43.939999 -2.848 9.5179996 24
43.056 -2.8210001 9.3900003 32
42.967999 -2.845 9.4359999 33
42.959999 -2.8740001 9.4960003 30
42.98 -2.905 9.5629997 31
42.970001 -2.934 9.6230001 33
42.497002 -2.931 9.5790005 22
41.652 -2.9000001 9.448 26
41.601002 -2.927 9.4960003 27
41.609001 -2.957 9.5559998 25
41.613998 -2.9860001 9.6129999 26
41.609001 -3.0139999 9.6709995 27
41.049 -3.0020001 9.5970001 21
40.320999 -2.9779999 9.4820004 32
40.286999 -3.0039999 9.5290003 27
40.278 -3.03 9.5799999 29
40.269001 -3.0580001 9.6300001 28
40.277 -3.086 9.6859999 27
40.018002 -3.0940001 9.6759996 26
39.097 -3.0510001 9.5039997 25
38.93 -3.0650001 9.5139999 25
38.933998 -3.0929999 9.5640001 27
38.914001 -3.119 9.6090002 26
38.917 -3.1459999 9.658 26
38.93 -3.175 9.71 25
38.473 -3.165 9.6429996 19
37.632999 -3.1229999 9.4779997 31
37.564999 -3.1440001 9.507 26
37.555 -3.1689999 9.5489998 25
37.577 -3.198 9.599 25
37.581001 -3.224 9.6450005 26
37.580002 -3.2509999 9.6890001 25
37.292999 -3.2520001 9.658 23
36.394001 -3.2 9.467 24
36.219002 -3.21 9.4619999 29
36.206001 -3.234 9.4989996 30
36.223 -3.2609999 9.5430002 30
36.215 -3.2850001 9.5799999 29
36.222 -3.3110001 9.6210003 29
36.216999 -3.336 9.6590004 28
35.833 -3.326 9.5939999 21
35.015999 -3.2739999 9.4119997 27
34.859001 -3.283 9.4049997 28
34.849998 -3.306 9.4379997 29
34.863998 -3.332 9.4770002 27
34.882999 -3.358 9.5170002 28
34.859001 -3.381 9.5450001 28
34.880001 -3.4059999 9.5839996 22
34.854 -3.428 9.6099997 24
34.139 -3.381 9.4460001 15
33.555 -3.346 9.3149996 21
33.492001 -3.362 9.3290005 28
33.493999 -3.385 9.3599997 27
33.511002 -3.4100001 9.3940001 27
33.505001 -3.4319999 9.4219999 28
33.499001 -3.454 9.4499998 27
33.508999 -3.4779999 9.4809999 25
33.514 -3.5 9.5109997 27
33.113998 -3.4809999 9.4250002 18
32.331001 -3.4200001 9.2279997 23
32.153 -3.4219999 9.2040005 24
32.153 -3.4430001 9.2290001 28
32.162998 -3.4660001 9.257 28
32.157001 -3.487 9.2799997 27
32.164001 -3.5090001 9.3059998 26
32.146 -3.527 9.3249998 27
32.179001 -3.552 9.3579998 27
32.148998 -3.5699999 9.3719997 24
32.122002 -3.5869999 9.3870001 23
31.361 -3.523 9.1859999 16
30.867001 -3.4860001 9.0620003 18
30.809 -3.4990001 9.066 25
30.795 -3.5179999 9.0819998 26
30.802999 -3.5380001 9.1040001 25
30.812 -3.5580001 9.1260004 27
30.796 -3.575 9.1400003 26
30.816999 -3.5969999 9.1639996 26
30.806999 -3.6140001 9.1789999 25
30.808001 -3.6329999 9.1969995 25
30.815001 -3.652 9.2159996 23
30.788 -3.668 9.2250004 21
30.141001 -3.609 9.0469999 12
29.547001 -3.556 8.8839998 19
29.438999 -3.5610001 8.8669996 21
29.434999 -3.5780001 8.8800001 23
29.433001 -3.595 8.8929996 23
29.424999 -3.6110001 8.9049997 24
29.448 -3.631 8.9250002 24
29.438 -3.6470001 8.9350004 24
29.455 -3.6659999 8.9530001 24
29.440001 -3.681 8.96 24
29.441 -3.698 8.9720001 23
29.450001 -3.7160001 8.9860001 23
29.448 -3.7320001 8.9960003 22
29.362 -3.7379999 8.9799995 19
28.701 -3.6700001 8.7880001 14
28.194 -3.6199999 8.6420002 17
28.107 -3.6240001 8.6239996 20
28.101999 -3.6389999 8.6309996 23
28.093 -3.6530001 8.6359997 24
28.083 -3.6659999 8.6409998 24
28.091999 -3.6819999 8.651 24
28.082001 -3.6949999 8.6549997 23
28.084999 -3.71 8.6630001 24
28.091999 -3.7249999 8.6709995 24
28.097 -3.74 8.6780005 24
28.079 -3.7520001 8.6780005 23
28.108 -3.77 8.6920004 24
28.09 -3.7820001 8.691 22
28.105 -3.7980001 8.6999998 20
28.1 -3.8099999 8.7030001 20
28.087999 -3.8210001 8.7019997 19
27.618 -3.7709999 8.5600004 13
27.112 -3.714 8.4060001 17
26.820999 -3.688 8.3170004 18
26.749001 -3.6900001 8.2969999 21
26.711 -3.697 8.2869997 22
26.719999 -3.71 8.2910004 24
26.724001 -3.7219999 8.2930002 24
26.716999 -3.733 8.2910004 24
26.731001 -3.747 8.2950001 24
26.715 -3.7550001 8.29 23
26.728001 -3.7690001 8.2930002 22
26.736 -3.7820001 8.2950001 24
26.711 -3.789 8.2860003 23
26.722 -3.8010001 8.2869997 23
26.722 -3.812 8.2849998 23
26.726999 -3.823 8.2840004 23
26.737 -3.835 8.2849998 23
26.733 -3.845 8.2799997 23
26.733 -3.855 8.2770004 22
26.729 -3.8640001 8.2720003 23
26.733999 -3.875 8.2690001 22
26.735001 -3.885 8.2639999 22
26.725 -3.8929999 8.2559996 21
26.579 -3.881 8.2060003 17
26.124001 -3.8239999 8.0600004 13
25.761999 -3.78 7.9419999 14
25.490999 -3.7479999 7.8520002 15
25.41 -3.7449999 7.8210001 21
25.384001 -3.7490001 7.8060002 23
25.365999 -3.7550001 7.7930002 25
25.372999 -3.7639999 7.7880001 25
25.363001 -3.77 7.777 25
25.355 -3.777 7.7659998 25
25.365999 -3.7850001 7.7610002 26
25.353001 -3.7920001 7.7480001 26
25.358999 -3.799 7.7410002 22
25.336 -3.803 7.724 25
25.306 -3.8050001 7.7049999 24
25.268 -3.8050001 7.684 19
25.186001 -3.8 7.6479998 18
25.091999 -3.7920001 7.6090002 13
24.966999 -3.779 7.5599999 14
24.83 -3.7639999 7.507 14
24.708 -3.7509999 7.4590001 11
24.672001 -3.7509999 7.4359999 10
24.624001 -3.75 7.4099998 10
24.606001 -3.7520001 7.3920002 10
24.568001 -3.7509999 7.3670001 9
24.551001 -3.753 7.349 10
24.528 -3.7539999 7.329 10
24.497999 -3.7539999 7.3070002 10
24.473 -3.7550001 7.2849998 9
24.462999 -3.757 7.2680001 10
24.434999 -3.757 7.2449999 10
24.4 -3.756 7.2199998 10
24.389 -3.7579999 7.2020001 9
24.362 -3.7579999 7.178 9
24.365 -3.7609999 7.1630001 10
24.34 -3.7609999 7.1399999 10
24.315001 -3.76 7.1160002 10
24.305 -3.7609999 7.0970001 10
24.280001 -3.76 7.073 10
24.267 -3.7609999 7.052 10
24.235001 -3.7579999 7.0250001 10
24.238001 -3.76 7.0079999 9
24.222 -3.76 6.9860001 10
24.222 -3.7620001 6.967 10
24.202999 -3.76 6.9439998 10
24.184999 -3.7590001 6.9200001 10
24.174999 -3.7590001 6.8979998 10
24.174 -3.76 6.8779998 10
24.157 -3.7590001 6.8530002 10
24.156 -3.7590001 6.8330002 10
24.159 -3.76 6.8140001 11
24.153999 -3.76 6.7919998 13
24.186001 -3.766 6.7800002 14
24.23 -3.7720001 6.7709999 15
24.281 -3.78 6.7639999 16
24.34 -3.789 6.7589998 21
24.403999 -3.799 6.7540002 24
24.478001 -3.8099999 6.7519999 28
24.539 -3.819 6.7459998 30
24.608 -3.8280001 6.7420001 27
24.674 -3.8380001 6.7360001 27
24.737 -3.846 6.73 30
24.825001 -3.858 6.7290001 32
24.917999 -3.8710001 6.73 27
24.986 -3.8800001 6.724 29
25.062 -3.8900001 6.7189999 30
25.145 -3.901 6.7160001 30
25.235001 -3.9119999 6.7140002 32
25.323999 -3.9219999 6.7119999 31
25.412001 -3.9330001 6.7080002 27
25.5 -3.944 6.7049999 25
25.584 -3.954 6.6989999 29
25.660999 -3.9619999 6.6919999 29
25.771999 -3.9760001 6.6929998 28
25.862 -3.9860001 6.6880002 28
25.972 -3.9990001 6.6869998 29
26.077 -4.0110002 6.6849999 26
26.174 -4.0209999 6.6799998 29
26.275999 -4.0320001 6.6760001 24
26.379999 -4.0430002 6.6729999 24
26.486 -4.0539999 6.6690001 26
26.6 -4.066 6.6669998 28
26.711 -4.0780001 6.6630001 25
26.823999 -4.0900002 6.6589999 24
26.915001 -4.0970001 6.6490002 28
27.021999 -4.1069999 6.6440001 27
27.145 -4.119 6.6409998 26
27.278999 -4.1329999 6.6399999 28
27.419001 -4.1469998 6.6399999 25
27.534 -4.158 6.6339998 24
27.653 -4.1669998 6.6279998 28
27.775999 -4.178 6.6220002 22
27.906 -4.1900001 6.618 21
28.056999 -4.204 6.6170001 23
28.172001 -4.2129998 6.6090002 23
28.319 -4.2259998 6.6069999 24
28.459999 -4.2379999 6.6020002 24
28.607 -4.2509999 6.599 24
28.736 -4.2610002 6.5910001 29
28.875 -4.2719998 6.5840001 27
28.976999 -4.277 6.5689998 39
29.031 -4.2740002 6.5419998 42
29.068001 -4.2690001 6.5110002 43
29.07 -4.2579999 6.4710002 46
29.061001 -4.2459998 6.4299998 45
29.062 -4.2350001 6.3899999 47
29.07 -4.2249999 6.3520002 45
29.069 -4.2129998 6.3119998 45
29.073999 -4.2010002 6.2719998 43
29.076 -4.1900001 6.2309999 41
29.077 -4.177 6.1900001 41
29.091999 -4.1669998 6.152 42
29.091999 -4.1539998 6.1100001 41
29.101 -4.1420002 6.0700002 41
29.105 -4.1300001 6.0289998 39
29.115 -4.1170001 5.9889998 39
29.125 -4.105 5.9489999 39
29.120001 -4.0900002 5.9050002 37
29.136999 -4.0770001 5.8649998 35
29.139 -4.0640001 5.823 34
29.17 -4.0539999 5.7859998 28
29.181 -4.04 5.7449999 30
29.186001 -4.0250001 5.7010002 30
29.204 -4.0120001 5.6620002 29
29.233999 -4 5.6230001 28
29.250999 -3.987 5.5809999 28
29.254 -3.971 5.5380001 23
29.274 -3.957 5.4970002 22
29.299999 -3.944 5.4569998 20
29.327999 -3.931 5.4169998 15
29.389 -3.9219999 5.382 12
29.448 -3.9119999 5.348 8
29.514 -3.9030001 5.3130002 1
0 0 0 26
35.812 -4.691 6.336 26
36.087002 -4.704 6.3280001 28
36.318001 -4.711 6.3109999 28
36.595001 -4.724 6.3010001 29
36.775002 -4.723 6.2729998 22
36.956001 -4.7220001 6.2449999 16
37.165001 -4.724 6.2210002 9
37.330002 -4.7199998 6.1900001 3
37.499001 -4.7150002 6.158 3
0 0 0 0
0 0 0 0
0 0 0 2
37.098 -4.5609999 5.8520002 2
0 0 0 0
0 0 0 0
0 0 0 0
0 0 0 0
0 0 0 0
0 0 0 2
0 0 0 0
0 0 0 0
0 0 0 0
0 0 0 2
37.201 -4.2600002 5.1950002 3
37.257999 -4.2360001 5.1409998 3
37.226002 -4.2020001 5.0760002 3
37.189999 -4.1669998 5.0079999 3
37.131001 -4.1300001 4.9380002 4
37.008999 -4.085 4.8600001 20
36.985001 -4.0510001 4.7950001 50
36.994999 -4.02 4.7350001 53
36.985001 -3.987 4.671 55
36.98 -3.954 4.6079998 52
36.971001 -3.921 4.5450001 53
36.957001 -3.8870001 4.48 53
36.977001 -3.855 4.4200001 54
36.964001 -3.8210001 4.3559999 52
36.956001 -3.786 4.2919998 51
36.955002 -3.7509999 4.2290001 51
36.938 -3.7160001 4.1659999 53
36.949001 -3.6819999 4.1040001 54
36.945 -3.6470001 4.04 54
36.935001 -3.6099999 3.9760001 52
36.928001 -3.5739999 3.9119999 53
36.925999 -3.5380001 3.849 53
36.925999 -3.503 3.7869999 55
36.900002 -3.464 3.7219999 53
36.911999 -3.4289999 3.661 53
36.916 -3.3929999 3.598 53
36.901001 -3.3540001 3.533 51
36.887001 -3.316 3.47 48
36.886002 -3.2780001 3.4070001 49
36.891998 -3.2409999 3.3440001 57
36.889 -3.2019999 3.28 53
36.889 -3.164 3.217 56
36.880001 -3.1240001 3.1530001 55
36.875999 -3.085 3.0899999 55
36.876999 -3.046 3.0280001 55
36.862999 -3.0050001 2.964 55
36.862 -2.9649999 2.9000001 50
36.838001 -2.9230001 2.835 38
36.844002 -2.8829999 2.7720001 41
36.831001 -2.8410001 2.7079999 41
36.834 -2.8 2.645 44
36.833 -2.7590001 2.582 42
36.805 -2.7160001 2.5179999 44
36.820999 -2.675 2.4560001 43
36.962002 -2.645 2.404 33
37.066002 -2.6099999 2.3469999 21
37.512001 -2.598 2.312 20
37.813999 -2.5739999 2.2650001 20
38.227001 -2.559 2.2260001 32
38.540001 -2.5350001 2.1789999 17
38.942001 -2.516 2.1359999 25
39.299 -2.4920001 2.089 23
39.772999 -2.473 2.0450001 16
40.201 -2.4519999 2 19
40.682999 -2.4319999 1.955 16
41.089001 -2.4070001 1.905 15
41.606998 -2.3870001 1.86 6
42 -2.358 1.806 29
42.398998 -2.3280001 1.752 27
42.915001 -2.3039999 1.7029999 26
43.419998 -2.277 1.65 18
44.084 -2.257 1.601 3
44.817001 -2.237 1.552 3
0 0 0 30
0 0 0 9
45.634998 -2.1029999 1.351 60
45.658001 -2.046 1.277 69
45.665001 -1.988 1.201 67
45.674 -1.929 1.125 95
45.658001 -1.87 1.051 32
0 0 0 0
0 0 0 0
0 0 0 0
0 0 0 0
0 0 0 0
0 0 0 0
0 0 0 35
60.981998 -1.848 0.602 20
0 0 0 0
0 0 0 33
61.604 -1.615 0.31 30
0 0 0 17
68.949997 -1.6210001 0.127 49
68.972 -1.526 0.016000001 79
68.955002 -1.429 -0.093999997 64
0 0 0 0
0 0 0 9
0 0 0 38
74.450996 -1.128 -0.57300001 92
75.347 -1.034 -0.699 44
0 0 0 53
0 0 0 0
0 0 0 0
0 0 0 0
0 0 0 0
0 0 0 93
135.914 -0.50400001 -2.7449999 43
0 0 0 28
119.286 -0.098999999 -2.7720001 26
0 0 0 25
0 0 0 25
0 0 0 25
0 0 0 25
0 0 0 152
67.736 0.54400003 -2.1949999 163
67.764999 0.64600003 -2.2980001 16
0 0 0 255
73.063004 0.91299999 -2.694 173
75.932999 1.063 -2.9130001 157
0 0 0 0
0 0 0 0
0 0 0 0
0 0 0 0
0 0 0 1
0 0 0 0
0 0 0 1
0 0 0 0
0 0 0 3
0 0 0 0
0 0 0 2
18.938 0.611 -1.0549999 1
18.775999 0.634 -1.072 2
17.926001 0.63300002 -1.049 2
17.229 0.63599998 -1.0319999 2
16.487 0.634 -1.011 2
15.769 0.63099998 -0.98900002 2
15.232 0.63300002 -0.97600001 2
14.757 0.63599998 -0.96499997 2
14.264 0.63700002 -0.95300001 2
13.726 0.63499999 -0.935 2
13.221 0.63200003 -0.91900003 2
12.823 0.63300002 -0.90799999 3
12.446 0.634 -0.898 3
12.064 0.63300002 -0.88700002 2
11.724 0.634 -0.87699997 2
11.391 0.634 -0.86699998 3
11.045 0.63200003 -0.85500002 2
10.686 0.62800002 -0.84100002 3
10.367 0.62599999 -0.82999998 4
10.043 0.62199998 -0.81699997 2
9.7480001 0.61900002 -0.80500001 3
9.4650002 0.616 -0.79400003 2
9.1660004 0.61199999 -0.77999997 3
8.9230003 0.61000001 -0.77100003 3
8.7060003 0.60900003 -0.76300001 3
8.5039997 0.60799998 -0.75599998 4
8.3409996 0.61000001 -0.75199997 4
8.1400003 0.60799998 -0.74400002 4
7.96 0.60699999 -0.73699999 14
7.8979998 0.61500001 -0.741 11
7.651 0.60799998 -0.727 3
7.447 0.60299999 -0.71600002 3
7.348 0.60699999 -0.71600002 3
7.2649999 0.61199999 -0.71600002 4
7.138 0.61199999 -0.71200001 4
6.9899998 0.611 -0.70499998 3
6.8520002 0.61000001 -0.699 3
6.7389998 0.611 -0.69599998 3
6.6279998 0.611 -0.69199997 3
6.527 0.61199999 -0.68900001 3
6.415 0.61199999 -0.68400002 3
6.309 0.61199999 -0.68000001 3
6.2189999 0.61299998 -0.67699999 3
6.1230001 0.61299998 -0.67400002 3
6.0560002 0.616 -0.67299998 3
5.954 0.61500001 -0.66799998 3
5.8740001 0.616 -0.66600001 3
5.802 0.61799997 -0.66399997 3
5.7410002 0.62099999 -0.66299999 3
5.6430001 0.61900002 -0.65700001 3
5.5780001 0.62099999 -0.65600002 3
5.5050001 0.62099999 -0.653 3
5.4369998 0.62199998 -0.65100002 3
5.3670001 0.62300003 -0.648 3
5.316 0.625 -0.64700001 2
5.2579999 0.62699997 -0.64499998 3
5.1820002 0.62599999 -0.64099997 3
5.1389999 0.62900001 -0.64099997 3
5.0710001 0.62800002 -0.63700002 3
5.02 0.63 -0.63599998 2
4.9699998 0.63099998 -0.634 3
4.9109998 0.63099998 -0.63099998 5
4.8740001 0.634 -0.63099998 3
4.8270001 0.63599998 -0.63 3
4.7740002 0.63599998 -0.62800002 3
4.7309999 0.63800001 -0.62599999 3
4.6989999 0.64099997 -0.62599999 3
4.6669998 0.64399999 -0.62599999 3
4.6149998 0.64399999 -0.62400001 4
4.5780001 0.64600003 -0.62300003 2
4.5440001 0.648 -0.62199998 2
4.513 0.64999998 -0.62199998 2
4.461 0.64999998 -0.61799997 3
4.4299998 0.65200001 -0.61799997 3
4.3790002 0.65100002 -0.61500001 2
4.3509998 0.65399998 -0.61400002 4
4.3260002 0.65600002 -0.61400002 2
4.3200002 0.662 -0.61699998 2
4.2140002 0.65200001 -0.60600001 2
4.2480001 0.66399997 -0.61400002 4
4.1550002 0.65600002 -0.60399997 2
4.1479998 0.66100001 -0.60600001 2
4.145 0.667 -0.60900003 2
4.1009998 0.66600001 -0.60600001 4
4.1090002 0.67299998 -0.61000001 2
4.0549998 0.67000002 -0.60500002 2
4.0349998 0.67299998 -0.60500002 3
4.0019999 0.67299998 -0.60299999 2
4.0180001 0.68199998 -0.60900003 2
3.954 0.67699999 -0.602 2
3.9560001 0.68300003 -0.60500002 3
3.937 0.685 -0.60500002 2
3.954 0.69400001 -0.61000001 2
3.8859999 0.68800002 -0.602 2
3.8610001 0.68900001 -0.60100001 2
3.7980001 0.68300003 -0.59399998 2
3.8280001 0.69400001 -0.60100001 3
3.7909999 0.69300002 -0.59799999 2
3.7820001 0.69700003 -0.59899998 2
3.7820001 0.70200002 -0.60100001 2
3.7409999 0.69999999 -0.597 3
3.698 0.69700003 -0.59299999 2
3.7650001 0.71499997 -0.60600001 2
3.7149999 0.70999998 -0.60000002 3
3.6830001 0.70899999 -0.597 2
3.6140001 0.70099998 -0.588 2
3.6819999 0.71899998 -0.60100001 2
3.6210001 0.71200001 -0.59299999 3
3.5940001 0.71200001 -0.59100002 2
3.5420001 0.70599997 -0.58399999 1
3.523 0.70700002 -0.583 1
3.5079999 0.70899999 -0.583 1
3.487 0.70999998 -0.58099997 1
3.596 0.736 -0.60100001 3
3.477 0.71700001 -0.583 1
3.447 0.71499997 -0.57999998 1
3.4560001 0.72100002 -0.583 2
3.4549999 0.72600001 -0.58399999 1
3.3889999 0.71600002 -0.57499999 1
3.4189999 0.727 -0.58200002 1
3.3789999 0.72299999 -0.57599998 1
3.3959999 0.73100001 -0.58099997 2
3.3740001 0.73000002 -0.579 1
3.3829999 0.736 -0.58200002 1
3.3429999 0.73199999 -0.57599998 1
3.392 0.74699998 -0.58600003 2
3.391 0.75099999 -0.58700001 2
3.3570001 0.74699998 -0.583 1
3.369 0.75400001 -0.58600003 1
3.362 0.75700003 -0.58600003 2
3.326 0.75300002 -0.58099997 2
3.3710001 0.76700002 -0.58999997 2
3.3069999 0.75599998 -0.57999998 1
3.414 0.78500003 -0.60000002 2
3.3870001 0.78299999 -0.597 2
3.378 0.78399998 -0.59600002 2
3.3180001 0.77399999 -0.58700001 2
3.2620001 0.76499999 -0.57800001 1
3.2279999 0.76099998 -0.57300001 1
3.369 0.79799998 -0.59899998 2
3.2650001 0.77700001 -0.58099997 1
3.2850001 0.78500003 -0.58600003 1
3.244 0.77899998 -0.57999998 1
3.187 0.76800001 -0.56999999 1
3.2460001 0.78600001 -0.58200002 1
3.23 0.78600001 -0.57999998 1
3.2639999 0.79799998 -0.58600003 2
3.26 0.80000001 -0.58600003 1
3.286 0.81 -0.59200001 1
3.2219999 0.79699999 -0.58099997 1
3.2639999 0.81099999 -0.58899999 2
3.2379999 0.80800003 -0.58499998 2
3.207 0.80299997 -0.57999998 1
3.2079999 0.80699998 -0.58099997 1
3.1900001 0.80500001 -0.57800001 2
3.2049999 0.81199998 -0.58200002 1
3.1700001 0.80599999 -0.57599998 1
3.1719999 0.81 -0.57700002 1
3.2509999 0.833 -0.59100002 2
3.1359999 0.80699998 -0.57099998 1
3.1329999 0.80900002 -0.57099998 1
3.1429999 0.81400001 -0.57300001 2
3.2019999 0.83200002 -0.58399999 2
3.1110001 0.81099999 -0.56800002 2
3.1140001 0.815 -0.56800002 2
3.2160001 0.84399998 -0.58700001 2
3.1989999 0.84299999 -0.58499998 2
3.1359999 0.829 -0.57300001 1
3.151 0.83499998 -0.57599998 1
3.142 0.83600003 -0.57499999 1
3.1229999 0.833 -0.57099998 1
3.198 0.85600001 -0.58499998 1
3.1340001 0.84100002 -0.57300001 2
3.194 0.86000001 -0.58499998 1
3.164 0.85399997 -0.579 2
3.148 0.852 -0.57599998 2
3.2119999 0.87199998 -0.588 2
3.198 0.87 -0.58499998 2
3.2309999 0.88200003 -0.59100002 2
3.1730001 0.86799997 -0.57999998 2
3.1229999 0.85699999 -0.57099998 1
3.135 0.86199999 -0.57300001 1
3.2260001 0.88999999 -0.58999997 2
3.2079999 0.88700002 -0.58600003 2
3.1070001 0.861 -0.56800002 1
3.1700001 0.88 -0.579 2
3.158 0.87900001 -0.57599998 2
3.177 0.88599998 -0.57999998 2
3.1689999 0.88599998 -0.57800001 1
3.177 0.88999999 -0.579 2
3.2379999 0.90899998 -0.58999997 1
3.1270001 0.87900001 -0.56900001 2
3.237 0.912 -0.58899999 2
3.2309999 0.912 -0.58700001 2
3.1570001 0.89300001 -0.57300001 1
3.257 0.92299998 -0.59100002 2
3.2019999 0.90899998 -0.57999998 2
3.1340001 0.89200002 -0.56699997 1
3.2590001 0.92900002 -0.58899999 2
3.1700001 0.90499997 -0.57300001 1
3.2839999 0.93900001 -0.59299999 2
3.2090001 0.91900003 -0.57800001 1
3.277 0.94 -0.58999997 2
3.1960001 0.91799998 -0.57499999 1
3.1789999 0.91500002 -0.57099998 1
3.3069999 0.95300001 -0.59299999 2
3.263 0.94099998 -0.58499998 2
3.2379999 0.935 -0.579 1
3.277 0.94800001 -0.58499998 2
3.2279999 0.935 -0.57599998 2
3.2279999 0.93599999 -0.57499999 1
3.224 0.93599999 -0.57300001 1
3.244 0.94300002 -0.57599998 1
3.362 0.97799999 -0.59600002 2
3.273 0.95300001 -0.579 2
3.388 0.98699999 -0.59899998 2
3.257 0.94999999 -0.574 1
3.2460001 0.94800001 -0.57099998 1
3.3269999 0.972 -0.58499998 1
3.3770001 0.98799998 -0.59200001 2
3.2880001 0.96200001 -0.57599998 2
3.319 0.972 -0.57999998 1
3.3340001 0.977 -0.58099997 2
3.2880001 0.96399999 -0.57200003 1
3.3469999 0.98199999 -0.58099997 2
3.4170001 1.003 -0.59200001 2
3.3640001 0.98799998 -0.58099997 2
3.313 0.97299999 -0.57099998 2
3.3429999 0.98199999 -0.57499999 1
3.411 1.003 -0.58600003 2
3.4319999 1.0089999 -0.588 2
3.398 1 -0.57999998 2
3.3710001 0.99199998 -0.574 2
3.4119999 1.0039999 -0.57999998 2
3.404 1.002 -0.57700002 2
3.4189999 1.006 -0.57800001 2
3.45 1.015 -0.58200002 2
3.4189999 1.006 -0.57499999 2
3.438 1.012 -0.57700002 2
3.444 1.013 -0.57599998 2
3.46 1.018 -0.57700002 2
3.4630001 1.0190001 -0.57599998 2
3.5209999 1.035 -0.58399999 2
3.52 1.035 -0.58200002 2
3.599 1.058 -0.59299999 3
3.6010001 1.058 -0.59200001 3
3.506 1.03 -0.574 2
3.6500001 1.071 -0.59600002 3
3.6110001 1.059 -0.588 3
3.6389999 1.067 -0.58999997 2
3.6489999 1.069 -0.58999997 2
3.6989999 1.0829999 -0.59600002 3
3.6670001 1.073 -0.58899999 3
3.665 1.072 -0.58600003 2
3.694 1.079 -0.58899999 3
3.7639999 1.099 -0.59799999 2
3.7479999 1.0930001 -0.59399998 3
3.7360001 1.089 -0.58999997 3
3.7390001 1.089 -0.588 2
3.7850001 1.101 -0.59299999 3
3.8710001 1.125 -0.60399997 3
3.845 1.1160001 -0.59799999 2
3.839 1.113 -0.59399998 3
3.842 1.112 -0.59200001 2
3.9030001 1.1289999 -0.60000002 2
3.8859999 1.122 -0.59399998 2
3.9070001 1.127 -0.59500003 2
3.885 1.119 -0.58899999 2
3.9030001 1.122 -0.58999997 2
3.9230001 1.127 -0.58999997 2
4.0009999 1.147 -0.59899998 2
4.0689998 1.165 -0.60699999 4
4.0100002 1.146 -0.59500003 2
4.0510001 1.156 -0.59899998 2
4.0450001 1.153 -0.59500003 2
4.0770001 1.159 -0.597 2
4.0580001 1.152 -0.59200001 3
4.0819998 1.1569999 -0.59299999 3
4.1399999 1.171 -0.59799999 2
4.1550002 1.173 -0.597 3
4.1929998 1.181 -0.60000002 3
4.2129998 1.184 -0.60000002 3
4.2350001 1.188 -0.60000002 3
4.27 1.1950001 -0.602 2
4.2940001 1.199 -0.60299999 3
4.3210001 1.204 -0.60299999 3
4.355 1.211 -0.60500002 3
4.3769999 1.214 -0.60500002 3
4.4089999 1.22 -0.60600001 3
4.4390001 1.225 -0.60699999 3
4.4770002 1.233 -0.60900003 3
4.52 1.2410001 -0.611 2
4.5349998 1.242 -0.61000001 3
4.572 1.249 -0.61199999 2
4.598 1.253 -0.61199999 4
4.6230001 1.256 -0.61199999 4
4.6680002 1.265 -0.61400002 3
4.6989999 1.2690001 -0.61500001 3
4.7309999 1.274 -0.61500001 5
4.7649999 1.28 -0.616 2
4.7989998 1.285 -0.61699998 2
4.8309999 1.289 -0.61699998 3
4.8759999 1.2970001 -0.61900002 4
4.9130001 1.303 -0.62 3
4.9489999 1.308 -0.62099999 2
4.9889998 1.314 -0.62199998 3
5.0180001 1.318 -0.62199998 5
5.079 1.329 -0.625 3
5.1149998 1.334 -0.62599999 3
5.1630001 1.341 -0.62800002 3
5.217 1.35 -0.63 3
5.2540002 1.355 -0.63 3
5.2989998 1.362 -0.63099998 3
5.3590002 1.372 -0.634 3
5.4070001 1.3789999 -0.63599998 3
5.4710002 1.39 -0.639 3
5.5240002 1.398 -0.64099997 3
5.5830002 1.4069999 -0.64300001 3
5.638 1.415 -0.64499998 3
5.6830001 1.42 -0.64499998 3
5.75 1.431 -0.648 3
5.8070002 1.439 -0.64999998 4
5.8590002 1.446 -0.65100002 3
5.9320002 1.457 -0.65399998 3
5.9780002 1.462 -0.65499997 3
6.053 1.473 -0.65799999 4
6.1079998 1.48 -0.65899998 4
6.1700001 1.488 -0.66100001 4
6.2399998 1.498 -0.66299999 4
6.3000002 1.505 -0.66399997 4
6.3839998 1.517 -0.66799998 4
6.4330001 1.521 -0.667 3
6.5289998 1.536 -0.67199999 4
6.5939999 1.544 -0.67299998 4
6.6760001 1.554 -0.676 4
6.763 1.566 -0.67900002 4
6.8379998 1.575 -0.68099999 3
6.9180002 1.585 -0.68300003 3
7.0190001 1.599 -0.68699998 3
7.1160002 1.613 -0.69099998 4
7.1830001 1.619 -0.69099998 3
7.2849998 1.632 -0.69499999 3
7.3639998 1.64 -0.69599998 3
7.4580002 1.652 -0.699 3
7.586 1.67 -0.70499998 3
7.6849999 1.681 -0.708 3
7.7919998 1.694 -0.71100003 3
7.902 1.7079999 -0.71399999 3
8.0190001 1.722 -0.71899998 3
8.1199999 1.732 -0.72100002 3
8.2609997 1.751 -0.72600001 3
8.3710003 1.763 -0.72899997 3
8.5039997 1.779 -0.73400003 3
8.6499996 1.7970001 -0.73900002 3
8.8100004 1.818 -0.745 3
8.9399996 1.832 -0.74900001 2
9.1110001 1.854 -0.75599998 2
9.2650003 1.872 -0.76099998 3
9.46 1.897 -0.76899999 3
9.5819998 1.908 -0.77100003 3
9.7709999 1.931 -0.77899998 3
9.9860001 1.9579999 -0.787 2
10.161 1.978 -0.79299998 2
10.39 2.006 -0.80199999 2
10.616 2.0339999 -0.81099999 2
10.844 2.0610001 -0.81999999 2
11.068 2.086 -0.82800001 2
11.308 2.1140001 -0.83600003 2
11.501 2.132 -0.84200001 2
11.663 2.1440001 -0.84399998 2
11.944 2.177 -0.85500002 2
12.176 2.2 -0.861 4
12.353 2.2130001 -0.86400002 4
12.59 2.2349999 -0.87099999 3
12.819 2.2550001 -0.87599999 3
13.051 2.2739999 -0.88200003 3
13.302 2.2969999 -0.88800001 3
13.609 2.3269999 -0.898 3
13.907 2.355 -0.90600002 3
14.151 2.3729999 -0.91100001 3
14.48 2.404 -0.921 3
14.763 2.4260001 -0.92699999 3
14.97 2.4360001 -0.92900002 3
15.339 2.4690001 -0.94 3
15.62 2.4879999 -0.94499999 3
15.984 2.5190001 -0.95499998 2
16.513 2.5739999 -0.97399998 2
17.047001 2.6270001 -0.99199998 3
17.434999 2.6570001 -1.002 3
17.823999 2.6849999 -1.01 3
18.108 2.6960001 -1.012 3
17.648001 2.5969999 -0.97399998 2
17.931 2.6070001 -0.97600001 2
18.275 2.625 -0.98100001 2
18.733 2.658 -0.991 4
0 0 0 0
0 0 0 2
20.461 2.793 -1.038 2
0 0 0 2
22.969999 3.052 -1.132 2
23.395 3.066 -1.136 2
0 0 0 1
0 0 0 0
0 0 0 0
0 0 0 4
0 0 0 0
0 0 0 0
0 0 0 0
0 0 0 0
0 0 0 0
0 0 0 8
51.096001 5.651 -2.0929999 13
0 0 0 3
41.577999 4.441 -1.648 8
41.563 4.3600001 -1.62 17
41.536999 4.2779999 -1.592 22
41.573002 4.2010002 -1.566 17
41.581001 4.1230001 -1.54 4
41.463001 4.0310001 -1.5089999 15
41.501999 3.954 -1.485 23
41.453999 3.868 -1.457 19
41.456001 3.7880001 -1.431 14
41.436001 3.7049999 -1.405 55
41.438999 3.625 -1.38 46
41.481998 3.5469999 -1.3559999 5
41.476002 3.464 -1.331 43
41.442001 3.3800001 -1.306 89
41.432999 3.2969999 -1.281 80
41.473 3.2179999 -1.258 76
41.486 3.1359999 -1.234 60
41.528 3.056 -1.211 48
41.612999 2.9790001 -1.1900001 27
41.804001 2.9089999 -1.1720001 12
42.294998 2.858 -1.1619999 6
0 0 0 108
87.757004 5.573 -2.316 130
87.719002 5.395 -2.2690001 105
0 0 0 0
0 0 0 155
87.834999 4.8649998 -2.132 53
87.825996 4.6880002 -2.0880001 128
87.817001 4.5079999 -2.043 52
0 0 0 0
0 0 0 24
87.929001 3.971 -1.914 105
0 0 0 0
0 0 0 0
0 0 0 0
0 0 0 0
0 0 0 28
0 0 0 35
0 0 0 33
0 0 0 0
0 0 0 0
0 0 0 0
0 0 0 0
0 0 0 0
0 0 0 0
0 0 0 0
0 0 0 0
0 0 0 0
0 0 0 0
0 0 0 30
0 0 0 0
0 0 0 0
0 0 0 0
0 0 0 0
0 0 0 34
135.72301 -0.68199998 -1.622 98
136.01199 -0.97600001 -1.58 40
135.912 -1.2640001 -1.536 43
135.896 -1.544 -1.494 59
0 0 0 25
74.311996 -1.158 -0.77200001 64
0 0 0 23
68.935997 -1.368 -0.67699999 67
68.922997 -1.5140001 -0.65700001 77
68.901001 -1.661 -0.63800001 150
0 0 0 15
61.166 -1.733 -0.53500003 43
60.872002 -1.855 -0.51700002 97
60.882 -1.983 -0.50300002 125
60.049999 -2.0840001 -0.48100001 71
59.793999 -2.2030001 -0.46599999 138
57.672001 -2.2460001 -0.43599999 5
0 0 0 19
46.07 -1.99 -0.329 6
0 0 0 97
49.911999 -2.369 -0.33700001 8
49.249001 -2.4430001 -0.32300001 20
0 0 0 8
45.224998 -2.4349999 -0.28099999 8
45.456001 -2.5439999 -0.27500001 43
44.949001 -2.6099999 -0.264 24
44.918999 -2.7030001 -0.25799999 30
44.673 -2.783 -0.249 75
44.666 -2.8759999 -0.243 99
42.458 -2.8239999 -0.226 38
44.695 -3.069 -0.23199999 80
0 0 0 6
40.821999 -2.977 -0.20200001 7
40.636002 -3.049 -0.197 88
40.650002 -3.1359999 -0.193 64
40.648998 -3.221 -0.19 26
0 0 0 0
0 0 0 1
22.247999 -1.903 -0.097999997 1
22.118 -1.938 -0.096000001 3
22.080999 -1.982 -0.094999999 7
22.030001 -2.0239999 -0.093999997 7
21.978001 -2.0650001 -0.093000002 3
0 0 0 0
0 0 0 0
0 0 0 25
0 0 0 25
0 0 0 1
21.474001 -2.2869999 -0.088 1
21.514 -2.336 -0.088 1
0 0 0 25
0 0 0 1
0 0 0 25
0 0 0 1
21.284 -2.5309999 -0.090000004 1
21.431999 -2.5929999 -0.090999998 1
21.261 -2.6159999 -0.092 1
21.336 -2.6689999 -0.093000002 1
21.284 -2.7060001 -0.093999997 1
21.297001 -2.7509999 -0.096000001 1
21.355 -2.8010001 -0.097999997 1
21.306999 -2.839 -0.098999999 1
21.313999 -2.8829999 -0.101 1
21.518999 -2.9549999 -0.104 1
21.259001 -2.9619999 -0.105 1
21.195999 -2.9960001 -0.107 1
21.077 -3.0209999 -0.109 1
21.24 -3.0869999 -0.112 1
21.292 -3.138 -0.115 1
21.120001 -3.155 -0.117 1
21.238001 -3.2149999 -0.12 1
21.301001 -3.2679999 -0.124 1
21.5 -3.3410001 -0.12800001 1
21.334 -3.358 -0.131 1
21.261999 -3.388 -0.134 1
21.457001 -3.461 -0.138 1
21.509001 -3.513 -0.14300001 1
21.750999 -3.595 -0.148 1
21.990999 -3.6789999 -0.154 1
0 0 0 0
0 0 0 0
0 0 0 17
0 0 0 36
37.220001 -6.5869999 -0.29800001 33
37.217999 -6.658 -0.30500001 21
0 0 0 0
0 0 0 0
0 0 0 0
0 0 0 0
0 0 0 0
0 0 0 0
0 0 0 14
37.212002 -7.2189999 -0.377 44
37.009998 -7.2480001 -0.38499999 53
0 0 0 9
21.063999 -4.2030001 -0.23 19
20.997 -4.2290001 -0.235 25
20.943001 -4.257 -0.241 26
20.893 -4.2849998 -0.24600001 36
20.829 -4.309 -0.252 36
20.808001 -4.3439999 -0.257 42
20.789 -4.3769999 -0.26300001 45
20.771 -4.4099998 -0.26899999 35
20.749001 -4.4429998 -0.27599999 50
20.742001 -4.4780002 -0.28200001 39
20.718 -4.5100002 -0.289 44
20.166 -4.4250002 -0.287 56
0 0 0 0
0 0 0 41
18.872999 -4.2410002 -0.28799999 85
18.832001 -4.2639999 -0.29300001 7
18.719999 -4.2709999 -0.29800001 7
18.752001 -4.3109999 -0.30500001 20
18.659 -4.3210001 -0.31 67
18.596001 -4.3379998 -0.31600001 60
18.58 -4.3649998 -0.322 69
18.507999 -4.3790002 -0.32800001 65
18.533001 -4.4169998 -0.33500001 71
18.552 -4.4520001 -0.34200001 68
18.604 -4.4959998 -0.35100001 83
18.558001 -4.5149999 -0.35699999 73
18.496 -4.5310001 -0.36300001 66
18.444 -4.5479999 -0.36899999 58
18.452 -4.5799999 -0.37599999 57
18.464001 -4.6129999 -0.384 58
18.448 -4.638 -0.391 54
18.471001 -4.6729999 -0.39899999 51
18.410999 -4.6869998 -0.405 39
18.406 -4.7150002 -0.41299999 40
18.396999 -4.7420001 -0.41999999 57
18.386 -4.7680001 -0.42699999 35
18.417 -4.8039999 -0.43599999 4
0 0 0 2
16.546 -4.3670001 -0.405 19
16.499001 -4.3790002 -0.41100001 21
16.42 -4.3829999 -0.41600001 32
16.371 -4.3940001 -0.42199999 40
0 0 0 1
10.142 -2.7520001 -0.27000001 6
10.135 -2.7650001 -0.27399999 97
10.249 -2.8110001 -0.28200001 151
10.219 -2.8180001 -0.28600001 153
10.211 -2.8299999 -0.28999999 155
10.185 -2.8380001 -0.294 163
10.144 -2.8399999 -0.29699999 163
10.13 -2.8510001 -0.30199999 163
10.195 -2.8829999 -0.308 159
10.187 -2.895 -0.31200001 154
10.115 -2.888 -0.315 10
10.128 -2.9059999 -0.31999999 1
10.089 -2.908 -0.324 1
0 0 0 32
15.674 -4.559 -0.51700002 44
15.67 -4.579 -0.52499998 26
15.672 -4.5999999 -0.53200001 30
15.679 -4.6220002 -0.54000002 30
15.654 -4.6339998 -0.54699999 45
15.643 -4.651 -0.55400002 29
15.642 -4.671 -0.56099999 41
15.662 -4.6960001 -0.56900001 26
15.647 -4.71 -0.57599998 35
15.654 -4.7309999 -0.58399999 28
15.644 -4.7470002 -0.59200001 41
15.642 -4.7649999 -0.59899998 45
15.642 -4.7839999 -0.60600001 37
15.657 -4.8070002 -0.61400002 37
15.67 -4.829 -0.62300003 19
15.707 -4.8579998 -0.63200003 1
0 0 0 41
30.301001 -9.4399996 -1.249 47
30.299 -9.4729996 -1.2640001 49
30.320999 -9.5120001 -1.28 49
30.301001 -9.5389996 -1.294 48
30.313 -9.5749998 -1.309 42
30.322001 -9.6099997 -1.325 47
30.316 -9.6400003 -1.34 49
30.313 -9.6700001 -1.355 49
30.322001 -9.7040005 -1.37 48
30.319 -9.7320004 -1.385 41
30.320999 -9.7629995 -1.4 48
30.323 -9.7930002 -1.414 47
30.327999 -9.8240004 -1.431 48
30.327 -9.8520002 -1.4450001 46
30.33 -9.8809996 -1.461 48
30.327 -9.908 -1.475 48
30.327 -9.9359999 -1.49 45
30.332001 -9.9650002 -1.506 48
30.34 -9.9940004 -1.521 48
30.327 -10.017 -1.536 46
30.341999 -10.047 -1.551 47
30.334 -10.07 -1.566 44
30.34 -10.098 -1.582 43
30.332001 -10.12 -1.596 34
30.346001 -10.149 -1.612 24
30.351 -10.174 -1.627 17
30.368 -10.203 -1.643 14
30.370001 -10.227 -1.658 8
30.396 -10.259 -1.675 3
0 0 0 0
0 0 0 0
0 0 0 0
0 0 0 0
0 0 0 0
0 0 0 0
0 0 0 0
0 0 0 0
0 0 0 0
0 0 0 0
0 0 0 1
23.431999 -8.0930004 -1.429 1
23.67 -8.1890001 -1.455 1
23.955999 -8.302 -1.484 1
0 0 0 0
0 0 0 0
0 0 0 0
0 0 0 0
0 0 0 0
0 0 0 1
19.495001 -6.8239999 -1.273 1
0 0 0 1
17.714001 -6.2150002 -1.173 1
17.215 -6.0469999 -1.148 1
0 0 0 1
13.15 -4.6290002 -0.889 3
13.133 -4.6279998 -0.89399999 5
13.116 -4.6269999 -0.898 8
13.103 -4.6269999 -0.90399998 9
13.085 -4.625 -0.90899998 10
13.076 -4.625 -0.91399997 11
13.068 -4.6259999 -0.91900003 11
13.046 -4.6220002 -0.92299998 12
13.029 -4.619 -0.92799997 12
13.018 -4.619 -0.93300003 13
13.018 -4.6220002 -0.93900001 14
13.014 -4.6230001 -0.94400001 15
12.997 -4.6199999 -0.949 14
12.99 -4.6199999 -0.954 15
12.965 -4.6129999 -0.958 15
12.953 -4.6110001 -0.96200001 15
12.965 -4.6170001 -0.96899998 16
12.953 -4.6149998 -0.97299999 15
12.938 -4.6110001 -0.97799999 16
12.936 -4.6110001 -0.98299998 17
12.932 -4.6110001 -0.98799998 17
12.92 -4.6079998 -0.99299997 13
12.89 -4.598 -0.995 13
12.853 -4.585 -0.99800003 14
12.829 -4.5770001 -1.001 13
12.784 -4.5609999 -1.003 14
12.733 -4.5430002 -1.0039999 12
12.654 -4.5139999 -1.003 9
12.559 -4.48 -1.001 6
12.469 -4.448 -0.99800003 5
12.355 -4.4060001 -0.99400002 3
12.185 -4.3449998 -0.98500001 3
11.998 -4.277 -0.97500002 3
11.82 -4.2119999 -0.96499997 3
11.651 -4.151 -0.95499998 3
11.524 -4.1040001 -0.949 2
11.436 -4.0710001 -0.94700003 3
11.315 -4.026 -0.94099998 3
11.285 -4.013 -0.94199997 3
11.191 -3.9779999 -0.93900001 3
11.123 -3.951 -0.93699998 2
11.033 -3.9170001 -0.93300003 2
10.956 -3.8870001 -0.93000001 3
10.876 -3.8559999 -0.92799997 3
10.789 -3.822 -0.92400002 2
10.721 -3.7950001 -0.92199999 3
10.621 -3.757 -0.917 3
10.566 -3.734 -0.91600001 3
10.488 -3.7030001 -0.912 3
10.371 -3.658 -0.90600002 3
10.339 -3.6429999 -0.90600002 3
10.3 -3.6259999 -0.90600002 2
10.23 -3.5969999 -0.903 3
10.199 -3.582 -0.90399998 3
10.127 -3.553 -0.89999998 2
10.054 -3.523 -0.89700001 3
10.014 -3.5050001 -0.89700001 2
9.9490004 -3.4779999 -0.89300001 3
9.882 -3.45 -0.88999999 2
9.8369999 -3.4289999 -0.889 2
9.7799997 -3.405 -0.88700002 2
9.7200003 -3.3789999 -0.884 2
9.6660004 -3.355 -0.88200003 2
9.5819998 -3.3210001 -0.87699997 2
9.5139999 -3.2920001 -0.87300003 2
9.4469995 -3.263 -0.87 2
9.3540001 -3.2260001 -0.86400002 2
9.2639999 -3.1900001 -0.85799998 1
9.21 -3.165 -0.85500002 1
9.1940002 -3.154 -0.85600001 1
9.1590004 -3.1359999 -0.85500002 2
9.1040001 -3.112 -0.852 3
9.0679998 -3.0929999 -0.85100001 3
9.0480003 -3.0810001 -0.85100001 3
9.0240002 -3.066 -0.85100001 3
8.9890003 -3.0480001 -0.85000002 3
8.9639997 -3.033 -0.84899998 3
8.927 -3.0139999 -0.84799999 3
8.908 -3.0009999 -0.84799999 3
8.8710003 -2.9820001 -0.84600002 4
8.8520002 -2.9690001 -0.84600002 4
8.8319998 -2.9549999 -0.84600002 3
8.8559999 -2.9560001 -0.85000002 4
8.8789997 -2.957 -0.85399997 4
8.8540001 -2.941 -0.85299999 5
8.7600002 -2.9030001 -0.84600002 3
8.6429996 -2.8570001 -0.83600003 4
8.6000004 -2.835 -0.833 4
8.5279999 -2.8039999 -0.82700002 5
8.4870005 -2.783 -0.82499999 6
8.46 -2.766 -0.82300001 6
8.4130001 -2.743 -0.81999999 9
8.3760004 -2.724 -0.81800002 9
8.3809996 -2.717 -0.81900001 7
8.3549995 -2.701 -0.81800002 9
8.3210001 -2.6819999 -0.81599998 8
8.316 -2.6719999 -0.81599998 8
8.3030005 -2.6600001 -0.81599998 8
8.3140001 -2.655 -0.81800002 7
8.302 -2.6429999 -0.81800002 8
8.3059998 -2.6359999 -0.81900001 9
8.302 -2.6259999 -0.81900001 10
8.309 -2.619 -0.82099998 11
8.3039999 -2.609 -0.82099998 14
8.3280001 -2.608 -0.824 11
8.323 -2.5969999 -0.824 8
8.3079996 -2.5829999 -0.82300001 8
8.2810001 -2.566 -0.82099998 8
8.2740002 -2.5539999 -0.82099998 8
8.2629995 -2.5420001 -0.82099998 6
8.2650003 -2.533 -0.82099998 6
8.2449999 -2.517 -0.81999999 7
8.2489996 -2.5090001 -0.81999999 7
8.2320004 -2.494 -0.81900001 5
8.2189999 -2.4809999 -0.81800002 6
8.184 -2.46 -0.81400001 5
8.1630001 -2.444 -0.81199998 4
8.1549997 -2.4319999 -0.81199998 3
8.1099997 -2.408 -0.80800003 4
8.1110001 -2.398 -0.80699998 4
8.0880003 -2.381 -0.80500001 4
8.099 -2.3740001 -0.80599999 3
8.0860004 -2.3599999 -0.80500001 3
8.0979996 -2.3540001 -0.80599999 2
8.1379995 -2.355 -0.81 1
7.8649998 -2.266 -0.78200001 1
7.796 -2.2360001 -0.77499998 1
7.8410001 -2.2379999 -0.77899998 1
7.848 -2.2290001 -0.77899998 4
7.8720002 -2.2260001 -0.78100002 2
7.9130001 -2.227 -0.78500003 3
7.8920002 -2.21 -0.78200001 4
7.8850002 -2.197 -0.78100002 4
7.8600001 -2.1789999 -0.778 3
7.9499998 -2.1930001 -0.78600001 3
7.8709998 -2.1600001 -0.778 1
7.9879999 -2.181 -0.78799999 1
7.9099998 -2.1489999 -0.77999997 1
7.9549999 -2.1500001 -0.78299999 1
7.98 -2.145 -0.78500003 1
8.2329998 -2.201 -0.80900002 1
8.2139997 -2.184 -0.80599999 2
8.2390003 -2.178 -0.80699998 3
8.2349997 -2.165 -0.80599999 4
8.2370005 -2.1530001 -0.80400002 4
8.2659998 -2.1489999 -0.80599999 4
8.2790003 -2.1400001 -0.80599999 3
8.3039999 -2.1329999 -0.80699998 4
8.3380003 -2.1289999 -0.80900002 3
8.3409996 -2.1170001 -0.80800003 4
8.382 -2.115 -0.81 4
8.4259996 -2.1129999 -0.81300002 4
8.4320002 -2.1010001 -0.81099999 3
8.4490004 -2.0929999 -0.81099999 4
8.4700003 -2.0840001 -0.81199998 4
8.5 -2.079 -0.81300002 4
8.552 -2.0780001 -0.81599998 4
8.5710001 -2.0680001 -0.815 3
8.6110001 -2.0639999 -0.81699997 4
8.6429996 -2.0580001 -0.81800002 4
8.6969995 -2.0569999 -0.82099998 4
8.7119999 -2.046 -0.81999999 4
8.7670002 -2.0450001 -0.82300001 3
8.8059998 -2.039 -0.824 4
8.849 -2.0350001 -0.82599998 5
8.8979998 -2.0309999 -0.82800001 4
8.9250002 -2.023 -0.82700002 3
8.9560003 -2.0150001 -0.82800001 5
8.9899998 -2.0079999 -0.82800001 4
9.0500002 -2.006 -0.83099997 4
9.1009998 -2.0020001 -0.833 4
9.1660004 -2 -0.83600003 4
9.2229996 -1.997 -0.838 4
9.2629995 -1.99 -0.838 4
9.3240004 -1.987 -0.83999997 4
9.3649998 -1.98 -0.84100002 4
9.434 -1.978 -0.84399998 4
9.5010004 -1.975 -0.84600002 3
9.5579996 -1.971 -0.847 3
9.6110001 -1.965 -0.84899998 3
9.6739998 -1.961 -0.85000002 3
9.7639999 -1.962 -0.85399997 2
9.8660002 -1.965 -0.85900003 2
9.9469995 -1.964 -0.86199999 2
10.028 -1.962 -0.86500001 2
10.114 -1.961 -0.86799997 3
10.223 -1.964 -0.87300003 3
10.29 -1.959 -0.87400001 3
10.377 -1.956 -0.87699997 3
10.473 -1.956 -0.88 3
10.576 -1.956 -0.884 2
10.661 -1.952 -0.88599998 2
10.79 -1.957 -0.89200002 2
10.873 -1.952 -0.89300001 2
10.991 -1.9529999 -0.898 2
11.086 -1.95 -0.89999998 2
11.225 -1.954 -0.90600002 2
11.357 -1.956 -0.91100001 2
11.491 -1.9579999 -0.91500002 2
11.654 -1.965 -0.92199999 2
11.793 -1.966 -0.92699999 2
11.927 -1.967 -0.93099999 2
12.07 -1.9680001 -0.93599999 3
12.233 -1.972 -0.94099998 3
12.381 -1.973 -0.94599998 3
12.572 -1.98 -0.95300001 3
12.729 -1.9809999 -0.958 3
12.95 -1.9910001 -0.96700001 3
13.093 -1.989 -0.97000003 3
13.27 -1.9910001 -0.97500002 3
13.43 -1.989 -0.97899997 3
13.669 -1.999 -0.98799998 3
13.852 -2 -0.99199998 3
14.08 -2.007 -1 3
14.319 -2.0139999 -1.008 3
14.598 -2.0250001 -1.018 3
14.94 -2.0450001 -1.0319999 4
15.346 -2.0710001 -1.05 5
15.427 -2.053 -1.045 3
15.748 -2.066 -1.057 4
16.068001 -2.0769999 -1.067 4
16.334 -2.0810001 -1.074 4
16.643999 -2.0880001 -1.0829999 4
16.912001 -2.0899999 -1.0880001 4
17.261999 -2.0999999 -1.098 4
17.618999 -2.1110001 -1.109 4
17.927999 -2.1129999 -1.115 5
18.166 -2.1059999 -1.1160001 6
17.879 -2.039 -1.085 4
18.136999 -2.0339999 -1.0880001 4
18.604 -2.0510001 -1.102 3
18.945 -2.052 -1.108 2
19.427 -2.0669999 -1.1210001 1
20.356001 -2.128 -1.159 1
0 0 0 2
21.346001 -2.1489999 -1.182 6
21.209999 -2.095 -1.1569999 5
21.176001 -2.0510001 -1.1390001 3
21.145 -2.0079999 -1.12 3
21.148001 -1.9680001 -1.103 4
21.136999 -1.926 -1.085 3
21.153 -1.887 -1.068 3
21.159 -1.848 -1.051 1
0 0 0 2
23.775 -1.9859999 -1.141 3
23.761 -1.939 -1.12 3
23.763 -1.8940001 -1.099 4
23.754 -1.848 -1.0779999 3
24.014 -1.822 -1.069 4
24.347 -1.802 -1.062 4
0 0 0 5
41.709999 -2.928 -1.745 10
0 0 0 150
28.537001 -1.8940001 -1.142 164
28.514 -1.839 -1.115 161
28.486 -1.783 -1.0880001 167
28.517 -1.7309999 -1.062 152
0 0 0 0
0 0 0 0
0 0 0 0
0 0 0 2
0 0 0 0
0 0 0 151
33.099998 -1.5700001 -1.011 172
33.108002 -1.5089999 -0.97899997 153
0 0 0 38
42.43 -1.775 -1.17 23
0 0 0 42
45.554001 -1.734 -1.164 43
46.042999 -1.666 -1.13 37
46.112999 -1.584 -1.085 34
46.193001 -1.499 -1.038 18
46.217999 -1.4119999 -0.99000001 15
46.294998 -1.3279999 -0.94400001 10
0 0 0 98
68.859001 -1.722 -1.26 61
68.901001 -1.595 -1.187 96
68.889999 -1.466 -1.113 83
69.106003 -1.345 -1.043 26
69.672997 -1.227 -0.97600001 9
0 0 0 97
75.402 -1.053 -0.89300001 26
0 0 0 65
0 0 0 0
0 0 0 36
75.172997 -0.50199997 -0.55900002 38
0 0 0 72
135.85699 -0.41800001 -0.708 43
0 0 0 0
0 0 0 0
0 0 0 0
0 0 0 0
0 0 0 0
0 0 0 0
0 0 0 0
0 0 0 25
0 0 0 0
0 0 0 0
0 0 0 0
0 0 0 0
0 0 0 0
0 0 0 0
0 0 0 0
0 0 0 0
0 0 0 18
90.139 2.582 1.427 28
90.119003 2.7360001 1.5369999 32
90.042 2.8870001 1.645 27
89.717003 3.03 1.749 22
0 0 0 0
0 0 0 28
91.899002 3.5699999 2.131 21
92.259003 3.74 2.2550001 21
92.035004 3.8859999 2.3640001 21
92.286003 4.0539999 2.4879999 26
92.122002 4.198 2.598 15
89.799004 4.2399998 2.6440001 18
89.843002 4.3909998 2.76 32
89.920998 4.5440001 2.8759999 23
89.877998 4.6880002 2.987 14
0 0 0 23
0 0 0 0
0 0 0 24
94.549004 5.5510001 3.6289999 20
93.947998 5.6669998 3.727 21
93.668999 5.7969999 3.835 15
0 0 0 0
0 0 0 18
0 0 0 38
119.192 8.1330004 5.4980001 61
119.18 8.3199997 5.6539998 67
119.162 8.5059996 5.809 67
119.162 8.6899996 5.9629998 77
119.121 8.8719997 6.118 76
119.119 9.0559998 6.276 78
119.073 9.2340002 6.428 52
0 0 0 0
0 0 0 16
0 0 0 0
0 0 0 0
0 0 0 0
0 0 0 75
0 0 0 0
0 0 0 34
0 0 0 0
0 0 0 33
128.02699 12.032 8.7880001 37
0 0 0 0
0 0 0 0
0 0 0 0
0 0 0 0
0 0 0 39
119.247 12.228 9.1459999 45
119.219 12.387 9.3009996 46
119.163 12.551 9.4589996 33
0 0 0 0
0 0 0 17
49.311001 5.3959999 4.1129999 20
49.314999 5.4629998 4.1789999 34
49.201 5.5170002 4.237 30
48.932999 5.553 4.2800002 35
48.859001 5.6100001 4.3400002 42
48.709999 5.6589999 4.3940001 50
48.588001 5.7090001 4.4489999 49
48.481998 5.7600002 4.5050001 32
48.167999 5.7859998 4.5419998 28
48.118 5.842 4.6020002 22
48.033001 5.8940001 4.6599998 13
50.287998 6.2350001 4.947 37
50.140999 6.2800002 4.9990001 31
50.338001 6.368 5.0879998 15
0 0 0 23
0 0 0 9
0 0 0 0
0 0 0 30
72.088997 9.566 7.7740002 38
0 0 0 7
65.447998 8.8450003 7.237 12
65.218002 8.8920002 7.3010001 15
65.147003 8.9569998 7.3790002 24
65.106003 9.0299997 7.4619999 17
0 0 0 0
0 0 0 9
49.195 6.993 5.836 22
49.130001 7.04 5.895 11
49.076 7.0879998 5.954 26
49.002998 7.1300001 6.0100002 34
48.895 7.1690001 6.0609999 36
48.452 7.1570001 6.0710001 35
48.422001 7.2059999 6.132 37
48.153 7.2179999 6.1620002 37
47.798 7.2160001 6.1789999 37
47.490002 7.2199998 6.2020001 28
47.403999 7.257 6.2540002 28
47.186001 7.2729998 6.2880001 38
46.993999 7.2940001 6.3239999 34
46.915001 7.3299999 6.3759999 27
46.98 7.388 6.4460001 20
0 0 0 0
0 0 0 0
0 0 0 17
0 0 0 11
61.738998 10.015 8.8739996 24
61.73 10.073 8.9530001 32
61.659 10.12 9.0229998 32
61.502998 10.153 9.0790005 30
61.228001 10.164 9.1160002 33
61.146 10.207 9.1820002 44
61.028 10.243 9.243 37
60.873001 10.273 9.2969999 41
60.772999 10.31 9.3590002 28
60.604 10.335 9.4090004 29
60.480999 10.367 9.4659996 40
60.346001 10.396 9.5209999 39
60.240002 10.43 9.5799999 42
60.02 10.442 9.6190004 42
0 0 0 5
45.942001 8.0690002 7.4770002 14
45.907001 8.1009998 7.5279999 18
45.922001 8.1409998 7.5879998 28
45.894001 8.1719999 7.638 38
45.853001 8.2010002 7.6869998 40
45.743 8.217 7.7249999 43
45.639999 8.2340002 7.763 41
45.606998 8.2629995 7.8109999 42
45.550999 8.2869997 7.8569999 41
45.466999 8.3050003 7.895 45
45.368 8.3199997 7.9320002 45
45.292 8.3389997 7.973 43
45.199001 8.3540001 8.0100002 43
45.025002 8.3529997 8.0310001 44
44.942001 8.3690004 8.0690002 43
44.967999 8.4040003 8.1260004 33
44.897999 8.4209995 8.1639996 30
44.827999 8.4359999 8.2040005 30
44.814999 8.4630003 8.2530003 25
44.768002 8.4840002 8.2950001 17
44.952999 8.5469999 8.3800001 18
45.771 8.7299995 8.5839996 23
45.990002 8.8000002 8.6759996 30
45.952999 8.8210001 8.7200003 32
45.924 8.8430004 8.7659998 34
45.861 8.8570004 8.8050003 35
44.264999 8.5740004 8.5469999 9
44.266998 8.599 8.5959997 15
44.116001 8.5939999 8.6129999 22
44.154999 8.6269999 8.6680002 33
44.066002 8.632 8.698 35
43.993999 8.6420002 8.7299995 43
44.113998 8.6879997 8.8009996 43
44.220001 8.7309999 8.8690004 33
44.451 8.7980003 8.9610004 26
44.502998 8.8299999 9.0179996 26
44.596001 8.8690004 9.0830002 19
44.929001 8.9560003 9.1949997 19
45.151001 9.0209999 9.2869997 19
45.195 9.0489998 9.3409996 22
45.171001 9.0640001 9.382 22
45.224998 9.0930004 9.4379997 24
45.240002 9.1160002 9.4849997 20
45.085999 9.1020002 9.4960003 19
44.967999 9.0970001 9.5139999 23
44.914001 9.1029997 9.5459995 25
44.84 9.1040001 9.5740004 26
44.778 9.1079998 9.6020002 33
44.658001 9.099 9.618 35
44.612 9.1049995 9.6499996 35
44.706001 9.1389999 9.7110004 32
44.881001 9.1879997 9.79 26
45.046001 9.2360001 9.8669996 26
45.292999 9.3000002 9.9610004 23
45.361 9.3269997 10.016 19
45.375999 9.3439999 10.059 19
43.860001 9.0439997 9.7600002 8
43.855 9.0539999 9.7969999 10
43.887001 9.0710001 9.8409996 14
43.834999 9.0710001 9.8660002 14
43.810001 9.0760002 9.8970003 12
43.778 9.0780001 9.9259996 8
43.734001 9.0790005 9.9510002 6
43.705002 9.0810003 9.9809999 4
43.653999 9.0790005 10.003 5
43.598999 9.0749998 10.024 8
43.571999 9.0760002 10.052 10
43.527 9.0740004 10.075 12
43.487999 9.0719995 10.099 16
43.457001 9.0719995 10.124 20
43.410999 9.0679998 10.146 24
43.388 9.0679998 10.172 28
43.333 9.0620003 10.19 28
43.277 9.0530005 10.208 29
43.240002 9.0489998 10.229 30
43.195999 9.0439997 10.248 31
43.138 9.0360003 10.263 28
43.103001 9.0290003 10.284 34
43.040001 9.0190001 10.297 32
43.044998 9.0209999 10.326 28
42.98 9.0100002 10.338 24
42.959 9.0059996 10.36 24
42.964001 9.0059996 10.389 19
42.941002 9.0019999 10.408 14
42.912998 8.9949999 10.428 12
42.918999 8.9960003 10.454 7
42.866001 8.9829998 10.467 4
0 0 0 28
45.867001 9.6090002 11.25 27
45.671001 9.5649996 11.227 28
45.513 9.5290003 11.212 27
45.344002 9.4890003 11.195 27
45.188999 9.4530001 11.18 27
45.116001 9.4329996 11.185 27
45.026001 9.4090004 11.186 25
44.976002 9.3940001 11.194 22
44.928001 9.3780003 11.204 18
44.910999 9.3690004 11.22 20
44.902 9.3599997 11.238 20
44.939999 9.3610001 11.268 17
44.981998 9.3620005 11.298 19
45.063999 9.3710003 11.338 18
45.087002 9.3669996 11.362 15
45.040001 9.3500004 11.368 15
44.998001 9.3310003 11.375 17
44.939999 9.3100004 11.377 17
44.912998 9.2939997 11.387 17
44.924999 9.2860003 11.406 24
44.883999 9.2670002 11.411 25
44.826 9.2440004 11.411 26
44.833 9.2340002 11.426 27
44.806 9.217 11.434 27
44.807999 9.2040005 11.448 33
44.790001 9.1890001 11.456 36
44.737999 9.1639996 11.455 37
44.676998 9.1379995 11.452 36
44.640999 9.1160002 11.454 35
44.606998 9.0959997 11.455 36
44.583 9.0749998 11.461 36
44.584 9.0609999 11.47 36
44.550999 9.0380001 11.471 35
44.556 9.0229998 11.482 35
44.549 9.0050001 11.488 35
44.541 8.9860001 11.494 34
44.527 8.967 11.498 35
44.500999 8.9440002 11.498 35
44.457001 8.9169998 11.493 35
44.404999 8.8889999 11.485 33
44.353001 8.8599997 11.477 31
44.258999 8.823 11.457 31
44.237999 8.7980003 11.457 31
44.236 8.7770004 11.46 31
44.152 8.7419996 11.441 29
44.123001 8.7150002 11.437 33
44.066002 8.684 11.423 32
44.02 8.6529999 11.413 34
44.060001 8.6389999 11.425 36
44.202 8.6450005 11.463 35
44.341999 8.6499996 11.499 34
44.398998 8.6379995 11.514 35
44.436001 8.6230001 11.522 36
44.453999 8.6020002 11.526 35
44.453999 8.5780001 11.524 36
44.428001 8.5480003 11.515 37
44.419998 8.5229998 11.509 43
44.405998 8.4949999 11.503 42
44.410999 8.4700003 11.5 42
44.453999 8.4540005 11.506 36
44.505001 8.4370003 11.515 35
44.535999 8.4160004 11.517 34
44.564999 8.3959999 11.519 36
44.562 8.3669996 11.512 39
44.591999 8.3459997 11.512 32
44.592999 8.316 11.505 32
44.556 8.2819996 11.487 31
