# .PCD v0.7 - Point Cloud Data file format
VERSION 0.7
FIELDS x y z intensity
SIZE 4 4 4 4
TYPE F F F F
COUNT 1 1 1 1
WIDTH 1788
HEIGHT 1
VIEWPOINT 0 0 0 1 0 0 0
POINTS 1788
DATA ascii
3.237 0.93900001 -0.579 1
3.2639999 0.94700003 -0.58200002 2
3.4119999 0.99000001 -0.60699999 2
3.273 0.94999999 -0.58099997 2
3.2119999 0.93199998 -0.56900001 2
3.3280001 0.96600002 -0.588 2
3.3789999 0.98100001 -0.59500003 2
3.339 0.96899998 -0.58700001 2
3.388 0.98299998 -0.59399998 2
3.3150001 0.96200001 -0.579 2
3.2969999 0.95599997 -0.574 1
3.369 0.977 -0.58499998 2
3.3499999 0.97100002 -0.57999998 2
3.3499999 0.97100002 -0.579 1
3.47 1.006 -0.59799999 3
3.3169999 0.96100003 -0.56999999 1
3.3369999 0.96600002 -0.57099998 1
3.3659999 0.97399998 -0.57499999 2
3.4159999 0.98799998 -0.58099997 2
3.3959999 0.98199999 -0.57599998 1
3.4790001 1.005 -0.588 3
3.4119999 0.98500001 -0.57499999 1
3.5280001 1.018 -0.59200001 3
3.493 1.007 -0.58499998 3
3.4519999 0.995 -0.57599998 2
3.5020001 1.008 -0.58200002 2
3.5050001 1.008 -0.58099997 2
3.5769999 1.028 -0.58999997 3
3.6340001 1.043 -0.59799999 2
3.608 1.035 -0.59100002 2
3.585 1.027 -0.58499998 2
3.6170001 1.035 -0.588 3
3.605 1.03 -0.58399999 2
3.658 1.044 -0.59100002 3
3.6370001 1.0369999 -0.58499998 2
3.628 1.033 -0.58099997 2
3.7160001 1.057 -0.59299999 3
3.73 1.059 -0.59299999 2
3.77 1.069 -0.597 2
3.848 1.09 -0.60600001 3
3.7850001 1.0700001 -0.59399998 3
3.7850001 1.069 -0.59100002 3
3.845 1.084 -0.59799999 2
3.8199999 1.075 -0.59200001 2
3.8380001 1.0779999 -0.59200001 2
3.885 1.089 -0.597 2
3.8610001 1.08 -0.58999997 2
3.914 1.0930001 -0.59600002 3
3.8940001 1.086 -0.58999997 2
3.9449999 1.098 -0.59500003 2
3.9230001 1.09 -0.58899999 3
3.9979999 1.108 -0.597 2
3.997 1.105 -0.59399998 3
4.0609999 1.1210001 -0.60100001 3
4.0310001 1.11 -0.59299999 4
4.0689998 1.118 -0.59600002 2
4.0780001 1.118 -0.59399998 2
4.1259999 1.128 -0.59799999 2
4.1550002 1.133 -0.59899998 2
4.237 1.153 -0.60799998 2
4.2160001 1.1440001 -0.602 3
4.2350001 1.146 -0.60100001 4
4.2659998 1.152 -0.60299999 2
4.2989998 1.158 -0.60399997 4
4.323 1.161 -0.60399997 3
4.3530002 1.166 -0.60500002 3
4.3790002 1.169 -0.60500002 4
4.4120002 1.175 -0.60600001 3
4.4429998 1.1799999 -0.60699999 2
4.4660001 1.182 -0.60699999 4
4.4949999 1.186 -0.60699999 5
4.5300002 1.192 -0.60799998 3
4.5650001 1.197 -0.60900003 3
4.6069999 1.204 -0.611 4
4.6420002 1.21 -0.61199999 3
4.6810002 1.216 -0.61400002 2
4.71 1.219 -0.61400002 3
4.757 1.227 -0.616 3
4.8080001 1.2359999 -0.61900002 2
4.8309999 1.237 -0.61799997 3
4.8740001 1.244 -0.61900002 3
4.908 1.248 -0.62 3
4.9640002 1.257 -0.62199998 4
5.0040002 1.262 -0.62300003 2
5.0510001 1.2690001 -0.625 2
5.085 1.273 -0.625 2
5.1269999 1.278 -0.62599999 4
5.1820002 1.2869999 -0.62800002 4
5.2290001 1.293 -0.63 3
5.2859998 1.302 -0.63200003 3
5.3200002 1.3049999 -0.63200003 3
5.3800001 1.314 -0.634 3
5.427 1.319 -0.63499999 3
5.4860001 1.3279999 -0.63800001 3
5.546 1.336 -0.63999999 3
5.5999999 1.3430001 -0.64099997 3
5.6589999 1.351 -0.64300001 3
5.723 1.359 -0.64600003 3
5.7750001 1.365 -0.64600003 3
5.8460002 1.375 -0.64899999 4
5.9039998 1.382 -0.65100002 3
5.9780002 1.392 -0.65399998 4
6.0469999 1.401 -0.65600002 4
6.1170001 1.41 -0.65799999 4
6.2020001 1.4220001 -0.662 3
6.276 1.431 -0.66399997 4
6.348 1.4400001 -0.667 4
6.4390001 1.4529999 -0.671 5
6.5300002 1.465 -0.67400002 5
6.5799999 1.4680001 -0.67400002 5
6.6659999 1.479 -0.67699999 5
6.7389998 1.487 -0.67900002 5
6.8280001 1.497 -0.68199998 6
6.9000001 1.5039999 -0.68300003 5
7.0159998 1.52 -0.68800002 6
7.0840001 1.525 -0.68900001 5
7.1919999 1.539 -0.69300002 5
7.2989998 1.552 -0.69700003 5
7.421 1.568 -0.70200002 4
7.5349998 1.582 -0.70700002 4
7.6279998 1.591 -0.70899999 5
7.7529998 1.6059999 -0.713 5
7.8699999 1.619 -0.71700001 5
7.9970002 1.635 -0.722 5
8.0950003 1.643 -0.72399998 6
8.257 1.664 -0.73100001 4
8.3690004 1.675 -0.73400003 5
8.4770002 1.684 -0.736 8
8.5950003 1.6950001 -0.73900002 7
8.757 1.714 -0.745 6
8.8850002 1.727 -0.74900001 5
9.0179996 1.739 -0.75199997 4
9.1339998 1.748 -0.75400001 5
9.2959995 1.765 -0.759 5
9.4200001 1.774 -0.76099998 5
9.5480003 1.784 -0.764 5
9.6940002 1.796 -0.76700002 5
9.8330002 1.807 -0.76999998 3
10.009 1.823 -0.77499998 3
10.17 1.837 -0.77899998 3
10.351 1.853 -0.78399998 3
10.513 1.8660001 -0.787 3
10.706 1.883 -0.792 4
10.898 1.9 -0.79799998 3
11.08 1.913 -0.80199999 3
11.273 1.929 -0.80599999 3
11.427 1.936 -0.80800003 2
11.633 1.952 -0.81199998 3
12.101 2.0109999 -0.83499998 9
12.155 2 -0.829 6
12.289 2.0020001 -0.82800001 3
12.494 2.0150001 -0.83099997 3
12.747 2.0339999 -0.838 3
13.036 2.0580001 -0.84600002 3
13.202 2.062 -0.84600002 3
13.465 2.0799999 -0.852 3
13.749 2.1010001 -0.85900003 3
14.031 2.1199999 -0.86500001 3
14.317 2.1389999 -0.87099999 4
13.76 2.0309999 -0.82599998 3
0 0 0 3
15.312 2.2079999 -0.89600003 2
15.665 2.2309999 -0.90399998 3
16.049999 2.2579999 -0.91299999 3
16.400999 2.2780001 -0.92000002 5
16.701 2.29 -0.92400002 3
16.205 2.194 -0.884 2
0 0 0 0
0 0 0 5
0 0 0 0
0 0 0 1
18.32 2.3150001 -0.93000001 1
0 0 0 0
0 0 0 1
21.298 2.575 -1.033 2
0 0 0 1
24.462999 2.868 -1.151 1
0 0 0 1
25.135 2.8529999 -1.146 1
0 0 0 0
0 0 0 1
0 0 0 1
0 0 0 0
0 0 0 0
0 0 0 0
0 0 0 0
0 0 0 0
0 0 0 0
0 0 0 3
39.359001 3.6470001 -1.4910001 6
39.236 3.5599999 -1.46 11
39.201 3.48 -1.433 18
39.095001 3.395 -1.403 21
38.997002 3.3099999 -1.374 24
38.898998 3.227 -1.345 26
38.834999 3.145 -1.318 32
38.754002 3.062 -1.29 34
38.675999 2.9820001 -1.263 39
38.617001 2.9000001 -1.237 36
38.542 2.8169999 -1.211 37
38.487999 2.737 -1.1849999 38
38.409 2.655 -1.159 39
38.347 2.5739999 -1.1339999 41
38.283001 2.493 -1.109 38
38.224998 2.4130001 -1.084 40
38.166 2.3329999 -1.0599999 37
38.110001 2.253 -1.0369999 11
38.130001 2.177 -1.015 7
38.089001 2.099 -0.99299997 7
38.049999 2.0179999 -0.96899998 8
37.868 1.933 -0.94400001 15
37.789001 1.851 -0.92000002 34
37.761002 1.773 -0.89899999 50
37.722 1.694 -0.87800002 52
37.681 1.615 -0.85699999 55
37.646999 1.5369999 -0.83600003 57
37.625999 1.459 -0.81599998 48
37.644001 1.383 -0.79699999 44
37.691002 1.306 -0.778 24
37.707001 1.229 -0.759 16
37.82 1.156 -0.74299997 31
37.848 1.0779999 -0.72500002 17
37.959 1.002 -0.708 63
38.008999 0.92500001 -0.69099998 152
38.105 0.84799999 -0.67500001 152
38.201 0.77100003 -0.65899998 150
38.310001 0.69300002 -0.64300001 47
38.403 0.61500001 -0.62699997 19
38.592999 0.537 -0.61299998 4
0 0 0 0
0 0 0 0
0 0 0 0
0 0 0 0
0 0 0 0
0 0 0 0
0 0 0 0
0 0 0 106
0 0 0 0
0 0 0 0
0 0 0 0
0 0 0 37
71.498001 -0.958 -0.76300001 108
69.286003 -1.073 -0.71499997 74
66.386002 -1.1670001 -0.662 34
66.108002 -1.302 -0.63700002 78
66.111 -1.444 -0.61500001 118
66.084 -1.584 -0.59299999 122
66.112 -1.725 -0.57200003 33
0 0 0 12
58.056 -1.758 -0.46700001 115
58.063 -1.883 -0.449 106
0 0 0 10
43.976002 -1.6109999 -0.315 8
0 0 0 10
0 0 0 9
43.337002 -1.863 -0.27500001 30
43.220001 -1.95 -0.26300001 19
43.278 -2.0439999 -0.25299999 5
43.960999 -2.1700001 -0.24600001 11
42.748001 -2.2 -0.229 21
42.650002 -2.2850001 -0.219 37
42.347 -2.359 -0.208 37
42.108002 -2.434 -0.198 55
42.113998 -2.5239999 -0.189 41
42.047001 -2.609 -0.18099999 63
41.846001 -2.6860001 -0.17200001 78
41.842999 -2.7739999 -0.164 60
0 0 0 5
36.733002 -2.592 -0.13 9
37.050999 -2.6930001 -0.125 11
37.624001 -2.8150001 -0.121 5
37.823002 -2.9100001 -0.116 28
37.837002 -2.9909999 -0.111 37
37.846001 -3.0710001 -0.106 33
37.869999 -3.152 -0.101 6
0 0 0 1
20.714001 -1.811 -0.050000001 1
0 0 0 0
0 0 0 0
0 0 0 0
0 0 0 1
19.271999 -1.887 -0.037 1
18.996 -1.899 -0.035 1
0 0 0 25
0 0 0 25
0 0 0 25
0 0 0 25
0 0 0 25
0 0 0 1
18.157 -2.0799999 -0.027000001 45
18.156 -2.118 -0.027000001 3
0 0 0 25
0 0 0 25
0 0 0 25
0 0 0 25
0 0 0 0
0 0 0 0
0 0 0 0
0 0 0 0
0 0 0 0
0 0 0 0
0 0 0 0
0 0 0 0
0 0 0 0
0 0 0 0
0 0 0 0
0 0 0 0
0 0 0 0
0 0 0 0
0 0 0 0
0 0 0 0
0 0 0 0
0 0 0 0
0 0 0 0
0 0 0 0
0 0 0 0
0 0 0 0
0 0 0 0
0 0 0 0
0 0 0 0
0 0 0 0
0 0 0 0
0 0 0 0
0 0 0 0
0 0 0 1
17.919001 -3.339 -0.082000002 1
17.983 -3.385 -0.086000003 1
18.177 -3.4560001 -0.090000004 1
18.224001 -3.4990001 -0.093999997 151
18.229 -3.5350001 -0.097999997 159
18.23 -3.569 -0.102 18
18.278999 -3.6129999 -0.107 1
0 0 0 0
0 0 0 0
0 0 0 2
34.501999 -7.073 -0.234 17
34.422001 -7.1199999 -0.242 41
34.202 -7.1370001 -0.249 50
34.201 -7.1989999 -0.25799999 61
34.178001 -7.256 -0.266 71
34.167999 -7.3150001 -0.27500001 97
34.189999 -7.381 -0.28400001 94
34.196999 -7.4429998 -0.294 88
34.195999 -7.5050001 -0.303 85
34.210999 -7.5669999 -0.31299999 83
0 0 0 1
18.349001 -4.1240001 -0.17900001 16
18.257999 -4.1350002 -0.183 20
18.202999 -4.1550002 -0.18799999 25
18.149 -4.1729999 -0.193 23
18.097 -4.1919999 -0.198 34
18.068001 -4.217 -0.20299999 35
18.046 -4.2420001 -0.20900001 36
18.032 -4.2690001 -0.214 27
17.997999 -4.2919998 -0.22 38
17.982 -4.3179998 -0.226 46
17.968 -4.3439999 -0.23100001 43
17.943001 -4.368 -0.237 53
17.945 -4.3979998 -0.243 36
17.909 -4.4180002 -0.249 52
17.917 -4.4489999 -0.25600001 37
0 0 0 0
0 0 0 49
16.295 -4.1259999 -0.25 5
16.278 -4.1469998 -0.255 43
16.200001 -4.1529999 -0.25999999 60
16.166 -4.1690001 -0.26499999 48
16.056999 -4.1659999 -0.27000001 62
15.979 -4.171 -0.27500001 52
15.915 -4.1789999 -0.28 43
15.87 -4.1919999 -0.285 61
15.79 -4.1950002 -0.289 60
15.691 -4.1919999 -0.294 52
15.668 -4.21 -0.30000001 47
15.653 -4.2290001 -0.30599999 59
15.615 -4.2420001 -0.31099999 52
15.673 -4.2810001 -0.31799999 36
15.653 -4.2979999 -0.324 45
15.524 -4.2849998 -0.32800001 41
15.54 -4.3119998 -0.33500001 52
15.594 -4.349 -0.34200001 59
15.585 -4.369 -0.34799999 59
15.574 -4.388 -0.35499999 56
15.664 -4.4349999 -0.36300001 49
15.734 -4.4759998 -0.37099999 60
15.675 -4.4809999 -0.37599999 57
15.67 -4.5009999 -0.38299999 60
15.754 -4.546 -0.39199999 42
15.618 -4.5279999 -0.39500001 56
15.613 -4.5469999 -0.40200001 58
15.621 -4.5700002 -0.40900001 57
15.556 -4.572 -0.414 41
15.545 -4.5879998 -0.41999999 31
15.533 -4.605 -0.42699999 30
15.53 -4.6240001 -0.43399999 28
15.542 -4.6469998 -0.44100001 8
15.619 -4.6900001 -0.44999999 1
0 0 0 3
34.698002 -10.505 -1.033 11
34.673 -10.539 -1.0470001 11
34.655998 -10.575 -1.062 7
0 0 0 3
30.103001 -9.257 -0.94999999 7
30.061001 -9.2790003 -0.963 11
30.066 -9.3149996 -0.977 16
30.042999 -9.342 -0.99000001 31
0 0 0 1
13.78 -4.316 -0.46700001 6
13.737 -4.3179998 -0.47099999 9
13.713 -4.3249998 -0.477 7
13.652 -4.3210001 -0.48100001 8
13.608 -4.3210001 -0.486 8
13.59 -4.3299999 -0.49200001 7
13.516 -4.3200002 -0.495 12
13.489 -4.3260002 -0.50099999 12
13.456 -4.329 -0.50599998 12
13.42 -4.3309999 -0.51099998 12
13.389 -4.3340001 -0.51599997 9
13.346 -4.3330002 -0.51999998 11
13.315 -4.336 -0.52600002 10
13.286 -4.3390002 -0.53100002 7
13.249 -4.3390002 -0.53600001 8
13.213 -4.3400002 -0.54100001 11
13.174 -4.3390002 -0.54500002 11
13.126 -4.335 -0.55000001 17
13.108 -4.3410001 -0.55500001 16
13.086 -4.3449998 -0.56 10
13.064 -4.349 -0.56599998 10
13.016 -4.3439999 -0.56999999 13
13 -4.349 -0.57499999 12
12.967 -4.349 -0.57999998 14
12.936 -4.349 -0.58499998 14
12.924 -4.355 -0.58999997 12
12.89 -4.3530002 -0.59500003 8
12.847 -4.349 -0.59899998 17
12.836 -4.355 -0.60500002 20
12.828 -4.3610001 -0.611 23
12.823 -4.369 -0.61699998 41
12.823 -4.3779998 -0.62300003 26
12.812 -4.3829999 -0.62800002 41
12.818 -4.3940001 -0.634 26
12.819 -4.4029999 -0.63999999 26
12.821 -4.4120002 -0.64700001 24
12.828 -4.4219999 -0.653 25
12.811 -4.4239998 -0.65799999 40
12.827 -4.4369998 -0.66500002 42
12.822 -4.4429998 -0.671 23
12.828 -4.4530001 -0.67699999 42
12.829 -4.46 -0.68300003 42
12.82 -4.4640002 -0.68800002 42
12.832 -4.4749999 -0.69499999 30
12.824 -4.4790001 -0.70099998 32
12.817 -4.4840002 -0.70599997 34
12.817 -4.4899998 -0.71200001 30
12.821 -4.4980001 -0.71799999 42
12.833 -4.5079999 -0.72500002 26
12.819 -4.5079999 -0.73000002 42
12.83 -4.5180001 -0.736 42
12.824 -4.5209999 -0.74199998 42
12.822 -4.5250001 -0.74800003 39
12.824 -4.5310001 -0.75400001 42
12.838 -4.5409999 -0.75999999 23
12.821 -4.54 -0.76499999 34
12.826 -4.546 -0.77200001 34
12.832 -4.552 -0.77700001 34
12.821 -4.552 -0.78200001 35
12.827 -4.559 -0.78799999 23
12.823 -4.5609999 -0.79400003 24
12.827 -4.566 -0.80000001 23
12.816 -4.5650001 -0.80500001 40
12.824 -4.5710001 -0.81099999 25
12.816 -4.5710001 -0.81599998 42
12.827 -4.5780001 -0.82300001 25
12.821 -4.579 -0.82700002 27
12.82 -4.5809999 -0.833 42
12.817 -4.5819998 -0.838 42
12.808 -4.5799999 -0.84299999 40
0 0 0 1
7.4460001 -2.665 -0.49599999 2
7.454 -2.6689999 -0.5 3
7.4530001 -2.6689999 -0.50300002 4
7.4219999 -2.658 -0.50400001 5
7.4499998 -2.6689999 -0.509 5
7.4260001 -2.661 -0.50999999 9
7.4159999 -2.6570001 -0.51300001 10
7.4239998 -2.6600001 -0.51599997 12
7.4239998 -2.6600001 -0.51899999 8
7.415 -2.6570001 -0.52100003 14
7.4299998 -2.6630001 -0.52600002 10
7.427 -2.661 -0.528 10
7.427 -2.661 -0.53100002 12
7.4299998 -2.661 -0.53399998 13
7.4250002 -2.6589999 -0.537 12
7.428 -2.6589999 -0.54000002 12
7.4260001 -2.658 -0.54299998 12
7.4180002 -2.654 -0.54500002 9
7.4229999 -2.655 -0.54799998 10
7.4239998 -2.654 -0.551 14
7.4439998 -2.6600001 -0.55500001 8
7.4390001 -2.6570001 -0.55800003 10
7.4580002 -2.6619999 -0.56199998 5
7.4629998 -2.6619999 -0.565 4
7.461 -2.6600001 -0.56800002 2
7.4790001 -2.665 -0.57099998 1
0 0 0 4
12.116 -4.3099999 -0.935 3
11.952 -4.2490001 -0.926 3
11.822 -4.1989999 -0.92000002 3
11.705 -4.1539998 -0.91500002 3
11.595 -4.1110001 -0.91000003 3
11.493 -4.0710001 -0.90600002 2
11.372 -4.0240002 -0.89999998 2
11.272 -3.984 -0.89600003 2
11.175 -3.9460001 -0.89200002 2
11.127 -3.924 -0.89200002 2
11.032 -3.8859999 -0.88800001 2
10.956 -3.855 -0.88499999 2
10.877 -3.822 -0.88200003 2
10.803 -3.7909999 -0.88 2
10.705 -3.7520001 -0.875 2
10.657 -3.73 -0.87400001 2
10.587 -3.7 -0.87099999 2
10.524 -3.6730001 -0.86900002 2
10.459 -3.6440001 -0.86699998 3
10.397 -3.6170001 -0.86500001 3
10.336 -3.5899999 -0.86199999 3
10.288 -3.5680001 -0.861 3
10.247 -3.5469999 -0.861 3
10.194 -3.523 -0.85900003 3
10.143 -3.4990001 -0.85799998 3
10.076 -3.47 -0.85500002 4
10.034 -3.4489999 -0.85399997 4
9.9829998 -3.425 -0.852 2
9.9139996 -3.3940001 -0.84799999 3
9.8780003 -3.375 -0.84799999 3
9.7840004 -3.336 -0.84200001 3
9.7819996 -3.329 -0.84399998 2
9.7320004 -3.3050001 -0.84200001 3
9.6969995 -3.286 -0.84100002 3
9.6560001 -3.2639999 -0.83999997 3
9.6230001 -3.2460001 -0.83899999 3
9.5839996 -3.2260001 -0.838 2
9.5120001 -3.194 -0.83399999 3
9.474 -3.174 -0.83200002 3
9.4379997 -3.154 -0.83099997 3
9.4020004 -3.1340001 -0.82999998 4
9.3509998 -3.109 -0.82700002 4
9.316 -3.089 -0.82599998 5
9.2779999 -3.069 -0.824 3
9.2449999 -3.049 -0.82300001 3
9.224 -3.0339999 -0.82300001 4
9.1899996 -3.0150001 -0.82099998 4
9.1459999 -2.9920001 -0.81900001 4
9.1120005 -2.9719999 -0.81699997 5
9.0979996 -2.9590001 -0.81699997 6
9.0780001 -2.944 -0.81699997 6
9.0480003 -2.9260001 -0.81599998 4
9.0179996 -2.9070001 -0.81400001 4
8.9799995 -2.8859999 -0.81199998 4
8.9630003 -2.8710001 -0.81199998 3
8.915 -2.8469999 -0.80900002 3
8.908 -2.835 -0.80900002 4
8.8990002 -2.823 -0.80900002 3
8.8800001 -2.8080001 -0.80900002 3
8.8479996 -2.7880001 -0.80699998 4
8.8260002 -2.7720001 -0.80599999 3
8.8219995 -2.7609999 -0.80599999 3
8.8109999 -2.747 -0.80599999 3
8.7819996 -2.7290001 -0.80400002 5
8.776 -2.717 -0.80400002 4
8.75 -2.6989999 -0.80299997 4
8.7460003 -2.687 -0.80299997 4
8.7279997 -2.6719999 -0.80199999 5
8.7200003 -2.6589999 -0.80199999 4
8.6920004 -2.6400001 -0.80000001 4
8.6820002 -2.6270001 -0.79900002 6
8.6639996 -2.6110001 -0.79799998 7
8.6599998 -2.599 -0.79799998 5
8.6389999 -2.582 -0.796 5
8.6199999 -2.5650001 -0.79500002 6
8.6230001 -2.556 -0.79500002 6
8.5970001 -2.5369999 -0.79299998 9
8.5979996 -2.526 -0.79299998 10
8.6000004 -2.516 -0.79400003 11
8.5909996 -2.5020001 -0.79299998 6
8.5889997 -2.4909999 -0.79299998 14
8.5930004 -2.48 -0.79299998 9
8.6009998 -2.471 -0.79400003 11
8.5760002 -2.4519999 -0.79100001 17
8.5909996 -2.4449999 -0.792 15
8.6120005 -2.4400001 -0.79400003 14
8.6090002 -2.427 -0.79400003 18
8.6300001 -2.421 -0.79500002 18
8.6630001 -2.418 -0.79799998 17
8.6780005 -2.4100001 -0.79799998 16
8.6999998 -2.404 -0.80000001 18
8.7309999 -2.4000001 -0.80199999 18
8.7399998 -2.3900001 -0.80299997 18
8.7629995 -2.3840001 -0.80400002 16
8.7869997 -2.3770001 -0.80500001 17
8.809 -2.3710001 -0.80699998 14
8.8360004 -2.365 -0.80800003 13
8.8479996 -2.355 -0.80900002 14
8.8590002 -2.345 -0.80900002 14
8.8879995 -2.339 -0.81 11
8.9029999 -2.329 -0.81099999 13
8.915 -2.319 -0.81 11
8.9449997 -2.3139999 -0.81199998 11
8.9619999 -2.3039999 -0.81199998 10
8.974 -2.2939999 -0.81199998 8
8.9940004 -2.2850001 -0.81300002 6
9.0299997 -2.28 -0.815 6
9.0360003 -2.267 -0.81400001 6
9.0620003 -2.26 -0.815 5
9.0769997 -2.2490001 -0.81400001 5
9.0909996 -2.2379999 -0.81400001 4
9.1110001 -2.2290001 -0.81400001 4
9.1239996 -2.217 -0.81300002 4
9.1619997 -2.2119999 -0.815 4
9.1899996 -2.2030001 -0.81599998 4
9.217 -2.1949999 -0.81599998 4
9.2259998 -2.1819999 -0.815 4
9.2729998 -2.178 -0.81699997 3
9.3210001 -2.174 -0.81900001 4
9.3549995 -2.1659999 -0.81999999 3
9.3870001 -2.158 -0.81999999 4
9.4280005 -2.152 -0.82099998 4
9.4650002 -2.1440001 -0.82200003 4
9.5120001 -2.1389999 -0.82300001 3
9.5369997 -2.128 -0.82300001 4
9.5640001 -2.118 -0.82300001 4
9.6219997 -2.115 -0.82499999 4
9.6619997 -2.1070001 -0.82599998 4
9.7189999 -2.102 -0.82800001 4
9.7419996 -2.0910001 -0.82700002 4
9.7860003 -2.0829999 -0.82700002 4
9.8649998 -2.0829999 -0.83099997 4
9.9219999 -2.0780001 -0.83200002 3
9.9829998 -2.073 -0.83399999 3
10.044 -2.0680001 -0.83600003 4
10.087 -2.059 -0.83600003 4
10.144 -2.053 -0.83700001 4
10.232 -2.052 -0.84100002 3
10.328 -2.053 -0.84500003 4
10.39 -2.0469999 -0.84600002 3
10.467 -2.043 -0.84799999 3
10.543 -2.04 -0.85000002 3
10.63 -2.0369999 -0.85299999 3
10.61 -2.0139999 -0.847 4
10.762 -2.0239999 -0.85500002 3
10.83 -2.017 -0.85600001 3
10.941 -2.017 -0.86000001 3
11.031 -2.0139999 -0.86199999 2
11.128 -2.0109999 -0.86400002 3
11.222 -2.007 -0.86699998 2
11.342 -2.0079999 -0.87099999 2
11.447 -2.0050001 -0.87400001 2
11.563 -2.0039999 -0.87699997 2
11.684 -2.0039999 -0.88099998 2
11.792 -2.0009999 -0.88300002 2
11.945 -2.0039999 -0.889 2
12.039 -1.998 -0.88999999 3
12.178 -1.998 -0.89399999 3
12.329 -2 -0.89899999 3
12.611 -2.0220001 -0.91299999 10
12.593 -1.9960001 -0.90499997 3
12.733 -1.994 -0.90899998 3
12.915 -1.998 -0.91500002 3
13.097 -2.0020001 -0.92000002 3
13.297 -2.0079999 -0.92699999 3
13.505 -2.0139999 -0.93400002 3
13.625 -2.006 -0.935 3
13.811 -2.007 -0.93900001 3
14.033 -2.0120001 -0.94599998 3
14.257 -2.017 -0.95300001 4
14.441 -2.016 -0.95700002 4
14.678 -2.0209999 -0.96399999 4
14.888 -2.0220001 -0.96799999 4
15.063 -2.017 -0.97000003 4
15.329 -2.023 -0.97799999 5
15.509 -2.017 -0.98000002 4
15.661 -2.007 -0.97899997 4
15.953 -2.0139999 -0.98699999 5
16.211 -2.016 -0.99299997 5
16.447001 -2.013 -0.99599999 4
16.190001 -1.951 -0.97000003 4
16.285999 -1.931 -0.96499997 3
16.813999 -1.962 -0.98500001 3
17.076 -1.959 -0.98799998 3
0 0 0 5
18.311001 -2.0309999 -1.034 7
18.326 -1.998 -1.022 5
18.365 -1.966 -1.011 4
18.396 -1.934 -1 3
18.379999 -1.897 -0.98500001 4
18.368999 -1.86 -0.97100002 3
18.409 -1.829 -0.95999998 3
0 0 0 1
0 0 0 25
0 0 0 0
0 0 0 3
20.997999 -1.882 -1.0140001 3
20.976 -1.84 -0.99599999 3
20.976 -1.8 -0.97899997 3
20.966 -1.758 -0.96200001 4
21.315001 -1.7460001 -0.96100003 6
21.518 -1.721 -0.95200002 3
0 0 0 12
36.696999 -2.7950001 -1.564 19
0 0 0 2
25.653 -1.855 -1.05 152
25.634001 -1.804 -1.028 160
25.617001 -1.753 -1.0039999 154
25.615999 -1.704 -0.98299998 164
25.705 -1.661 -0.96399999 154
25.787001 -1.617 -0.94400001 3
0 0 0 2
37.898998 -2.233 -1.321 3
37.929001 -2.1630001 -1.289 6
37.819 -2.0840001 -1.251 6
0 0 0 7
30.327999 -1.5549999 -0.94700003 157
30.275 -1.495 -0.91799998 242
30.33 -1.439 -0.89099997 187
30.315001 -1.381 -0.86199999 60
0 0 0 8
39.661999 -1.655 -1.053 6
0 0 0 35
42.615002 -1.619 -1.051 37
42.842999 -1.546 -1.015 38
43.139 -1.476 -0.98000002 40
43.244999 -1.398 -0.94 43
43.278 -1.317 -0.898 40
43.319 -1.2359999 -0.85500002 31
43.222 -1.152 -0.81 13
43.363998 -1.075 -0.76999998 6
0 0 0 58
66.086998 -1.3890001 -1.038 76
66.092003 -1.265 -0.97000003 67
0 0 0 0
0 0 0 40
71.611 -0.96799999 -0.82599998 87
72.572998 -0.84799999 -0.76200002 19
0 0 0 0
0 0 0 0
0 0 0 48
132.998 -0.57700002 -0.83399999 105
132.995 -0.329 -0.68900001 110
132.95 -0.090999998 -0.54799998 90
132.95399 0.155 -0.40099999 102
132.89301 0.39399999 -0.257 67
132.869 0.63300002 -0.113 42
0 0 0 0
0 0 0 0
0 0 0 0
0 0 0 0
0 0 0 0
0 0 0 0
0 0 0 0
0 0 0 17
87.844002 1.839 0.81400001 20
87.709 1.99 0.912 17
0 0 0 0
0 0 0 0
0 0 0 0
0 0 0 0
0 0 0 0
0 0 0 0
0 0 0 17
88.014999 3.224 1.7359999 17
87.824997 3.3670001 1.836 15
87.151001 3.494 1.928 31
87.125 3.641 2.0309999 29
87.251999 3.7950001 2.1389999 26
88.476997 4 2.276 18
88.745003 4.1630001 2.391 24
88.966003 4.3239999 2.506 18
89.504997 4.5019999 2.631 19
89.450996 4.6479998 2.737 28
89.289001 4.789 2.842 26
86.651001 4.7909999 2.8629999 12
86.625999 4.934 2.97 16
86.332001 5.0599999 3.0669999 27
0 0 0 0
0 0 0 21
0 0 0 0
0 0 0 0
0 0 0 0
0 0 0 25
91.073997 6.3779998 4.0349998 26
90.859001 6.507 4.1389999 25
90.746002 6.6440001 4.2490001 18
0 0 0 0
0 0 0 56
116.274 9.0609999 5.8870001 78
116.238 9.2390003 6.0310001 87
116.227 9.4200001 6.1799998 92
116.252 9.6029997 6.3319998 95
116.23 9.7819996 6.48 76
116.21 9.9569998 6.6269999 92
116.183 10.137 6.777 88
116.204 10.318 6.9320002 71
116.2 10.493 7.0799999 55
0 0 0 0
0 0 0 3
44.203999 4.191 2.8659999 6
44.183998 4.2550001 2.9230001 6
44.007 4.303 2.9679999 8
44.068001 4.3740001 3.03 8
0 0 0 39
62.452999 6.382 4.4569998 33
62.369999 6.4650002 4.5339999 35
62.208 6.539 4.6059999 27
62.139999 6.6209998 4.6810002 23
62.201 6.7160001 4.7680001 11
0 0 0 0
0 0 0 0
0 0 0 25
116.325 13.209 9.526 34
116.461 13.385 9.6879997 34
0 0 0 9
47.541 5.5949998 4.0809999 19
47.556 5.6609998 4.145 15
47.573002 5.7280002 4.21 16
47.326 5.763 4.2509999 24
47.306999 5.8239999 4.3119998 27
47.221001 5.8759999 4.3670001 25
47.044998 5.9169998 4.4130001 20
46.491001 5.9060001 4.421 18
45.958 5.8979998 4.4320002 26
45.783001 5.9369998 4.4759998 36
45.603001 5.9710002 4.5180001 44
45.402 6.0019999 4.5580001 44
45.362 6.0539999 4.6139998 40
45.460999 6.1259999 4.684 44
45.540001 6.1939998 4.7529998 44
45.583 6.256 4.8179998 44
45.444 6.2930002 4.8629999 44
45.502998 6.3569999 4.9299998 25
45.473 6.4089999 4.987 25
45.495998 6.467 5.0489998 18
45.470001 6.5170002 5.105 7
48.098999 6.9510002 5.4640002 29
48.285 7.0349998 5.5479999 29
48.450001 7.1160002 5.631 29
48.671001 7.2049999 5.7210002 28
0 0 0 0
0 0 0 7
0 0 0 41
62.426998 9.5249996 7.6620002 35
61.855 9.507 7.6719999 20
61.476002 9.5170002 7.7049999 22
61.310001 9.5579996 7.763 31
61.174 9.6029997 7.8249998 19
61.050999 9.6499996 7.888 21
61.063 9.717 7.9689999 17
61.007 9.7729998 8.0410004 16
0 0 0 0
0 0 0 13
45.896999 7.494 6.224 21
45.703999 7.5089998 6.256 23
45.709 7.5560002 6.3150001 35
45.66 7.5939999 6.3660002 33
45.478001 7.6090002 6.3979998 40
45.344002 7.6329999 6.4369998 37
44.936001 7.6079998 6.4359999 33
44.713001 7.6129999 6.46 25
44.426998 7.6069999 6.4749999 36
44.351002 7.6360002 6.52 41
44.424 7.6900001 6.585 33
44.467999 7.7389998 6.6469998 24
44.507 7.7859998 6.7080002 13
0 0 0 0
0 0 0 15
58.910999 10.465 9.0979996 22
0 0 0 0
0 0 0 0
0 0 0 10
46.650002 8.448 7.4320002 4
0 0 0 17
56.306999 10.29 9.1070004 17
56.300999 10.335 9.1719999 16
0 0 0 0
0 0 0 23
47.259998 8.7889996 7.8670001 28
47.306 8.8339996 7.9310002 27
47.248001 8.8599997 7.9770002 19
47.265999 8.8990002 8.0349998 18
0 0 0 0
0 0 0 0
0 0 0 0
0 0 0 10
52.231998 10.026 9.1809998 7
52.303001 10.076 9.2530003 6
0 0 0 3
43.423 8.4239998 7.7800002 10
43.381001 8.4449997 7.822 12
43.084 8.415 7.816 15
43.061001 8.4390001 7.8590002 17
43.053001 8.4650002 7.9050002 17
43.033001 8.4879999 7.9489999 14
43.002998 8.5080004 7.9910002 21
42.932999 8.5200005 8.0240002 28
42.846001 8.5290003 8.0539999 36
42.791 8.5430002 8.0900002 40
42.703999 8.5500002 8.118 34
42.650002 8.5629997 8.1529999 38
42.526001 8.5620003 8.1750002 40
42.443001 8.5690002 8.2019997 38
42.367001 8.5760002 8.2309999 36
42.235001 8.5710001 8.25 36
42.125 8.5710001 8.2700005 36
42.102001 8.5869999 8.309 38
42.078999 8.6020002 8.3459997 34
42.009998 8.6090002 8.375 36
41.990002 8.6260004 8.4130001 31
41.971001 8.6409998 8.4499998 28
41.955002 8.6569996 8.4890003 25
42.048 8.6940002 8.5480003 27
42.396 8.7840004 8.6599998 21
42.891998 8.9060001 8.802 23
43.166 8.9799995 8.8999996 32
43.171001 8.9989996 8.9420004 33
43.124001 9.0059996 8.9720001 33
43.098 9.0170002 9.0059996 35
43.043999 9.0220003 9.0349998 35
43.018002 9.0310001 9.0690002 32
42.765999 8.993 9.0550003 27
41.373001 8.7150002 8.7969999 10
41.424999 8.7390003 8.8439999 15
41.678001 8.8059998 8.9359999 29
41.388 8.757 8.9099998 36
41.331001 8.7580004 8.9329996 38
41.416 8.7880001 8.9870005 31
41.476002 8.8120003 9.0349998 30
41.117001 8.7469997 8.9910002 18
41.098 8.7539997 9.0209999 18
41.125999 8.7700005 9.0609999 17
41.140999 8.783 9.0979996 13
41.008999 8.7639999 9.1009998 11
42.313999 9.052 9.4239998 29
42.460999 9.092 9.4910002 31
42.507 9.1099997 9.5340004 32
42.457001 9.1070004 9.5559998 31
42.459 9.1149998 9.5889997 30
42.407001 9.1110001 9.6090002 30
42.278 9.0900002 9.6099997 28
42.331001 9.1070004 9.6529999 27
42.229 9.0909996 9.6599998 23
42.250999 9.1009998 9.6949997 28
42.238998 9.1040001 9.7209997 27
42.118999 9.0819998 9.724 31
42.186001 9.1000004 9.7690001 33
42.153 9.0959997 9.79 40
42.119999 9.0930004 9.809 40
42.073002 9.085 9.8260002 40
42.021999 9.0769997 9.8409996 40
41.978001 9.0690002 9.8570004 40
41.921001 9.0570002 9.8699999 40
41.911999 9.0570002 9.8929996 40
41.875999 9.0489998 9.9110003 40
41.962002 9.0690002 9.9560003 32
41.967999 9.0690002 9.9820004 30
42.001999 9.0760002 10.015 23
41.983002 9.0699997 10.034 23
41.811001 9.0310001 10.017 14
41.701 9.0059996 10.012 12
41.785999 9.0220003 10.056 9
0 0 0 0
0 0 0 5
43.390999 9.3590002 10.509 4
0 0 0 0
0 0 0 0
0 0 0 0
0 0 0 0
0 0 0 26
115.638 24.854 28.337 23
115.633 24.834 28.386 27
115.661 24.823 28.440001 28
115.511 24.771 28.452 28
115.493 24.743999 28.493999 29
115.546 24.732 28.552999 31
115.513 24.702999 28.586 36
115.553 24.687 28.639999 40
115.562 24.663 28.684 48
115.583 24.642 28.728001 51
115.599 24.615999 28.771 60
115.614 24.59 28.813 51
115.51 24.537001 28.823999 54
115.537 24.513 28.865 57
115.595 24.492001 28.914 55
115.546 24.447001 28.934999 60
115.553 24.414 28.968 55
115.563 24.379 29.002001 67
115.58 24.344999 29.035 63
115.601 24.313999 29.066 57
115.567 24.267 29.084999 68
115.545 24.222 29.105 62
115.552 24.181999 29.131001 58
115.616 24.152 29.17 56
115.588 24.101999 29.184 57
115.55 24.049 29.195 55
115.679 24.033001 29.243999 53
115.579 23.965 29.237 58
115.587 23.917999 29.254999 54
0 0 0 0
0 0 0 0
0 0 0 0
0 0 0 0
0 0 0 0
0 0 0 0
0 0 0 0
0 0 0 44
115.617 23.447001 29.35 42
115.697 23.408001 29.372 41
115.647 23.341 29.360001 46
115.633 23.278 29.357 40
115.696 23.229 29.372 45
115.704 23.171 29.371 39
115.672 23.101 29.358999 39
0 0 0 0
0 0 0 0
0 0 0 0
0 0 0 45
115.765 22.792 29.346001 46
115.697 22.709 29.318001 47
115.705 22.643 29.305 43
115.718 22.573999 29.294001 43
115.671 22.493 29.267 46
115.73 22.431999 29.264999 50
115.793 22.371 29.264 60
115.824 22.305 29.252001 59
115.776 22.219999 29.219 62
115.8 22.148001 29.202999 63
115.775 22.066 29.173 57
115.753 21.983999 29.143 62
115.764 21.906 29.120001 52
115.764 21.826 29.093 62
115.824 21.76 29.077999 58
115.855 21.683001 29.056 57
115.865 21.601999 29.027 62
115.795 21.509001 28.975 60
115.823 21.43 28.948999 58
115.798 21.34 28.907 54
115.869 21.267 28.888 58
115.85 21.176001 28.844999 60
115.871 21.094999 28.809999 58
115.88 21.007999 28.771 59
115.882 20.919001 28.73 55
115.902 20.834 28.688999 56
115.894 20.742001 28.642 54
115.945 20.659 28.608 57
115.942 20.566 28.559999 51
115.923 20.469999 28.509001 46
115.977 20.386999 28.469 40
115.993 20.295 28.421 41
115.977 20.198 28.367001 40
115.983 20.101 28.312 41
116.061 20.02 28.275 33
116.006 19.909 28.205 32
115.987 19.806999 28.142 47
115.919 19.695999 28.066 61
116.034 19.615999 28.033001 49
116.004 19.513 27.962999 45
116.053 19.419001 27.912001 46
116.019 19.311001 27.839001 57
115.999 19.209 27.767 47
116.011 19.107 27.702999 53
116.007 19.004999 27.632 49
116.024 18.903 27.566 53
116.036 18.799 27.497999 50
116.051 18.695 27.429001 56
116.03 18.587999 27.349001 51
115.994 18.475 27.266001 57
116.028 18.372 27.197001 56
116.048 18.27 27.124001 44
116.065 18.163 27.048 46
116.096 18.058001 26.975 52
116.099 17.948 26.893999 50
116.107 17.841 26.812 59
116.098 17.728001 26.726 41
116.113 17.615999 26.646999 53
116.109 17.504 26.555 54
116.166 17.399 26.48 51
116.129 17.280001 26.382 51
116.134 17.166 26.292 48
116.135 17.051001 26.200001 71
116.398 16.976999 26.166 26
0 0 0 0
0 0 0 0
0 0 0 0
0 0 0 0
0 0 0 0
0 0 0 0
0 0 0 27
116.281 16.024 25.344999 32
116.312 15.908 25.247 46
116.288 15.785 25.135 52
116.21 15.653 25.011 60
116.21 15.532 24.902 61
116.279 15.423 24.808001 65
116.271 15.3 24.695 67
116.288 15.18 24.586 59
116.284 15.057 24.471001 61
116.313 14.938 24.362 50
116.334 14.817 24.25 44
116.351 14.699 24.136999 40
116.491 14.592 24.047001 38
116.434 14.46 23.915001 37
116.438 14.336 23.795 25
116.603 14.231 23.705999 28
116.79 14.128 23.620001 26
116.74 13.997 23.482 37
0 0 0 0
0 0 0 0
0 0 0 0
0 0 0 0
0 0 0 0
0 0 0 0
0 0 0 0
0 0 0 29
0 0 0 0
0 0 0 0
0 0 0 0
0 0 0 0
0 0 0 0
0 0 0 0
0 0 0 0
0 0 0 25
116.438 11.8 21.125 44
116.478 11.678 20.988001 49
116.527 11.554 20.85 64
116.489 11.421 20.691 74
116.521 11.294 20.548 74
116.533 11.168 20.403999 70
116.522 11.038 20.247 67
116.586 10.914 20.108999 61
116.592 10.785 19.952999 57
116.655 10.663 19.813999 38
116.721 10.539 19.669001 30
116.734 10.41 19.51 32
116.67 10.274 19.341 28
116.775 10.153 19.198999 36
116.79 10.024 19.042 29
116.902 9.9060001 18.903 29
116.782 9.7659998 18.721001 30
116.752 9.6339998 18.549 33
116.821 9.5120001 18.4 30
116.77 9.3780003 18.226999 31
116.751 9.2460003 18.052999 25
116.799 9.1199999 17.893 30
0 0 0 0
0 0 0 29
116.838 8.7329998 17.389 36
116.681 8.592 17.194 39
116.669 8.4619999 17.02 48
116.678 8.3330002 16.847 66
116.698 8.2060003 16.674999 68
116.699 8.0769997 16.5 63
116.683 7.9499998 16.319 68
116.672 7.8210001 16.139999 73
116.75 7.697 15.976 69
116.775 7.5739999 15.801 49
116.933 7.4549999 15.642 28
116.902 7.3280001 15.458 24
0 0 0 0
0 0 0 0
0 0 0 0
0 0 0 0
0 0 0 27
117.08 6.5799999 14.377 29
116.957 6.447 14.17 27
116.91 6.3179998 13.975 27
116.923 6.1929998 13.787 32
117.044 6.073 13.61 33
117.146 5.9530001 13.429 41
117.038 5.8249998 13.23 51
116.781 5.6880002 13.004 50
116.786 5.5640001 12.81 61
116.792 5.4400001 12.616 69
116.831 5.3210001 12.43 73
119.287 5.3070002 12.49 73
119.312 5.1830001 12.287 79
119.314 5.0570002 12.085 84
119.343 4.934 11.884 80
119.324 4.8109999 11.68 93
119.337 4.6880002 11.477 78
119.416 4.5669999 11.278 38
125.319 4.6669998 11.625 33
125.386 4.54 11.413 33
0 0 0 0
0 0 0 0
0 0 0 0
0 0 0 0
0 0 0 0
0 0 0 27
119.425 3.4849999 9.4020004 45
119.483 3.3670001 9.1929998 41
119.609 3.2520001 8.9879999 45
119.534 3.1340001 8.7729998 33
119.545 3.017 8.5570002 38
119.568 2.9000001 8.342 33
119.512 2.7839999 8.1230001 33
119.636 2.671 7.9130001 29
119.653 2.5550001 7.6950002 35
0 0 0 0
0 0 0 26
119.507 2.211 7.0279999 38
119.476 2.099 6.8080001 55
119.443 1.985 6.5840001 70
119.482 1.874 6.3629999 63
0 0 0 33
86.717003 1.198 4.2940001 29
0 0 0 54
119.484 1.433 5.4689999 54
120.095 1.33 5.27 37
0 0 0 0
0 0 0 0
0 0 0 0
0 0 0 0
0 0 0 0
0 0 0 28
82.281998 0.39899999 2.516 34
82.914001 0.33000001 2.3759999 29
0 0 0 0
0 0 0 24
86.453003 0.121 1.976 14
83.454002 0.045000002 1.745 21
83.393997 -0.023 1.584 29
83.566002 -0.093000002 1.424 23
84.467003 -0.164 1.274 22
0 0 0 12
73.418999 -0.264 0.81999999 33
0 0 0 25
0 0 0 25
0 0 0 0
0 0 0 45
72.414001 -0.55000001 0.097000003 76
72.415001 -0.60600001 -0.044 74
72.438004 -0.662 -0.18700001 51
72.396004 -0.71700001 -0.329 22
74.790001 -0.79799998 -0.48899999 11
72.598 -0.82999998 -0.61900002 37
72.536003 -0.884 -0.76300001 35
71.569 -0.92500001 -0.89399999 106
71.473999 -0.977 -1.038 102
69.398003 -1 -1.147 10
69.275002 -1.049 -1.285 81
69.265999 -1.097 -1.421 49
0 0 0 0
0 0 0 0
0 0 0 48
66.040001 -1.233 -1.886 54
66.075996 -1.279 -2.02 17
0 0 0 6
0 0 0 0
0 0 0 0
0 0 0 0
0 0 0 0
0 0 0 0
0 0 0 0
0 0 0 2
0 0 0 1
0 0 0 0
0 0 0 1
19.23 -0.52100003 -1.0549999 1
0 0 0 2
0 0 0 2
15.587 -0.44999999 -0.94999999 2
14.781 -0.435 -0.93000001 2
14.029 -0.421 -0.91100001 3
13.348 -0.40799999 -0.89399999 3
12.699 -0.39500001 -0.87699997 3
12.202 -0.38600001 -0.86699998 3
11.649 -0.375 -0.85100001 2
11.179 -0.366 -0.83999997 2
10.718 -0.35699999 -0.82700002 2
10.292 -0.34799999 -0.815 3
9.9069996 -0.34 -0.80500001 3
9.5710001 -0.333 -0.79699999 3
9.2379999 -0.32699999 -0.78799999 4
8.9049997 -0.31900001 -0.778 3
8.5900002 -0.31200001 -0.76700002 4
8.2819996 -0.30500001 -0.75700003 4
8.0100002 -0.29899999 -0.74800003 3
7.7140002 -0.29100001 -0.736 4
7.4679999 -0.285 -0.72799999 4
7.276 -0.28099999 -0.72399998 3
7.0549998 -0.27599999 -0.71600002 3
6.816 -0.27000001 -0.70599997 3
6.6339998 -0.26499999 -0.69999999 5
6.4829998 -0.26199999 -0.69700003 3
6.2969999 -0.257 -0.69 4
6.1170001 -0.252 -0.68300003 3
5.9660001 -0.248 -0.67699999 3
5.835 -0.245 -0.67400002 4
5.6789999 -0.241 -0.66799998 4
5.5339999 -0.237 -0.662 4
5.401 -0.233 -0.65700001 4
5.2789998 -0.23 -0.65200001 3
5.1900001 -0.228 -0.65200001 4
5.0939999 -0.226 -0.64999998 3
4.9660001 -0.222 -0.64300001 3
4.869 -0.219 -0.64099997 4
4.7870002 -0.21699999 -0.639 3
4.6599998 -0.213 -0.63200003 4
4.5700002 -0.20999999 -0.62800002 7
4.4879999 -0.208 -0.62599999 10
4.421 -0.206 -0.625 10
4.3390002 -0.204 -0.62199998 10
4.2529998 -0.20100001 -0.61799997 11
4.1849999 -0.199 -0.61699998 11
4.1129999 -0.19599999 -0.61400002 11
4.0469999 -0.19400001 -0.61199999 11
3.9820001 -0.192 -0.61000001 11
3.9260001 -0.191 -0.60900003 11
3.855 -0.18799999 -0.60600001 10
3.8010001 -0.18700001 -0.60500002 10
3.75 -0.185 -0.60399997 10
3.694 -0.183 -0.602 10
3.6559999 -0.182 -0.60299999 7
3.612 -0.18099999 -0.602 4
3.5869999 -0.18000001 -0.60500002 3
3.4960001 -0.176 -0.597 2
3.4679999 -0.176 -0.59799999 2
3.5710001 -0.182 -0.62300003 3
3.3829999 -0.17299999 -0.597 1
3.368 -0.17299999 -0.60000002 1
3.3369999 -0.17200001 -0.60100001 2
3.3599999 -0.17299999 -0.61199999 2
3.25 -0.168 -0.59799999 2
3.2579999 -0.169 -0.60500002 2
3.1029999 -0.162 -0.58200002 2
3.0580001 -0.16 -0.579 2
3.0220001 -0.15800001 -0.57800001 2
3.1240001 -0.164 -0.60399997 2
3.099 -0.163 -0.60399997 2
2.918 -0.154 -0.57499999 2
2.8789999 -0.152 -0.57200003 2
2.849 -0.15099999 -0.57099998 2
2.8169999 -0.149 -0.56999999 2
2.78 -0.148 -0.56800002 1
2.757 -0.147 -0.56800002 1
2.724 -0.145 -0.56599998 2
2.6919999 -0.14399999 -0.56400001 1
2.6760001 -0.14300001 -0.56599998 1
2.6429999 -0.142 -0.56400001 1
2.6229999 -0.141 -0.56400001 1
2.602 -0.14 -0.56400001 1
2.5799999 -0.139 -0.56400001 1
2.552 -0.13699999 -0.56199998 1
2.523 -0.13600001 -0.56 1
2.5079999 -0.13500001 -0.56099999 1
2.4849999 -0.134 -0.56099999 1
2.4690001 -0.133 -0.56099999 1
2.4389999 -0.131 -0.55800003 1
2.4159999 -0.13 -0.55699998 1
2.3989999 -0.12899999 -0.55699998 1
2.378 -0.12800001 -0.55699998 1
2.3559999 -0.127 -0.55599999 1
2.3369999 -0.126 -0.55500001 1
2.323 -0.125 -0.55500001 1
2.3050001 -0.124 -0.55500001 1
2.2950001 -0.123 -0.55599999 1
2.27 -0.122 -0.55400002 1
2.2539999 -0.121 -0.55400002 1
2.2360001 -0.12 -0.55299997 1
2.224 -0.119 -0.55400002 1
2.204 -0.118 -0.55199999 1
2.1849999 -0.117 -0.551 1
2.175 -0.116 -0.55199999 1
2.161 -0.115 -0.55199999 1
2.141 -0.114 -0.55000001 1
2.131 -0.113 -0.551 1
2.1170001 -0.113 -0.551 1
2.102 -0.112 -0.55000001 1
2.0810001 -0.11 -0.54799998 1
2.0739999 -0.11 -0.54900002 1
2.063 -0.109 -0.54900002 1
2.0480001 -0.108 -0.54799998 1
2.03 -0.107 -0.54699999 1
2.016 -0.106 -0.546 1
2.006 -0.105 -0.546 1
1.993 -0.104 -0.546 1
1.988 -0.103 -0.54699999 1
1.977 -0.103 -0.54699999 1
1.96 -0.101 -0.54500002 1
1.944 -0.1 -0.54299998 1
1.936 -0.1 -0.54400003 1
1.928 -0.098999999 -0.54400003 1
1.916 -0.097999997 -0.54400003 1
1.908 -0.097000003 -0.54400003 1
1.902 -0.097000003 -0.54500002 1
1.885 -0.096000001 -0.54299998 1
1.876 -0.094999999 -0.54299998 1
1.867 -0.093999997 -0.54299998 1
1.859 -0.093000002 -0.54299998 1
1.849 -0.092 -0.542 1
1.835 -0.090999998 -0.54100001 1
1.819 -0.090000004 -0.53799999 1
1.817 -0.090000004 -0.54000002 1
1.812 -0.089000002 -0.54100001 1
1.808 -0.088 -0.542 1
1.7970001 -0.088 -0.54100001 1
1.783 -0.086000003 -0.53899997 1
1.777 -0.086000003 -0.53899997 1
1.767 -0.085000001 -0.53899997 1
1.7589999 -0.083999999 -0.53799999 1
1.7460001 -0.082999997 -0.53600001 1
1.743 -0.082999997 -0.53799999 1
1.734 -0.082000002 -0.537 1
1.735 -0.081 -0.53899997 1
1.72 -0.079999998 -0.53600001 1
1.715 -0.079999998 -0.537 1
1.71 -0.079000004 -0.537 1
1.702 -0.078000002 -0.537 1
1.7 -0.078000002 -0.53799999 1
1.676 -0.075999998 -0.53200001 1
1.675 -0.075999998 -0.53299999 1
1.6720001 -0.075000003 -0.53500003 1
1.661 -0.074000001 -0.53299999 1
1.658 -0.072999999 -0.53299999 1
1.655 -0.072999999 -0.53399998 1
1.649 -0.071999997 -0.53399998 1
1.641 -0.071000002 -0.53299999 1
1.6339999 -0.071000002 -0.53200001 1
1.63 -0.07 -0.53299999 1
1.62 -0.068999998 -0.53100002 1
1.618 -0.068000004 -0.53200001 1
1.6160001 -0.068000004 -0.53299999 1
1.613 -0.067000002 -0.53299999 1
1.6 -0.066 -0.52999997 1
1.599 -0.066 -0.53100002 1
1.595 -0.064999998 -0.53100002 1
1.584 -0.064000003 -0.52899998 1
1.582 -0.064000003 -0.52999997 1
1.585 -0.063000001 -0.53200001 1
1.574 -0.061999999 -0.52999997 1
1.566 -0.061000001 -0.52899998 1
1.574 -0.061000001 -0.53200001 1
1.556 -0.059999999 -0.528 1
1.556 -0.059999999 -0.52899998 1
1.554 -0.059 -0.52899998 1
1.544 -0.057999998 -0.52700001 1
1.543 -0.057999998 -0.528 1
1.543 -0.057 -0.52899998 1
1.539 -0.056000002 -0.52899998 1
1.538 -0.056000002 -0.52899998 1
1.54 -0.055 -0.53100002 1
1.528 -0.054000001 -0.528 1
1.533 -0.054000001 -0.53100002 1
1.528 -0.052999999 -0.52999997 1
1.521 -0.052999999 -0.52899998 1
1.522 -0.052000001 -0.52999997 1
1.522 -0.050999999 -0.53100002 1
1.5190001 -0.050999999 -0.53100002 1
1.51 -0.050000001 -0.528 1
1.508 -0.048999999 -0.52899998 1
1.517 -0.048999999 -0.53299999 1
1.5 -0.048 -0.52700001 1
1.505 -0.048 -0.52999997 1
1.499 -0.046999998 -0.52899998 1
1.499 -0.046 -0.52899998 1
1.4910001 -0.046 -0.52700001 1
1.492 -0.045000002 -0.528 1
1.492 -0.044 -0.52899998 1
1.492 -0.044 -0.52899998 1
1.488 -0.043000001 -0.52899998 1
1.4910001 -0.043000001 -0.53100002 1
1.485 -0.041999999 -0.52899998 1
1.4809999 -0.041000001 -0.528 1
1.483 -0.041000001 -0.52899998 1
1.479 -0.039999999 -0.528 1
1.482 -0.039999999 -0.52999997 1
1.471 -0.039000001 -0.52700001 1
1.473 -0.037999999 -0.528 1
1.473 -0.037999999 -0.528 1
1.471 -0.037 -0.528 1
1.471 -0.037 -0.528 1
1.47 -0.035999998 -0.528 1
1.4630001 -0.035 -0.52600002 1
1.47 -0.035 -0.52899998 1
1.462 -0.034000002 -0.52600002 1
1.4579999 -0.033 -0.52499998 1
1.462 -0.033 -0.52700001 1
1.4630001 -0.032000002 -0.52700001 1
1.4630001 -0.032000002 -0.52700001 1
1.457 -0.030999999 -0.52600002 1
1.4579999 -0.030999999 -0.52600002 1
1.457 -0.029999999 -0.52600002 1
1.4529999 -0.028999999 -0.52499998 1
1.45 -0.028999999 -0.523 1
1.45 -0.028000001 -0.52399999 1
1.461 -0.028000001 -0.52700001 1
1.45 -0.027000001 -0.523 1
1.4529999 -0.026000001 -0.52499998 1
1.448 -0.026000001 -0.523 1
1.451 -0.025 -0.52399999 1
1.459 -0.025 -0.52700001 1
1.461 -0.024 -0.52700001 1
1.452 -0.023 -0.52399999 1
1.455 -0.023 -0.52499998 1
1.45 -0.022 -0.523 1
1.464 -0.022 -0.528 1
1.4579999 -0.021 -0.52600002 1
1.461 -0.021 -0.52700001 1
1.459 -0.02 -0.52600002 1
1.461 -0.018999999 -0.52600002 1
1.462 -0.018999999 -0.52600002 1
1.464 -0.017999999 -0.52700001 1
1.465 -0.017999999 -0.52600002 1
1.467 -0.017000001 -0.52700001 1
1.472 -0.017000001 -0.528 1
1.472 -0.016000001 -0.528 1
1.473 -0.016000001 -0.528 1
1.475 -0.015 -0.528 1
1.4630001 -0.014 -0.52399999 1
1.48 -0.014 -0.52899998 1
1.473 -0.013 -0.52600002 1
1.487 -0.013 -0.52999997 1
1.484 -0.012 -0.52899998 1
1.48 -0.011 -0.52700001 1
1.485 -0.011 -0.528 1
1.485 -0.0099999998 -0.528 1
1.489 -0.0099999998 -0.528 1
1.4910001 -0.0089999996 -0.528 1
1.488 -0.0089999996 -0.52700001 1
1.494 -0.0080000004 -0.528 1
1.503 -0.0080000004 -0.52999997 1
1.494 -0.0070000002 -0.52700001 1
1.501 -0.0060000001 -0.528 1
1.499 -0.0060000001 -0.52700001 1
1.511 -0.0049999999 -0.52999997 1
1.5140001 -0.0049999999 -0.52999997 1
1.512 -0.0040000002 -0.52899998 1
1.512 -0.0040000002 -0.528 1
1.515 -0.003 -0.528 1
1.5190001 -0.0020000001 -0.528 1
1.522 -0.0020000001 -0.52899998 1
1.529 -0.001 -0.52999997 1
1.534 -0.001 -0.53100002 1
1.538 0 -0.53100002 1
1.54 0 -0.53100002 1
1.5420001 0 -0.52999997 1
1.539 0.001 -0.528 1
1.5470001 0.001 -0.52999997 1
1.5470001 0.0020000001 -0.52899998 1
1.552 0.0020000001 -0.52899998 1
1.561 0.003 -0.53100002 1
1.556 0.003 -0.528 1
1.567 0.0040000002 -0.53100002 1
1.568 0.0049999999 -0.52999997 1
1.569 0.0049999999 -0.52899998 1
1.576 0.0060000001 -0.52999997 1
1.585 0.0060000001 -0.53100002 1
1.586 0.0070000002 -0.52999997 1
1.5930001 0.0070000002 -0.53100002 1
1.592 0.0080000004 -0.52899998 1
1.5930001 0.0080000004 -0.52899998 1
1.601 0.0089999996 -0.52999997 1
1.6059999 0.0099999998 -0.52999997 1
1.614 0.0099999998 -0.53100002 1
1.622 0.011 -0.53200001 1
1.624 0.011 -0.53100002 1
1.622 0.012 -0.52899998 1
1.635 0.012 -0.53200001 1
1.642 0.013 -0.53200001 1
1.649 0.014 -0.53299999 1
1.654 0.014 -0.53200001 1
1.664 0.015 -0.53399998 1
1.661 0.015 -0.53100002 1
1.671 0.016000001 -0.53299999 1
1.678 0.017000001 -0.53299999 1
1.692 0.017000001 -0.53600001 1
1.7029999 0.017999999 -0.537 1
1.704 0.017999999 -0.53600001 1
1.712 0.018999999 -0.53600001 1
1.717 0.018999999 -0.53600001 1
1.722 0.02 -0.53500003 1
1.7309999 0.021 -0.53600001 1
1.74 0.021 -0.537 1
1.748 0.022 -0.537 1
1.756 0.022 -0.53799999 1
1.762 0.023 -0.537 1
1.773 0.024 -0.53899997 1
1.78 0.024 -0.53799999 1
1.794 0.025 -0.54000002 1
1.8 0.025 -0.54000002 1
1.8049999 0.026000001 -0.53899997 1
1.813 0.026000001 -0.53899997 1
1.826 0.027000001 -0.54100001 1
1.8380001 0.028000001 -0.542 1
1.842 0.028000001 -0.54000002 1
1.859 0.028999999 -0.54299998 1
1.864 0.028999999 -0.542 1
1.88 0.029999999 -0.54400003 1
1.881 0.030999999 -0.542 1
1.89 0.030999999 -0.542 1
1.898 0.032000002 -0.542 1
1.908 0.032000002 -0.542 1
1.926 0.033 -0.54400003 1
1.934 0.034000002 -0.54400003 1
1.943 0.034000002 -0.54299998 1
1.956 0.035 -0.54400003 1
1.962 0.035 -0.54299998 1
1.982 0.035999998 -0.546 1
1.995 0.037 -0.546 1
2.01 0.037 -0.54699999 1
2.0139999 0.037999999 -0.54500002 1
2.027 0.037999999 -0.546 1
2.0409999 0.039000001 -0.54699999 1
2.0469999 0.039000001 -0.54500002 1
2.072 0.039999999 -0.54799998 1
2.0780001 0.041000001 -0.54699999 1
2.0929999 0.041000001 -0.54699999 1
2.1110001 0.041999999 -0.54900002 1
2.1240001 0.041999999 -0.54900002 1
2.141 0.043000001 -0.55000001 1
2.1559999 0.044 -0.55000001 1
2.1700001 0.044 -0.551 1
2.1849999 0.045000002 -0.551 1
2.2049999 0.045000002 -0.55199999 1
2.2190001 0.046 -0.55199999 1
2.221 0.046 -0.54900002 1
2.2349999 0.046999998 -0.54900002 1
2.3369999 0.048999999 -0.56999999 1
2.3239999 0.048999999 -0.56300002 1
2.4119999 0.050999999 -0.57999998 1
2.316 0.048999999 -0.55299997 1
2.3310001 0.050000001 -0.55299997 1
2.358 0.050999999 -0.55599999 1
2.3800001 0.050999999 -0.55599999 1
2.3959999 0.052000001 -0.55599999 1
2.415 0.052000001 -0.55599999 1
2.4319999 0.052999999 -0.55599999 1
2.4630001 0.052999999 -0.55900002 1
2.494 0.054000001 -0.56199998 1
2.5090001 0.055 -0.56099999 1
2.5309999 0.055 -0.56099999 1
2.553 0.056000002 -0.56199998 1
2.575 0.056000002 -0.56199998 1
2.595 0.057 -0.56199998 1
2.6199999 0.057 -0.56199998 1
2.6470001 0.057999998 -0.56300002 1
2.675 0.059 -0.56400001 1
2.704 0.059 -0.56599998 1
2.7349999 0.059999999 -0.56699997 1
2.7679999 0.059999999 -0.56900001 1
2.786 0.061000001 -0.56800002 1
2.822 0.061000001 -0.56999999 2
2.8570001 0.061999999 -0.57200003 2
2.895 0.063000001 -0.574 2
2.9300001 0.063000001 -0.57499999 2
2.9690001 0.064000003 -0.57800001 2
2.9890001 0.064000003 -0.57599998 2
3.027 0.064999998 -0.57800001 2
3.059 0.064999998 -0.57800001 2
3.1070001 0.066 -0.58099997 2
3.2349999 0.068999998 -0.59899998 2
3.1900001 0.067000002 -0.58499998 2
3.223 0.068000004 -0.58499998 2
3.3989999 0.071000002 -0.61000001 2
3.3280001 0.068999998 -0.59100002 2
3.4119999 0.07 -0.59899998 2
3.49 0.071999997 -0.60600001 2
3.51 0.071000002 -0.60299999 2
3.5 0.071000002 -0.59399998 2
3.5599999 0.071000002 -0.59799999 2
3.6340001 0.071999997 -0.60299999 2
3.7 0.072999999 -0.60699999 3
3.776 0.074000001 -0.61199999 3
3.7850001 0.074000001 -0.60600001 3
3.8429999 0.074000001 -0.60799998 2
3.8889999 0.074000001 -0.60699999 2
3.9549999 0.075000003 -0.61000001 2
4.0009999 0.075000003 -0.60900003 2
4.0320001 0.074000001 -0.60600001 2
4.158 0.075999998 -0.61699998 2
4.2160001 0.075999998 -0.61699998 2
4.3130002 0.077 -0.62199998 3
4.3579998 0.077 -0.62 5
4.4369998 0.077 -0.62300003 4
4.5570002 0.078000002 -0.63 3
4.6420002 0.078000002 -0.63300002 3
4.723 0.078000002 -0.634 3
4.8169999 0.078000002 -0.63700002 4
4.9169998 0.079000004 -0.63999999 4
5.013 0.079000004 -0.64300001 4
5.1149998 0.079000004 -0.64600003 4
5.2270002 0.079000004 -0.64899999 5
5.3530002 0.079000004 -0.65399998 4
5.4710002 0.079000004 -0.65700001 5
5.6240001 0.079999998 -0.66399997 4
5.7670002 0.079999998 -0.67000002 3
5.9060001 0.079999998 -0.67400002 3
6.0700002 0.079999998 -0.68000001 4
6.2389998 0.079999998 -0.68599999 4
6.4369998 0.081 -0.69499999 4
6.6459999 0.081 -0.704 4
6.8239999 0.079999998 -0.70899999 3
7.013 0.079999998 -0.71399999 4
7.2119999 0.079000004 -0.72000003 4
7.4640002 0.079000004 -0.73000002 4
7.7360001 0.079000004 -0.741 4
8.0170002 0.079000004 -0.75099999 4
8.2889996 0.078000002 -0.75999999 4
8.6960001 0.078000002 -0.77899998 4
9.0559998 0.078000002 -0.792 17
9.2659998 0.075999998 -0.792 19
9.5389996 0.074000001 -0.79500002 19
9.8559999 0.071999997 -0.80199999 12
10.27 0.07 -0.81400001 5
10.735 0.068000004 -0.829 3
11.197 0.066 -0.84200001 3
11.715 0.063000001 -0.85600001 3
12.235 0.059999999 -0.86900002 3
12.779 0.057 -0.88200003 3
13.41 0.052999999 -0.89700001 3
14.133 0.048 -0.91600001 3
14.929 0.044 -0.93699998 2
15.795 0.037999999 -0.95899999 3
0 0 0 2
17.051001 0.023 -0.96499997 1
0 0 0 1
0 0 0 0
0 0 0 4
25.039 -0.02 -1.211 5
0 0 0 4
30.011999 -0.057999998 -1.3279999 2
0 0 0 8
51.282001 -0.16 -2.059 150
51.326 -0.191 -1.955 168
0 0 0 152
48.229 -0.23800001 -1.638 182
48.255001 -0.26800001 -1.54 206
48.284 -0.29800001 -1.442 188
48.272999 -0.32800001 -1.344 162
48.278999 -0.36000001 -1.242 150
0 0 0 25
0 0 0 0
0 0 0 0
0 0 0 44
0 0 0 16
72.577003 -0.829 -0.97899997 42
72.537003 -0.87699997 -0.833 32
71.82 -0.91799998 -0.67799997 62
71.5 -0.96399999 -0.52999997 139
71.501999 -1.015 -0.38499999 88
69.621002 -1.0369999 -0.235 11
69.306999 -1.082 -0.093999997 70
66.749001 -1.09 0.044 21
66.861 -1.14 0.177 25
66.799004 -1.189 0.31099999 21
66.212997 -1.227 0.442 50
66.142998 -1.276 0.574 67
66.095001 -1.325 0.70700002 71
66.111 -1.375 0.838 13
0 0 0 0
0 0 0 0
0 0 0 0
0 0 0 0
0 0 0 8
55.512001 -1.415 1.365 23
55.365002 -1.456 1.471 17
54.59 -1.4809999 1.561 12
53.518002 -1.495 1.636 14
52.575001 -1.512 1.711 23
52.035999 -1.54 1.795 31
51.247002 -1.559 1.868 41
50.634998 -1.5829999 1.944 28
50.355999 -1.617 2.0309999 69
50.311001 -1.658 2.1270001 83
50.303001 -1.702 2.227 33
50.257999 -1.743 2.3210001 4
0 0 0 0
0 0 0 0
0 0 0 0
0 0 0 8
49.783001 -1.944 2.7750001 14
49.358002 -1.972 2.845 29
49.348 -2.016 2.9400001 43
48.645 -2.0309999 2.9879999 40
48.007999 -2.0480001 3.039 61
47.841 -2.0840001 3.119 37
46.782001 -2.0810001 3.1370001 13
46.32 -2.1040001 3.1949999 27
46.268002 -2.145 3.2780001 54
46.273998 -2.188 3.365 71
