# .PCD v0.7 - Point Cloud Data file format
VERSION 0.7
FIELDS x y z intensity
SIZE 4 4 4 4
TYPE F F F F
COUNT 1 1 1 1
WIDTH 1803
HEIGHT 1
VIEWPOINT 0 0 0 1 0 0 0
POINTS 1803
DATA ascii
51.926998 -2.165 2.2460001 19
50.916 -2.1789999 2.296 21
50.560001 -2.22 2.3710001 33
50.362999 -2.267 2.4519999 42
49.213001 -2.27 2.484 67
48.966 -2.3139999 2.559 28
47.782001 -2.3110001 2.5829999 11
47.478001 -2.3499999 2.651 48
47.486 -2.404 2.734 70
47.481998 -2.457 2.8180001 68
47.494999 -2.5120001 2.902 67
47.507 -2.566 2.9849999 66
47.509998 -2.6210001 3.0680001 67
0 0 0 4
43.966 -2.526 2.9909999 9
43.516998 -2.5510001 3.036 22
43.471001 -2.599 3.108 53
43.368999 -2.6440001 3.175 55
42.492001 -2.6400001 3.1830001 63
42.499001 -2.691 3.256 69
42.478001 -2.7379999 3.3239999 64
41.234001 -2.707 3.2969999 33
41.18 -2.7520001 3.362 61
41.172001 -2.8 3.4289999 63
40.546001 -2.806 3.4449999 29
39.801998 -2.802 3.448 54
39.799999 -2.8499999 3.5139999 53
39.799999 -2.898 3.579 49
38.581001 -2.8559999 3.533 29
38.460999 -2.892 3.5840001 59
38.473 -2.9400001 3.648 57
38.409 -2.9820001 3.704 57
37.16 -2.9300001 3.6429999 44
37.112999 -2.9719999 3.7 56
37.123001 -3.0179999 3.76 57
36.681999 -3.026 3.773 15
35.646999 -2.9849999 3.7219999 9
35.291 -2.9979999 3.7409999 38
35.294998 -3.0420001 3.7969999 53
35.300999 -3.0869999 3.8529999 58
35.314999 -3.131 3.9089999 59
35.301998 -3.174 3.9619999 58
35.307999 -3.2179999 4.0170002 55
35.327999 -3.263 4.073 59
35.326 -3.3069999 4.1269999 55
35.334 -3.352 4.1810002 57
35.327999 -3.395 4.2329998 56
35.324001 -3.438 4.2849998 54
35.344002 -3.484 4.3400002 55
35.358002 -3.53 4.395 58
35.355 -3.5739999 4.4460001 49
35.362999 -3.619 4.4990001 59
35.369999 -3.664 4.5510001 57
35.368 -3.7079999 4.6020002 56
35.366001 -3.7520001 4.6529999 55
35.377998 -3.7980001 4.7049999 56
35.376999 -3.8410001 4.7540002 53
35.394001 -3.888 4.8060002 56
35.396 -3.9330001 4.8559999 57
35.391998 -3.977 4.9050002 59
35.403 -4.0229998 4.9559999 61
35.407001 -4.0679998 5.006 60
35.403999 -4.1110001 5.053 56
35.455002 -4.1620002 5.1079998 8
35.591 -4.223 5.1760001 4
35.630001 -4.2729998 5.2309999 2
0 0 0 0
0 0 0 2
35.555 -4.3979998 5.362 2
35.566002 -4.4439998 5.4099998 2
0 0 0 0
0 0 0 0
0 0 0 2
35.527 -4.6170001 5.586 2
0 0 0 0
0 0 0 2
0 0 0 0
0 0 0 2
35.735001 -4.869 5.8410001 2
35.723 -4.9109998 5.8839998 3
35.682999 -4.9499998 5.9200001 3
36.127998 -5.0570002 6.0370002 3
0 0 0 10
27.709 -3.948 4.6960001 20
27.650999 -3.974 4.7179999 25
27.591 -3.9990001 4.7399998 30
27.559999 -4.0289998 4.7659998 33
27.535999 -4.0599999 4.7940001 35
27.500999 -4.0879998 4.8189998 38
27.486 -4.119 4.8470001 39
27.459 -4.1490002 4.8730001 42
27.443001 -4.1799998 4.9000001 46
27.42 -4.211 4.9260001 45
27.406 -4.2410002 4.9520001 48
27.393999 -4.2729998 4.9790001 50
27.391001 -4.3049998 5.007 54
27.382999 -4.3369999 5.0349998 53
27.392 -4.3720002 5.0650001 53
27.396 -4.4060001 5.0939999 56
27.398001 -4.4390001 5.1230001 45
27.389 -4.4710002 5.1490002 49
27.398001 -4.5040002 5.178 46
27.417 -4.54 5.2080002 48
27.427999 -4.5749998 5.2379999 44
27.448 -4.6110001 5.2680001 39
27.454 -4.6440001 5.296 36
27.489 -4.6830001 5.329 33
27.514 -4.7189999 5.3600001 30
27.533001 -4.7550001 5.3889999 27
27.589001 -4.7969999 5.4260001 22
27.671 -4.8439999 5.467 16
27.711 -4.882 5.5 2
0 0 0 27
31.365 -5.599 6.2810001 23
31.263 -5.6160002 6.2870002 23
31.171 -5.6350002 6.2950001 24
31.054001 -5.6490002 6.2979999 22
30.941999 -5.664 6.3010001 23
30.839001 -5.6799998 6.3060002 23
30.745001 -5.697 6.3119998 22
30.656 -5.7150002 6.3179998 23
30.559 -5.7309999 6.322 23
30.476999 -5.7490001 6.329 21
30.375 -5.763 6.3319998 23
30.257 -5.7740002 6.3299999 28
30.181 -5.7930002 6.3369999 25
30.077 -5.8060002 6.3379998 25
29.985001 -5.8210001 6.3400002 27
29.891001 -5.8340001 6.342 26
29.827999 -5.8540001 6.3499999 25
29.733 -5.868 6.3499999 24
29.639999 -5.8800001 6.3509998 27
29.565001 -5.8969998 6.355 25
29.483999 -5.9109998 6.3569999 25
29.405001 -5.9260001 6.3590002 27
29.327999 -5.941 6.362 25
29.245001 -5.9549999 6.3629999 26
29.184 -5.9720001 6.368 23
29.125 -5.9910002 6.3730001 24
29.031 -6.0009999 6.3699999 23
28.945 -6.0120001 6.368 25
28.893 -6.0300002 6.3740001 28
28.84 -6.0479999 6.3790002 30
28.778 -6.0630002 6.381 26
28.711 -6.0770001 6.382 25
28.659 -6.0939999 6.3860002 29
28.6 -6.1090002 6.388 26
28.542 -6.125 6.3889999 29
28.483999 -6.138 6.3909998 24
28.415001 -6.151 6.3899999 24
28.361 -6.1659999 6.3909998 24
28.306999 -6.1789999 6.3930001 25
0 0 0 5
19.708 -4.3379998 4.4679999 16
19.648001 -4.3429999 4.4629998 18
19.618 -4.3540001 4.4650002 21
19.587999 -4.3649998 4.467 23
19.546 -4.3730001 4.4650002 25
19.525999 -4.3850002 4.4679999 27
19.516001 -4.4000001 4.473 32
19.489 -4.4099998 4.474 32
19.458 -4.4200001 4.474 34
19.426001 -4.4289999 4.473 35
19.440001 -4.4489999 4.4829998 29
19.409 -4.4580002 4.4819999 39
19.406 -4.473 4.4879999 31
19.386 -4.4840002 4.4889998 42
19.377001 -4.4970002 4.493 46
19.351999 -4.507 4.493 44
19.355 -4.5229998 4.4990001 46
19.341 -4.5349998 4.5009999 46
19.332001 -4.5469999 4.5040002 46
19.323999 -4.5599999 4.507 46
19.309999 -4.572 4.5079999 46
19.302 -4.5840001 4.5100002 48
19.305 -4.599 4.5149999 48
19.306999 -4.6139998 4.5190001 48
19.287001 -4.6230001 4.5180001 47
19.296 -4.6389999 4.5229998 50
19.278 -4.6479998 4.5219998 50
19.290001 -4.664 4.5289998 52
19.278 -4.6739998 4.5289998 50
19.277 -4.6869998 4.5310001 51
19.275999 -4.6999998 4.533 52
19.266001 -4.71 4.533 50
19.271999 -4.724 4.5359998 51
19.26 -4.7329998 4.5349998 48
19.267 -4.7470002 4.5380001 53
19.256001 -4.756 4.5370002 48
19.26 -4.7690001 4.539 50
19.271 -4.783 4.5419998 52
19.243 -4.7880001 4.5370002 46
19.257 -4.802 4.54 51
19.261999 -4.8150001 4.5419998 52
19.26 -4.8249998 4.5409999 46
19.264999 -4.836 4.5419998 45
19.266001 -4.8470001 4.5419998 43
19.26 -4.8559999 4.54 44
19.263 -4.8670001 4.54 46
19.256001 -4.875 4.5370002 46
19.264 -4.8870001 4.5380001 44
19.264999 -4.8959999 4.5370002 49
19.266001 -4.9060001 4.5359998 48
19.284 -4.9200001 4.5380001 48
19.278999 -4.927 4.5349998 48
19.263 -4.9320002 4.5289998 46
19.284 -4.9460001 4.5310001 35
19.288 -4.9549999 4.5300002 43
19.278 -4.961 4.5240002 43
19.292 -4.9720001 4.5240002 45
19.289 -4.98 4.52 43
19.296 -4.9889998 4.5190001 42
19.296 -4.9959998 4.5149999 41
19.288 -5.0009999 4.5089998 40
19.294001 -5.0089998 4.507 38
19.291 -5.0149999 4.5019999 36
19.308001 -5.026 4.5019999 28
19.305 -5.0320001 4.4959998 38
19.308001 -5.039 4.4920001 38
19.325001 -5.0489998 4.4910002 36
19.316999 -5.053 4.4840002 35
19.311001 -5.0560002 4.4770002 35
19.33 -5.0669999 4.4759998 33
19.341 -5.0749998 4.4720001 32
19.351999 -5.0830002 4.4689999 32
19.358 -5.0890002 4.4640002 27
19.356001 -5.0929999 4.4569998 32
19.351 -5.0960002 4.4499998 30
19.372 -5.1059999 4.447 33
19.375 -5.1100001 4.441 29
19.365 -5.1110001 4.4310002 29
19.358999 -5.1129999 4.4219999 29
19.371 -5.1199999 4.4180002 28
19.377001 -5.1240001 4.4120002 27
19.382999 -5.1290002 4.4039998 27
19.378 -5.1300001 4.395 26
19.382 -5.1339998 4.388 27
19.384001 -5.1360002 4.3800001 25
19.393 -5.1409998 4.3730001 26
19.393 -5.1430001 4.3639998 24
19.393 -5.1440001 4.3540001 24
19.389 -5.145 4.3439999 23
19.408001 -5.151 4.3390002 24
19.407 -5.151 4.329 20
19.403999 -5.151 4.3189998 24
19.396999 -5.1500001 4.3070002 24
19.392 -5.1490002 4.296 23
19.393 -5.1490002 4.2859998 25
19.402 -5.151 4.277 25
19.386999 -5.1469998 4.263 24
19.391001 -5.1479998 4.2529998 27
19.389 -5.1459999 4.2410002 27
19.392 -5.1459999 4.23 27
19.384001 -5.1430001 4.217 25
19.379999 -5.1399999 4.2049999 26
19.385 -5.1399999 4.1939998 27
19.385 -5.138 4.1820002 27
19.375999 -5.1329999 4.1680002 29
19.365999 -5.1279998 4.1529999 28
19.372 -5.1279998 4.1420002 30
19.370001 -5.1240001 4.1290002 29
19.363001 -5.1199999 4.1139998 30
19.358999 -5.1149998 4.1009998 30
19.353001 -5.1100001 4.086 30
19.349001 -5.105 4.072 31
19.362 -5.105 4.0609999 25
19.341999 -5.0949998 4.0440001 33
19.339001 -5.0900002 4.0289998 32
19.334 -5.085 4.013 34
19.329 -5.079 3.9979999 36
19.318001 -5.0710001 3.9809999 27
19.306 -5.0640001 3.9649999 36
19.297001 -5.0560002 3.9489999 37
19.283001 -5.046 3.931 35
19.291 -5.0430002 3.918 37
19.285 -5.0349998 3.901 36
19.285 -5.0289998 3.8859999 37
19.275 -5.02 3.869 35
19.264999 -5.0110002 3.8510001 36
19.264999 -5.0040002 3.836 38
19.267 -4.9980001 3.8199999 39
19.253 -4.987 3.802 36
19.257 -4.98 3.786 37
19.247999 -4.9699998 3.7679999 37
19.264 -4.967 3.7550001 39
19.23 -4.9499998 3.7320001 40
19.238001 -4.9429998 3.717 38
19.24 -4.9349999 3.701 41
19.243 -4.927 3.684 41
19.239 -4.9169998 3.6670001 43
19.239 -4.908 3.6489999 45
19.219999 -4.8940001 3.628 41
19.222 -4.8850002 3.6110001 43
19.233 -4.8779998 3.596 43
19.237 -4.869 3.579 45
19.212999 -4.8520002 3.5569999 41
19.223 -4.8439999 3.54 45
19.219999 -4.8330002 3.5220001 39
19.216 -4.8210001 3.503 37
19.209999 -4.809 3.483 38
19.233 -4.803 3.4690001 52
19.204 -4.7849998 3.4460001 47
19.212999 -4.7750001 3.428 46
19.207001 -4.7620001 3.4089999 50
19.207001 -4.7490001 3.3900001 52
19.202 -4.7360001 3.3699999 53
19.212999 -4.7270002 3.352 54
19.212999 -4.7140002 3.3329999 52
19.226999 -4.7049999 3.316 51
19.222 -4.6900001 3.2950001 54
19.218 -4.6750002 3.2750001 49
19.221001 -4.6630001 3.256 50
19.224001 -4.6500001 3.237 51
19.235001 -4.6389999 3.2190001 50
19.229 -4.6230001 3.198 50
19.233999 -4.6100001 3.178 49
19.242001 -4.5970001 3.1600001 49
19.232 -4.5799999 3.138 43
19.253 -4.5700002 3.1210001 46
19.254 -4.5549998 3.0999999 46
19.254999 -4.54 3.0799999 47
19.271 -4.5279999 3.062 49
19.273001 -4.5120001 3.0409999 44
19.291 -4.5009999 3.023 42
19.301001 -4.487 3.0039999 41
19.309999 -4.4720001 2.984 41
19.316999 -4.4559999 2.964 42
19.330999 -4.4429998 2.9449999 40
19.347 -4.4299998 2.9260001 37
19.344999 -4.4120002 2.904 36
19.346001 -4.3940001 2.8829999 34
19.379999 -4.3839998 2.8659999 35
19.391001 -4.369 2.846 25
19.407 -4.3540001 2.826 32
19.444 -4.3439999 2.8099999 26
19.488001 -4.335 2.7939999 27
19.52 -4.3239999 2.776 24
19.547001 -4.3099999 2.7579999 22
19.584 -4.2989998 2.74 19
19.657 -4.296 2.7279999 13
19.732 -4.2919998 2.7160001 2
0 0 0 0
0 0 0 2
0 0 0 0
0 0 0 0
0 0 0 0
0 0 0 0
0 0 0 2
0 0 0 0
0 0 0 0
0 0 0 0
0 0 0 2
0 0 0 0
0 0 0 2
0 0 0 0
0 0 0 2
0 0 0 0
0 0 0 0
0 0 0 0
0 0 0 0
0 0 0 0
0 0 0 2
0 0 0 0
0 0 0 0
0 0 0 5
35.543999 -6.7220001 3.8399999 22
35.534 -6.6750002 3.796 19
35.570999 -6.6370001 3.757 7
0 0 0 0
0 0 0 0
0 0 0 0
0 0 0 0
0 0 0 0
0 0 0 0
0 0 0 0
0 0 0 0
0 0 0 0
0 0 0 9
27.479 -4.7280002 2.536 21
27.434999 -4.6820002 2.4990001 27
27.4 -4.6389999 2.4619999 32
27.364 -4.5939999 2.4260001 32
27.333 -4.5510001 2.3900001 39
27.309999 -4.5079999 2.355 41
27.294001 -4.467 2.3199999 44
27.278 -4.4260001 2.286 46
27.267 -4.3850002 2.2520001 48
27.264999 -4.3449998 2.2179999 46
27.271 -4.3070002 2.187 53
27.271 -4.2670002 2.154 56
27.273001 -4.2270002 2.1210001 54
27.273001 -4.1869998 2.0880001 54
27.294001 -4.1500001 2.0569999 50
27.32 -4.1129999 2.026 46
27.341 -4.0760002 1.9960001 43
27.367001 -4.039 1.965 41
27.393 -4.0009999 1.933 39
27.434 -3.9649999 1.904 35
27.476 -3.9289999 1.874 32
27.530001 -3.895 1.845 24
27.621 -3.865 1.818 16
27.739 -3.8380001 1.793 2
0 0 0 53
35.328999 -4.7779999 2.1989999 54
35.313999 -4.7210002 2.1559999 47
35.305 -4.6630001 2.1140001 77
35.285999 -4.6040001 2.0710001 79
35.292 -4.5479999 2.03 80
35.272999 -4.4910002 1.988 78
35.269001 -4.434 1.947 78
35.265999 -4.3759999 1.906 79
35.263 -4.3189998 1.864 77
35.266998 -4.2620001 1.823 67
35.243 -4.2020001 1.781 74
35.251999 -4.1459999 1.7410001 74
35.243 -4.086 1.7 75
35.228001 -4.026 1.659 84
35.227001 -3.9679999 1.619 83
35.226002 -3.9089999 1.5779999 87
35.223999 -3.849 1.538 69
35.209 -3.7880001 1.497 86
35.221001 -3.73 1.457 93
34.948002 -3.641 1.406 67
34.928001 -3.5799999 1.3660001 70
35.105999 -3.539 1.334 59
35.189999 -3.487 1.2970001 85
35.194 -3.427 1.2589999 97
35.194 -3.3659999 1.219 81
35.443001 -3.3280001 1.189 8
35.530998 -3.2750001 1.152 14
35.353001 -3.1960001 1.107 24
36.416 -3.2290001 1.1 9
37.212002 -3.2349999 1.084 6
39.077 -3.3280001 1.096 82
39.084 -3.2590001 1.053 90
39.061001 -3.1889999 1.011 86
39.068001 -3.119 0.96899998 46
39.553001 -3.0869999 0.93800002 5
40.143002 -3.0610001 0.90899998 4
40.662998 -3.0280001 0.87800002 12
40.876999 -2.97 0.83899999 9
43.124001 -3.056 0.83899999 105
43.116001 -2.977 0.79400003 102
43.105 -2.8970001 0.74800003 66
43.646999 -2.8529999 0.71200001 5
45.567001 -2.895 0.69599998 9
43.976002 -2.714 0.62599999 6
44.004002 -2.6340001 0.58099997 46
43.999001 -2.553 0.53600001 47
43.995998 -2.473 0.491 20
44.021 -2.391 0.447 12
44.043999 -2.3110001 0.40200001 5
0 0 0 55
0 0 0 41
51.544998 -2.4170001 0.317 18
51.896999 -2.339 0.27000001 25
51.820999 -2.2379999 0.21799999 40
0 0 0 10
59.263 -2.335 0.134 20
59.286999 -2.224 0.077 59
59.300999 -2.112 0.02 71
59.348999 -2.0009999 -0.035999998 56
60.009998 -1.909 -0.093000002 21
59.898998 -1.793 -0.149 48
0 0 0 59
67.321999 -1.7589999 -0.29300001 72
67.370003 -1.631 -0.35499999 75
67.894997 -1.515 -0.41999999 18
67.945 -1.386 -0.48199999 29
0 0 0 96
73.667 -1.219 -0.65600002 83
73.586998 -1.076 -0.72100002 82
73.591003 -0.93300003 -0.78600001 67
73.588997 -0.79100001 -0.85100001 60
73.612 -0.648 -0.91600001 38
0 0 0 92
134.099 -0.65700001 -1.903 90
134.117 -0.396 -2.0179999 68
134.13 -0.13500001 -2.132 46
0 0 0 0
0 0 0 0
0 0 0 37
0 0 0 0
0 0 0 0
0 0 0 0
0 0 0 0
0 0 0 0
0 0 0 0
0 0 0 0
0 0 0 6
39.969002 0.89700001 -1.022 22
39.837002 0.97299999 -1.049 108
39.702999 1.048 -1.076 150
39.576 1.123 -1.102 151
39.507 1.199 -1.1289999 27
39.393002 1.273 -1.155 16
39.312 1.347 -1.181 18
39.214001 1.421 -1.207 22
39.16 1.4960001 -1.233 46
39.127998 1.573 -1.26 75
39.152 1.651 -1.288 66
39.160999 1.729 -1.316 61
39.195 1.808 -1.344 55
39.193001 1.886 -1.3710001 58
39.240002 1.964 -1.398 25
39.321999 2.046 -1.428 5
39.380001 2.1259999 -1.456 5
39.625999 2.2179999 -1.4910001 7
39.424999 2.2839999 -1.5089999 5
39.487999 2.3659999 -1.536 10
39.514 2.4460001 -1.562 4
39.568001 2.526 -1.589 25
39.608002 2.6070001 -1.615 42
39.658001 2.6889999 -1.641 42
39.728001 2.7720001 -1.668 42
39.775002 2.8540001 -1.694 36
39.855999 2.9389999 -1.722 27
39.945999 3.0239999 -1.748 31
39.951 3.1010001 -1.771 23
40.030998 3.1860001 -1.798 18
40.044998 3.266 -1.821 13
40.136002 3.3510001 -1.846 9
0 0 0 0
0 0 0 4
42.068001 3.76 -2.0039999 4
42.007 3.836 -2.023 3
0 0 0 0
0 0 0 0
0 0 0 0
0 0 0 0
0 0 0 0
0 0 0 0
0 0 0 0
0 0 0 0
0 0 0 0
0 0 0 1
0 0 0 0
0 0 0 0
0 0 0 1
0 0 0 1
27.049999 3.257 -1.493 1
25.870001 3.164 -1.439 4
26.464001 3.2869999 -1.483 2
0 0 0 0
0 0 0 0
0 0 0 2
0 0 0 2
0 0 0 0
0 0 0 1
20.42 2.8069999 -1.198 3
20.037001 2.7920001 -1.182 2
0 0 0 0
0 0 0 1
18.575001 2.6930001 -1.115 1
19.263 2.829 -1.1619999 2
18.278 2.7179999 -1.109 3
18.261 2.75 -1.113 4
17.413 2.654 -1.067 4
0 0 0 0
0 0 0 0
0 0 0 2
17.124001 2.7360001 -1.069 2
17.360001 2.8050001 -1.0880001 3
17.097 2.7939999 -1.076 4
17.014999 2.812 -1.075 4
16.309 2.7249999 -1.035 4
16.768999 2.8310001 -1.068 5
16.167999 2.7590001 -1.033 4
16.040001 2.766 -1.029 4
16.479 2.8710001 -1.0599999 4
16.556999 2.914 -1.069 3
16.468 2.928 -1.067 4
16.405001 2.9449999 -1.066 3
16.245001 2.9449999 -1.059 3
16.174 2.96 -1.057 3
16.046 2.9649999 -1.052 3
15.986 2.9820001 -1.051 3
15.875 2.9890001 -1.046 3
15.801 3.0020001 -1.044 3
15.736 3.017 -1.0420001 3
15.711 3.039 -1.043 3
15.722 3.0680001 -1.046 3
15.619 3.075 -1.041 4
15.606 3.099 -1.0420001 5
15.468 3.0969999 -1.035 5
15.448 3.119 -1.035 4
15.36 3.1270001 -1.0319999 5
15.344 3.1500001 -1.0319999 5
15.356 3.178 -1.035 5
15.221 3.174 -1.027 5
15.113 3.177 -1.021 4
14.97 3.171 -1.012 4
14.914 3.1830001 -1.01 3
14.762 3.175 -1 4
14.662 3.177 -0.995 4
14.749 3.2190001 -1.001 4
14.631 3.217 -0.99400002 4
14.647 3.244 -0.99599999 4
14.629 3.263 -0.995 4
14.587 3.276 -0.99299997 4
14.523 3.2839999 -0.98900002 4
14.497 3.3010001 -0.98799998 4
14.478 3.319 -0.98699999 4
14.465 3.339 -0.986 4
14.484 3.365 -0.98699999 3
14.43 3.3740001 -0.98400003 3
14.388 3.3859999 -0.98100001 4
14.423 3.4159999 -0.98299998 4
14.451 3.444 -0.98500001 4
14.454 3.4660001 -0.98500001 4
14.425 3.48 -0.98199999 4
14.429 3.5020001 -0.98199999 4
14.437 3.5250001 -0.98199999 3
14.413 3.54 -0.98000002 3
14.415 3.5610001 -0.98000002 3
14.433 3.5869999 -0.98000002 3
14.448 3.6110001 -0.98000002 3
14.43 3.6270001 -0.97799999 3
14.394 3.6370001 -0.97500002 3
14.515 3.688 -0.98199999 3
14.537 3.714 -0.98199999 3
14.541 3.7349999 -0.98100001 3
14.576 3.7639999 -0.98299998 3
14.562 3.779 -0.98100001 3
14.625 3.8150001 -0.98299998 3
14.617 3.8329999 -0.98100001 3
14.637 3.8570001 -0.98100001 3
14.646 3.878 -0.98000002 3
14.693 3.9100001 -0.98100001 3
14.703 3.931 -0.98000002 3
14.73 3.957 -0.98000002 2
0 0 0 1
9.9250002 2.691 -0.65799999 1
9.8859997 2.6930001 -0.65399998 1
9.8219995 2.687 -0.648 1
9.7709999 2.6849999 -0.64300001 1
9.7390003 2.688 -0.63999999 1
9.7259998 2.6960001 -0.63700002 1
9.698 2.6989999 -0.634 1
9.6800003 2.7060001 -0.63099998 1
9.6560001 2.71 -0.62800002 1
9.6359997 2.7160001 -0.625 2
9.6129999 2.721 -0.62199998 2
9.6029997 2.7279999 -0.61900002 2
9.6000004 2.7379999 -0.61699998 2
9.5869999 2.7449999 -0.61500001 2
9.5609999 2.7479999 -0.611 2
9.5509996 2.7550001 -0.60900003 2
9.5389996 2.7620001 -0.60600001 2
9.5290003 2.7690001 -0.60299999 2
9.5139999 2.7739999 -0.60000002 2
9.4870005 2.776 -0.597 2
9.4919996 2.7869999 -0.59500003 3
9.474 2.7920001 -0.59200001 3
9.4560003 2.796 -0.588 3
9.4469995 2.802 -0.58600003 3
9.4370003 2.809 -0.583 3
9.4180002 2.812 -0.579 3
9.4189997 2.8210001 -0.57700002 4
9.4169998 2.829 -0.57499999 4
9.3979998 2.832 -0.57099998 4
9.3889999 2.8380001 -0.56800002 4
9.3979998 2.849 -0.56599998 4
9.3769999 2.8510001 -0.56300002 5
9.3719997 2.8570001 -0.56 5
9.3529997 2.8599999 -0.55599999 5
9.3559999 2.868 -0.55400002 6
9.3559999 2.8759999 -0.551 6
9.3500004 2.882 -0.54799998 6
9.3369999 2.885 -0.54500002 6
9.3310003 2.8900001 -0.542 5
9.3360004 2.8989999 -0.53899997 6
9.3299999 2.904 -0.537 5
9.3269997 2.9100001 -0.53399998 5
9.3299999 2.918 -0.53100002 5
9.3380003 2.927 -0.52899998 4
9.3240004 2.9289999 -0.52499998 4
9.3129997 2.9319999 -0.52200001 4
9.323 2.9419999 -0.51999998 4
9.29 2.938 -0.51499999 4
9.3070002 2.9489999 -0.51300001 4
9.2860003 2.948 -0.509 5
9.2810001 2.9530001 -0.505 6
9.2539997 2.95 -0.50099999 9
9.2370005 2.95 -0.49700001 15
9.2399998 2.9560001 -0.49399999 30
9.3190002 2.987 -0.495 150
9.3240004 2.994 -0.49200001 152
9.3179998 2.997 -0.48899999 152
9.323 3.003 -0.486 152
9.2919998 2.9979999 -0.48100001 150
9.257 2.9909999 -0.47600001 108
9.25 2.993 -0.47299999 90
9.2320004 2.9920001 -0.46900001 81
9.2399998 2.9990001 -0.46599999 78
9.2299995 3 -0.46200001 73
9.2259998 3.003 -0.45899999 76
9.2270002 3.007 -0.45500001 94
9.2309999 3.0120001 -0.45199999 109
9.2320004 3.0150001 -0.449 122
9.2320004 3.0190001 -0.44600001 123
9.2360001 3.0239999 -0.442 122
9.2279997 3.0239999 -0.43900001 123
9.2449999 3.033 -0.43599999 124
9.2329998 3.0320001 -0.43200001 123
9.2299995 3.0339999 -0.428 126
9.2349997 3.0380001 -0.42500001 127
9.2309999 3.039 -0.421 128
9.2270002 3.04 -0.41800001 126
9.2180004 3.04 -0.414 128
9.224 3.0439999 -0.41 126
9.2270002 3.0469999 -0.40700001 128
9.2290001 3.049 -0.403 130
9.2130003 3.046 -0.39899999 134
9.224 3.0510001 -0.396 131
9.2180004 3.05 -0.39199999 134
9.2390003 3.059 -0.38999999 135
9.2209997 3.0539999 -0.38499999 140
9.2150002 3.053 -0.38100001 141
9.2270002 3.0580001 -0.37799999 150
9.2320004 3.0599999 -0.375 147
9.224 3.0580001 -0.37099999 150
9.2189999 3.0569999 -0.36700001 150
9.2279997 3.0610001 -0.36300001 150
9.2209997 3.0580001 -0.359 149
9.2279997 3.0610001 -0.35600001 150
9.2279997 3.0610001 -0.352 150
9.2320004 3.062 -0.34900001 150
9.2299995 3.0610001 -0.345 150
9.2340002 3.062 -0.34099999 150
9.2220001 3.0580001 -0.33700001 150
9.2340002 3.0610001 -0.333 150
9.2309999 3.059 -0.33000001 150
9.2410002 3.062 -0.32600001 150
9.2270002 3.056 -0.322 150
9.2259998 3.0539999 -0.31799999 150
9.2370005 3.056 -0.31400001 150
9.2340002 3.0539999 -0.31099999 150
9.2390003 3.0539999 -0.30700001 150
9.2309999 3.05 -0.303 150
9.2399998 3.0510001 -0.29899999 150
9.2419996 3.049 -0.29499999 150
9.2360001 3.0450001 -0.29100001 150
9.2390003 3.0439999 -0.287 150
9.2360001 3.0409999 -0.28299999 150
9.2410002 3.04 -0.28 150
9.2889996 3.053 -0.27700001 150
9.2779999 3.0469999 -0.273 152
9.2600002 3.0380001 -0.26899999 153
9.2620001 3.0350001 -0.26499999 155
9.25 3.0280001 -0.26100001 160
9.2629995 3.029 -0.257 158
9.2679996 3.027 -0.25299999 152
9.2939997 3.0320001 -0.25 150
9.2589998 3.017 -0.245 150
9.2480001 3.01 -0.241 150
9.2510004 3.007 -0.237 150
9.2519999 3.003 -0.233 150
9.2530003 2.9990001 -0.229 150
9.2600002 2.997 -0.226 150
9.257 2.9920001 -0.222 150
9.2580004 2.987 -0.21799999 149
9.2480001 2.9790001 -0.214 143
9.2489996 2.974 -0.20999999 126
9.2410002 2.967 -0.206 113
9.2519999 2.9649999 -0.20200001 98
9.2589998 2.9619999 -0.199 90
9.2360001 2.9489999 -0.19400001 74
9.2449999 2.947 -0.19 67
9.2460003 2.941 -0.186 61
9.25 2.937 -0.183 54
9.2480001 2.9300001 -0.17900001 47
9.2480001 2.924 -0.175 38
9.2460003 2.918 -0.171 33
9.2440004 2.9100001 -0.167 27
9.2489996 2.9059999 -0.163 24
9.2600002 2.902 -0.16 14
9.2670002 2.898 -0.156 20
9.2670002 2.891 -0.152 15
9.29 2.891 -0.149 12
9.2910004 2.8840001 -0.145 9
9.3129997 2.8840001 -0.141 6
9.3199997 2.8789999 -0.138 5
9.335 2.8759999 -0.134 4
9.3540001 2.8740001 -0.131 3
9.3599997 2.868 -0.127 2
9.3769999 2.865 -0.123 1
9.3920002 2.862 -0.12 1
9.4540005 2.8729999 -0.117 2
9.4989996 2.878 -0.114 4
9.5190001 2.875 -0.11 3
9.5410004 2.8729999 -0.107 1
9.5629997 2.8710001 -0.103 1
9.5880003 2.8699999 -0.1 1
9.6339998 2.8740001 -0.096000001 1
9.5710001 2.846 -0.092 1
9.5530005 2.832 -0.088 2
9.5640001 2.826 -0.083999999 3
9.5539999 2.813 -0.081 6
9.5419998 2.8 -0.077 5
9.5900002 2.8039999 -0.074000001 5
9.585 2.7920001 -0.07 3
9.5780001 2.78 -0.066 5
9.5699997 2.7679999 -0.063000001 7
9.5690002 2.757 -0.059 13
9.5629997 2.7449999 -0.056000002 6
9.6049995 2.747 -0.052999999 3
9.6350002 2.744 -0.048999999 1
9.6669998 2.743 -0.046 1
9.6890001 2.7379999 -0.041999999 2
9.7110004 2.733 -0.039000001 3
9.7250004 2.7249999 -0.035999998 3
9.7530003 2.7219999 -0.032000002 4
9.7849998 2.7190001 -0.028999999 4
9.8140001 2.7160001 -0.026000001 5
9.8430004 2.7119999 -0.023 7
9.8710003 2.707 -0.018999999 15
9.9139996 2.707 -0.016000001 29
9.9779997 2.7119999 -0.013 151
10.024 2.7119999 -0.0089999996 163
10.026 2.7 -0.0060000001 163
10.052 2.694 -0.003 156
9.9980001 2.6670001 0 8
10.105 2.6819999 0.003 2
10.161 2.684 0.0060000001 1
0 0 0 6
36.993 9.6730003 0.046 20
37.081001 9.6459999 0.057999998 8
36.994999 9.5740004 0.068000004 10
36.974998 9.5179996 0.079000004 21
37.117001 9.5039997 0.090999998 7
0 0 0 31
75.080002 19.017 0.227 26
75.053001 18.903999 0.248 24
74.889 18.756001 0.26899999 14
74.918999 18.656 0.28999999 14
0 0 0 33
46.028999 11.329 0.204 70
46.067001 11.271 0.21600001 72
46.113998 11.213 0.228 28
0 0 0 13
0 0 0 0
0 0 0 10
0 0 0 0
0 0 0 23
66.628998 15.6 0.42899999 28
66.851997 15.551 0.44499999 24
0 0 0 21
50.615002 11.616 0.361 38
0 0 0 27
67.896004 15.371 0.51499999 29
67.947998 15.275 0.52999997 31
68.047997 15.189 0.54500002 29
68.049004 15.081 0.55800003 36
0 0 0 16
54.396999 11.877 0.46700001 43
0 0 0 0
0 0 0 17
47.140999 10.061 0.43099999 11
47.175999 9.9899998 0.44 14
47.25 9.927 0.449 51
47.249001 9.8479996 0.45699999 67
47.244999 9.7670002 0.46399999 76
47.262001 9.6920004 0.47099999 72
47.261002 9.6110001 0.479 69
0 0 0 9
37.344002 7.467 0.38800001 20
37.373001 7.408 0.39399999 38
37.042 7.2779999 0.39500001 35
37.101002 7.2249999 0.40099999 28
37.015999 7.1440001 0.40400001 36
37.076 7.0910001 0.40900001 38
37.049999 7.0209999 0.41299999 40
36.993999 6.9450002 0.41600001 34
36.974998 6.875 0.41999999 18
0 0 0 0
0 0 0 14
51.368 9.2779999 0.59799999 15
51.303001 9.1719999 0.60000002 22
51.254002 9.0699997 0.60299999 32
51.195999 8.967 0.60600001 32
51.202 8.8739996 0.60900003 26
0 0 0 0
0 0 0 12
53.301998 8.9449997 0.64200002 29
53.363998 8.8559999 0.64399999 32
53.556 8.7880001 0.648 35
53.673 8.7069998 0.65100002 34
0 0 0 8
47.286999 7.4949999 0.57499999 19
46.449001 7.2740002 0.565 12
46.445999 7.1869998 0.565 22
46.925999 7.1719999 0.56999999 24
47.325001 7.1430001 0.57499999 14
47.058998 7.013 0.57099998 3
0 0 0 21
0 0 0 8
66.699997 9.5539999 0.80199999 21
0 0 0 5
46.740002 6.5139999 0.55800003 11
0 0 0 32
67.679001 9.1730003 0.801 23
67.949997 9.0769997 0.79900002 9
0 0 0 12
77.911003 10.105 0.90399998 13
0 0 0 9
71.397003 8.9790001 0.81599998 26
71.794998 8.8870001 0.81300002 31
71.244003 8.6780005 0.79900002 15
75.336998 9.0290003 0.83600003 27
75.68 8.9200001 0.83099997 39
0 0 0 0
0 0 0 24
0 0 0 34
78.384003 8.6099997 0.81599998 44
78.283997 8.4420004 0.80299997 48
78.139999 8.2690001 0.78899997 31
76.794998 7.9720001 0.76300001 23
77.043999 7.8449998 0.75099999 18
0 0 0 0
0 0 0 35
74.138 7.098 0.68099999 44
73.818001 6.9180002 0.66299999 42
73.786003 6.7649999 0.648 45
74.036003 6.6350002 0.63300002 29
74.246002 6.5019999 0.61799997 9
0 0 0 0
0 0 0 0
0 0 0 0
0 0 0 0
0 0 0 0
0 0 0 0
0 0 0 0
0 0 0 0
0 0 0 0
0 0 0 0
0 0 0 13
88.417999 5.572 0.45199999 15
88.288002 5.381 0.42300001 18
88.400002 5.2080002 0.39500001 14
88.357002 5.0219998 0.366 14
88.25 4.8309999 0.33500001 14
88.231003 4.6469998 0.30500001 18
0 0 0 0
0 0 0 0
0 0 0 0
0 0 0 0
0 0 0 0
0 0 0 0
0 0 0 18
89.165001 3.221 0.041999999 17
89.204002 3.039 0.0049999999 18
89.486 2.8629999 -0.030999999 21
89.069 2.664 -0.068000004 18
88.878998 2.473 -0.106 19
89.172997 2.2950001 -0.145 13
89.037003 2.1040001 -0.185 14
89.226997 1.923 -0.226 18
88.912003 1.7309999 -0.266 16
0 0 0 0
0 0 0 0
0 0 0 0
0 0 0 0
0 0 0 0
0 0 0 0
0 0 0 0
0 0 0 0
0 0 0 0
0 0 0 0
0 0 0 0
0 0 0 0
0 0 0 0
0 0 0 64
73.595001 -0.85299999 -0.78399998 71
73.597 -1.005 -0.82599998 73
73.665001 -1.158 -0.86900002 80
72.702003 -1.291 -0.89999998 106
0 0 0 15
67.467003 -1.476 -0.91500002 87
67.299004 -1.6109999 -0.95300001 78
67.307999 -1.75 -0.99400002 117
67.263 -1.887 -1.035 133
0 0 0 17
59.419998 -1.9119999 -0.98900002 38
59.229 -2.027 -1.023 117
59.237999 -2.148 -1.061 116
0 0 0 17
45.153999 -1.821 -0.86699998 18
45.060001 -1.908 -0.89499998 5
44.561001 -1.978 -0.91500002 18
44.365002 -2.059 -0.94099998 32
44.344002 -2.1470001 -0.97000003 40
44.202999 -2.23 -0.99699998 30
44.258999 -2.322 -1.029 23
44.009998 -2.398 -1.054 40
43.097 -2.4349999 -1.062 33
42.702 -2.497 -1.082 36
42.678001 -2.5810001 -1.112 36
42.584999 -2.661 -1.14 29
42.73 -2.756 -1.175 27
43.032001 -2.8610001 -1.215 96
43.035999 -2.947 -1.247 91
43.028999 -3.0320001 -1.279 80
40.762001 -2.9519999 -1.242 5
40.091999 -2.983 -1.252 6
39.442001 -3.013 -1.261 4
38.966 -3.053 -1.276 69
0 0 0 6
22.530001 -1.853 -0.77200001 5
21.927999 -1.846 -0.76899999 1
0 0 0 0
0 0 0 1
0 0 0 0
0 0 0 0
0 0 0 1
19.646999 -1.883 -0.78299999 3
19.511 -1.908 -0.79400003 3
19.465 -1.941 -0.80800003 3
19.469 -1.978 -0.82499999 3
19.337 -2.0009999 -0.83499998 1
0 0 0 25
0 0 0 25
0 0 0 1
19.072001 -2.118 -0.88800001 1
19.034 -2.1489999 -0.90200001 1
18.999001 -2.1800001 -0.917 1
18.995001 -2.2160001 -0.93300003 2
19.033001 -2.2550001 -0.95099998 2
19.070999 -2.2950001 -0.97000003 3
19.087999 -2.332 -0.98799998 2
19.132 -2.3729999 -1.006 3
19.169001 -2.4130001 -1.025 3
19.391001 -2.4760001 -1.0549999 3
19.544001 -2.5309999 -1.081 2
19.243 -2.527 -1.081 1
0 0 0 0
0 0 0 1
27.429001 -3.7520001 -1.617 10
27.32 -3.786 -1.635 11
0 0 0 1
0 0 0 6
0 0 0 1
21.531 -3.1359999 -1.368 1
20.927 -3.085 -1.349 1
20.457001 -3.0510001 -1.3380001 1
0 0 0 1
19.424 -2.9660001 -1.307 1
0 0 0 1
16.936001 -2.6440001 -1.1720001 1
0 0 0 0
0 0 0 3
16.509001 -2.661 -1.189 2
16.103001 -2.6229999 -1.175 3
15.64 -2.5739999 -1.156 3
15.14 -2.517 -1.1339999 2
14.703 -2.4690001 -1.115 2
14.27 -2.4200001 -1.096 3
13.884 -2.3770001 -1.08 3
13.636 -2.3570001 -1.074 3
13.385 -2.336 -1.067 3
13.146 -2.316 -1.061 3
12.886 -2.2909999 -1.053 3
12.669 -2.273 -1.048 5
12.437 -2.2509999 -1.041 4
12.172 -2.223 -1.031 4
11.926 -2.197 -1.022 4
11.573 -2.1500001 -1.003 2
11.284 -2.1140001 -0.98900002 3
11.065 -2.0899999 -0.98100001 2
10.833 -2.063 -0.97100002 3
10.658 -2.0469999 -0.96600002 3
10.392 -2.0109999 -0.95200002 4
10.237 -1.997 -0.94800001 2
10.005 -1.967 -0.93599999 3
9.7969999 -1.941 -0.92699999 2
9.6140003 -1.919 -0.91900003 3
9.4589996 -1.902 -0.91399997 3
9.2880001 -1.882 -0.90700001 3
9.1190004 -1.8609999 -0.89899999 3
8.9329996 -1.836 -0.88999999 3
8.7919998 -1.8200001 -0.884 3
8.6630001 -1.8049999 -0.88 3
8.5030003 -1.785 -0.87300003 3
8.3389997 -1.762 -0.86400002 3
8.1899996 -1.742 -0.85699999 4
8.0319996 -1.72 -0.84899998 4
7.8769999 -1.698 -0.83999997 4
7.7820001 -1.688 -0.838 4
7.652 -1.671 -0.83200002 4
7.5479999 -1.658 -0.82800001 3
7.4289999 -1.642 -0.82200003 5
7.3200002 -1.628 -0.81800002 5
7.2309999 -1.618 -0.815 5
7.118 -1.602 -0.81 5
7.0209999 -1.59 -0.80500001 5
6.9289999 -1.5779999 -0.80199999 4
6.8319998 -1.5650001 -0.79699999 4
6.7259998 -1.549 -0.792 4
6.625 -1.535 -0.78600001 3
6.5510001 -1.526 -0.78399998 3
6.4710002 -1.515 -0.78100002 4
6.381 -1.502 -0.77700001 3
6.3109999 -1.494 -0.77499998 3
6.2189999 -1.479 -0.76899999 3
6.1479998 -1.47 -0.76700002 3
6.0640001 -1.457 -0.76200002 3
6.0040002 -1.45 -0.75999999 3
5.947 -1.443 -0.759 3
5.8649998 -1.4299999 -0.755 4
5.803 -1.4220001 -0.75199997 4
5.7199998 -1.408 -0.74699998 3
5.6669998 -1.402 -0.74599999 3
5.586 -1.388 -0.741 3
5.5430002 -1.3839999 -0.74000001 3
5.4720001 -1.372 -0.736 3
5.4089999 -1.362 -0.73299998 3
5.3559999 -1.355 -0.73100001 3
5.2849998 -1.3430001 -0.72600001 3
5.2389998 -1.336 -0.72500002 3
5.184 -1.3279999 -0.72299999 3
5.1279998 -1.319 -0.72000003 3
5.0799999 -1.312 -0.71799999 3
5.0170002 -1.301 -0.713 5
4.9689999 -1.293 -0.71100003 4
4.928 -1.2869999 -0.70999998 5
4.8979998 -1.285 -0.70999998 3
4.8439999 -1.275 -0.70700002 4
4.7950001 -1.267 -0.704 3
4.7480001 -1.2589999 -0.70200002 4
4.7080002 -1.253 -0.70099998 2
4.6669998 -1.2460001 -0.699 2
4.631 -1.2410001 -0.69800001 2
4.5939999 -1.235 -0.69599998 2
4.5560002 -1.229 -0.69499999 2
4.5229998 -1.224 -0.69400001 2
4.4650002 -1.212 -0.68900001 3
4.434 -1.2079999 -0.68800002 3
4.3940001 -1.201 -0.68599999 3
4.3639998 -1.196 -0.685 4
4.3309999 -1.191 -0.68400002 2
4.303 -1.186 -0.68300003 2
4.2659998 -1.1799999 -0.68099999 2
4.2459998 -1.177 -0.68199998 2
4.1869998 -1.164 -0.676 3
4.1690001 -1.163 -0.67699999 3
4.1069999 -1.149 -0.67000002 2
4.098 -1.149 -0.67199999 2
4.0359998 -1.135 -0.66600001 2
4.0240002 -1.1339999 -0.667 2
3.9849999 -1.126 -0.66399997 2
4.039 -1.1440001 -0.676 2
3.973 -1.128 -0.66900003 2
3.9489999 -1.124 -0.66799998 2
3.9590001 -1.1289999 -0.67299998 3
3.9100001 -1.118 -0.66799998 2
3.9070001 -1.12 -0.67000002 3
3.875 -1.113 -0.66799998 3
3.8369999 -1.104 -0.66500002 2
3.8299999 -1.105 -0.66600001 2
3.803 -1.099 -0.66500002 2
3.789 -1.097 -0.66500002 2
3.7479999 -1.0880001 -0.66100001 2
3.76 -1.0930001 -0.66600001 3
3.711 -1.081 -0.66000003 2
3.691 -1.077 -0.66000003 2
3.6630001 -1.071 -0.65700001 3
3.638 -1.0650001 -0.65600002 2
3.641 -1.068 -0.65899998 2
3.6040001 -1.059 -0.65499997 2
3.5799999 -1.053 -0.653 2
3.609 -1.064 -0.66100001 2
3.5880001 -1.059 -0.66000003 2
3.572 -1.056 -0.66000003 2
3.483 -1.031 -0.64600003 2
3.483 -1.0319999 -0.648 2
3.4630001 -1.028 -0.64700001 2
3.483 -1.035 -0.653 2
3.473 -1.034 -0.65399998 3
3.4360001 -1.024 -0.64899999 2
3.4159999 -1.0190001 -0.64700001 2
3.3759999 -1.008 -0.64200002 2
3.359 -1.0039999 -0.64099997 2
3.3440001 -1 -0.63999999 2
3.3529999 -1.0039999 -0.64399999 2
3.4330001 -1.029 -0.662 2
3.3670001 -1.01 -0.65100002 2
3.2709999 -0.98199999 -0.63499999 2
3.2609999 -0.98000002 -0.63499999 2
3.2479999 -0.977 -0.634 3
3.24 -0.97500002 -0.63499999 2
3.2179999 -0.96899998 -0.63200003 2
3.198 -0.96399999 -0.63 2
3.1900001 -0.96200001 -0.63099998 2
3.1789999 -0.95899999 -0.63 2
3.1659999 -0.95599997 -0.63 2
3.155 -0.95300001 -0.62900001 2
3.142 -0.949 -0.62800002 2
3.2030001 -0.96799999 -0.64200002 2
3.122 -0.94400001 -0.62800002 2
3.1229999 -0.94499999 -0.63 2
3.266 -0.98799998 -0.66000003 2
3.2290001 -0.977 -0.65399998 2
3.2079999 -0.97100002 -0.65200001 2
3.1099999 -0.94099998 -0.63300002 2
3.0969999 -0.93800002 -0.63200003 2
3.132 -0.94800001 -0.64099997 1
3.1099999 -0.94099998 -0.63800001 1
3.092 -0.93599999 -0.63499999 1
3.227 -0.977 -0.66500002 1
3.227 -0.977 -0.66600001 2
3.1400001 -0.94999999 -0.64999998 1
3.04 -0.92000002 -0.63 1
3.079 -0.93099999 -0.63999999 1
3.0699999 -0.92799997 -0.639 1
3.0669999 -0.92699999 -0.63999999 1
3.0869999 -0.93300003 -0.64499998 1
3.059 -0.92400002 -0.64099997 1
3.059 -0.92400002 -0.64200002 2
2.9860001 -0.90100002 -0.62699997 1
2.9860001 -0.90100002 -0.62900001 1
3.0050001 -0.90600002 -0.634 1
3.1570001 -0.95099998 -0.667 2
2.9979999 -0.903 -0.634 1
3.02 -0.90899998 -0.63999999 1
2.9690001 -0.89200002 -0.63 1
3.063 -0.92000002 -0.65100002 2
2.984 -0.89600003 -0.63499999 2
2.908 -0.87199998 -0.62 1
2.9300001 -0.87800002 -0.62599999 1
3.0039999 -0.89899999 -0.64200002 2
2.961 -0.88599998 -0.634 2
2.961 -0.88499999 -0.63499999 1
2.9990001 -0.89499998 -0.64300001 1
2.9460001 -0.87800002 -0.63300002 1
2.937 -0.875 -0.63200003 1
3.003 -0.89300001 -0.64700001 1
2.9260001 -0.86900002 -0.63 1
2.9530001 -0.87599999 -0.63700002 1
2.881 -0.85299999 -0.62199998 1
2.8770001 -0.85100001 -0.62199998 1
2.8770001 -0.85000002 -0.62199998 1
2.8989999 -0.85500002 -0.62800002 1
2.957 -0.87099999 -0.64099997 1
2.8670001 -0.84299999 -0.62199998 1
2.9400001 -0.86299998 -0.63800001 1
2.901 -0.85100001 -0.63 1
2.941 -0.861 -0.639 1
2.9219999 -0.85399997 -0.63499999 1
2.947 -0.86000001 -0.64099997 1
2.895 -0.84299999 -0.63 1
2.8540001 -0.829 -0.62099999 1
2.924 -0.84799999 -0.63700002 1
2.8789999 -0.83399999 -0.62699997 2
2.8670001 -0.82800001 -0.625 1
2.931 -0.84500003 -0.639 1
2.8299999 -0.81400001 -0.61699998 1
2.8840001 -0.82800001 -0.62900001 1
2.9070001 -0.833 -0.634 1
2.865 -0.81900001 -0.625 1
2.8699999 -0.81900001 -0.62599999 1
2.8989999 -0.82499999 -0.63200003 1
2.8989999 -0.82300001 -0.63200003 1
2.8469999 -0.80699998 -0.62099999 1
2.9560001 -0.83499998 -0.64499998 1
2.898 -0.81699997 -0.63200003 1
2.845 -0.80000001 -0.62 1
2.8599999 -0.80199999 -0.62300003 1
2.931 -0.81999999 -0.639 1
3.007 -0.83899999 -0.65499997 2
2.8640001 -0.79699999 -0.62300003 1
2.8959999 -0.80400002 -0.63 1
2.8299999 -0.78299999 -0.616 1
2.934 -0.81 -0.63800001 1
2.97 -0.81800002 -0.64499998 1
2.872 -0.78799999 -0.62400001 1
2.9159999 -0.79799998 -0.63300002 1
2.9820001 -0.81400001 -0.64700001 2
2.9489999 -0.80199999 -0.639 1
2.875 -0.77999997 -0.62300003 1
2.977 -0.80500001 -0.64399999 1
2.882 -0.77700001 -0.62300003 1
2.974 -0.79900002 -0.64200002 2
2.9200001 -0.78200001 -0.63 1
2.8870001 -0.76999998 -0.62199998 1
2.97 -0.79000002 -0.63999999 1
2.9619999 -0.78500003 -0.63700002 1
2.9430001 -0.77700001 -0.63200003 1
2.987 -0.78600001 -0.64099997 1
2.9360001 -0.76999998 -0.62900001 1
2.9070001 -0.75999999 -0.62199998 1
3.0320001 -0.78899997 -0.648 2
3 -0.778 -0.64099997 1
3.0810001 -0.796 -0.65700001 2
3.029 -0.77999997 -0.64499998 1
2.957 -0.75800002 -0.62800002 1
3.086 -0.78799999 -0.65499997 2
2.927 -0.745 -0.62 1
2.971 -0.75300002 -0.62800002 1
2.9719999 -0.75 -0.62800002 1
2.99 -0.75099999 -0.63 1
3.0220001 -0.75599998 -0.63599998 1
3.0239999 -0.75400001 -0.63499999 2
3.052 -0.75800002 -0.63999999 1
3.059 -0.75599998 -0.63999999 1
3.053 -0.75099999 -0.63800001 1
3.026 -0.741 -0.63 1
3.0550001 -0.745 -0.63499999 1
3.0309999 -0.736 -0.62900001 1
3.0769999 -0.74400002 -0.63700002 1
3.2119999 -0.773 -0.66299999 2
3.0239999 -0.72399998 -0.62300003 2
3.036 -0.72299999 -0.62400001 2
3.049 -0.72299999 -0.625 2
3.0480001 -0.71899998 -0.62400001 2
3.059 -0.71799999 -0.62400001 3
3.0669999 -0.71700001 -0.625 3
3.0769999 -0.71499997 -0.625 3
3.0840001 -0.713 -0.62400001 3
3.092 -0.71100003 -0.62400001 3
3.0929999 -0.708 -0.62300003 3
3.102 -0.70599997 -0.62300003 3
3.1229999 -0.70700002 -0.625 2
3.1270001 -0.704 -0.62400001 2
3.141 -0.704 -0.625 2
3.1589999 -0.704 -0.62699997 2
3.1619999 -0.70099998 -0.62599999 2
3.184 -0.70200002 -0.62800002 2
3.1889999 -0.699 -0.62699997 2
3.201 -0.69700003 -0.62699997 2
3.2160001 -0.69700003 -0.62800002 2
3.23 -0.69599998 -0.62900001 2
3.2349999 -0.69300002 -0.62699997 2
3.263 -0.69400001 -0.63099998 2
3.3039999 -0.699 -0.63599998 2
3.381 -0.71100003 -0.64899999 2
3.4679999 -0.72399998 -0.66299999 2
3.4330001 -0.713 -0.65399998 2
3.342 -0.68900001 -0.634 2
3.3940001 -0.69599998 -0.64099997 2
3.425 -0.69800001 -0.64499998 2
3.3659999 -0.68099999 -0.63099998 2
3.4749999 -0.69800001 -0.64899999 2
3.4349999 -0.68599999 -0.63800001 2
3.4560001 -0.685 -0.63999999 2
3.47 -0.68400002 -0.63999999 2
3.533 -0.69099998 -0.648 2
3.5940001 -0.69800001 -0.65600002 3
3.5880001 -0.69199997 -0.65200001 2
3.559 -0.68199998 -0.64399999 1
3.5969999 -0.68400002 -0.648 2
3.608 -0.68099999 -0.64700001 2
3.687 -0.69099998 -0.65799999 2
3.645 -0.67799997 -0.64700001 2
3.7 -0.68300003 -0.65399998 2
3.701 -0.67799997 -0.65100002 2
3.7309999 -0.67900002 -0.653 3
3.7409999 -0.67500001 -0.65100002 3
3.832 -0.68599999 -0.66299999 3
3.8150001 -0.67799997 -0.65700001 3
3.7939999 -0.66900003 -0.64999998 3
3.8659999 -0.676 -0.65799999 3
3.8929999 -0.67500001 -0.65899998 2
3.9289999 -0.676 -0.662 3
3.9360001 -0.671 -0.65899998 2
3.977 -0.67299998 -0.662 3
3.9849999 -0.66799998 -0.65899998 2
3.993 -0.66399997 -0.65700001 2
4.0489998 -0.667 -0.662 3
4.086 -0.667 -0.66399997 2
4.0939999 -0.66299999 -0.66100001 3
4.1259999 -0.662 -0.662 2
4.1609998 -0.662 -0.66299999 1
4.2550001 -0.67000002 -0.67299998 3
4.25 -0.66399997 -0.66799998 2
4.3260002 -0.66900003 -0.676 2
4.3660002 -0.66900003 -0.67699999 2
4.4120002 -0.67000002 -0.68000001 2
4.4520001 -0.66900003 -0.68099999 3
4.5250001 -0.67299998 -0.68699998 2
4.546 -0.67000002 -0.685 3
4.598 -0.671 -0.68800002 3
4.652 -0.67199999 -0.69 3
4.7010002 -0.67199999 -0.69300002 2
4.7519999 -0.67199999 -0.69400001 3
4.8049998 -0.67199999 -0.69700003 2
4.8600001 -0.67299998 -0.699 2
4.9250002 -0.67500001 -0.70200002 3
4.9759998 -0.67400002 -0.704 2
5.0380001 -0.67500001 -0.70700002 3
5.1030002 -0.676 -0.70999998 3
5.152 -0.67500001 -0.70999998 3
5.23 -0.67799997 -0.71499997 4
5.3010001 -0.67900002 -0.71799999 3
5.368 -0.68000001 -0.72100002 3
5.4359999 -0.68000001 -0.72299999 3
5.5120001 -0.68199998 -0.72600001 2
5.6059999 -0.685 -0.73199999 2
5.6680002 -0.68400002 -0.73299998 2
5.7690001 -0.68800002 -0.73799998 2
5.855 -0.68900001 -0.74199998 3
5.9439998 -0.69099998 -0.74599999 3
6.0380001 -0.69300002 -0.75 3
6.1370001 -0.69499999 -0.75400001 3
6.2670002 -0.70099998 -0.76200002 4
6.3569999 -0.70200002 -0.764 5
6.434 -0.70099998 -0.76499999 5
6.5300002 -0.70099998 -0.76800001 5
6.684 -0.708 -0.77700001 7
6.7909999 -0.70899999 -0.77999997 8
6.882 -0.70899999 -0.78100002 9
6.9629998 -0.70700002 -0.78100002 11
7.184 -0.71799999 -0.796 5
7.3299999 -0.722 -0.80199999 4
7.5009999 -0.72799999 -0.81 4
7.691 -0.73500001 -0.81999999 4
7.8670001 -0.74000001 -0.82800001 4
8.0459995 -0.745 -0.83499998 4
8.2340002 -0.75099999 -0.84299999 4
8.467 -0.759 -0.85500002 3
8.6899996 -0.76700002 -0.86500001 3
8.9130001 -0.773 -0.875 3
9.1669998 -0.78200001 -0.88700002 3
9.4390001 -0.792 -0.89899999 4
9.6829996 -0.79799998 -0.90799999 3
9.9519997 -0.80599999 -0.91900003 3
10.236 -0.81400001 -0.93000001 3
10.545 -0.82300001 -0.94300002 3
10.867 -0.833 -0.95499998 2
11.187 -0.84100002 -0.96700001 2
11.543 -0.85100001 -0.98000002 2
11.91 -0.861 -0.99400002 2
12.352 -0.87599999 -1.012 3
12.774 -0.88700002 -1.028 3
13.19 -0.89700001 -1.041 3
13.727 -0.91500002 -1.063 3
14.101 -0.91900003 -1.0700001 3
14.705 -0.93800002 -1.0930001 3
15.489 -0.96600002 -1.127 2
16.124001 -0.98199999 -1.148 3
16.798 -1 -1.17 2
17.67 -1.027 -1.2029999 2
18.653 -1.058 -1.2410001 1
19.757999 -1.0930001 -1.283 1
0 0 0 0
0 0 0 0
0 0 0 4
0 0 0 0
0 0 0 4
0 0 0 0
0 0 0 1
0 0 0 19
42.914001 -1.8430001 -2.1689999 31
42.894001 -1.784 -2.0969999 42
43.047001 -1.732 -2.0339999 38
43.339001 -1.6849999 -1.977 52
43.233002 -1.624 -1.901 49
43.401001 -1.572 -1.837 39
43.756001 -1.526 -1.779 40
44.308998 -1.4859999 -1.728 40
44.530998 -1.434 -1.6619999 42
44.535999 -1.376 -1.5880001 30
44.546001 -1.317 -1.513 30
44.534 -1.2589999 -1.438 29
44.583 -1.202 -1.364 8
0 0 0 57
67.264 -1.64 -1.832 84
67.231003 -1.552 -1.716 74
0 0 0 0
0 0 0 109
70.653 -1.36 -1.442 10
72.696999 -1.307 -1.358 122
73.742996 -1.234 -1.252 24
73.625 -1.14 -1.125 24
73.585999 -1.0470001 -0.99599999 61
73.582001 -0.95499998 -0.86799997 71
73.572998 -0.86500001 -0.74199998 83
73.577003 -0.77399999 -0.61299998 59
73.613998 -0.68300003 -0.48500001 29
0 0 0 0
0 0 0 15
86.573997 -0.48800001 -0.116 14
86.337997 -0.382 0.035999998 33
0 0 0 0
0 0 0 0
0 0 0 42
84.521004 0.029999999 0.63599998 30
0 0 0 25
0 0 0 25
0 0 0 19
86.898003 0.435 1.273 34
86.372002 0.53200001 1.42 27
86.036003 0.62800002 1.568 25
85.805 0.72299999 1.716 36
85.525002 0.81800002 1.865 32
85.499001 0.91500002 2.02 14
0 0 0 0
0 0 0 0
0 0 0 0
0 0 0 29
120.863 1.961 3.9449999 70
120.672 2.089 4.158 103
120.587 2.217 4.3740001 82
120.582 2.346 4.5929999 77
120.532 2.474 4.8109999 89
120.57 2.602 5.0320001 85
120.552 2.727 5.2470002 92
120.596 2.8529999 5.4689999 69
120.644 2.98 5.6919999 50
120.646 3.1040001 5.9120002 41
0 0 0 0
0 0 0 0
0 0 0 15
0 0 0 0
0 0 0 0
0 0 0 39
120.744 3.954 7.467 39
120.693 4.0689998 7.6820002 38
120.669 4.184 7.902 49
120.654 4.2989998 8.1219997 51
120.544 4.4120002 8.3380003 42
0 0 0 0
0 0 0 32
120.722 4.7529998 9.0089998 56
118.126 4.7620001 9.0340004 49
0 0 0 0
0 0 0 0
0 0 0 0
0 0 0 0
0 0 0 58
118.136 5.3940001 10.331 81
118.053 5.493 10.54 101
118.057 5.5939999 10.757 91
118.028 5.6900001 10.964 83
118.04 5.7930002 11.184 85
118.057 5.8920002 11.401 82
118.074 5.9910002 11.618 72
118.16 6.092 11.843 66
118.316 6.1960001 12.07 33
118.196 6.2849998 12.274 34
118.276 6.3829999 12.497 26
118.162 6.4710002 12.7 27
118.262 6.5689998 12.926 23
0 0 0 0
0 0 0 0
0 0 0 29
118.327 6.9330001 13.791 22
118.511 7.0349998 14.028 31
118.352 7.1090002 14.221 34
118.389 7.1999998 14.441 30
118.167 7.2719998 14.627 59
118.072 7.3499999 14.827 70
118.05 7.4320002 15.036 80
118.02 7.5120001 15.244 75
118.068 7.599 15.463 74
118.08 7.6799998 15.676 63
118.138 7.763 15.894 44
118.103 7.8400002 16.096001 34
118.242 7.927 16.325001 26
118.173 8.0019999 16.527 29
118.294 8.0830002 16.750999 35
118.245 8.1569996 16.955 40
118.277 8.2340002 17.167999 34
118.346 8.3120003 17.386 29
118.189 8.3730001 17.57 31
118.28 8.4499998 17.791 38
118.344 8.5249996 18.007 30
118.251 8.5880003 18.198999 29
118.246 8.6560001 18.4 32
118.126 8.7150002 18.587 48
118.162 8.7840004 18.797001 67
118.056 8.842 18.983999 79
118.07 8.908 19.188999 74
118.104 8.9750004 19.393999 70
118.07 9.0349998 19.594 75
118.154 9.1040001 19.806 61
118.149 9.1639996 20.006001 44
118.247 9.2320004 20.223 34
118.275 9.2969999 20.429001 30
118.235 9.3500004 20.617001 33
118.275 9.4110003 20.822001 35
118.241 9.4639997 21.014999 37
118.279 9.5229998 21.219 34
118.35 9.585 21.424999 32
118.486 9.6499996 21.646 29
118.33 9.6899996 21.813 27
118.344 9.7440004 22.007 28
118.38 9.7989998 22.208 29
118.438 9.8549995 22.409 31
118.197 9.8839998 22.556 40
118.221 9.9350004 22.752001 53
118.168 9.9779997 22.933001 65
118.144 10.024 23.115 79
118.115 10.067 23.299 60
118.146 10.115 23.493999 67
118.153 10.16 23.683001 55
118.168 10.204 23.872999 33
0 0 0 0
0 0 0 0
0 0 0 0
0 0 0 0
0 0 0 0
0 0 0 0
0 0 0 0
0 0 0 0
0 0 0 0
0 0 0 0
0 0 0 0
0 0 0 0
0 0 0 0
0 0 0 27
118.29 10.763 26.584999 29
118.279 10.793 26.752001 36
118.251 10.82 26.917999 45
118.215 10.844 27.080999 53
118.205 10.87 27.247999 66
118.263 10.903 27.427 70
118.266 10.929 27.596001 69
118.209 10.948 27.75 52
118.272 10.978 27.931 38
118.226 10.998 28.080999 31
0 0 0 0
0 0 0 23
118.38 11.074 28.603001 27
118.393 11.095 28.767 27
0 0 0 0
0 0 0 0
0 0 0 0
0 0 0 0
0 0 0 0
0 0 0 0
0 0 0 0
0 0 0 0
0 0 0 0
0 0 0 0
0 0 0 24
118.539 11.291 30.632 28
118.503 11.297 30.768 31
118.357 11.288 30.875 38
118.329 11.295 31.007999 42
118.335 11.303 31.152 63
118.369 11.312 31.302 64
118.291 11.31 31.421 60
118.328 11.318 31.569 59
118.39 11.33 31.719999 51
118.425 11.337 31.865999 56
118.567 11.357 32.039001 31
118.553 11.357 32.168999 35
118.87 11.388 32.388 23
118.786 11.38 32.495998 27
0 0 0 0
0 0 0 0
0 0 0 0
0 0 0 26
0 0 0 0
0 0 0 24
0 0 0 0
0 0 0 0
0 0 0 0
0 0 0 0
0 0 0 24
119.007 11.352 34.028999 24
118.864 11.328 34.101002 25
118.861 11.318 34.213001 27
118.842 11.308 34.316002 28
118.843 11.297 34.425999 27
118.773 11.278 34.513 30
118.759 11.267 34.612999 32
118.595 11.238 34.671001 41
118.639 11.228 34.786999 37
118.569 11.206 34.868 42
118.575 11.191 34.971001 49
118.501 11.168 35.048 49
118.491 11.15 35.143002 55
118.532 11.139 35.249001 62
118.524 11.12 35.341 61
118.516 11.101 35.431999 59
118.496 11.083 35.516998 67
118.528 11.062 35.617001 60
118.499 11.042 35.695 61
118.552 11.025 35.798 58
118.533 11.001 35.877998 62
118.568 10.982 35.973 65
118.555 10.96 36.049999 81
118.562 10.937 36.132999 64
118.586 10.915 36.220001 70
118.539 10.885 36.283001 75
118.557 10.861 36.365002 79
118.588 10.837 36.450001 80
118.581 10.813 36.519001 76
118.584 10.785 36.591999 75
118.56 10.758 36.653 84
118.608 10.733 36.737 78
118.579 10.701 36.794998 76
118.601 10.673 36.867001 70
118.616 10.644 36.936001 81
118.591 10.61 36.991001 70
118.61 10.58 37.057999 71
118.646 10.551 37.127998 60
118.608 10.521 37.172001 55
118.612 10.485 37.230999 58
118.618 10.455 37.285 54
118.654 10.423 37.349998 54
118.625 10.385 37.391998 53
118.572 10.348 37.423 40
118.561 10.307 37.469002 37
118.613 10.279 37.530998 27
0 0 0 0
0 0 0 0
0 0 0 0
0 0 0 0
0 0 0 0
0 0 0 0
0 0 0 0
0 0 0 0
0 0 0 0
0 0 0 0
0 0 0 0
0 0 0 0
0 0 0 0
0 0 0 25
118.918 9.698 38.125 27
118.997 9.6619997 38.168999 28
118.896 9.6079998 38.154999 28
118.951 9.5629997 38.191002 31
118.901 9.5159998 38.188999 29
118.878 9.467 38.195 32
118.863 9.4219999 38.202 38
118.864 9.3739996 38.212002 37
118.945 9.3319998 38.247002 40
118.898 9.2799997 38.238998 45
118.972 9.2360001 38.268002 37
118.845 9.1800003 38.23 41
118.925 9.1359997 38.257 37
118.903 9.0869999 38.25 42
118.931 9.0389996 38.257 41
118.974 8.9910002 38.268002 39
118.938 8.9390001 38.250999 45
118.96 8.8850002 38.252998 46
118.962 8.8360004 38.243999 41
118.886 8.7810001 38.209999 48
118.961 8.7329998 38.222 39
119.013 8.6800003 38.227001 41
118.952 8.6210003 38.193001 40
119.001 8.5740004 38.191002 41
119.003 8.5190001 38.173 34
119.002 8.4639997 38.153 36
119.114 8.4160004 38.167999 32
118.948 8.3479996 38.091 29
119.123 8.3079996 38.122002 31
118.989 8.2419996 38.053001 26
119.078 8.191 38.053001 26
0 0 0 0
0 0 0 0
0 0 0 28
119.136 7.9660001 37.939999 33
0 0 0 0
0 0 0 0
0 0 0 0
0 0 0 0
0 0 0 0
0 0 0 0
0 0 0 0
0 0 0 0
0 0 0 26
118.936 7.3569999 37.436001 27
118.854 7.29 37.356998 30
118.814 7.2259998 37.290001 40
118.857 7.1659999 37.247002 41
118.849 7.1069999 37.187 49
118.889 7.0500002 37.138 50
118.903 6.9850001 37.083 65
118.925 6.927 37.027 67
118.956 6.8660002 36.973 68
118.937 6.8039999 36.898998 70
118.929 6.7399998 36.828999 82
118.954 6.678 36.766998 83
118.932 6.6090002 36.688 73
118.963 6.5500002 36.625999 78
118.987 6.487 36.558998 75
118.954 6.4239998 36.473 68
118.92 6.3569999 36.386002 72
118.996 6.296 36.330002 76
119 6.2309999 36.25 73
118.958 6.164 36.154999 73
118.944 6.098 36.067001 73
118.984 6.0339999 35.993999 74
118.983 5.9689999 35.907001 73
118.956 5.901 35.810001 64
118.981 5.8400002 35.724998 55
119.013 5.7750001 35.643002 55
118.984 5.7080002 35.543999 50
119.03 5.6440001 35.462002 64
118.994 5.5760002 35.355 50
118.981 5.5120001 35.254002 60
119.013 5.447 35.164001 51
119.042 5.3850002 35.073002 47
118.978 5.3150001 34.951 52
119.03 5.2470002 34.862 40
119.054 5.1810002 34.763 38
119.045 5.1170001 34.653999 30
119.047 5.0500002 34.546001 28
119.162 4.9910002 34.466 38
119.276 4.9250002 34.386002 26
