# .PCD v0.7 - Point Cloud Data file format
VERSION 0.7
FIELDS x y z intensity
SIZE 4 4 4 4
TYPE F F F F
COUNT 1 1 1 1
WIDTH 1775
HEIGHT 1
VIEWPOINT 0 0 0 1 0 0 0
POINTS 1775
DATA ascii
14.694 -3.654 -1.064 2
0 0 0 2
15.652 -3.842 -1.131 2
0 0 0 2
0 0 0 3
15.751 -3.7880001 -1.1339999 2
15.782 -3.77 -1.1339999 2
15.817 -3.7520001 -1.135 3
15.869 -3.7390001 -1.137 3
14.955 -3.4979999 -1.069 2
0 0 0 3
16.110001 -3.714 -1.148 3
16.132999 -3.6919999 -1.147 3
16.198 -3.6789999 -1.149 3
16.27 -3.668 -1.151 3
16.346001 -3.6570001 -1.154 3
16.278 -3.6129999 -1.146 3
16.312 -3.592 -1.146 3
16.433001 -3.5899999 -1.151 3
16.488001 -3.573 -1.152 3
16.549999 -3.5580001 -1.153 3
16.684 -3.5569999 -1.159 2
16.712999 -3.5339999 -1.1569999 2
16.834 -3.53 -1.1619999 2
16.92 -3.517 -1.165 3
16.981001 -3.5 -1.165 2
17.103001 -3.494 -1.169 2
17.188 -3.4809999 -1.171 2
17.320999 -3.4760001 -1.175 2
17.365 -3.454 -1.174 2
16.829 -3.316 -1.133 2
16.858999 -3.2920001 -1.131 2
17.612 -3.4070001 -1.177 2
17.111 -3.2780001 -1.138 2
17.077999 -3.2409999 -1.131 1
17.288 -3.2479999 -1.14 1
18.007 -3.3510001 -1.182 2
19.004999 -3.5009999 -1.2410001 3
19.131001 -3.4890001 -1.244 3
19.378 -3.497 -1.2539999 4
19.427999 -3.47 -1.25 4
19.583 -3.4619999 -1.2539999 4
18.888 -3.303 -1.2029999 1
19.33 -3.3440001 -1.225 2
19.371 -3.3150001 -1.22 2
19.191999 -3.2479999 -1.202 2
19.805 -3.3139999 -1.233 1
0 0 0 0
0 0 0 2
20.818001 -3.365 -1.272 1
21.945999 -3.506 -1.332 2
22.193001 -3.503 -1.3380001 4
22.282 -3.474 -1.335 5
22.341 -3.441 -1.329 5
22.371 -3.402 -1.321 4
22.569 -3.3889999 -1.323 5
0 0 0 0
0 0 0 0
0 0 0 1
0 0 0 15
27.138 -3.812 -1.529 15
27.379999 -3.793 -1.53 15
27.459 -3.7490001 -1.521 14
27.613001 -3.717 -1.516 9
27.792999 -3.6860001 -1.512 1
0 0 0 0
0 0 0 0
0 0 0 1
19.434 -2.4260001 -1.017 2
19.466 -2.391 -1.0089999 3
19.718 -2.3840001 -1.011 5
19.441 -2.312 -0.986 4
19.392 -2.2679999 -0.97299999 3
19.368999 -2.227 -0.96100003 3
19.332001 -2.1849999 -0.94800001 4
19.326 -2.1459999 -0.93699998 4
19.313 -2.1070001 -0.92500001 3
19.299999 -2.0669999 -0.91299999 2
19.341999 -2.033 -0.90399998 1
19.441 -2.006 -0.89700001 2
19.492001 -1.972 -0.88700002 4
19.539 -1.938 -0.87699997 4
19.521999 -1.898 -0.86400002 4
19.556999 -1.863 -0.85399997 3
20.552 -1.9170001 -0.884 2
20.815001 -1.9 -0.88200003 2
21.134001 -1.887 -0.88200003 2
21.445999 -1.872 -0.88099998 2
21.754 -1.8559999 -0.87900001 1
22.174999 -1.848 -0.88099998 3
22.632 -1.841 -0.884 4
22.843 -1.812 -0.87599999 4
0 0 0 75
39.696999 -2.9920001 -1.467 7
40.23 -2.9519999 -1.4579999 7
0 0 0 151
26.955999 -1.8710001 -0.93800002 153
26.948999 -1.818 -0.91799998 158
27.035 -1.77 -0.90100002 48
0 0 0 42
40.826 -2.5120001 -1.301 33
39.567001 -2.3559999 -1.2309999 5
39.401001 -2.27 -1.196 2
39.400002 -2.191 -1.166 9
0 0 0 29
43.429001 -2.244 -1.217 31
0 0 0 1
0 0 0 39
43.966 -2.013 -1.128 38
44.094002 -1.932 -1.095 40
44.335999 -1.855 -1.0650001 40
44.77 -1.784 -1.038 41
45.136002 -1.71 -1.0089999 49
45.216 -1.627 -0.97399998 11
0 0 0 108
59.304001 -1.901 -1.177 83
0 0 0 0
0 0 0 150
67.331001 -1.762 -1.1619999 150
67.371002 -1.632 -1.103 74
67.346001 -1.501 -1.044 75
67.629997 -1.378 -0.98900002 55
0 0 0 0
0 0 0 106
73.796997 -1.074 -0.88 46
73.686996 -0.93300003 -0.81199998 39
73.670998 -0.79000002 -0.74400002 58
73.672997 -0.64899999 -0.676 54
0 0 0 0
0 0 0 0
0 0 0 0
0 0 0 0
0 0 0 0
0 0 0 0
0 0 0 0
0 0 0 0
0 0 0 0
0 0 0 0
0 0 0 0
0 0 0 13
88.982002 1.401 0.29300001 15
0 0 0 0
0 0 0 0
0 0 0 0
0 0 0 0
0 0 0 0
0 0 0 0
0 0 0 0
0 0 0 15
90.247002 2.918 1.127 19
89.015999 3.046 1.207 26
88.580002 3.1930001 1.295 26
88.477997 3.348 1.386 25
88.628998 3.5139999 1.483 26
89.431999 3.7079999 1.592 15
90.000999 3.8940001 1.699 15
90.221001 4.0650001 1.801 19
90.806999 4.2540002 1.911 19
90.732002 4.4130001 2.0079999 38
0 0 0 0
0 0 0 0
0 0 0 0
0 0 0 23
89.306 5.132 2.467 20
0 0 0 0
0 0 0 21
87.485001 5.4879999 2.7119999 13
0 0 0 0
0 0 0 0
0 0 0 16
92.166 6.4169998 3.2750001 17
92.105003 6.5679998 3.3759999 17
0 0 0 0
0 0 0 16
0 0 0 0
0 0 0 87
117.525 9.3669996 4.9819999 131
117.509 9.5600004 5.1160002 118
117.508 9.7550001 5.2529998 106
117.478 9.9420004 5.3860002 89
0 0 0 18
45.59 4.0089998 2.197 30
45.598 4.0840001 2.2509999 33
45.667 4.165 2.309 43
45.657001 4.2379999 2.362 43
45.634998 4.309 2.415 43
45.377998 4.3569999 2.4549999 41
45.310001 4.4229999 2.5050001 50
45.330002 4.4970002 2.5599999 48
45.280998 4.5640001 2.612 57
45.223 4.6290002 2.6630001 53
45.250999 4.7030001 2.717 43
45.165001 4.763 2.767 44
45.235001 4.8400002 2.8239999 43
45.230999 4.9089999 2.8789999 41
45.252998 4.9809999 2.9349999 33
45.252998 5.0500002 2.9890001 22
45.201 5.1129999 3.0409999 23
45.092999 5.1690001 3.0880001 21
45.113998 5.2389998 3.1440001 11
0 0 0 0
0 0 0 18
34.880001 4.2059999 2.5569999 32
34.901001 4.2600002 2.602 24
34.887001 4.3099999 2.6429999 35
34.883999 4.3600001 2.6849999 25
34.924999 4.415 2.7309999 20
34.882 4.46 2.77 17
34.847 4.5050001 2.809 12
34.823002 4.5510001 2.8499999 3
0 0 0 39
49.224998 6.572 4.1500001 35
48.803001 6.5840001 4.1750002 27
48.706001 6.638 4.2249999 29
49.174 6.77 4.3270001 27
0 0 0 0
0 0 0 16
46.407001 6.5780001 4.2529998 27
46.262001 6.6199999 4.2969999 36
46.228001 6.677 4.3509998 38
46.233002 6.7379999 4.4070001 37
46.487999 6.836 4.4889998 33
0 0 0 6
0 0 0 0
0 0 0 6
43.422001 6.612 4.4050002 4
0 0 0 30
49.051998 7.592 5.0960002 42
49.360001 7.7020001 5.1890001 42
49.390999 7.7680001 5.2529998 42
49.499001 7.8470001 5.3249998 39
49.526001 7.9120002 5.388 31
49.576 7.9819999 5.454 22
0 0 0 0
0 0 0 16
0 0 0 0
0 0 0 7
48.347 8.0719995 5.6129999 17
48.305 8.1210003 5.6669998 24
48.064999 8.1359997 5.697 29
47.875 8.1590004 5.7329998 49
47.776001 8.1960001 5.7789998 46
47.688999 8.2360001 5.8260002 37
44.93 7.809 5.5430002 17
44.862999 7.8460002 5.5879998 24
44.799 7.8839998 5.6339998 27
44.818001 7.9359999 5.6900001 35
44.841 7.9889998 5.7459998 33
42.977001 7.7030001 5.559 9
42.638 7.6869998 5.5650001 11
42.596001 7.723 5.6100001 23
42.513 7.7529998 5.6500001 23
42.534 7.8000002 5.7010002 27
42.441002 7.8260002 5.7389998 32
42.653 7.908 5.8179998 39
42.514 7.9250002 5.849 39
42.449001 7.954 5.8889999 39
42.417999 7.9889998 5.934 39
42.400002 8.0270004 5.9809999 32
42.245998 8.0380001 6.007 33
42.067001 8.0439997 6.0310001 36
41.766998 8.026 6.0359998 30
41.699001 8.0509996 6.073 38
41.467999 8.0450001 6.0869999 37
41.370998 8.0629997 6.1209998 37
41.497002 8.125 6.1859999 37
41.553001 8.1730003 6.2420001 30
41.744999 8.2469997 6.3169999 30
41.993999 8.3330002 6.402 22
41.859001 8.342 6.428 31
42.118999 8.4289999 6.5149999 33
42.139 8.4680004 6.5650001 39
42.070999 8.4890003 6.6020002 39
42.035999 8.5159998 6.6430001 37
42.041 8.5509996 6.6890001 30
42.102001 8.5970001 6.744 22
42.108002 8.6309996 6.7909999 17
42.066002 8.6549997 6.8299999 17
42.034 8.6800003 6.8709998 14
42.028999 8.7110004 6.915 7
42.143002 8.7659998 6.9780002 6
42.229 8.8149996 7.0370002 10
42.131001 8.8240004 7.066 20
42.021 8.8310003 7.092 25
41.888 8.8319998 7.1129999 31
41.759998 8.8339996 7.1350002 36
41.749001 8.8599997 7.1760001 38
41.769001 8.8920002 7.2220001 38
41.861 8.9390001 7.2810001 39
41.922001 8.9790001 7.3340001 39
42.033001 9.0299997 7.3959999 33
41.866001 9.0200005 7.4089999 30
42.053001 9.0860004 7.4840002 29
42.158001 9.1339998 7.5450001 26
42.07 9.1400003 7.5710001 19
42.000999 9.1490002 7.5999999 14
41.915001 9.1540003 7.6259999 13
41.875 9.1689997 7.6599998 4
43.950001 9.6479998 8.0799999 31
43.933998 9.6680002 8.1199999 33
43.862 9.6750002 8.1479998 43
43.660999 9.6529999 8.1520004 33
43.541 9.6490002 8.1709995 32
43.511002 9.6630001 8.2060003 28
43.423 9.665 8.2299995 24
43.164001 9.6280003 8.2189999 24
43.007 9.6129999 8.2290001 24
42.922001 9.6129999 8.2519999 23
42.796001 9.6029997 8.2659998 24
42.748001 9.6110001 8.2950001 24
42.643002 9.6049995 8.3120003 24
42.421001 9.5740004 8.3059998 23
42.272999 9.5570002 8.3120003 29
42.195999 9.5559998 8.3339996 30
42.143002 9.5600004 8.3590002 26
42.049999 9.5539999 8.3769999 26
41.916 9.5369997 8.3859997 23
41.721001 9.507 8.382 23
41.544998 9.4809999 8.3809996 23
41.366001 9.4540005 8.3780003 29
41.299 9.4510002 8.3970003 33
41.219002 9.4449997 8.4139996 38
41.192001 9.4499998 8.441 38
41.191002 9.4619999 8.4729996 35
41.219002 9.4799995 8.5109997 31
0 0 0 2
35.113998 8.0930004 7.3039999 2
0 0 0 22
41.192001 9.5120001 8.6309996 17
41.063 9.4919996 8.6339998 16
41.222 9.5380001 8.6960001 11
42.445 9.8290005 8.9849997 21
42.050999 9.7440004 8.9320002 23
42.695999 9.8999996 9.099 24
42.667999 9.901 9.1210003 31
42.606998 9.8929996 9.1379995 30
42.528999 9.8800001 9.1499996 30
42.438999 9.8649998 9.158 30
42.370998 9.8540001 9.1709995 32
42.316002 9.8459997 9.1870003 29
42.236 9.8310003 9.1949997 28
42.175999 9.8199997 9.21 27
0 0 0 0
0 0 0 0
0 0 0 9
34.332001 8.0010004 7.5799999 9
34.335999 8.0030003 7.6009998 11
34.320999 8 7.618 11
34.307999 7.9980001 7.6329999 11
34.293999 7.9949999 7.6490002 11
34.293999 7.9949999 7.6669998 9
34.289001 7.9920001 7.6849999 8
34.27 7.9850001 7.6999998 5
34.195 7.9660001 7.7010002 2
0 0 0 19
43.654999 10.166 9.8739996 24
43.566002 10.142 9.8760004 25
43.459999 10.113 9.8730001 28
43.394001 10.093 9.8780003 29
43.286999 10.063 9.8739996 32
43.249001 10.049 9.8850002 33
43.226002 10.038 9.8990002 32
43.207001 10.027 9.9130001 30
43.186001 10.017 9.9259996 32
43.118 9.9940004 9.927 31
43.048 9.9700003 9.9280005 33
42.944 9.9370003 9.9219999 32
42.886002 9.9160004 9.9239998 33
42.868999 9.9029999 9.9359999 32
42.787998 9.875 9.9329996 31
42.757999 9.8590002 9.941 32
42.741001 9.8459997 9.9510002 31
42.688999 9.823 9.9530001 31
42.650002 9.8030005 9.9580002 31
42.618999 9.7840004 9.9639997 27
42.554001 9.757 9.9619999 24
42.508999 9.7360001 9.9630003 26
42.432999 9.7049999 9.9569998 24
42.396999 9.684 9.96 23
42.375999 9.6660004 9.9659996 27
42.34 9.6429996 9.9680004 27
42.330002 9.6280003 9.9750004 30
42.341 9.6149998 9.9879999 23
42.326 9.5970001 9.993 19
42.244999 9.5620003 9.9829998 20
42.18 9.5319996 9.9759998 17
42.140999 9.5050001 9.9750004 19
42.098999 9.4799995 9.9720001 20
42.09 9.4610004 9.9770002 20
42.111 9.448 9.9890003 23
42.096001 9.4259996 9.9910002 28
42.021 9.3909998 9.9790001 27
41.865002 9.3380003 9.9460001 23
41.765999 9.2969999 9.927 23
41.682999 9.2589998 9.9119997 23
41.608002 9.2229996 9.8979998 22
41.620998 9.2049999 9.9049997 17
41.662998 9.1940002 9.9180002 14
41.847 9.2130003 9.9639997 7
41.973 9.2200003 9.9949999 6
42.000999 9.2040005 10.003 8
42.007 9.1829996 10.005 11
41.979 9.1540003 10 15
41.952999 9.125 9.9940004 23
41.953999 9.1029997 9.993 23
41.964001 9.0810003 9.9949999 17
42.026001 9.0699997 10.008 17
42.02 9.0430002 10.006 21
41.987 9.0109997 9.9949999 22
41.953999 8.9790001 9.9849997 22
41.959999 8.9549999 9.9840002 19
41.941002 8.9239998 9.9759998 13
41.872002 8.8839998 9.9540005 8
41.902 8.8629999 9.9569998 8
0 0 0 0
0 0 0 0
0 0 0 0
0 0 0 39
116.985 24.354 27.719 33
117.077 24.291 27.719999 32
117.114 24.216999 27.708 33
117.154 24.145 27.694 35
117.081 24.045 27.652 30
117.187 23.982 27.652 28
117.161 23.893 27.618 27
117.173 23.806 27.597 27
117.152 23.714001 27.562 29
117.175 23.632999 27.535999 27
117.165 23.541 27.502001 31
117.274 23.471001 27.495001 35
117.338 23.393999 27.473 29
117.343 23.299 27.440001 28
117.418 23.223 27.419001 34
117.519 23.148001 27.403999 26
117.462 23.042 27.354 30
117.342 22.922001 27.285 30
117.554 22.867001 27.289 27
117.508 22.76 27.235001 25
0 0 0 0
0 0 0 31
117.608 22.482 27.118999 27
117.485 22.356001 27.042 27
117.59 22.271999 27.02 26
117.508 22.153999 26.947001 29
117.469 22.044001 26.888 32
117.609 21.965 26.865999 31
117.539 21.847 26.792 27
0 0 0 0
0 0 0 0
0 0 0 0
0 0 0 0
0 0 0 0
0 0 0 0
0 0 0 0
0 0 0 0
0 0 0 0
0 0 0 30
0 0 0 0
0 0 0 0
0 0 0 0
0 0 0 0
0 0 0 0
0 0 0 0
0 0 0 0
0 0 0 0
0 0 0 0
0 0 0 0
0 0 0 67
117.397 19.313 25.228001 55
117.435 19.198 25.148001 52
117.448 19.077 25.065001 47
117.415 18.948999 24.972 42
117.467 18.833 24.895 42
117.396 18.695999 24.790001 51
117.459 18.580999 24.712999 51
117.428 18.454 24.615 47
117.469 18.334 24.530001 54
117.467 18.207001 24.434999 50
117.443 18.075001 24.334999 67
117.47 17.951 24.243999 45
117.491 17.826 24.15 51
117.522 17.705 24.056999 52
117.47 17.566999 23.945999 50
117.524 17.445 23.855 50
117.491 17.309999 23.746 47
117.514 17.181999 23.646 52
117.519 17.055 23.542 51
117.534 16.927 23.441999 52
117.552 16.795 23.334 68
117.594 16.667999 23.233 53
117.68 16.549999 23.139999 33
117.791 16.431 23.049999 25
117.745 16.290001 22.927999 27
117.81 16.164 22.826 24
117.711 16.018999 22.695999 27
0 0 0 0
0 0 0 24
117.836 15.627 22.367001 23
117.763 15.481 22.233 27
117.877 15.359 22.132999 27
117.833 15.216 22.002001 30
117.769 15.07 21.867001 26
0 0 0 0
0 0 0 0
0 0 0 29
117.943 14.541 21.393 23
117.921 14.399 21.259001 31
117.943 14.266 21.132999 30
117.937 14.125 21 31
117.927 13.984 20.865 35
118.05 13.858 20.752001 32
117.88 13.701 20.587999 47
117.888 13.561 20.452999 49
117.741 13.404 20.290001 43
117.773 13.266 20.157 58
117.791 13.131 20.021 73
117.778 12.988 19.878 68
117.76 12.844 19.733 63
117.8 12.707 19.597 61
117.757 12.561 19.445999 63
117.797 12.427 19.308001 50
117.863 12.292 19.172001 43
117.923 12.156 19.035 38
117.994 12.02 18.896999 31
118.011 11.88 18.75 30
118.045 11.74 18.604 30
117.962 11.593 18.440001 29
118.02 11.456 18.296 36
118.105 11.321 18.155001 30
118.011 11.169 17.985001 33
118.006 11.026 17.827999 27
117.98 10.88 17.667 28
118.082 10.747 17.524 30
118.01 10.597 17.353001 34
118.18 10.473 17.222 27
118.255 10.336 17.070999 24
118.118 10.181 16.889 24
118.158 10.042 16.731001 29
117.96 9.8850002 16.540001 31
117.924 9.7399998 16.368999 46
117.937 9.5979996 16.204 54
117.952 9.4569998 16.038 76
117.951 9.3140001 15.866 71
117.97 9.1739998 15.699 71
117.956 9.0299997 15.527 75
117.94 8.8900003 15.355 78
118.047 8.7559996 15.196 75
118.072 8.6160002 15.025 50
118.228 8.4849997 14.87 29
118.371 8.3570004 14.717 26
0 0 0 0
0 0 0 0
0 0 0 0
0 0 0 0
0 0 0 0
0 0 0 0
0 0 0 27
118.34 7.2280002 13.269 29
118.239 7.0819998 13.074 32
118.218 6.9400001 12.886 24
0 0 0 0
0 0 0 0
0 0 0 41
118.127 6.3790002 12.127 63
118.063 6.237 11.931 81
118.089 6.1009998 11.743 90
118.086 5.9629998 11.552 76
118.081 5.8280001 11.361 79
118.092 5.691 11.169 68
118.084 5.5580001 10.981 88
118.117 5.4229999 10.789 73
118.143 5.2880001 10.596 36
0 0 0 0
0 0 0 26
120.76 4.993 10.229 47
120.713 4.8540001 10.022 44
0 0 0 0
0 0 0 0
0 0 0 0
0 0 0 0
0 0 0 0
0 0 0 0
0 0 0 40
120.696 3.7709999 8.3699999 40
120.764 3.642 8.1680002 42
120.766 3.5090001 7.9569998 40
120.842 3.3770001 7.7470002 27
120.843 3.2460001 7.5380001 32
120.886 3.115 7.3270001 29
120.858 2.9860001 7.1139998 30
120.862 2.855 6.9000001 34
120.895 2.7260001 6.6859999 40
120.93 2.5969999 6.4720001 33
120.784 2.464 6.2480001 31
120.694 2.336 6.0289998 43
120.683 2.2079999 5.8109999 69
120.695 2.0810001 5.5929999 80
120.665 1.954 5.3720002 67
0 0 0 0
0 0 0 69
120.702 1.58 4.7160001 72
120.937 1.4579999 4.5029998 90
121.228 1.337 4.2909999 49
0 0 0 0
0 0 0 0
0 0 0 0
0 0 0 0
0 0 0 13
0 0 0 0
0 0 0 35
83.611 0.25400001 1.7180001 28
0 0 0 0
0 0 0 17
87.669998 0.011 1.306 17
84.845001 -0.071000002 1.103 20
84.681999 -0.15099999 0.94 41
85.064003 -0.23199999 0.78399998 23
86.217003 -0.31600001 0.63099998 19
86.825996 -0.40000001 0.46900001 22
0 0 0 10
75.099998 -0.48500001 0.12 17
0 0 0 14
0 0 0 0
0 0 0 49
73.683998 -0.745 -0.449 75
73.679001 -0.81 -0.58999997 78
73.664001 -0.87699997 -0.73400003 48
73.718002 -0.94300002 -0.87800002 20
76.103996 -1.04 -1.054 14
73.814003 -1.072 -1.164 36
73.224998 -1.127 -1.298 48
72.761002 -1.184 -1.433 129
72.752998 -1.2460001 -1.576 19
70.526001 -1.267 -1.665 109
70.532997 -1.327 -1.804 43
0 0 0 0
0 0 0 22
67.307999 -1.431 -2.1129999 51
67.307999 -1.485 -2.243 68
67.330002 -1.541 -2.3789999 49
0 0 0 5
58.172001 -1.423 -2.2820001 8
0 0 0 0
0 0 0 20
0 0 0 9
44.578999 -1.229 -2.0999999 13
44.484001 -1.261 -2.184 7
0 0 0 1
29.396999 -0.87699997 -1.5599999 2
0 0 0 1
0 0 0 0
0 0 0 1
0 0 0 1
0 0 0 1
0 0 0 2
16.048 -0.56 -1.074 2
15.213 -0.54100001 -1.049 2
14.442 -0.52399999 -1.024 3
13.761 -0.50800002 -1.003 3
13.12 -0.493 -0.98299998 3
12.539 -0.47999999 -0.96399999 3
11.958 -0.46599999 -0.94300002 2
11.431 -0.45199999 -0.92400002 2
11.016 -0.44299999 -0.91299999 3
10.595 -0.433 -0.89899999 4
10.175 -0.42199999 -0.884 2
9.7519999 -0.41100001 -0.866 3
9.4139996 -0.40200001 -0.85500002 3
9.0459995 -0.39199999 -0.83899999 3
8.6929998 -0.382 -0.824 3
8.3979998 -0.37400001 -0.81300002 4
8.1059999 -0.366 -0.80000001 3
7.8270001 -0.35800001 -0.78799999 4
7.5669999 -0.34999999 -0.77700001 4
7.3330002 -0.34400001 -0.76800001 4
7.105 -0.33700001 -0.75800002 5
6.902 -0.331 -0.75 6
6.6960001 -0.32499999 -0.741 6
6.52 -0.31999999 -0.73500001 4
6.3909998 -0.317 -0.73299998 3
6.2049999 -0.31099999 -0.72399998 3
6.0489998 -0.30599999 -0.71700001 3
5.882 -0.301 -0.70899999 4
5.7010002 -0.29499999 -0.699 7
5.5780001 -0.29100001 -0.69499999 9
5.48 -0.28799999 -0.69300002 11
5.3709998 -0.285 -0.69 11
5.2340002 -0.28099999 -0.68300003 11
5.1339998 -0.278 -0.68000001 12
5.0300002 -0.27399999 -0.676 11
4.941 -0.27200001 -0.67299998 8
4.888 -0.271 -0.676 5
4.789 -0.26699999 -0.671 3
4.678 -0.26300001 -0.66500002 2
4.5900002 -0.25999999 -0.66100001 3
4.5019999 -0.257 -0.65700001 4
4.4219999 -0.25400001 -0.65399998 3
4.3369999 -0.25099999 -0.64999998 2
4.2290001 -0.24699999 -0.64200002 2
4.165 -0.245 -0.63999999 2
4.1149998 -0.243 -0.63999999 2
4.0289998 -0.23999999 -0.63499999 2
3.9749999 -0.23800001 -0.634 2
3.9630001 -0.23899999 -0.639 3
3.858 -0.234 -0.63 2
3.8050001 -0.23199999 -0.62800002 1
3.7460001 -0.23 -0.62599999 2
3.6900001 -0.227 -0.62300003 1
3.779 -0.234 -0.64499998 3
3.6129999 -0.22499999 -0.62400001 3
3.5669999 -0.223 -0.62300003 1
3.5109999 -0.221 -0.62 2
3.4549999 -0.21799999 -0.616 2
3.444 -0.219 -0.62099999 2
3.3870001 -0.21600001 -0.61699998 2
3.365 -0.21600001 -0.61900002 2
3.3610001 -0.21600001 -0.62400001 2
3.3139999 -0.214 -0.62199998 2
3.2460001 -0.211 -0.61500001 2
3.2219999 -0.20999999 -0.616 1
3.164 -0.207 -0.611 1
3.1570001 -0.207 -0.61500001 1
3.1719999 -0.20900001 -0.62400001 2
3.056 -0.20200001 -0.60699999 2
2.9820001 -0.198 -0.597 2
2.9530001 -0.19599999 -0.597 2
2.911 -0.19400001 -0.59399998 2
2.8900001 -0.193 -0.59500003 2
2.8570001 -0.192 -0.59299999 2
2.8310001 -0.191 -0.59299999 2
2.796 -0.189 -0.58999997 2
2.766 -0.18700001 -0.58899999 2
2.7320001 -0.185 -0.58600003 2
2.711 -0.184 -0.58700001 2
2.6849999 -0.183 -0.58600003 2
2.6689999 -0.182 -0.58700001 2
2.638 -0.18099999 -0.58499998 2
2.619 -0.18000001 -0.58499998 2
2.5869999 -0.178 -0.58200002 1
2.5699999 -0.177 -0.583 1
2.5480001 -0.176 -0.58200002 2
2.523 -0.17399999 -0.58099997 2
2.5039999 -0.17299999 -0.58099997 2
2.4890001 -0.17299999 -0.58099997 2
2.4579999 -0.171 -0.57800001 2
2.434 -0.169 -0.57700002 1
2.404 -0.167 -0.574 1
2.388 -0.16599999 -0.574 1
2.375 -0.16599999 -0.57499999 1
2.3469999 -0.164 -0.57200003 1
2.332 -0.163 -0.57200003 1
2.3110001 -0.162 -0.56999999 1
2.289 -0.16 -0.56900001 1
2.2750001 -0.15899999 -0.56900001 1
2.2590001 -0.15800001 -0.56800002 1
2.24 -0.15700001 -0.56699997 1
2.2260001 -0.156 -0.56699997 1
2.211 -0.155 -0.56699997 1
2.1930001 -0.154 -0.56599998 1
2.1719999 -0.153 -0.56400001 2
2.1659999 -0.152 -0.565 3
2.158 -0.152 -0.56599998 3
2.148 -0.15099999 -0.56699997 4
2.1370001 -0.15000001 -0.56800002 4
2.131 -0.15000001 -0.56900001 3
2.118 -0.149 -0.56900001 2
2.098 -0.147 -0.56699997 2
2.0780001 -0.146 -0.56400001 1
2.0680001 -0.145 -0.56400001 1
2.0409999 -0.14300001 -0.56 1
2.0380001 -0.14300001 -0.56199998 1
2.02 -0.141 -0.56 1
2.0039999 -0.14 -0.55900002 1
2.0039999 -0.14 -0.56099999 1
1.983 -0.138 -0.55800003 1
1.974 -0.138 -0.55900002 1
1.965 -0.13699999 -0.55900002 1
1.957 -0.13600001 -0.55900002 1
1.938 -0.13500001 -0.55599999 1
1.937 -0.134 -0.55900002 1
1.914 -0.133 -0.55500001 1
1.909 -0.132 -0.55599999 1
1.902 -0.131 -0.55599999 1
1.886 -0.13 -0.55400002 1
1.881 -0.13 -0.55500001 1
1.868 -0.12800001 -0.55299997 1
1.86 -0.12800001 -0.55299997 1
1.849 -0.127 -0.55299997 1
1.841 -0.126 -0.55299997 1
1.831 -0.125 -0.55199999 1
1.827 -0.124 -0.55299997 1
1.813 -0.123 -0.551 1
1.8049999 -0.122 -0.551 1
1.795 -0.121 -0.55000001 1
1.788 -0.121 -0.55000001 1
1.784 -0.12 -0.55000001 1
1.773 -0.119 -0.54900002 1
1.767 -0.118 -0.54900002 1
1.7640001 -0.118 -0.55000001 1
1.758 -0.117 -0.551 1
1.745 -0.116 -0.54799998 1
1.734 -0.115 -0.54699999 1
1.73 -0.114 -0.54799998 1
1.723 -0.113 -0.54699999 1
1.719 -0.113 -0.54799998 1
1.704 -0.112 -0.54500002 1
1.702 -0.111 -0.546 1
1.6950001 -0.11 -0.54500002 1
1.6900001 -0.11 -0.54500002 1
1.686 -0.109 -0.546 1
1.679 -0.108 -0.54500002 1
1.674 -0.107 -0.54500002 1
1.665 -0.106 -0.54400003 1
1.66 -0.106 -0.54400003 1
1.6569999 -0.105 -0.54400003 1
1.655 -0.105 -0.54500002 1
1.647 -0.104 -0.54400003 1
1.6440001 -0.103 -0.54500002 1
1.638 -0.102 -0.54400003 1
1.627 -0.101 -0.542 1
1.627 -0.101 -0.54299998 1
1.623 -0.1 -0.54299998 1
1.613 -0.098999999 -0.54100001 1
1.604 -0.097999997 -0.54000002 1
1.605 -0.097999997 -0.54100001 1
1.604 -0.097000003 -0.542 1
1.592 -0.096000001 -0.53899997 1
1.6 -0.096000001 -0.54299998 1
1.587 -0.094999999 -0.54000002 1
1.589 -0.093999997 -0.542 1
1.582 -0.093999997 -0.54100001 1
1.579 -0.093000002 -0.54100001 1
1.574 -0.092 -0.54000002 1
1.569 -0.090999998 -0.54000002 1
1.5650001 -0.090999998 -0.54000002 1
1.564 -0.090000004 -0.54000002 1
1.562 -0.090000004 -0.54000002 1
1.554 -0.089000002 -0.53899997 1
1.554 -0.088 -0.54000002 1
1.5549999 -0.088 -0.54100001 1
1.536 -0.086000003 -0.53500003 1
1.55 -0.086000003 -0.54100001 1
1.55 -0.086000003 -0.542 1
1.535 -0.083999999 -0.537 1
1.536 -0.083999999 -0.53899997 1
1.5319999 -0.082999997 -0.53799999 1
1.529 -0.082999997 -0.53799999 1
1.534 -0.082000002 -0.54000002 1
1.5369999 -0.082000002 -0.542 1
1.525 -0.081 -0.53799999 1
1.531 -0.081 -0.54100001 1
1.522 -0.079999998 -0.53899997 1
1.522 -0.079000004 -0.53899997 1
1.522 -0.079000004 -0.54000002 1
1.521 -0.078000002 -0.54000002 1
1.517 -0.077 -0.54000002 1
1.522 -0.077 -0.542 1
1.508 -0.075999998 -0.537 1
1.511 -0.075000003 -0.53899997 1
1.501 -0.074000001 -0.53600001 1
1.511 -0.074000001 -0.54000002 1
1.506 -0.072999999 -0.53799999 1
1.511 -0.072999999 -0.54100001 1
1.508 -0.071999997 -0.54000002 1
1.502 -0.071999997 -0.53799999 1
1.502 -0.071000002 -0.53799999 1
1.505 -0.071000002 -0.54000002 1
1.4809999 -0.068999998 -0.53200001 1
1.488 -0.068999998 -0.53399998 1
1.502 -0.068999998 -0.54000002 1
1.4910001 -0.068000004 -0.53600001 1
1.488 -0.067000002 -0.53500003 1
1.492 -0.066 -0.537 1
1.495 -0.066 -0.53799999 1
1.511 -0.066 -0.54400003 1
1.489 -0.064999998 -0.53600001 1
1.488 -0.064000003 -0.53600001 1
1.488 -0.063000001 -0.53600001 1
1.497 -0.063000001 -0.53899997 1
1.488 -0.061999999 -0.53600001 1
1.488 -0.061999999 -0.53600001 1
1.488 -0.061000001 -0.53600001 1
1.4859999 -0.059999999 -0.53500003 1
1.488 -0.059999999 -0.53600001 1
1.495 -0.059 -0.53799999 1
1.479 -0.057999998 -0.53200001 1
1.494 -0.057999998 -0.537 1
1.497 -0.057999998 -0.53899997 1
1.5 -0.057 -0.54000002 1
1.494 -0.056000002 -0.537 1
1.4960001 -0.056000002 -0.537 1
1.501 -0.055 -0.53899997 1
1.501 -0.055 -0.53899997 1
1.4960001 -0.054000001 -0.537 1
1.501 -0.054000001 -0.53799999 1
1.499 -0.052999999 -0.537 1
1.499 -0.052000001 -0.537 1
1.51 -0.052000001 -0.54000002 1
1.506 -0.050999999 -0.53899997 1
1.506 -0.050999999 -0.53799999 1
1.513 -0.050000001 -0.54000002 1
1.515 -0.050000001 -0.54100001 1
1.522 -0.048999999 -0.542 1
1.517 -0.048 -0.54000002 1
1.5140001 -0.048 -0.53899997 1
1.5190001 -0.046999998 -0.54000002 1
1.513 -0.046 -0.537 1
1.5190001 -0.046 -0.53899997 1
1.52 -0.045000002 -0.53799999 1
1.521 -0.045000002 -0.53799999 1
1.527 -0.044 -0.54000002 1
1.525 -0.044 -0.53799999 1
1.524 -0.043000001 -0.537 1
1.531 -0.041999999 -0.53899997 1
1.528 -0.041999999 -0.537 1
1.5319999 -0.041000001 -0.53799999 1
1.539 -0.041000001 -0.53899997 1
1.533 -0.039999999 -0.53600001 1
1.543 -0.039999999 -0.53899997 1
1.5420001 -0.039000001 -0.53799999 1
1.5420001 -0.037999999 -0.537 1
1.549 -0.037999999 -0.53799999 1
1.552 -0.037 -0.53799999 1
1.552 -0.035999998 -0.53799999 1
1.567 -0.035999998 -0.542 1
1.5700001 -0.035999998 -0.542 1
1.5700001 -0.035 -0.54100001 1
1.569 -0.034000002 -0.53899997 1
1.569 -0.034000002 -0.53799999 1
1.577 -0.033 -0.54000002 1
1.576 -0.032000002 -0.53799999 1
1.5930001 -0.032000002 -0.54299998 1
1.59 -0.030999999 -0.54100001 1
1.58 -0.030999999 -0.53600001 1
1.597 -0.029999999 -0.54100001 1
1.6 -0.029999999 -0.54000002 1
1.604 -0.028999999 -0.54100001 1
1.615 -0.028999999 -0.54299998 1
1.62 -0.028000001 -0.54299998 1
1.6210001 -0.027000001 -0.542 1
1.619 -0.027000001 -0.54000002 1
1.6210001 -0.026000001 -0.53899997 1
1.631 -0.026000001 -0.54100001 1
1.632 -0.025 -0.54000002 1
1.651 -0.025 -0.54500002 1
1.658 -0.024 -0.54500002 1
1.66 -0.023 -0.54500002 1
1.669 -0.023 -0.546 1
1.674 -0.022 -0.546 1
1.6799999 -0.022 -0.546 1
1.681 -0.021 -0.54500002 1
1.686 -0.021 -0.54500002 1
1.694 -0.02 -0.546 1
1.693 -0.018999999 -0.54400003 1
1.702 -0.018999999 -0.54500002 1
1.712 -0.017999999 -0.546 1
1.72 -0.017999999 -0.54699999 1
1.728 -0.017000001 -0.54699999 1
1.734 -0.016000001 -0.54799998 1
1.735 -0.016000001 -0.546 1
1.747 -0.015 -0.54799998 1
1.7539999 -0.015 -0.54799998 1
1.765 -0.014 -0.54900002 1
1.777 -0.014 -0.551 2
1.78 -0.013 -0.55000001 2
1.785 -0.012 -0.54900002 2
1.79 -0.012 -0.54900002 2
1.794 -0.011 -0.54799998 2
1.802 -0.011 -0.54799998 1
1.818 -0.0099999998 -0.551 1
1.831 -0.0089999996 -0.55199999 1
1.835 -0.0089999996 -0.551 1
1.853 -0.0080000004 -0.55400002 1
1.8559999 -0.0080000004 -0.55299997 1
1.867 -0.0070000002 -0.55400002 1
1.878 -0.0070000002 -0.55500001 1
1.886 -0.0060000001 -0.55400002 1
1.9 -0.0049999999 -0.55599999 1
1.905 -0.0049999999 -0.55500001 1
1.9170001 -0.0040000002 -0.55599999 1
1.934 -0.0040000002 -0.55800003 1
1.937 -0.003 -0.55599999 1
1.9529999 -0.0020000001 -0.55800003 1
1.957 -0.0020000001 -0.55699998 1
1.972 -0.001 -0.55800003 1
1.987 -0.001 -0.56 1
1.995 0 -0.55900002 1
2.013 0 -0.56099999 1
2.023 0 -0.56099999 1
2.0350001 0.001 -0.56199998 1
2.0439999 0.001 -0.56099999 1
2.0599999 0.0020000001 -0.56199998 1
2.063 0.0020000001 -0.56 1
2.0869999 0.003 -0.56300002 1
2.092 0.0040000002 -0.56199998 1
2.1070001 0.0040000002 -0.56300002 1
2.1140001 0.0049999999 -0.56099999 1
2.1370001 0.0049999999 -0.56400001 1
2.141 0.0060000001 -0.56199998 1
2.164 0.0070000002 -0.56400001 1
2.1700001 0.0070000002 -0.56300002 1
2.1789999 0.0080000004 -0.56199998 1
2.1960001 0.0080000004 -0.56300002 1
2.3180001 0.0089999996 -0.58999997 1
2.273 0.0099999998 -0.57499999 1
2.276 0.0099999998 -0.57200003 1
2.2379999 0.0099999998 -0.55900002 1
2.3529999 0.011 -0.58399999 1
2.309 0.012 -0.56900001 1
2.3369999 0.012 -0.57200003 1
2.352 0.013 -0.57200003 1
2.369 0.013 -0.57200003 1
2.3970001 0.014 -0.57499999 1
2.4059999 0.015 -0.57300001 1
2.4300001 0.015 -0.57499999 1
2.448 0.016000001 -0.57499999 1
2.4660001 0.016000001 -0.57499999 1
2.507 0.017000001 -0.57999998 1
2.5150001 0.017000001 -0.57700002 1
2.5380001 0.017999999 -0.57800001 1
2.572 0.018999999 -0.58099997 1
2.592 0.018999999 -0.58099997 1
2.622 0.02 -0.58399999 2
2.642 0.02 -0.583 2
2.6659999 0.021 -0.58399999 2
2.688 0.021 -0.58399999 2
2.724 0.022 -0.58700001 2
2.747 0.023 -0.58700001 2
2.7839999 0.023 -0.58999997 2
2.8150001 0.024 -0.59100002 2
2.835 0.024 -0.58999997 2
2.865 0.025 -0.59100002 2
2.8959999 0.025 -0.59299999 2
2.9289999 0.026000001 -0.59399998 2
2.9660001 0.026000001 -0.59600002 2
2.9960001 0.027000001 -0.59600002 2
3.0780001 0.028000001 -0.60699999 2
3.0880001 0.028000001 -0.60299999 1
3.1140001 0.028999999 -0.602 2
3.1440001 0.028999999 -0.602 2
3.1800001 0.028999999 -0.60299999 2
3.2639999 0.029999999 -0.61299998 2
3.3770001 0.032000002 -0.62800002 2
3.3659999 0.032000002 -0.61900002 2
3.4030001 0.032000002 -0.62 2
3.487 0.033 -0.62800002 2
3.4990001 0.033 -0.62400001 2
3.477 0.033 -0.61299998 1
3.5569999 0.034000002 -0.62 1
3.6070001 0.034000002 -0.62199998 1
3.635 0.034000002 -0.62 1
3.7320001 0.035 -0.62900001 3
3.79 0.035 -0.63099998 2
3.849 0.035999998 -0.634 2
3.9649999 0.037 -0.64499998 3
3.908 0.035999998 -0.62800002 2
3.9849999 0.037 -0.63200003 2
4.1040001 0.037 -0.64300001 2
4.1329999 0.037 -0.639 2
4.2309999 0.037999999 -0.64600003 2
4.3109999 0.037999999 -0.64999998 3
4.3839998 0.039000001 -0.65200001 2
4.4390001 0.039000001 -0.65100002 4
4.5300002 0.039000001 -0.65600002 2
4.6300001 0.039999999 -0.66100001 2
4.717 0.039999999 -0.66399997 3
4.8080001 0.039999999 -0.667 3
4.9000001 0.039999999 -0.67000002 3
5.0089998 0.039999999 -0.67500001 3
5.1079998 0.041000001 -0.67799997 5
5.244 0.041000001 -0.685 3
5.3660002 0.041000001 -0.69 3
5.4860001 0.041000001 -0.69400001 3
5.6389999 0.041000001 -0.70200002 4
5.7659998 0.041000001 -0.70599997 3
5.9060001 0.041000001 -0.71100003 4
6.0500002 0.041000001 -0.71600002 4
6.2010002 0.041000001 -0.722 5
6.3600001 0.041000001 -0.727 6
6.5240002 0.039999999 -0.73299998 6
6.7340002 0.039999999 -0.74199998 6
6.9330001 0.039999999 -0.75 5
7.1939998 0.039999999 -0.76300001 5
7.4180002 0.039000001 -0.77200001 6
7.6669998 0.039000001 -0.78200001 6
7.9429998 0.037999999 -0.79299998 5
8.2370005 0.037999999 -0.80599999 4
8.5500002 0.037 -0.81900001 4
8.9180002 0.035999998 -0.83499998 3
9.3009996 0.035 -0.852 4
9.7679996 0.034000002 -0.87400001 3
10.294 0.033 -0.89999998 11
10.594 0.029999999 -0.90399998 23
10.887 0.028000001 -0.90600002 19
11.327 0.026000001 -0.92000002 6
11.911 0.023 -0.94199997 2
12.56 0.021 -0.96700001 3
13.168 0.017000001 -0.986 3
13.786 0.013 -1.0039999 3
14.488 0.0089999996 -1.025 3
15.32 0.0040000002 -1.053 2
0 0 0 2
0 0 0 2
0 0 0 2
18.982 -0.022 -1.146 1
0 0 0 1
0 0 0 1
0 0 0 0
0 0 0 0
0 0 0 0
0 0 0 0
0 0 0 154
52.59 -0.235 -2.2980001 172
52.613998 -0.259 -2.188 213
52.596001 -0.28200001 -2.079 255
52.595001 -0.30599999 -1.969 229
52.596001 -0.331 -1.859 186
52.591999 -0.35600001 -1.748 153
0 0 0 22
0 0 0 40
117.635 -0.96899998 -3.1730001 32
117.628 -1.029 -2.924 21
0 0 0 0
0 0 0 0
0 0 0 0
0 0 0 0
0 0 0 53
0 0 0 28
73.650002 -0.917 -0.76099998 60
73.665001 -0.95700002 -0.611 84
73.676003 -0.99900001 -0.458 72
73.720001 -1.0420001 -0.30599999 38
73.718002 -1.084 -0.153 18
0 0 0 0
0 0 0 8
0 0 0 0
0 0 0 0
0 0 0 0
0 0 0 12
63.772999 -1.206 0.78100002 6
62.612 -1.223 0.89499998 10
61.618999 -1.243 1.006 19
60.905998 -1.268 1.1210001 38
60.237999 -1.2920001 1.228 31
59.856998 -1.324 1.342 59
59.813999 -1.362 1.4630001 60
59.827 -1.402 1.585 24
58.125999 -1.402 1.6569999 8
61.400002 -1.523 1.875 5
61.416 -1.564 1.998 26
61.089001 -1.598 2.1099999 43
60.087002 -1.614 2.1960001 57
60.057999 -1.656 2.3180001 66
59.251999 -1.676 2.405 48
58.709 -1.702 2.497 83
58.716 -1.744 2.615 82
57.909 -1.762 2.694 56
57.368 -1.788 2.783 80
57.341 -1.829 2.8940001 77
56.473999 -1.8430001 2.9619999 52
56.028999 -1.8710001 3.049 73
56.025002 -1.9119999 3.1570001 72
55.178001 -1.925 3.2179999 52
54.698002 -1.951 3.2969999 74
54.699001 -1.992 3.401 72
53.895 -2.006 3.4590001 43
53.342999 -2.027 3.5280001 66
53.341999 -2.0680001 3.6300001 69
52.804001 -2.089 3.694 42
52.012001 -2.099 3.7390001 65
52.007999 -2.1400001 3.8369999 65
51.521 -2.1619999 3.9000001 44
50.667 -2.1670001 3.9319999 55
50.665001 -2.2090001 4.0289998 63
50.567001 -2.2460001 4.1170001 53
49.431999 -2.2360001 4.1160002 48
49.304001 -2.2709999 4.198 57
48.664001 -2.283 4.237 16
47.962002 -2.29 4.2659998 11
47.623001 -2.3150001 4.3249998 33
47.618999 -2.355 4.414 58
47.603001 -2.395 4.5009999 63
47.609001 -2.437 4.5890002 66
47.615002 -2.4779999 4.678 66
47.636002 -2.5209999 4.7680001 62
47.644001 -2.563 4.8559999 61
47.639999 -2.6040001 4.9419999 63
47.653 -2.6459999 5.0300002 57
0 0 0 8
44.078999 -2.5250001 4.8119998 10
43.661999 -2.5409999 4.8449998 18
43.598999 -2.576 4.9159999 52
43.595001 -2.615 4.994 57
43.375999 -2.642 5.046 40
42.632 -2.635 5.0349998 47
42.629002 -2.674 5.1100001 55
42.623001 -2.7130001 5.184 55
42.401001 -2.7379999 5.2329998 41
41.331001 -2.707 5.1729999 35
41.296001 -2.743 5.2399998 50
41.292 -2.7809999 5.3109999 48
41.293999 -2.8199999 5.3829999 50
40.403999 -2.7969999 5.336 29
39.919998 -2.8 5.3400002 46
39.915001 -2.8369999 5.4070001 44
39.921001 -2.8759999 5.4749999 45
39.816002 -2.9059999 5.5279999 37
38.683998 -2.859 5.434 30
38.595001 -2.8889999 5.487 49
38.603001 -2.927 5.5510001 51
38.604 -2.964 5.6149998 49
38.325001 -2.98 5.6370001 31
37.297001 -2.9360001 5.5469999 34
37.240002 -2.967 5.5999999 46
37.243 -3.0039999 5.6599998 48
37.250999 -3.04 5.7210002 46
36.818001 -3.04 5.7129998 17
35.888 -2.9979999 5.6259999 10
35.575001 -3.006 5.6329999 11
35.433998 -3.029 5.6669998 39
35.431999 -3.063 5.7220001 46
35.431999 -3.098 5.777 56
35.438 -3.1329999 5.8330002 62
35.436001 -3.168 5.8860002 55
35.449001 -3.204 5.9429998 54
35.451 -3.2390001 5.9970002 55
35.459 -3.2739999 6.052 57
35.463001 -3.3099999 6.1079998 57
35.466 -3.346 6.1609998 53
35.43 -3.3759999 6.2069998 51
35.359001 -3.405 6.2470002 42
35.179001 -3.4230001 6.2670002 26
34.926998 -3.4330001 6.2729998 26
34.716 -3.447 6.2859998 26
34.488998 -3.4579999 6.2950001 25
34.292 -3.4719999 6.3070002 25
34.044998 -3.4820001 6.3109999 25
33.839001 -3.4949999 6.3210001 24
33.618 -3.5050001 6.3260002 24
33.416 -3.517 6.335 24
33.222 -3.529 6.3429999 24
33.018002 -3.54 6.3499999 23
32.813999 -3.5510001 6.3559999 23
32.611 -3.562 6.3600001 22
32.428001 -3.5739999 6.369 21
32.235001 -3.5840001 6.3720002 21
32.07 -3.598 6.382 22
31.891001 -3.6099999 6.3889999 22
31.691999 -3.619 6.3899999 22
31.538 -3.6329999 6.4000001 21
31.375999 -3.645 6.408 27
31.216999 -3.658 6.4159999 23
31.040001 -3.668 6.4180002 22
30.872 -3.6789999 6.4229999 21
30.716999 -3.6900001 6.428 23
30.572001 -3.7030001 6.4349999 24
30.391001 -3.711 6.434 26
30.250999 -3.724 6.441 23
30.113001 -3.7360001 6.448 26
29.988001 -3.7490001 6.4569998 23
29.832001 -3.7590001 6.4580002 23
29.684999 -3.7709999 6.4619999 24
29.537001 -3.78 6.4629998 28
29.413 -3.7939999 6.4699998 28
29.313999 -3.8099999 6.4819999 27
29.177999 -3.8199999 6.4860001 25
29.049 -3.832 6.4889998 24
28.915001 -3.842 6.4910002 29
28.788 -3.8529999 6.4949999 25
28.666 -3.8640001 6.4980001 28
28.580999 -3.8800001 6.5089998 30
28.479 -3.8940001 6.5159998 31
28.358 -3.904 6.5180001 27
28.243 -3.9159999 6.5209999 27
28.141001 -3.928 6.527 29
28.004999 -3.937 6.5240002 24
27.844999 -3.941 6.5149999 23
27.738001 -3.951 6.5170002 25
27.660999 -3.9660001 6.526 27
27.591 -3.9820001 6.5370002 30
27.497 -3.994 6.5419998 31
27.400999 -4.006 6.5440001 27
27.306999 -4.0180001 6.5469999 30
27.240999 -4.0339999 6.5570002 27
27.146 -4.0450001 6.559 32
27.051001 -4.0549998 6.5599999 30
26.959999 -4.066 6.5619998 25
26.875999 -4.0770001 6.5650001 29
26.799999 -4.0900002 6.5700002 26
26.712 -4.1009998 6.5710001 26
26.636999 -4.1139998 6.5749998 28
26.563999 -4.1259999 6.5799999 25
26.475 -4.1360002 6.579 24
26.388 -4.145 6.579 25
26.322001 -4.1589999 6.5840001 22
26.257 -4.1719999 6.5879998 24
26.158001 -4.1789999 6.5830002 30
26.086 -4.191 6.585 32
26.02 -4.2020001 6.5879998 32
25.964001 -4.2160001 6.5929999 26
25.903999 -4.2280002 6.5970001 27
25.841 -4.2399998 6.599 27
25.774 -4.2509999 6.6009998 28
25.711 -4.2620001 6.6030002 29
25.629999 -4.2709999 6.599 25
25.572001 -4.2820001 6.6020002 26
25.51 -4.2930002 6.6020002 29
25.472 -4.3080001 6.6090002 27
25.403 -4.3169999 6.6069999 31
25.35 -4.329 6.6090002 32
25.308001 -4.342 6.6129999 32
25.268 -4.3559999 6.618 33
25.215 -4.3670001 6.619 29
25.167999 -4.3790002 6.6209998 27
25.122999 -4.3909998 6.6230001 33
25.077999 -4.4029999 6.625 27
25.033001 -4.415 6.6269999 32
24.965 -4.4219999 6.6209998 29
24.923 -4.434 6.6230001 30
24.885 -4.4460001 6.625 30
24.833 -4.4549999 6.6230001 30
24.796 -4.467 6.625 31
24.754 -4.4780002 6.625 31
24.732 -4.493 6.631 26
24.687 -4.5019999 6.6290002 31
24.657 -4.5139999 6.632 31
24.618 -4.5250001 6.632 32
24.579 -4.5349998 6.631 32
24.542 -4.546 6.6300001 31
24.521 -4.5599999 6.6339998 33
24.504999 -4.573 6.638 31
24.466999 -4.5830002 6.6370001 28
24.424999 -4.592 6.6339998 33
24.4 -4.6030002 6.6350002 33
24.368999 -4.6139998 6.6339998 33
24.343 -4.625 6.6339998 27
24.315001 -4.6350002 6.6329999 35
24.311001 -4.6500001 6.6389999 31
24.273001 -4.6589999 6.6350002 31
24.266001 -4.6729999 6.6389999 27
24.25 -4.6849999 6.6399999 27
24.214001 -4.6929998 6.6360002 31
24.204 -4.7059999 6.6389999 27
24.197001 -4.7199998 6.6420002 26
24.174999 -4.7290001 6.6399999 32
24.149 -4.7389998 6.6370001 26
24.146 -4.7519999 6.6399999 26
24.136999 -4.7649999 6.6409998 32
24.127001 -4.777 6.6420002 32
24.106001 -4.7849998 6.6399999 30
24.105 -4.7989998 6.6420002 26
24.091999 -4.8099999 6.6409998 33
24.079 -4.8210001 6.6389999 32
24.087 -4.8340001 6.6430001 31
24.073 -4.8449998 6.6409998 32
24.061001 -4.8540001 6.6389999 27
24.054001 -4.8649998 6.638 31
24.061001 -4.8790002 6.6409998 31
24.062 -4.8909998 6.6409998 33
24.056 -4.901 6.6399999 27
24.049999 -4.9120002 6.638 31
24.052 -4.9229999 6.638 27
24.065001 -4.9369998 6.6409998 27
24.055 -4.947 6.6360002 26
24.069 -4.96 6.6389999 30
24.068001 -4.9699998 6.6370001 31
24.069 -4.9809999 6.6360002 31
24.079 -4.993 6.6360002 31
24.073 -5.0019999 6.632 32
24.089001 -5.0149999 6.6329999 26
24.101999 -5.027 6.6339998 32
24.113001 -5.039 6.6329999 28
24.122999 -5.0500002 6.632 32
24.129 -5.0609999 6.6290002 32
24.136999 -5.0710001 6.6279998 32
24.150999 -5.0819998 6.6269999 27
24.17 -5.0949998 6.6269999 31
24.181 -5.105 6.625 30
24.198 -5.1170001 6.6240001 32
24.215 -5.1279998 6.6230001 32
24.237 -5.1409998 6.6230001 25
24.266001 -5.1539998 6.6240001 27
24.277 -5.164 6.6209998 33
24.299 -5.1760001 6.6199999 31
24.332001 -5.1900001 6.6209998 26
24.344 -5.198 6.6170001 31
24.365999 -5.21 6.6149998 31
24.396 -5.223 6.6149998 29
24.422001 -5.2340002 6.6139998 31
24.452 -5.2470002 6.6129999 31
24.476999 -5.2579999 6.6100001 29
24.507999 -5.27 6.6100001 29
24.559999 -5.2859998 6.6139998 25
24.577 -5.2950001 6.6079998 25
24.615999 -5.3080001 6.6079998 26
24.656 -5.3210001 6.6090002 26
24.690001 -5.3330002 6.6069999 31
24.719 -5.3429999 6.6040001 31
24.767 -5.3569999 6.605 30
24.798 -5.368 6.6009998 31
24.861 -5.3850002 6.6059999 27
24.893999 -5.395 6.6020002 26
24.945 -5.4099998 6.6030002 31
24.979 -5.4190001 6.599 26
25.014999 -5.4289999 6.5960002 30
25.076 -5.4450002 6.598 26
25.122 -5.4569998 6.5960002 27
25.164 -5.4689999 6.5929999 30
25.226 -5.4840002 6.5949998 26
25.256001 -5.4920001 6.5879998 32
25.301001 -5.5029998 6.5840001 32
25.356001 -5.5159998 6.5830002 31
25.393 -5.5240002 6.5770001 28
0 0 0 1
19.893999 -4.329 5.1279998 1
19.933001 -4.3369999 5.125 1
0 0 0 29
25.681999 -5.5879998 6.5679998 25
0 0 0 1
0 0 0 29
25.875999 -5.6269999 6.5640001 32
25.924 -5.6360002 6.5580001 26
25.99 -5.6490002 6.5560002 31
26.048 -5.6599998 6.5510001 26
26.094999 -5.6680002 6.5430002 30
26.164 -5.6810002 6.5409999 30
26.257 -5.698 6.5440001 25
26.309999 -5.7069998 6.5370002 29
26.389999 -5.7210002 6.5359998 30
26.471001 -5.7350001 6.5349998 30
26.558001 -5.75 6.5349998 30
26.618 -5.7589998 6.5279999 27
26.691 -5.7709999 6.5250001 29
26.759001 -5.7810001 6.5190001 25
26.84 -5.7940001 6.5149999 26
26.923 -5.8070002 6.513 25
26.987 -5.816 6.5050001 22
27.083 -5.8309999 6.5040002 25
27.197001 -5.8499999 6.507 23
27.267 -5.8579998 6.5 25
27.365 -5.8730001 6.4980001 24
27.459 -5.8860002 6.4949999 23
27.548 -5.8979998 6.4910002 23
27.639 -5.9099998 6.487 22
27.728001 -5.9219999 6.4819999 24
27.82 -5.934 6.4770002 26
27.923 -5.948 6.474 26
28.030001 -5.9619999 6.4720001 24
28.120001 -5.9720001 6.4660001 26
28.219 -5.9840002 6.46 28
28.318001 -5.9959998 6.4549999 27
28.447001 -6.0139999 6.4549999 23
28.568001 -6.0300002 6.454 29
28.663 -6.039 6.4460001 28
28.785999 -6.0549998 6.4439998 24
28.888 -6.0650001 6.4369998 27
29.004999 -6.079 6.4330001 24
29.125 -6.092 6.4289999 25
29.261 -6.1090002 6.428 23
29.370001 -6.119 6.4200001 27
29.518 -6.138 6.421 22
29.622 -6.1469998 6.4109998 23
29.761999 -6.1620002 6.4089999 24
29.889 -6.1750002 6.4029999 24
30.024 -6.1890001 6.4000001 25
30.135 -6.198 6.3889999 24
30.283001 -6.2140002 6.3870001 26
30.422001 -6.2270002 6.381 23
30.563999 -6.2410002 6.3759999 29
30.695 -6.2519999 6.368 25
30.823999 -6.2620001 6.3590002 27
30.945 -6.2709999 6.348 30
31.086 -6.2820001 6.342 22
31.239 -6.296 6.336 27
31.403999 -6.3119998 6.3319998 24
31.559 -6.3249998 6.3270001 25
31.708 -6.3369999 6.3189998 24
31.865999 -6.349 6.3119998 22
32.057999 -6.369 6.3109999 23
32.220001 -6.381 6.303 23
32.396999 -6.3959999 6.2979999 23
32.560001 -6.408 6.29 23
32.733002 -6.4219999 6.283 22
32.890999 -6.4320002 6.2719998 22
33.088001 -6.4489999 6.2680001 24
33.277 -6.4629998 6.2620001 23
33.437 -6.4720001 6.25 24
33.629002 -6.4860001 6.244 25
33.797001 -6.494 6.2319999 25
34.007 -6.5110002 6.2270002 25
34.185001 -6.5209999 6.2160001 25
34.423 -6.5409999 6.2150002 26
34.612999 -6.552 6.2049999 26
34.798 -6.5619998 6.1919999 26
34.963001 -6.5679998 6.177 27
35.186001 -6.5830002 6.1690001 27
35.372002 -6.5910001 6.1560001 27
35.541 -6.5949998 6.1389999 26
35.665001 -6.5890002 6.1129999 23
35.703999 -6.5679998 6.072 23
35.703999 -6.54 6.0240002 21
35.705002 -6.5110002 5.9770002 21
35.720001 -6.4850001 5.9320002 21
35.705002 -6.4520001 5.881 21
35.694 -6.4200001 5.8319998 22
35.687 -6.3889999 5.7820001 21
35.681999 -6.3569999 5.7329998 20
35.702999 -6.3299999 5.6869998 15
35.713001 -6.3010001 5.6399999 8
35.643002 -6.257 5.5799999 3
0 0 0 0
0 0 0 2
27.714001 -4.7909999 4.2249999 12
27.622999 -4.75 4.1729999 18
27.591 -4.7179999 4.1290002 22
27.549 -4.6849999 4.085 26
27.52 -4.6539998 4.0419998 29
27.500999 -4.625 4 31
27.476999 -4.5939999 3.9590001 34
27.455999 -4.5640001 3.9170001 36
27.441 -4.5339999 3.8759999 39
27.426001 -4.5040002 3.835 41
27.421 -4.4759998 3.796 45
27.416 -4.447 3.7550001 39
27.400999 -4.4169998 3.714 47
27.396 -4.388 3.675 40
27.4 -4.3600001 3.6359999 37
27.389999 -4.329 3.595 54
27.398001 -4.3010001 3.5569999 46
27.389 -4.2719998 3.517 58
27.388 -4.2420001 3.4779999 55
27.389 -4.2129998 3.4389999 55
27.403999 -4.1849999 3.401 52
27.403999 -4.1550002 3.362 51
27.429001 -4.1290002 3.325 48
27.440001 -4.0999999 3.2869999 44
27.455 -4.0710001 3.2490001 41
27.466999 -4.0419998 3.21 44
27.486 -4.013 3.1730001 43
27.516001 -3.9860001 3.1359999 40
27.546 -3.9590001 3.0999999 36
27.583 -3.9319999 3.0639999 33
27.620001 -3.905 3.0280001 27
27.674999 -3.8800001 2.9949999 24
27.757 -3.859 2.9630001 13
27.860001 -3.8399999 2.9330001 3
0 0 0 4
52.855999 -7.1570001 5.4109998 6
0 0 0 0
0 0 0 0
0 0 0 0
0 0 0 0
0 0 0 0
0 0 0 0
0 0 0 0
0 0 0 0
0 0 0 0
0 0 0 4
54.130001 -6.5799999 4.6760001 4
0 0 0 4
35.451 -4.2150002 2.9590001 13
35.412998 -4.164 2.904 26
35.397999 -4.1149998 2.8510001 46
35.377998 -4.066 2.7980001 62
35.342999 -4.0149999 2.7449999 70
35.331001 -3.9649999 2.6919999 85
35.332001 -3.9170001 2.641 87
35.327999 -3.869 2.5910001 84
35.325001 -3.8199999 2.5380001 92
35.316002 -3.77 2.487 78
35.308998 -3.72 2.4360001 78
35.311001 -3.6719999 2.3859999 79
35.308998 -3.6210001 2.3329999 80
35.293999 -3.5699999 2.2820001 91
35.280998 -3.5190001 2.2309999 90
35.282001 -3.4679999 2.1800001 75
35.278999 -3.4170001 2.1289999 83
35.276001 -3.3659999 2.0780001 76
35.278999 -3.3150001 2.0280001 72
35.271 -3.263 1.977 66
35.271999 -3.2119999 1.927 58
35.291 -3.1619999 1.878 52
35.271 -3.109 1.8279999 45
35.279999 -3.0569999 1.778 37
35.296001 -3.007 1.729 20
35.348999 -2.9590001 1.682 15
35.424 -2.9119999 1.636 10
35.398998 -2.8570001 1.586 11
35.394001 -2.803 1.535 12
35.416 -2.7520001 1.488 12
35.388 -2.6960001 1.437 11
35.394001 -2.6429999 1.3890001 10
35.367001 -2.585 1.337 3
0 0 0 4
41.813 -2.9260001 1.464 4
42.519001 -2.9089999 1.4299999 16
42.831001 -2.8629999 1.381 5
43.505001 -2.8399999 1.3430001 5
44.082001 -2.8080001 1.3 10
45.376999 -2.8180001 1.276 17
44.132999 -2.6719999 1.181 7
44.087002 -2.598 1.12 64
44.068001 -2.5280001 1.0599999 152
44.097 -2.457 1 93
44.089001 -2.388 0.94199997 62
44.104 -2.3180001 0.884 45
44.117001 -2.247 0.82499999 41
44.118999 -2.175 0.76599997 39
44.115002 -2.1029999 0.70700002 32
44.102001 -2.0309999 0.64899999 22
44.133999 -1.96 0.59100002 15
44.095001 -1.885 0.53200001 5
0 0 0 27
0 0 0 0
0 0 0 0
0 0 0 0
0 0 0 7
59.435001 -1.948 0.252 57
60.047001 -1.87 0.17900001 23
60.001999 -1.767 0.102 39
60.039001 -1.666 0.025 24
0 0 0 60
67.389 -1.641 -0.142 67
67.422997 -1.528 -0.227 73
0 0 0 0
0 0 0 18
0 0 0 76
73.721001 -1.166 -0.616 63
73.669998 -1.041 -0.704 51
73.676003 -0.912 -0.796 34
0 0 0 0
0 0 0 52
134.25999 -0.96799999 -1.939 93
134.321 -0.73400003 -2.102 114
0 0 0 0
0 0 0 0
0 0 0 30
0 0 0 0
0 0 0 0
0 0 0 0
0 0 0 25
0 0 0 25
0 0 0 0
0 0 0 20
0 0 0 0
0 0 0 0
0 0 0 0
0 0 0 0
0 0 0 24
40.083 0.91500002 -1.369 15
39.921001 0.98299998 -1.4069999 15
39.811001 1.052 -1.447 19
39.726002 1.122 -1.488 22
39.686001 1.191 -1.529 23
39.613998 1.261 -1.569 19
39.650002 1.3329999 -1.613 13
40.610001 1.439 -1.6950001 8
40.681 1.515 -1.7410001 11
40.769001 1.5930001 -1.788 5
40.842999 1.671 -1.835 4
0 0 0 0
0 0 0 0
0 0 0 0
0 0 0 0
0 0 0 0
0 0 0 0
0 0 0 0
0 0 0 0
0 0 0 1
0 0 0 0
0 0 0 0
0 0 0 5
0 0 0 0
0 0 0 3
19.009001 1.296 -1.136 2
18.489 1.294 -1.122 1
17.820999 1.28 -1.098 2
17.35 1.278 -1.085 2
16.903 1.276 -1.072 2
16.372 1.265 -1.053 3
15.987 1.265 -1.043 3
15.628 1.265 -1.033 3
15.22 1.26 -1.02 2
14.809 1.253 -1.005 2
14.522 1.255 -0.99900001 2
14.16 1.25 -0.986 2
13.833 1.2460001 -0.97500002 2
13.591 1.249 -0.96899998 3
13.293 1.2460001 -0.95899999 3
13.083 1.25 -0.95499998 2
12.833 1.25 -0.94700003 3
12.591 1.249 -0.94 3
12.331 1.2460001 -0.93099999 3
12.099 1.245 -0.92299998 3
11.872 1.243 -0.91500002 2
11.687 1.244 -0.91000003 4
11.565 1.253 -0.90899998 15
11.34 1.248 -0.89999998 20
11.087 1.2410001 -0.889 24
10.877 1.237 -0.88 25
10.741 1.2410001 -0.87699997 26
10.63 1.247 -0.87599999 20
10.481 1.248 -0.87099999 19
10.37 1.2539999 -0.87 25
10.265 1.2589999 -0.86799997 11
10.087 1.256 -0.86000001 10
9.9130001 1.252 -0.852 14
9.7620001 1.25 -0.84600002 15
9.5970001 1.2460001 -0.838 18
9.5539999 1.257 -0.84100002 10
9.4119997 1.256 -0.83499998 9
9.2670002 1.253 -0.829 14
9.1619997 1.255 -0.82499999 8
9.0179996 1.251 -0.81800002 5
8.8500004 1.243 -0.80800003 3
8.7220001 1.2410001 -0.80199999 5
8.632 1.243 -0.80000001 3
8.5 1.239 -0.79299998 4
8.4049997 1.24 -0.78899997 5
8.3109999 1.24 -0.78500003 5
8.224 1.242 -0.78200001 4
8.1420002 1.244 -0.77899998 5
8.0489998 1.244 -0.77499998 5
7.9809999 1.247 -0.773 5
7.9099998 1.249 -0.76999998 5
7.8119998 1.247 -0.76499999 5
7.7589998 1.252 -0.764 5
7.7010002 1.256 -0.76300001 7
7.6269999 1.257 -0.75999999 8
7.5609999 1.2589999 -0.75700003 10
7.5180001 1.265 -0.75700003 10
7.4400001 1.2640001 -0.75300002 7
7.3460002 1.26 -0.74699998 8
7.29 1.263 -0.745 6
7.211 1.261 -0.74000001 4
7.1659999 1.266 -0.73900002 5
7.1170001 1.2690001 -0.73699999 5
7.0570002 1.27 -0.73400003 5
7.0040002 1.272 -0.73199999 5
6.96 1.275 -0.73100001 5
6.9099998 1.278 -0.72899997 4
6.8520002 1.278 -0.72600001 4
6.8080001 1.281 -0.72399998 4
6.7779999 1.286 -0.72299999 4
6.7340002 1.289 -0.722 4
6.658 1.285 -0.71600002 3
6.612 1.286 -0.71399999 3
6.5900002 1.293 -0.71399999 3
6.5570002 1.2970001 -0.713 3
6.5250001 1.301 -0.71200001 3
6.4790001 1.302 -0.70899999 3
6.441 1.304 -0.708 3
6.4109998 1.308 -0.70700002 3
6.3829999 1.312 -0.70599997 3
6.3449998 1.314 -0.704 3
6.3119998 1.317 -0.70200002 3
6.29 1.322 -0.70200002 3
6.2620001 1.326 -0.70099998 3
6.2249999 1.3279999 -0.699 3
6.2020001 1.332 -0.69800001 3
6.1799998 1.337 -0.69700003 3
6.1420002 1.3380001 -0.69499999 4
6.1199999 1.342 -0.69400001 3
6.1079998 1.349 -0.69400001 3
6.0770001 1.351 -0.69199997 2
6.0500002 1.354 -0.69099998 3
6.0430002 1.3609999 -0.69199997 2
6.0229998 1.365 -0.69099998 2
6.0009999 1.369 -0.69 3
5.994 1.376 -0.69099998 3
5.973 1.3789999 -0.69 2
5.9770002 1.3890001 -0.69099998 2
5.941 1.388 -0.68800002 2
5.9310002 1.395 -0.68900001 3
5.9130001 1.399 -0.68800002 2
