# .PCD v0.7 - Point Cloud Data file format
VERSION 0.7
FIELDS x y z intensity
SIZE 4 4 4 4
TYPE F F F F
COUNT 1 1 1 1
WIDTH 1724
HEIGHT 1
VIEWPOINT 0 0 0 1 0 0 0
POINTS 1724
DATA ascii
27.114 1.413 6.3509998 28
27.240999 1.4 6.3460002 26
27.386999 1.388 6.3429999 23
27.528 1.376 6.3390002 26
27.688999 1.365 6.3379998 23
27.825001 1.352 6.3299999 27
27.982 1.34 6.3270001 23
28.101999 1.326 6.3150001 26
28.275 1.314 6.3140001 25
28.448999 1.302 6.3130002 24
28.596001 1.289 6.3039999 27
28.739 1.276 6.2950001 24
28.937 1.265 6.2969999 22
29.096001 1.251 6.289 24
29.264 1.238 6.2820001 24
29.426001 1.225 6.2740002 26
29.634001 1.2130001 6.2740002 22
29.806 1.199 6.2659998 23
30.007 1.187 6.263 24
30.187 1.174 6.2550001 26
30.361 1.16 6.2449999 23
30.562 1.147 6.2389998 23
30.750999 1.133 6.23 24
30.958 1.12 6.224 23
31.157 1.1059999 6.2160001 21
31.347 1.0930001 6.2049999 24
31.573999 1.079 6.1999998 22
31.799 1.066 6.1939998 21
32.019001 1.052 6.1859999 21
32.257 1.038 6.1799998 22
32.491001 1.024 6.1719999 21
32.729 1.011 6.165 23
32.973999 0.99699998 6.1570001 23
33.206001 0.98199999 6.1459999 23
33.425999 0.96700001 6.131 24
33.713001 0.95300001 6.1279998 24
33.995998 0.93900001 6.1230001 24
34.236 0.92500001 6.1090002 25
34.502998 0.91100001 6.099 25
34.784 0.89600003 6.0900002 25
35.036999 0.88 6.0749998 26
35.275002 0.86400002 6.0560002 21
35.458 0.84600002 6.026 14
35.719002 0.83099997 6.0100002 8
35.987 0.815 5.993 3
36.238998 0.79900002 5.9710002 2
35.755001 0.76599997 5.829 5
35.674999 0.74299997 5.7529998 15
35.685001 0.722 5.6929998 14
35.675999 0.69999999 5.6279998 12
35.716 0.68000001 5.573 11
35.737999 0.65899998 5.5120001 12
35.719002 0.63800001 5.4439998 13
35.782001 0.61799997 5.3899999 12
35.790001 0.59799999 5.3280001 5
0 0 0 2
0 0 0 0
0 0 0 2
41.560001 0.60000002 5.882 2
0 0 0 0
0 0 0 0
0 0 0 2
31.742001 0.38800001 4.2579999 3
31.834 0.37200001 4.21 5
31.788 0.35499999 4.145 7
31.806999 0.338 4.0869999 6
31.825001 0.32100001 4.0289998 11
31.823 0.30399999 3.9690001 13
31.846001 0.28799999 3.911 16
31.865999 0.27200001 3.8529999 13
31.889999 0.25600001 3.7950001 12
31.884001 0.23999999 3.733 14
31.868999 0.22400001 3.6700001 13
31.906 0.20900001 3.6129999 11
31.886999 0.193 3.5480001 14
31.915001 0.178 3.4890001 14
31.923 0.163 3.4289999 11
31.903999 0.148 3.3640001 14
31.864 0.133 3.2980001 19
31.648001 0.118 3.2149999 24
31.584 0.103 3.1459999 40
31.539 0.089000002 3.079 50
31.534 0.075000003 3.017 51
31.556 0.061000001 2.9560001 51
31.566 0.046999998 2.895 55
31.563999 0.034000002 2.832 52
31.594999 0.02 2.7709999 51
31.573999 0.0070000002 2.707 51
31.580999 -0.0049999999 2.6440001 55
31.604 -0.017000001 2.582 53
31.6 -0.029999999 2.517 56
31.612 -0.043000001 2.454 51
31.728001 -0.055 2.398 37
32.132 -0.068000004 2.3640001 21
32.784 -0.082000002 2.345 18
33.411999 -0.096000001 2.323 19
34.151001 -0.11 2.3039999 14
35.125 -0.126 2.2980001 20
35.776001 -0.141 2.267 56
35.962002 -0.155 2.2049999 90
35.980999 -0.167 2.131 95
35.979 -0.17900001 2.0569999 65
0 0 0 1
0 0 0 6
36.030998 -0.214 1.839 7
36.033001 -0.22499999 1.765 8
36.021999 -0.235 1.6900001 10
0 0 0 1
0 0 0 0
0 0 0 4
36.02 -0.27700001 1.391 5
36.007999 -0.28600001 1.316 6
36.125999 -0.29699999 1.245 4
0 0 0 0
0 0 0 0
0 0 0 0
0 0 0 2
31.316999 -0.29499999 0.75300002 7
31.275999 -0.30199999 0.68400002 13
31.275 -0.30899999 0.61900002 13
31.27 -0.315 0.55400002 13
31.229 -0.32100001 0.486 11
0 0 0 1
28.618 -0.30599999 0.32499999 10
28.511999 -0.31 0.26499999 32
28.499001 -0.315 0.205 38
28.482 -0.31900001 0.145 19
0 0 0 1
6.3709998 -0.072999999 0.0049999999 1
6.355 -0.074000001 -0.0070000002 1
6.3449998 -0.075000003 -0.021 1
6.3429999 -0.075999998 -0.034000002 1
6.3330002 -0.075999998 -0.048 1
6.3330002 -0.077 -0.061000001 1
6.2810001 -0.077 -0.074000001 3
6.402 -0.079000004 -0.089000002 127
6.349 -0.079000004 -0.102 155
6.3839998 -0.079999998 -0.116 155
6.3579998 -0.081 -0.12899999 155
6.3660002 -0.081 -0.14300001 156
6.3309999 -0.081 -0.155 157
6.336 -0.082000002 -0.169 156
6.3299999 -0.082000002 -0.182 155
6.3039999 -0.082000002 -0.19499999 155
6.3179998 -0.082999997 -0.20900001 155
6.3429999 -0.082999997 -0.223 155
6.3439999 -0.083999999 -0.237 157
6.3340001 -0.083999999 -0.25 163
6.335 -0.083999999 -0.26300001 165
6.336 -0.083999999 -0.27700001 173
6.3400002 -0.083999999 -0.28999999 179
6.336 -0.083999999 -0.30399999 178
6.3330002 -0.083999999 -0.317 159
6.2950001 -0.082999997 -0.32800001 155
6.257 -0.082999997 -0.34 18
6.3429999 -0.083999999 -0.35800001 150
6.3049998 -0.082999997 -0.36899999 155
6.2789998 -0.082999997 -0.38100001 165
6.322 -0.082999997 -0.396 177
6.2909999 -0.082000002 -0.40799999 181
6.2930002 -0.082000002 -0.421 180
6.256 -0.081 -0.43200001 178
6.244 -0.079999998 -0.44400001 170
6.2399998 -0.079999998 -0.45699999 155
6.1890001 -0.079000004 -0.46599999 152
6.2220001 -0.079000004 -0.48100001 5
6.2649999 -0.079000004 -0.498 53
6.2059999 -0.077 -0.50599998 155
6.2030001 -0.075999998 -0.51899999 155
6.1939998 -0.075999998 -0.53100002 151
6.2340002 -0.075000003 -0.54699999 11
6.2309999 -0.075000003 -0.56 2
6.2459998 -0.074000001 -0.574 3
6.204 -0.071999997 -0.583 3
6.2199998 -0.071999997 -0.59799999 2
6.2199998 -0.071000002 -0.61000001 3
6.2080002 -0.07 -0.62199998 2
6.171 -0.068000004 -0.63099998 5
6.1479998 -0.067000002 -0.64200002 5
6.1279998 -0.066 -0.65200001 6
6.1030002 -0.064000003 -0.662 4
5.9879999 -0.061999999 -0.66100001 8
5.855 -0.059 -0.65899998 7
5.744 -0.057 -0.65799999 9
5.651 -0.055 -0.65899998 7
5.539 -0.052999999 -0.65700001 6
5.4169998 -0.050000001 -0.65399998 3
5.29 -0.048 -0.64899999 5
5.197 -0.046 -0.64899999 3
5.0700002 -0.044 -0.64300001 3
4.9850001 -0.041999999 -0.64200002 1
4.901 -0.039999999 -0.64099997 1
4.7849998 -0.037 -0.63599998 1
4.6950002 -0.035999998 -0.63300002 1
4.6110001 -0.034000002 -0.63099998 1
4.5370002 -0.032000002 -0.63 1
4.7490001 -0.032000002 -0.66900003 1
4.6329999 -0.029999999 -0.66100001 1
4.3969998 -0.027000001 -0.63599998 1
4.2319999 -0.025 -0.62099999 2
4.1440001 -0.023 -0.616 2
4.1360002 -0.022 -0.62300003 2
3.908 -0.018999999 -0.59600002 2
3.858 -0.017999999 -0.59600002 2
3.8069999 -0.016000001 -0.59600002 2
3.74 -0.015 -0.59200001 2
3.687 -0.013 -0.59100002 2
3.6500001 -0.012 -0.59200001 2
3.5739999 -0.011 -0.58700001 2
3.5190001 -0.0089999996 -0.58399999 2
3.51 -0.0080000004 -0.58999997 2
3.4590001 -0.0070000002 -0.588 2
3.4130001 -0.0049999999 -0.58600003 2
3.365 -0.0040000002 -0.58399999 2
3.3540001 -0.003 -0.58899999 2
3.3340001 -0.001 -0.59200001 2
3.2290001 0 -0.579 2
3.1900001 0 -0.57800001 2
3.164 0.001 -0.579 2
3.119 0.003 -0.57700002 2
3.0810001 0.0040000002 -0.57499999 2
3.0339999 0.0049999999 -0.57200003 2
3.0020001 0.0060000001 -0.57200003 2
2.9679999 0.0070000002 -0.56999999 2
2.9319999 0.0080000004 -0.56900001 2
2.892 0.0089999996 -0.56599998 1
2.9619999 0.011 -0.58499998 1
2.891 0.012 -0.57700002 1
2.803 0.013 -0.56400001 2
2.7750001 0.014 -0.56300002 2
2.75 0.015 -0.56300002 2
2.7219999 0.016000001 -0.56199998 2
2.697 0.017000001 -0.56199998 2
2.6700001 0.017999999 -0.56099999 2
2.6470001 0.018999999 -0.56 2
2.618 0.02 -0.55900002 2
2.598 0.021 -0.55900002 1
2.562 0.022 -0.55599999 1
2.5439999 0.023 -0.55599999 1
2.517 0.024 -0.55500001 1
2.4960001 0.025 -0.55400002 1
2.4790001 0.026000001 -0.55500001 1
2.451 0.027000001 -0.55199999 1
2.434 0.028000001 -0.55299997 1
2.4089999 0.028999999 -0.551 1
2.3940001 0.029999999 -0.551 1
2.375 0.030999999 -0.551 1
2.346 0.032000002 -0.54799998 1
2.335 0.033 -0.54900002 1
2.313 0.033 -0.54799998 1
2.303 0.034000002 -0.54900002 1
2.2720001 0.035 -0.54500002 1
2.253 0.035999998 -0.54400003 1
2.2539999 0.037 -0.54799998 1
2.2249999 0.037999999 -0.54500002 1
2.2130001 0.039000001 -0.54500002 1
2.1960001 0.039999999 -0.54400003 1
2.1889999 0.041000001 -0.546 1
2.1730001 0.041999999 -0.54500002 1
2.155 0.041999999 -0.54400003 1
2.142 0.043000001 -0.54400003 1
2.128 0.044 -0.54299998 1
2.115 0.045000002 -0.54299998 1
2.0929999 0.046 -0.54100001 1
2.0999999 0.046999998 -0.546 1
2.0880001 0.048 -0.54500002 1
2.0450001 0.048 -0.537 1
2.02 0.048999999 -0.53299999 1
2.0599999 0.050999999 -0.54699999 1
2.0139999 0.050999999 -0.53799999 1
2.026 0.052000001 -0.54400003 1
1.972 0.052000001 -0.53200001 1
1.949 0.052000001 -0.52899998 1
1.939 0.052999999 -0.528 1
1.932 0.054000001 -0.52899998 1
1.929 0.055 -0.53100002 1
1.937 0.056000002 -0.53600001 1
1.932 0.057 -0.537 1
1.926 0.057999998 -0.53799999 1
1.913 0.059 -0.537 1
1.899 0.059 -0.53500003 1
1.895 0.059999999 -0.53600001 1
1.88 0.061000001 -0.53399998 1
1.876 0.061999999 -0.53600001 1
1.87 0.063000001 -0.53600001 1
1.862 0.064000003 -0.53600001 1
1.8559999 0.064000003 -0.537 1
1.8430001 0.064999998 -0.53500003 1
1.8279999 0.066 -0.53299999 1
1.826 0.066 -0.53500003 1
1.813 0.067000002 -0.53299999 1
1.813 0.068000004 -0.53500003 1
1.803 0.068999998 -0.53399998 1
1.7920001 0.068999998 -0.53299999 1
1.784 0.07 -0.53299999 1
1.784 0.071000002 -0.53500003 1
1.772 0.071999997 -0.53299999 1
1.768 0.072999999 -0.53399998 1
1.763 0.072999999 -0.53399998 1
1.7359999 0.072999999 -0.528 1
1.7309999 0.074000001 -0.528 1
1.728 0.075000003 -0.52899998 1
1.72 0.075999998 -0.52899998 1
1.709 0.075999998 -0.52700001 1
1.721 0.078000002 -0.53200001 1
1.717 0.078000002 -0.53299999 1
1.696 0.078000002 -0.528 1
1.694 0.079000004 -0.52899998 1
1.689 0.079999998 -0.52899998 1
1.678 0.079999998 -0.52700001 1
1.673 0.081 -0.52700001 1
1.674 0.082000002 -0.52899998 1
1.665 0.082999997 -0.528 1
1.661 0.082999997 -0.528 1
1.659 0.083999999 -0.52899998 1
1.653 0.085000001 -0.528 1
1.638 0.085000001 -0.52499998 1
1.6390001 0.086000003 -0.52600002 1
1.63 0.086000003 -0.52499998 1
1.626 0.086999997 -0.52499998 1
1.619 0.088 -0.52399999 1
1.617 0.089000002 -0.52499998 1
1.6109999 0.089000002 -0.52399999 1
1.609 0.090000004 -0.52399999 1
1.604 0.090999998 -0.52399999 1
1.608 0.092 -0.52600002 1
1.599 0.092 -0.52499998 1
1.58 0.092 -0.51899999 1
1.589 0.093000002 -0.52399999 1
1.589 0.093999997 -0.52499998 1
1.58 0.093999997 -0.523 1
1.579 0.094999999 -0.52399999 1
1.579 0.096000001 -0.52399999 1
1.567 0.096000001 -0.52200001 1
1.568 0.097000003 -0.523 1
1.5700001 0.097999997 -0.52399999 1
1.5700001 0.098999999 -0.52499998 1
1.567 0.098999999 -0.52499998 1
1.554 0.1 -0.52200001 1
1.553 0.1 -0.52200001 1
1.553 0.101 -0.523 1
1.548 0.102 -0.52200001 1
1.546 0.102 -0.52200001 1
1.543 0.103 -0.52200001 1
1.538 0.103 -0.52100003 1
1.54 0.104 -0.52200001 1
1.534 0.105 -0.52100003 1
1.536 0.106 -0.523 1
1.528 0.106 -0.51999998 1
1.52 0.106 -0.51800001 1
1.516 0.107 -0.51700002 1
1.522 0.108 -0.51999998 1
1.507 0.107 -0.51599997 1
1.515 0.109 -0.51899999 1
1.518 0.11 -0.51999998 1
1.515 0.11 -0.51999998 1
1.512 0.111 -0.51899999 1
1.506 0.111 -0.51800001 1
1.508 0.112 -0.51899999 1
1.507 0.113 -0.51899999 1
1.506 0.113 -0.51899999 1
1.51 0.114 -0.52100003 1
1.505 0.115 -0.51899999 1
1.505 0.115 -0.51899999 1
1.505 0.116 -0.51999998 1
1.497 0.116 -0.51700002 1
1.4960001 0.117 -0.51700002 1
1.505 0.118 -0.51999998 1
1.494 0.118 -0.51700002 1
1.502 0.119 -0.51999998 1
1.502 0.12 -0.51999998 1
1.497 0.12 -0.51800001 1
1.5039999 0.121 -0.52100003 1
1.495 0.121 -0.51800001 1
1.5039999 0.123 -0.52100003 1
1.494 0.122 -0.51800001 1
1.501 0.124 -0.51999998 1
1.501 0.124 -0.51999998 1
1.501 0.125 -0.51999998 1
1.488 0.124 -0.51499999 1
1.5039999 0.126 -0.52100003 1
1.4960001 0.126 -0.51800001 1
1.5039999 0.127 -0.52100003 1
1.502 0.12800001 -0.51999998 1
1.494 0.12800001 -0.51700002 1
1.4960001 0.12899999 -0.51800001 1
1.501 0.13 -0.51899999 1
1.501 0.13 -0.51899999 1
1.5039999 0.131 -0.51999998 1
1.501 0.131 -0.51800001 1
1.511 0.133 -0.52200001 1
1.512 0.133 -0.52200001 1
1.511 0.134 -0.52100003 1
1.502 0.133 -0.51800001 1
1.512 0.13500001 -0.52100003 1
1.511 0.13500001 -0.51999998 1
1.515 0.13600001 -0.52100003 1
1.5039999 0.13600001 -0.51700002 1
1.5140001 0.13699999 -0.51999998 1
1.515 0.138 -0.51899999 1
1.521 0.139 -0.52100003 1
1.524 0.139 -0.52200001 1
1.522 0.14 -0.51999998 1
1.524 0.14 -0.51999998 1
1.516 0.14 -0.51700002 1
1.534 0.142 -0.523 1
1.521 0.141 -0.51800001 1
1.524 0.142 -0.51800001 1
1.535 0.14399999 -0.52100003 1
1.524 0.14300001 -0.51700002 1
1.535 0.14399999 -0.51999998 1
1.535 0.145 -0.51899999 1
1.538 0.146 -0.51899999 1
1.54 0.146 -0.51899999 1
1.5420001 0.147 -0.51899999 1
1.54 0.147 -0.51800001 1
1.546 0.148 -0.51899999 1
1.544 0.148 -0.51700002 1
1.553 0.149 -0.51899999 1
1.556 0.15000001 -0.51899999 1
1.553 0.15000001 -0.51800001 1
1.558 0.15099999 -0.51800001 1
1.563 0.15099999 -0.51899999 1
1.563 0.152 -0.51800001 1
1.568 0.153 -0.51800001 1
1.569 0.153 -0.51800001 1
1.575 0.154 -0.51899999 1
1.586 0.155 -0.52100003 1
1.587 0.156 -0.51999998 1
1.587 0.156 -0.51899999 1
1.587 0.156 -0.51800001 1
1.592 0.15700001 -0.51800001 1
1.604 0.15800001 -0.52100003 1
1.598 0.15800001 -0.51800001 1
1.605 0.15899999 -0.51899999 1
1.617 0.16 -0.52200001 1
1.619 0.161 -0.52100003 1
1.628 0.162 -0.523 1
1.628 0.162 -0.52100003 1
1.638 0.163 -0.523 1
1.64 0.164 -0.52200001 1
1.645 0.164 -0.52200001 1
1.652 0.16500001 -0.523 1
1.661 0.16599999 -0.52399999 1
1.668 0.167 -0.52499998 1
1.669 0.167 -0.52399999 1
1.683 0.169 -0.52700001 1
1.693 0.17 -0.528 1
1.696 0.17 -0.528 1
1.701 0.171 -0.528 1
1.7029999 0.171 -0.52700001 1
1.709 0.17200001 -0.52700001 1
1.716 0.17299999 -0.52700001 1
1.723 0.17299999 -0.528 1
1.724 0.17299999 -0.52600002 1
1.734 0.175 -0.528 1
1.74 0.175 -0.52700001 1
1.75 0.176 -0.52899998 1
1.757 0.177 -0.52899998 1
1.761 0.177 -0.528 1
1.7690001 0.178 -0.52899998 1
1.779 0.17900001 -0.52899998 1
1.783 0.17900001 -0.52899998 1
1.795 0.18000001 -0.52999997 1
1.801 0.18099999 -0.52999997 1
1.807 0.182 -0.52999997 1
1.816 0.182 -0.52999997 1
1.83 0.184 -0.53200001 1
1.834 0.184 -0.53100002 1
1.836 0.184 -0.52899998 1
1.85 0.185 -0.53100002 1
1.859 0.186 -0.53200001 1
1.8660001 0.18700001 -0.53100002 1
1.88 0.18799999 -0.53299999 1
1.8890001 0.18799999 -0.53299999 1
1.893 0.189 -0.53200001 1
1.904 0.19 -0.53299999 1
1.9170001 0.191 -0.53399998 1
1.925 0.191 -0.53299999 1
1.9299999 0.191 -0.53200001 1
1.948 0.193 -0.53500003 1
1.954 0.193 -0.53399998 1
1.969 0.19400001 -0.53500003 1
1.976 0.19499999 -0.53500003 1
1.988 0.19599999 -0.53500003 1
1.993 0.19599999 -0.53399998 1
2.0079999 0.197 -0.53500003 1
2.027 0.198 -0.537 1
2.0320001 0.198 -0.53600001 1
2.0409999 0.199 -0.53500003 1
2.0550001 0.2 -0.53600001 1
2.0710001 0.20100001 -0.53799999 1
2.085 0.20200001 -0.53799999 1
2.0969999 0.20200001 -0.53799999 1
2.108 0.20299999 -0.53799999 1
2.122 0.204 -0.53799999 1
2.2219999 0.213 -0.56099999 1
2.181 0.208 -0.54699999 1
2.217 0.211 -0.55299997 1
2.24 0.212 -0.55500001 1
2.2030001 0.208 -0.54299998 1
2.217 0.20900001 -0.54299998 1
2.2349999 0.20999999 -0.54400003 1
2.2479999 0.211 -0.54400003 1
2.2650001 0.212 -0.54500002 1
2.2869999 0.213 -0.546 1
2.2980001 0.213 -0.54500002 1
2.312 0.214 -0.54500002 1
2.335 0.215 -0.54699999 1
2.3510001 0.21600001 -0.54699999 1
2.3729999 0.21699999 -0.54799998 1
2.3859999 0.21699999 -0.54799998 1
2.408 0.21799999 -0.54900002 1
2.4230001 0.219 -0.54900002 1
2.4430001 0.219 -0.54900002 1
2.4690001 0.221 -0.551 1
2.4949999 0.222 -0.55299997 1
2.5150001 0.223 -0.55299997 1
2.5420001 0.22400001 -0.55500001 1
2.5569999 0.22400001 -0.55400002 1
2.575 0.22499999 -0.55400002 1
2.5969999 0.226 -0.55500001 1
2.6199999 0.226 -0.55500001 1
2.6440001 0.227 -0.55599999 1
2.7119999 0.23199999 -0.56599998 1
2.8069999 0.23899999 -0.58099997 1
2.7420001 0.23199999 -0.56300002 1
2.7780001 0.234 -0.56599998 1
2.7950001 0.234 -0.56400001 1
2.8039999 0.233 -0.56099999 2
2.8440001 0.235 -0.565 2
2.869 0.235 -0.565 2
2.904 0.237 -0.56699997 2
2.938 0.23800001 -0.56800002 2
2.9590001 0.23800001 -0.56699997 2
2.99 0.23899999 -0.56800002 2
3.0280001 0.23999999 -0.56999999 2
3.066 0.242 -0.57200003 2
3.0969999 0.242 -0.57200003 2
3.132 0.243 -0.57300001 2
3.1689999 0.244 -0.57499999 2
3.276 0.25 -0.588 2
3.25 0.24699999 -0.57800001 2
3.2750001 0.24600001 -0.57700002 2
3.346 0.25 -0.583 2
3.4189999 0.25299999 -0.58999997 2
3.404 0.25 -0.58200002 1
3.464 0.252 -0.58600003 2
3.4849999 0.25099999 -0.583 2
3.553 0.25400001 -0.588 2
3.6270001 0.257 -0.59399998 2
3.6429999 0.255 -0.58999997 2
3.744 0.25999999 -0.60000002 2
3.8340001 0.26300001 -0.60699999 2
3.8010001 0.259 -0.59500003 2
3.9579999 0.26699999 -0.61299998 2
4.0209999 0.26800001 -0.61500001 2
3.9619999 0.26100001 -0.59899998 2
4.0209999 0.26199999 -0.60100001 2
4.072 0.26199999 -0.60100001 2
4.164 0.26499999 -0.60699999 2
4.2670002 0.26899999 -0.61400002 2
4.3590002 0.271 -0.62 2
4.368 0.26800001 -0.61299998 3
4.494 0.273 -0.62300003 3
4.513 0.27000001 -0.61699998 3
4.5879998 0.271 -0.61900002 3
4.6659999 0.27200001 -0.62099999 3
4.7509999 0.273 -0.62400001 3
4.8390002 0.27399999 -0.62599999 4
4.9349999 0.27599999 -0.63 4
5.0479999 0.278 -0.63499999 4
5.131 0.278 -0.63599998 4
5.2550001 0.28 -0.64200002 4
5.348 0.28099999 -0.64399999 4
5.4619999 0.28200001 -0.64700001 4
5.5710001 0.28299999 -0.64999998 4
5.7010002 0.285 -0.65499997 4
5.836 0.28600001 -0.66000003 4
5.9510002 0.287 -0.662 5
6.1069999 0.289 -0.66799998 5
6.2649999 0.28999999 -0.67299998 7
6.3829999 0.28999999 -0.67400002 9
6.5040002 0.28999999 -0.67500001 11
6.6360002 0.289 -0.67699999 10
6.8070002 0.29100001 -0.68199998 10
7.0229998 0.29300001 -0.69099998 7
7.2160001 0.294 -0.69599998 5
7.4070001 0.29499999 -0.70099998 6
7.6079998 0.296 -0.70599997 5
7.8099999 0.296 -0.71100003 5
8.033 0.29699999 -0.71600002 5
8.3009996 0.29899999 -0.72500002 3
8.5790005 0.30000001 -0.73400003 3
8.835 0.30000001 -0.73900002 6
9.1590004 0.30199999 -0.74900001 4
9.434 0.30199999 -0.755 5
9.7460003 0.30199999 -0.76200002 3
10.133 0.303 -0.773 3
10.521 0.30399999 -0.78399998 2
11.025 0.30700001 -0.801 3
11.55 0.31 -0.81800002 6
11.939 0.30700001 -0.82499999 31
12.087 0.29800001 -0.81300002 26
12.127 0.28600001 -0.79299998 42
12.134 0.273 -0.77100003 39
12.145 0.25999999 -0.75 37
12.148 0.24699999 -0.72799999 25
12.159 0.234 -0.70599997 25
12.169 0.221 -0.685 27
12.16 0.207 -0.662 30
12.193 0.19400001 -0.64200002 10
0 0 0 0
0 0 0 1
0 0 0 0
0 0 0 2
0 0 0 26
31.518999 0.287 -1.321 38
31.547001 0.25099999 -1.267 28
0 0 0 2
35.742001 0.2 -1.307 2
35.532001 0.15700001 -1.2359999 3
35.485001 0.114 -1.171 4
35.487999 0.071999997 -1.108 5
35.486 0.028999999 -1.045 7
35.737999 -0.014 -0.98799998 8
0 0 0 1
6.375 -0.017999999 -0.153 20
6.4029999 -0.025 -0.14300001 62
6.3709998 -0.033 -0.131 106
6.3779998 -0.041000001 -0.12 97
6.3639998 -0.048999999 -0.109 80
6.348 -0.057 -0.097000003 46
6.3039999 -0.064000003 -0.085000001 29
6.3039999 -0.071999997 -0.075000003 3
6.316 -0.081 -0.064000003 4
6.329 -0.089000002 -0.052999999 2
6.336 -0.097000003 -0.041999999 2
6.3319998 -0.105 -0.030999999 2
6.3239999 -0.113 -0.02 3
6.3249998 -0.121 -0.0089999996 4
6.335 -0.13 0 2
6.3540001 -0.139 0.011 2
6.3670001 -0.147 0.022 1
0 0 0 46
28.719999 -0.741 0.199 56
28.687 -0.77899998 0.24699999 52
27.950001 -0.796 0.287 18
27.870001 -0.82999998 0.33199999 28
27.815001 -0.86500001 0.377 36
27.768 -0.90100002 0.42300001 42
27.743999 -0.93800002 0.46799999 45
27.709999 -0.97399998 0.51300001 45
27.674 -1.01 0.55699998 50
27.660999 -1.0470001 0.60299999 53
27.646999 -1.084 0.64600003 54
27.645 -1.122 0.69199997 58
27.601 -1.158 0.736 63
27.610001 -1.197 0.78100002 68
27.618 -1.235 0.824 68
27.605 -1.272 0.86799997 65
27.601999 -1.311 0.912 63
27.622 -1.35 0.95700002 60
27.632 -1.39 1.001 52
27.655001 -1.4299999 1.046 46
27.687 -1.471 1.091 43
27.698 -1.51 1.135 42
27.740999 -1.553 1.181 41
27.768 -1.5930001 1.224 36
27.813999 -1.635 1.27 32
27.863001 -1.678 1.3150001 24
27.934999 -1.722 1.3609999 17
0 0 0 4
9.8599997 -0.63599998 0.50999999 9
9.7869997 -0.64499998 0.52100003 19
9.7700005 -0.65799999 0.53500003 15
9.7370005 -0.67000002 0.54799998 25
9.7229996 -0.68300003 0.56199998 25
9.6949997 -0.69599998 0.57499999 21
9.677 -0.708 0.588 25
9.6689997 -0.722 0.602 26
9.6470003 -0.73400003 0.61500001 26
9.6210003 -0.74599999 0.62699997 27
9.6110001 -0.759 0.63999999 27
9.5970001 -0.77200001 0.653 29
9.5819998 -0.78500003 0.66600001 29
9.5880003 -0.80000001 0.68000001 32
9.5699997 -0.81300002 0.69300002 31
9.5579996 -0.82599998 0.70599997 32
9.5450001 -0.83899999 0.71799999 32
9.5299997 -0.85100001 0.73000002 33
9.5349998 -0.866 0.74400002 35
9.5290003 -0.87900001 0.75700003 36
9.5129995 -0.89200002 0.76800001 37
9.5100002 -0.90600002 0.78200001 38
9.5019999 -0.91900003 0.79400003 39
9.5030003 -0.93400002 0.80699998 41
9.4980001 -0.94700003 0.81999999 41
9.4860001 -0.95999998 0.83099997 40
9.4879999 -0.97500002 0.84399998 42
9.4750004 -0.98799998 0.85600001 41
9.467 -1.001 0.86699998 36
9.4700003 -1.015 0.88 39
9.4709997 -1.03 0.89300001 39
9.4680004 -1.043 0.90499997 44
9.474 -1.058 0.917 45
9.467 -1.071 0.92900002 47
9.474 -1.086 0.94199997 47
9.474 -1.101 0.954 45
9.4720001 -1.115 0.96499997 45
9.474 -1.1289999 0.977 43
9.4729996 -1.143 0.98900002 42
9.4689999 -1.1569999 1 39
9.4680004 -1.171 1.012 39
9.4729996 -1.1849999 1.024 40
9.4729996 -1.2 1.035 41
9.474 -1.214 1.0470001 38
9.4879999 -1.23 1.059 37
9.4899998 -1.244 1.071 35
9.4940004 -1.2589999 1.0829999 35
9.4919996 -1.273 1.094 32
9.4940004 -1.288 1.105 32
9.5120001 -1.304 1.118 31
9.5200005 -1.319 1.13 29
9.5249996 -1.334 1.141 30
9.5299997 -1.349 1.153 32
9.5450001 -1.3660001 1.165 31
9.5310001 -1.377 1.174 31
9.5640001 -1.396 1.188 29
9.5699997 -1.4119999 1.2 28
9.5799999 -1.427 1.211 27
9.5950003 -1.444 1.224 26
9.6230001 -1.462 1.237 26
9.6230001 -1.476 1.248 16
9.6529999 -1.495 1.262 15
9.6689997 -1.512 1.274 22
9.7019997 -1.5319999 1.288 18
9.743 -1.552 1.304 17
9.8009996 -1.576 1.321 12
9.8540001 -1.598 1.3380001 1
0 0 0 0
0 0 0 7
39.275002 -6.5430002 5.4510002 7
0 0 0 0
0 0 0 0
0 0 0 0
0 0 0 0
0 0 0 0
0 0 0 0
0 0 0 0
0 0 0 0
0 0 0 0
0 0 0 0
0 0 0 0
0 0 0 0
0 0 0 0
0 0 0 0
0 0 0 0
0 0 0 7
39.683998 -7.5679998 6.1129999 10
39.580002 -7.6030002 6.1290002 14
39.487 -7.6399999 6.1459999 19
39.361 -7.6680002 6.158 19
39.210999 -7.6929998 6.164 19
39.016998 -7.7080002 6.164 19
38.84 -7.7259998 6.1669998 19
38.672001 -7.744 6.1700001 19
38.557999 -7.7740002 6.1810002 19
38.418999 -7.7969999 6.1869998 20
38.285999 -7.8210001 6.1919999 21
38.139999 -7.842 6.1960001 18
37.995998 -7.8629999 6.1999998 21
37.860001 -7.8850002 6.204 18
37.694 -7.9000001 6.2030001 22
37.591 -7.927 6.2119999 20
37.458 -7.9489999 6.2160001 20
0 0 0 7
20.846001 -4.4770002 3.487 18
20.806 -4.4949999 3.493 22
20.736 -4.507 3.4949999 25
20.712999 -4.5279999 3.5039999 32
20.674999 -4.546 3.51 37
20.629 -4.5619998 3.5150001 37
20.612 -4.5840001 3.5239999 42
20.59 -4.605 3.533 41
20.552 -4.6220002 3.5380001 42
20.558001 -4.6479998 3.5510001 37
20.533001 -4.6680002 3.5580001 46
20.518999 -4.6900001 3.5669999 50
20.518999 -4.7140002 3.5780001 36
20.5 -4.7350001 3.586 50
20.493 -4.7579999 3.596 52
20.478001 -4.7779999 3.6029999 50
20.483999 -4.8039999 3.615 52
20.466999 -4.8239999 3.622 38
20.473 -4.8499999 3.6329999 36
20.462999 -4.8709998 3.641 50
20.459999 -4.8940001 3.6500001 48
20.448 -4.914 3.6570001 46
20.472 -4.9429998 3.671 35
20.455 -4.9619999 3.6760001 45
20.452999 -4.9840002 3.6849999 43
20.478001 -5.013 3.698 34
20.462 -5.0320001 3.7030001 43
20.461 -5.0539999 3.711 40
20.474001 -5.079 3.7219999 36
20.479 -5.1030002 3.7309999 39
20.507999 -5.132 3.744 32
20.52 -5.1560001 3.7539999 35
20.537001 -5.1820002 3.7639999 35
20.547001 -5.2059999 3.773 31
20.566999 -5.2329998 3.7839999 30
20.591999 -5.2610002 3.7939999 29
20.613001 -5.2870002 3.8050001 26
20.646999 -5.316 3.8169999 22
20.694 -5.349 3.832 20
20.724001 -5.3769999 3.8440001 15
20.795 -5.4159999 3.8629999 3
0 0 0 35
31.549 -8.2779999 5.8769999 37
31.521 -8.3009996 5.881 41
31.488001 -8.3219995 5.882 42
31.466999 -8.3459997 5.8839998 46
31.448 -8.3699999 5.888 46
31.437 -8.3950005 5.8930001 48
31.409 -8.4160004 5.895 51
31.41 -8.4440002 5.901 51
31.382 -8.4650002 5.901 52
31.384001 -8.493 5.9070001 55
31.370001 -8.5159998 5.9089999 57
31.368999 -8.5430002 5.914 53
31.365 -8.5679998 5.9180002 50
31.362 -8.5930004 5.921 50
31.365 -8.6199999 5.9260001 48
31.357 -8.6429996 5.928 46
31.365 -8.6700001 5.9330001 47
31.351999 -8.6920004 5.934 43
31.357 -8.7180004 5.9380002 42
31.368999 -8.7449999 5.9419999 40
31.379999 -8.7720003 5.947 37
31.375999 -8.7939997 5.948 35
31.378 -8.8179998 5.9499998 33
31.382 -8.842 5.9520001 33
31.4 -8.8699999 5.9569998 35
31.419001 -8.8970003 5.9619999 31
31.431 -8.9219999 5.9640002 30
31.452 -8.9499998 5.9689999 29
31.474001 -8.9770002 5.9720001 26
31.485001 -9.0010004 5.974 23
31.528 -9.0340004 5.9809999 17
31.57 -9.066 5.9889998 17
31.862 -9.1689997 6.0430002 15
32.959999 -9.5059996 6.25 14
33.259998 -9.6129999 6.3039999 20
33.268002 -9.6350002 6.3039999 20
33.286999 -9.6599998 6.3049998 21
33.286999 -9.6780005 6.303 20
33.318001 -9.7060003 6.3049998 20
33.321999 -9.7259998 6.303 20
33.324001 -9.7440004 6.3000002 20
33.341 -9.7659998 6.2989998 20
33.354 -9.7880001 6.2969999 20
33.403 -9.8179998 6.303 20
33.396999 -9.8330002 6.2969999 20
33.431999 -9.8590002 6.2979999 20
33.425999 -9.8730001 6.2909999 20
33.466 -9.901 6.2919998 20
33.480999 -9.9200001 6.29 20
33.507 -9.941 6.289 20
33.536999 -9.9639997 6.2880001 20
33.553001 -9.9829998 6.2839999 20
33.612999 -10.015 6.2870002 20
33.625 -10.031 6.2820001 20
33.647999 -10.05 6.2779999 20
33.703999 -10.079 6.2810001 20
33.728001 -10.098 6.277 20
33.761002 -10.119 6.2750001 20
33.806 -10.143 6.2740002 19
33.855999 -10.169 6.2740002 19
33.868 -10.183 6.2659998 20
33.939999 -10.214 6.2709999 20
33.973999 -10.233 6.2670002 20
34.026001 -10.258 6.2649999 19
34.062 -10.278 6.2600002 20
34.134998 -10.308 6.263 20
34.173 -10.327 6.2589998 20
34.223 -10.349 6.256 20
34.261002 -10.367 6.2519999 19
34.327 -10.394 6.2519999 20
34.376999 -10.415 6.2480001 20
34.414001 -10.432 6.2420001 20
34.499001 -10.463 6.244 20
34.554001 -10.485 6.2399998 20
34.596001 -10.502 6.2340002 20
34.637001 -10.518 6.2270002 20
34.726002 -10.548 6.2290001 20
34.798 -10.573 6.2280002 20
34.880001 -10.6 6.2270002 20
34.939999 -10.621 6.223 20
35.014999 -10.646 6.2199998 20
35.058998 -10.66 6.2119999 20
35.143002 -10.687 6.211 19
35.194 -10.703 6.204 20
35.279999 -10.729 6.2020001 19
35.352001 -10.75 6.198 20
35.457001 -10.781 6.198 17
35.529999 -10.802 6.1929998 17
35.655998 -10.839 6.198 17
35.719002 -10.856 6.191 17
35.800999 -10.878 6.1859999 18
35.896999 -10.904 6.184 17
35.994999 -10.93 6.1810002 17
36.098999 -10.957 6.1799998 17
36.185001 -10.978 6.1750002 20
36.258999 -10.996 6.1669998 17
36.372002 -11.025 6.1659999 18
36.455002 -11.044 6.1599998 20
36.560001 -11.069 6.1560001 21
36.668999 -11.095 6.1529999 18
36.792 -11.125 6.152 18
36.880001 -11.144 6.1440001 18
36.987999 -11.168 6.1399999 18
37.145 -11.207 6.1430001 18
37.223999 -11.22 6.1339998 18
37.344002 -11.247 6.1300001 19
37.443001 -11.266 6.1230001 19
37.580002 -11.296 6.1220002 19
37.716999 -11.326 6.1199999 19
37.854 -11.355 6.1170001 19
37.973 -11.378 6.112 19
38.092999 -11.402 6.1059999 19
38.258999 -11.437 6.1069999 19
38.404999 -11.467 6.105 20
38.534 -11.491 6.099 19
38.627998 -11.503 6.0879998 20
38.762001 -11.529 6.0809999 19
38.93 -11.562 6.0799999 20
39.055 -11.582 6.073 20
39.201 -11.608 6.0669999 20
39.341 -11.633 6.0599999 20
39.491001 -11.659 6.0560002 20
39.640999 -11.684 6.0489998 20
39.784 -11.706 6.0419998 20
39.945999 -11.734 6.0370002 20
40.134998 -11.769 6.0359998 20
40.323002 -11.802 6.0339999 19
40.473 -11.825 6.026 20
40.688 -11.865 6.027 20
40.820999 -11.881 6.0149999 20
41 -11.909 6.0110002 20
41.188999 -11.94 6.006 21
41.317001 -11.952 5.9920001 21
41.481998 -11.974 5.9850001 21
41.641998 -11.995 5.9749999 20
0 0 0 3
31.577999 -9.0550003 4.48 11
31.514999 -9.0150003 4.4460001 16
31.471001 -8.9809999 4.414 23
31.436001 -8.9499998 4.3829999 29
31.415001 -8.9230003 4.355 32
31.403999 -8.8970003 4.3270001 29
31.372 -8.8660002 4.2969999 35
31.357 -8.8380003 4.2680001 35
31.351 -8.8120003 4.2420001 37
31.319 -8.7799997 4.211 37
31.32 -8.7559996 4.1849999 36
31.327 -8.7329998 4.1589999 37
31.297001 -8.6999998 4.1290002 42
31.318001 -8.6809998 4.1040001 44
31.298 -8.6499996 4.0749998 45
31.291 -8.6219997 4.0469999 43
31.295 -8.5959997 4.02 45
31.296 -8.5699997 3.993 48
31.299999 -8.5439997 3.9660001 41
31.299999 -8.5170002 3.938 48
31.302 -8.4890003 3.911 50
31.306 -8.4619999 3.8840001 51
31.309999 -8.4350004 3.8570001 54
31.315001 -8.4069996 3.829 52
31.333 -8.3830004 3.8039999 52
31.344 -8.3570004 3.777 48
31.365 -8.3319998 3.7509999 47
31.379 -8.3050003 3.724 44
31.391001 -8.2779999 3.6960001 44
31.417999 -8.2539997 3.671 39
31.447001 -8.2299995 3.645 39
31.466999 -8.2030001 3.619 35
31.497 -8.1789999 3.5940001 33
0 0 0 3
20.681 -5.3270001 2.3210001 14
20.621 -5.289 2.2950001 19
20.598 -5.2610002 2.273 22
20.558001 -5.2290001 2.2490001 21
20.527 -5.1989999 2.227 29
20.513 -5.1729999 2.2060001 33
20.489 -5.1440001 2.184 34
20.485001 -5.1199999 2.165 37
20.445 -5.086 2.142 37
20.433001 -5.0599999 2.1210001 40
20.422001 -5.0339999 2.0999999 40
20.433001 -5.013 2.082 45
20.419001 -4.9850001 2.0610001 44
20.412001 -4.9590001 2.0409999 45
20.424999 -4.9380002 2.023 49
20.409 -4.9099998 2.0020001 47
20.412001 -4.8860002 1.983 53
20.414 -4.8610001 1.9630001 56
20.403 -4.8330002 1.943 55
20.419001 -4.8109999 1.925 62
20.407 -4.783 1.904 59
20.414 -4.7589998 1.885 56
20.437 -4.7379999 1.868 40
20.445999 -4.7140002 1.849 57
20.448999 -4.6880002 1.83 57
20.462999 -4.664 1.811 52
20.473 -4.6389999 1.7920001 50
20.482 -4.6139998 1.774 48
20.493 -4.5890002 1.755 43
20.511 -4.566 1.737 40
20.556999 -4.5489998 1.721 32
20.555 -4.52 1.701 40
20.58 -4.4970002 1.683 36
20.636 -4.4809999 1.668 32
20.667 -4.4590001 1.651 32
20.726 -4.4419999 1.635 22
20.792 -4.427 1.6210001 20
20.865 -4.4130001 1.6059999 13
0 0 0 29
31.677999 -6.6090002 2.378 30
31.649 -6.5580001 2.346 31
31.613001 -6.5029998 2.312 33
31.577999 -6.4499998 2.279 35
31.563999 -6.4000001 2.2479999 35
31.521 -6.3449998 2.2149999 36
31.49 -6.2919998 2.1830001 37
31.468 -6.2399998 2.151 39
31.419001 -6.1810002 2.118 39
31.403 -6.1300001 2.086 42
31.381001 -6.0780001 2.0550001 39
31.357 -6.026 2.0239999 42
31.329 -5.9720001 1.992 40
31.290001 -5.9159999 1.96 41
31.278 -5.8649998 1.929 38
31.252001 -5.8099999 1.898 43
31.209999 -5.7529998 1.867 44
31.187 -5.6989999 1.836 42
31.179001 -5.6479998 1.806 38
31.136999 -5.5900002 1.774 43
31.114 -5.5359998 1.743 45
31.09 -5.4819999 1.714 45
31.056999 -5.4250002 1.683 45
31.034 -5.3699999 1.652 45
31.009001 -5.3150001 1.623 44
30.968 -5.256 1.592 43
30.934 -5.1989999 1.561 44
30.926001 -5.1469998 1.533 45
30.888 -5.0879998 1.503 42
30.848 -5.0289998 1.472 42
30.834 -4.9749999 1.443 42
0 0 0 1
9.757 -1.541 0.43900001 11
9.7030001 -1.516 0.428 17
9.6599998 -1.492 0.417 12
9.625 -1.47 0.40700001 15
9.6029997 -1.45 0.39700001 16
9.585 -1.4299999 0.38800001 17
9.5649996 -1.411 0.37900001 24
9.552 -1.392 0.37 25
9.5430002 -1.374 0.361 26
9.5270004 -1.354 0.352 28
9.5089998 -1.335 0.34299999 27
9.4899998 -1.3150001 0.33399999 29
9.4910002 -1.298 0.32600001 27
9.4910002 -1.281 0.317 29
9.4729996 -1.262 0.30899999 30
9.4770002 -1.245 0.301 31
9.4709997 -1.227 0.292 32
9.4610004 -1.2079999 0.28400001 32
9.4540005 -1.1900001 0.27599999 31
9.4460001 -1.1720001 0.26800001 29
9.4460001 -1.154 0.25999999 28
9.4440002 -1.137 0.252 29
9.4320002 -1.117 0.244 31
9.4329996 -1.1 0.236 33
9.4469995 -1.084 0.228 38
9.4390001 -1.0650001 0.221 38
9.4440002 -1.048 0.213 48
9.448 -1.031 0.205 48
9.4429998 -1.013 0.198 45
9.4469995 -0.995 0.191 45
9.4510002 -0.97799999 0.183 42
9.4540005 -0.95999998 0.176 37
9.46 -0.94199997 0.169 38
9.4630003 -0.92500001 0.161 35
9.4770002 -0.90700001 0.154 35
9.4949999 -0.89099997 0.147 37
9.4870005 -0.87199998 0.14 35
9.4960003 -0.85399997 0.133 34
9.5100002 -0.83700001 0.126 32
9.5150003 -0.81900001 0.119 28
9.5430002 -0.80299997 0.112 28
9.5410004 -0.78399998 0.105 27
9.5550003 -0.76700002 0.097999997 26
9.5719995 -0.74900001 0.090999998 25
9.6000004 -0.73299998 0.085000001 24
9.6199999 -0.71499997 0.078000002 24
9.6370001 -0.69800001 0.071000002 23
9.6750002 -0.68099999 0.064999998 14
9.6850004 -0.66299999 0.057999998 21
9.7270002 -0.64600003 0.052000001 19
9.8009996 -0.63200003 0.045000002 14
9.8800001 -0.61699998 0.039000001 5
0 0 0 9
27.827999 -1.628 0.074000001 24
27.749001 -1.568 0.055 30
27.704 -1.51 0.037 34
27.666 -1.452 0.018999999 38
27.635 -1.395 0.001 41
27.613001 -1.3380001 -0.016000001 45
27.607 -1.281 -0.033 52
27.579 -1.224 -0.050999999 63
27.587999 -1.168 -0.068000004 65
27.615 -1.113 -0.085000001 52
27.632 -1.058 -0.102 46
27.649 -1.003 -0.118 41
27.697001 -0.94800001 -0.13500001 38
27.73 -0.89200002 -0.152 33
27.795 -0.838 -0.168 28
27.885 -0.78299999 -0.185 19
0 0 0 1
6.3499999 -0.152 -0.048999999 2
6.3189998 -0.138 -0.052000001 3
6.335 -0.126 -0.056000002 2
6.3319998 -0.113 -0.059 2
6.3249998 -0.1 -0.061999999 2
6.323 -0.086999997 -0.066 2
6.2909999 -0.072999999 -0.068999998 3
6.3330002 -0.061000001 -0.072999999 1
6.3610001 -0.048 -0.075999998 1
6.3940001 -0.035 -0.079999998 1
0 0 0 42
28.357 -0.039999999 -0.38299999 47
28.332001 0.017999999 -0.39700001 45
28.316999 0.075999998 -0.41 38
28.271999 0.13500001 -0.42300001 41
28.243 0.193 -0.435 44
28.216 0.25 -0.44800001 43
28.190001 0.30899999 -0.46000001 48
28.15 0.36700001 -0.472 50
0 0 0 1
12.293 0.211 -0.21600001 13
12.279 0.236 -0.221 23
12.201 0.25999999 -0.22499999 33
12.226 0.28600001 -0.23100001 29
12.196 0.31099999 -0.235 25
12.134 0.33399999 -0.23899999 22
12.117 0.359 -0.243 24
12.152 0.38499999 -0.248 29
12.092 0.40799999 -0.252 25
12.071 0.433 -0.25600001 22
12.071 0.458 -0.25999999 27
12.037 0.48100001 -0.264 33
12.03 0.50599998 -0.26800001 33
12.025 0.53100002 -0.27200001 25
12.024 0.55599999 -0.27599999 33
12.056 0.58200002 -0.28 9
12.1 0.60900003 -0.285 15
12.192 0.639 -0.29100001 9
12.238 0.66600001 -0.296 11
12.282 0.69400001 -0.301 19
12.351 0.72299999 -0.30599999 10
12.418 0.75300002 -0.31200001 9
12.467 0.78100002 -0.31600001 11
12.514 0.81 -0.32100001 12
12.594 0.84200001 -0.32600001 13
12.667 0.87199998 -0.331 10
12.722 0.90200001 -0.336 8
12.798 0.93400002 -0.34099999 10
12.878 0.96600002 -0.34599999 8
0 0 0 23
29.951 2.368 -0.81999999 36
29.908001 2.4260001 -0.82499999 38
29.878 2.484 -0.83099997 36
29.847 2.5420001 -0.83600003 33
29.823 2.6010001 -0.84100002 34
29.816 2.6600001 -0.847 32
29.768 2.7179999 -0.85100001 38
0 0 0 48
14.564 1.388 -0.421 48
14.557 1.4170001 -0.42300001 24
14.546 1.4450001 -0.42500001 37
14.524 1.472 -0.42699999 34
14.514 1.5 -0.428 22
14.498 1.527 -0.43000001 37
14.489 1.5549999 -0.43200001 23
14.474 1.582 -0.433 32
14.456 1.609 -0.43399999 38
14.451 1.637 -0.43599999 23
14.439 1.665 -0.43700001 23
14.428 1.692 -0.43799999 23
14.413 1.7180001 -0.43900001 24
14.506 1.758 -0.44299999 8
14.571 1.795 -0.44600001 8
14.637 1.832 -0.449 7
14.708 1.87 -0.45199999 7
14.796 1.91 -0.456 8
14.859 1.947 -0.45899999 8
14.946 1.987 -0.46200001 10
15.037 2.029 -0.465 7
15.118 2.069 -0.46900001 10
15.21 2.1110001 -0.472 11
0 0 0 0
0 0 0 56
16.705999 2.414 -0.51899999 59
16.707001 2.4460001 -0.51899999 38
16.711 2.4779999 -0.51999998 34
16.714001 2.5109999 -0.51899999 50
16.712 2.5420001 -0.51899999 48
16.698999 2.572 -0.51800001 51
16.716 2.6059999 -0.51800001 49
16.735001 2.6400001 -0.51800001 42
16.733 2.671 -0.51800001 42
16.747 2.704 -0.51800001 34
16.768 2.7390001 -0.51700002 31
16.784 2.773 -0.51700002 30
16.802 2.8069999 -0.51599997 27
16.856001 2.846 -0.51700002 23
16.893999 2.8840001 -0.51700002 21
16.973 2.928 -0.51800001 16
17.049999 2.973 -0.51899999 1
0 0 0 43
32.861 5.849 -0.995 18
32.778 5.8920002 -0.98900002 16
32.532001 5.9060001 -0.97799999 7
32.448002 5.9489999 -0.972 13
32.494999 6.0159998 -0.97000003 21
32.810001 6.131 -0.97600001 38
0 0 0 19
19.027 3.622 -0.56099999 53
19.016001 3.6530001 -0.55800003 39
18.996 3.6819999 -0.55500001 57
18.969999 3.71 -0.551 31
18.989 3.747 -0.54900002 12
0 0 0 1
16.395 3.2909999 -0.46900001 1
16.354 3.3110001 -0.465 1
16.319 3.3310001 -0.461 1
16.261 3.3469999 -0.456 1
16.238001 3.3699999 -0.45300001 1
16.190001 3.3870001 -0.449 1
16.176001 3.411 -0.44499999 1
16.16 3.434 -0.44100001 1
16.146 3.4579999 -0.43700001 1
16.115 3.477 -0.43399999 1
16.128 3.507 -0.43099999 1
16.108999 3.5280001 -0.42699999 1
16.054001 3.5420001 -0.42199999 1
16.059 3.569 -0.41800001 1
16.055 3.5929999 -0.41499999 1
16.034 3.6140001 -0.41 1
16.004999 3.6329999 -0.40599999 1
15.982 3.652 -0.40200001 10
15.942 3.668 -0.39700001 155
15.944 3.6930001 -0.39300001 158
15.938 3.7160001 -0.389 159
15.939 3.74 -0.38499999 160
15.927 3.7620001 -0.38 157
15.911 3.7820001 -0.375 159
15.908 3.8050001 -0.37099999 162
15.885 3.823 -0.36700001 164
15.882 3.846 -0.36199999 169
15.867 3.8659999 -0.35699999 172
15.874 3.891 -0.35299999 182
15.85 3.908 -0.34799999 172
15.848 3.9300001 -0.34299999 182
15.824 3.947 -0.338 182
15.834 3.9719999 -0.33399999 172
15.825 3.9920001 -0.329 182
15.802 4.0079999 -0.32300001 182
15.797 4.0279999 -0.31799999 182
15.745 4.0370002 -0.31200001 182
15.784 4.0679998 -0.308 161
15.75 4.0809999 -0.30199999 15
15.753 4.1030002 -0.29699999 3
15.761 4.1259999 -0.292 12
15.751 4.1440001 -0.287 7
15.742 4.1620002 -0.28200001 10
15.729 4.1789999 -0.27700001 4
15.704 4.1929998 -0.271 22
15.703 4.2129998 -0.26499999 2
15.692 4.2290001 -0.25999999 10
15.693 4.2490001 -0.255 11
15.695 4.2690001 -0.249 9
15.7 4.29 -0.244 8
15.68 4.303 -0.23800001 7
15.687 4.3239999 -0.233 7
15.705 4.348 -0.227 7
15.693 4.3629999 -0.221 6
15.69 4.3800001 -0.21600001 6
15.706 4.4029999 -0.20999999 5
15.712 4.4229999 -0.204 4
15.703 4.4380002 -0.199 3
15.745 4.467 -0.193 2
15.735 4.4819999 -0.18700001 1
15.763 4.507 -0.182 1
15.748 4.52 -0.175 1
15.75 4.5380001 -0.17 1
15.733 4.5500002 -0.164 1
0 0 0 0
0 0 0 0
0 0 0 1
15.835 4.6440001 -0.14 1
15.802 4.6500001 -0.134 1
15.85 4.6810002 -0.12800001 1
15.867 4.7010002 -0.122 1
15.833 4.7059999 -0.115 1
15.86 4.7290001 -0.109 1
15.804 4.7280002 -0.102 1
15.797 4.7399998 -0.096000001 1
0 0 0 0
0 0 0 0
0 0 0 25
0 0 0 25
0 0 0 0
0 0 0 0
0 0 0 0
0 0 0 0
0 0 0 0
0 0 0 25
0 0 0 1
16.118 4.9980001 -0.018999999 1
16.225 5.0440001 -0.012 1
16.316 5.0840001 -0.0060000001 1
16.351 5.1069999 0 1
16.410999 5.1370001 0.0070000002 1
16.392 5.1430001 0.014 1
16.459999 5.1750002 0.021 1
0 0 0 0
0 0 0 25
0 0 0 25
0 0 0 0
0 0 0 1
16.875999 5.3709998 0.064000003 1
16.989 5.4169998 0.071999997 1
17.083 5.4569998 0.079999998 1
0 0 0 0
0 0 0 0
0 0 0 0
0 0 0 1
17.475 5.6290002 0.119 1
17.549 5.6609998 0.127 1
17.620001 5.6919999 0.13500001 1
17.597 5.6929998 0.14300001 1
17.645 5.7160001 0.15000001 1
17.65 5.7259998 0.15800001 1
0 0 0 25
0 0 0 0
0 0 0 0
0 0 0 0
0 0 0 0
0 0 0 1
18.371 6.0079999 0.22 1
18.336 6.0029998 0.227 1
18.393999 6.0279999 0.235 1
18.490999 6.0650001 0.244 1
18.528999 6.0819998 0.25299999 1
18.677 6.1360002 0.26199999 1
18.701 6.1479998 0.271 1
0 0 0 25
0 0 0 25
0 0 0 25
0 0 0 0
0 0 0 3
32.861 10.844 0.55800003 3
34.493 11.388 0.60100001 27
34.487 11.39 0.61500001 39
34.506001 11.401 0.63 52
34.544998 11.417 0.64499998 59
34.560001 11.426 0.66000003 64
34.554001 11.426 0.67400002 71
34.563999 11.432 0.68800002 71
34.549999 11.429 0.70200002 74
34.573002 11.438 0.71700001 77
34.563 11.435 0.73100001 78
34.563999 11.436 0.745 76
34.570999 11.438 0.759 77
34.568001 11.436 0.77200001 76
34.560001 11.432 0.78600001 79
34.557999 11.429 0.801 76
34.566002 11.43 0.81400001 76
34.558998 11.425 0.82800001 74
34.548 11.418 0.84200001 67
34.519001 11.405 0.85500002 62
34.471001 11.384 0.86799997 54
34.422001 11.363 0.87900001 44
32.916 10.861 0.85299999 4
32.938 10.863 0.866 5
32.875999 10.837 0.87800002 6
32.791 10.802 0.889 8
32.821999 10.806 0.90100002 7
32.759998 10.778 0.91299999 7
32.731998 10.76 0.92500001 7
32.641998 10.723 0.93400002 8
32.617001 10.706 0.94599998 7
32.549 10.674 0.95599997 7
32.533001 10.659 0.96799999 8
32.465 10.627 0.97799999 8
32.383999 10.59 0.98699999 8
32.311001 10.555 0.99699998 8
32.236 10.519 1.006 8
32.202 10.496 1.017 9
32.154999 10.468 1.027 8
32.050999 10.422 1.035 8
31.973 10.384 1.044 8
31.889 10.343 1.052 8
31.825001 10.308 1.061 8
31.733 10.264 1.069 8
31.669001 10.229 1.0779999 8
31.573999 10.183 1.086 8
31.509001 10.146 1.094 8
31.396 10.094 1.1 8
31.287001 10.043 1.107 8
31.191 9.9949999 1.114 7
31.089001 9.9449997 1.1210001 12
31.018 9.9049997 1.1289999 45
31.007 9.8839998 1.138 77
31.013 9.8669996 1.149 77
31.037001 9.8559999 1.16 70
31.034 9.8360004 1.169 63
31.044001 9.8199997 1.178 55
0 0 0 1
18.642 5.8720002 0.72000003 1
18.643999 5.8610001 0.72500002 1
18.531 5.8119998 0.72600001 1
18.405001 5.7600002 0.727 1
18.375999 5.7379999 0.73100001 1
18.232 5.6799998 0.73000002 1
18.223 5.6630001 0.73500001 1
18.111 5.6149998 0.736 1
17.945999 5.5489998 0.73400003 1
17.959999 5.54 0.74000001 1
17.915001 5.5120001 0.74299997 1
17.892 5.4899998 0.74699998 1
0 0 0 2
0 0 0 0
0 0 0 0
0 0 0 0
0 0 0 0
0 0 0 1
0 0 0 0
0 0 0 4
31.27 9.3509998 1.377 14
31.283001 9.3260002 1.3839999 29
31.308001 9.3039999 1.393 38
31.315001 9.276 1.401 44
31.327 9.2489996 1.408 45
31.34 9.2220001 1.414 51
31.357 9.1960001 1.423 55
31.367001 9.1680002 1.4299999 59
31.379 9.1389999 1.437 64
31.398001 9.1120005 1.444 72
31.410999 9.0830002 1.451 72
31.426001 9.0539999 1.4579999 67
31.438999 9.0240002 1.465 80
31.437 8.9890003 1.47 85
31.447001 8.9569998 1.476 66
31.486 8.934 1.483 78
31.492001 8.901 1.49 69
31.49 8.8649998 1.495 84
31.517 8.8369999 1.501 94
31.532 8.8039999 1.507 85
31.546 8.7709999 1.512 88
31.551001 8.7360001 1.517 90
31.608999 8.7139997 1.525 58
31.943001 8.7679996 1.545 6
31.931 8.7259998 1.549 2
0 0 0 0
0 0 0 0
0 0 0 0
0 0 0 0
0 0 0 9
24.211 6.4349999 1.192 20
24.174999 6.3940001 1.193 26
24.142 6.3540001 1.194 33
24.118 6.3169999 1.194 29
24.082001 6.276 1.1950001 38
24.076 6.2420001 1.197 42
24.058001 6.2059999 1.198 45
24.048 6.171 1.199 48
24.033001 6.1350002 1.2 51
24.035999 6.1030002 1.202 51
24.011 6.0630002 1.202 54
24.018999 6.0320001 1.2029999 58
24.017 5.9970002 1.205 56
24.023001 5.9660001 1.206 62
24.037001 5.9349999 1.207 56
24.032 5.8990002 1.2079999 52
24.066 5.8730001 1.21 49
24.09 5.8439999 1.212 51
24.097 5.8109999 1.212 48
24.128 5.783 1.214 48
24.158001 5.7550001 1.216 42
24.188999 5.7259998 1.217 39
24.225 5.698 1.219 38
24.257 5.6690001 1.221 34
24.316999 5.6459999 1.223 30
24.365 5.6199999 1.225 23
24.466 5.6069999 1.229 16
24.591999 5.598 1.235 2
0 0 0 1
32.665001 7.3340001 1.637 6
32.673 7.2859998 1.635 18
32.671001 7.2340002 1.633 30
32.699001 7.1880002 1.633 38
32.73 7.1430001 1.632 32
32.742001 7.0939999 1.63 30
32.819 7.0560002 1.632 10
32.759998 6.9920001 1.625 34
32.784 6.9419999 1.624 35
0 0 0 0
0 0 0 0
0 0 0 0
0 0 0 0
0 0 0 6
0 0 0 0
0 0 0 7
0 0 0 0
0 0 0 10
33.015999 6.4400001 1.592 16
32.810001 6.3429999 1.576 31
32.825001 6.29 1.572 49
32.827999 6.2350001 1.567 107
32.838001 6.1789999 1.5599999 100
32.876999 6.1300001 1.556 103
32.907001 6.0770001 1.551 101
32.922001 6.0229998 1.545 106
32.951 5.9710002 1.539 103
32.976002 5.9169998 1.533 99
32.997002 5.8629999 1.527 102
33.046001 5.8119998 1.522 107
33.049 5.7540002 1.5140001 111
0 0 0 12
16.965 2.8929999 0.76899999 17
16.895 2.8510001 0.76099998 24
16.863001 2.8150001 0.755 25
16.846001 2.7820001 0.75 21
16.816 2.747 0.74400002 31
16.784 2.711 0.73799998 32
16.780001 2.6800001 0.73299998 35
16.768999 2.648 0.727 36
16.761 2.6159999 0.722 38
16.759001 2.5840001 0.71600002 31
16.737 2.55 0.70999998 47
16.747 2.52 0.70499998 59
16.739 2.4879999 0.699 60
16.750999 2.4590001 0.69400001 38
16.747999 2.427 0.68800002 38
16.737 2.3940001 0.68099999 59
16.759001 2.3659999 0.676 60
16.771 2.336 0.67000002 55
16.778 2.306 0.66399997 47
16.809 2.2780001 0.65899998 43
16.823 2.2479999 0.653 34
16.854 2.221 0.648 30
16.851 2.188 0.64099997 42
16.875999 2.1600001 0.63499999 41
16.914 2.132 0.62900001 34
16.965 2.1059999 0.62400001 32
17.003 2.0780001 0.61699998 28
17.035999 2.05 0.611 23
17.132999 2.029 0.60699999 15
17.275 2.0120001 0.60399997 1
0 0 0 0
0 0 0 0
0 0 0 2
38.189999 4.1539998 1.2640001 4
38.227001 4.085 1.247 4
38.214001 4.0089998 1.227 4
38.294998 3.9430001 1.21 3
0 0 0 0
0 0 0 18
34.555 3.358 1.038 33
34.650002 3.299 1.023 2
0 0 0 0
0 0 0 0
0 0 0 0
0 0 0 0
0 0 0 3
34.820999 2.908 0.91100001 27
34.768002 2.835 0.889 37
34.553001 2.75 0.86299998 14
34.533001 2.6800001 0.84100002 79
34.568001 2.6159999 0.82099998 78
34.599998 2.5510001 0.801 73
0 0 0 1
30.323 2.1159999 0.66399997 2
30.360001 2.059 0.64499998 3
0 0 0 20
34.779999 2.221 0.69400001 27
34.793999 2.1530001 0.671 28
34.846001 2.089 0.64899999 25
34.866001 2.0209999 0.62599999 19
0 0 0 2
27.802 1.502 0.461 2
27.815001 1.448 0.442 1
0 0 0 8
35.062 1.688 0.50800002 9
35.076 1.619 0.48300001 8
35.112 1.551 0.458 9
35.157001 1.484 0.433 7
0 0 0 0
0 0 0 0
0 0 0 5
0 0 0 0
0 0 0 2
30.827999 0.93800002 0.23999999 5
30.788 0.87699997 0.21600001 9
30.788 0.815 0.191 12
30.788 0.755 0.167 14
30.819 0.69499999 0.142 13
30.853001 0.63499999 0.118 13
30.868 0.57599998 0.093000002 11
30.851999 0.51599997 0.068000004 9
0 0 0 4
28.247 0.36199999 0.015 14
28.235001 0.30700001 -0.0070000002 32
28.25 0.252 -0.030999999 36
28.268 0.197 -0.056000002 44
28.302999 0.142 -0.079999998 38
28.319 0.088 -0.105 47
28.358999 0.032000002 -0.13 37
28.368 -0.022 -0.155 45
28.414 -0.075999998 -0.18000001 43
0 0 0 1
6.3639998 -0.041000001 -0.050999999 1
6.329 -0.052999999 -0.057 1
6.2930002 -0.064999998 -0.061999999 4
6.3189998 -0.078000002 -0.068000004 2
6.2579999 -0.089000002 -0.074000001 6
6.316 -0.102 -0.079999998 48
6.3779998 -0.115 -0.086999997 150
6.3730001 -0.127 -0.093000002 157
6.3270001 -0.139 -0.097999997 155
6.3429999 -0.15099999 -0.105 155
6.3720002 -0.164 -0.111 155
6.3340001 -0.175 -0.117 31
0 0 0 32
27.688 -0.87300003 -0.56599998 35
27.660999 -0.92500001 -0.59299999 40
27.625 -0.97600001 -0.62 45
27.593 -1.026 -0.64700001 49
27.584 -1.08 -0.67500001 52
27.591 -1.13 -0.70200002 59
27.593 -1.182 -0.73000002 42
27.594999 -1.234 -0.759 45
27.610001 -1.286 -0.787 42
27.618999 -1.3380001 -0.81599998 39
27.660999 -1.391 -0.84600002 36
27.686001 -1.444 -0.87599999 31
27.719 -1.497 -0.90600002 26
27.811001 -1.554 -0.93900001 19
27.924999 -1.612 -0.972 7
0 0 0 7
9.79 -0.60100001 -0.361 14
9.7320004 -0.61500001 -0.37 20
9.6800003 -0.62900001 -0.37799999 21
9.6560001 -0.64499998 -0.38800001 14
9.6339998 -0.66100001 -0.39700001 23
9.6090002 -0.67699999 -0.40700001 25
9.5889997 -0.69300002 -0.417 25
9.566 -0.708 -0.426 25
9.5539999 -0.72399998 -0.43599999 25
9.5349998 -0.74000001 -0.44600001 26
9.5220003 -0.75599998 -0.456 26
9.5159998 -0.77200001 -0.46700001 28
9.5039997 -0.78799999 -0.477 29
9.4980001 -0.80400002 -0.48699999 30
9.4849997 -0.81999999 -0.49700001 31
9.4709997 -0.83499998 -0.50700003 30
9.4560003 -0.85100001 -0.51700002 30
9.4490004 -0.86699998 -0.528 30
9.448 -0.88300002 -0.53899997 32
9.4449997 -0.89899999 -0.55000001 32
9.4219999 -0.91299999 -0.55900002 34
9.4469995 -0.93199998 -0.57200003 39
9.4350004 -0.94700003 -0.58200002 40
9.4300003 -0.96200001 -0.59299999 42
9.4289999 -0.97799999 -0.60399997 40
9.4239998 -0.99400002 -0.61500001 41
9.4110003 -1.0089999 -0.625 41
9.4189997 -1.025 -0.63599998 40
9.4200001 -1.041 -0.648 39
9.4189997 -1.057 -0.65899998 39
9.4139996 -1.072 -0.67000002 41
9.4160004 -1.0880001 -0.68099999 37
9.4209995 -1.104 -0.69300002 34
9.4180002 -1.119 -0.704 36
9.4289999 -1.135 -0.71600002 34
9.4189997 -1.15 -0.727 21
9.3830004 -1.16 -0.736 8
0 0 0 0
0 0 0 0
0 0 0 0
0 0 0 0
0 0 0 1
8.6070004 -1.147 -0.73799998 3
8.5109997 -1.147 -0.74000001 4
8.448 -1.152 -0.745 6
8.3290005 -1.149 -0.745 5
8.2209997 -1.147 -0.745 8
8.0270004 -1.132 -0.73799998 5
7.848 -1.119 -0.73100001 4
7.7220001 -1.112 -0.72899997 5
7.6020002 -1.107 -0.727 5
7.4380002 -1.094 -0.72100002 4
7.3200002 -1.0880001 -0.71799999 4
7.204 -1.081 -0.71600002 4
7.0910001 -1.075 -0.713 4
6.9770002 -1.068 -0.71100003 4
6.8920002 -1.0650001 -0.70999998 4
6.8109999 -1.062 -0.71100003 4
6.7399998 -1.061 -0.71200001 2
6.6389999 -1.054 -0.70899999 1
6.5560002 -1.051 -0.70899999 1
