# .PCD v0.7 - Point Cloud Data file format
VERSION 0.7
FIELDS x y z intensity
SIZE 4 4 4 4
TYPE F F F F
COUNT 1 1 1 1
WIDTH 1763
HEIGHT 1
VIEWPOINT 0 0 0 1 0 0 0
POINTS 1763
DATA ascii
0 0 0 0
0 0 0 30
0 0 0 0
0 0 0 34
84.630997 -0.094999999 1.825 28
87.348 -0.161 1.712 20
87.695999 -0.226 1.544 18
0 0 0 0
0 0 0 0
0 0 0 26
73.542 -0.40099999 0.70899999 59
72.731003 -0.44800001 0.55299997 46
72.108002 -0.49399999 0.405 20
0 0 0 0
0 0 0 0
0 0 0 15
0 0 0 26
74.349998 -0.76200002 -0.33399999 55
74.316002 -0.81099999 -0.48199999 66
74.390999 -0.861 -0.63499999 81
74.384003 -0.90899998 -0.787 45
73.656998 -0.94700003 -0.92900002 61
73.411003 -0.991 -1.075 123
73.419998 -1.0369999 -1.227 51
71.209 -1.05 -1.3329999 41
71.167999 -1.094 -1.482 135
71.156998 -1.136 -1.623 59
0 0 0 0
0 0 0 7
67.974998 -1.206 -1.966 31
67.980003 -1.2460001 -2.105 50
67.949997 -1.284 -2.2420001 72
67.963997 -1.323 -2.382 47
67.898003 -1.36 -2.5190001 13
0 0 0 6
0 0 0 0
0 0 0 11
0 0 0 0
0 0 0 0
0 0 0 0
0 0 0 0
0 0 0 0
0 0 0 0
0 0 0 1
0 0 0 1
18.591999 -0.48699999 -1.148 1
0 0 0 2
16.323999 -0.44299999 -1.074 2
15.416 -0.42500001 -1.0470001 2
14.637 -0.41 -1.024 3
13.896 -0.396 -1 3
13.203 -0.382 -0.977 3
12.541 -0.368 -0.954 2
11.99 -0.35699999 -0.93699998 3
11.481 -0.347 -0.921 3
11.013 -0.33700001 -0.90600002 2
10.507 -0.32600001 -0.88599998 2
10.077 -0.31600001 -0.87099999 2
9.6059999 -0.30500001 -0.84899998 3
9.2370005 -0.29699999 -0.83600003 4
8.8699999 -0.289 -0.82099998 3
8.5139999 -0.28 -0.80500001 4
8.2119999 -0.273 -0.79299998 3
7.9169998 -0.266 -0.78100002 4
7.638 -0.259 -0.76899999 5
7.3969998 -0.25400001 -0.75999999 5
7.1830001 -0.249 -0.75300002 4
6.9580002 -0.243 -0.74299997 3
6.7319999 -0.23800001 -0.73299998 5
6.5159998 -0.23199999 -0.722 9
6.3540001 -0.228 -0.71799999 10
6.1999998 -0.22400001 -0.71200001 11
6.0380001 -0.22 -0.70599997 12
5.8839998 -0.21600001 -0.69999999 11
5.7470002 -0.213 -0.69499999 11
5.6329999 -0.20999999 -0.69300002 9
5.5510001 -0.20900001 -0.69400001 7
5.4190001 -0.205 -0.68800002 3
5.2680001 -0.20100001 -0.68000001 3
5.1539998 -0.198 -0.67500001 3
5.0339999 -0.19400001 -0.67000002 2
4.9400001 -0.192 -0.667 3
4.836 -0.189 -0.66299999 3
4.723 -0.185 -0.65700001 2
4.6329999 -0.183 -0.653 2
4.5549998 -0.18099999 -0.65100002 2
4.4650002 -0.178 -0.64700001 2
4.4130001 -0.177 -0.648 4
4.27 -0.17200001 -0.63599998 2
4.2270002 -0.171 -0.63800001 2
4.2030001 -0.171 -0.64300001 2
4.1240001 -0.168 -0.639 2
4.0440001 -0.16500001 -0.634 2
4.006 -0.16500001 -0.63599998 2
3.8829999 -0.16 -0.62400001 2
3.9400001 -0.163 -0.64099997 2
3.8740001 -0.161 -0.63800001 3
3.7639999 -0.15700001 -0.62699997 2
3.698 -0.154 -0.62300003 2
3.7019999 -0.155 -0.63099998 3
3.5829999 -0.15000001 -0.61799997 2
3.536 -0.149 -0.616 2
3.464 -0.146 -0.61000001 2
3.4419999 -0.146 -0.61299998 2
3.4489999 -0.146 -0.62099999 2
3.381 -0.14300001 -0.61500001 2
3.369 -0.14300001 -0.61900002 2
3.369 -0.14300001 -0.62599999 2
3.1989999 -0.13600001 -0.60000002 2
3.155 -0.13500001 -0.59799999 3
3.1340001 -0.134 -0.60000002 2
3.0880001 -0.132 -0.59600002 2
3.105 -0.133 -0.60600001 2
3.0929999 -0.132 -0.60900003 2
3.0680001 -0.131 -0.61000001 2
2.9749999 -0.127 -0.597 1
2.8900001 -0.124 -0.58499998 2
2.869 -0.123 -0.58600003 2
2.8369999 -0.122 -0.58499998 2
2.8150001 -0.121 -0.58499998 4
2.7939999 -0.12 -0.58600003 5
2.7820001 -0.119 -0.588 5
2.747 -0.118 -0.58600003 3
2.707 -0.116 -0.58200002 2
2.675 -0.114 -0.57999998 2
2.6440001 -0.113 -0.57800001 2
2.6199999 -0.112 -0.57700002 2
2.5999999 -0.111 -0.57700002 2
2.5710001 -0.11 -0.57599998 2
2.5480001 -0.108 -0.57499999 1
2.527 -0.107 -0.574 1
2.5 -0.106 -0.57300001 1
2.477 -0.105 -0.57200003 1
2.4579999 -0.104 -0.57099998 1
2.4349999 -0.103 -0.56999999 1
2.415 -0.102 -0.56999999 1
2.401 -0.101 -0.56999999 1
2.375 -0.098999999 -0.56800002 1
2.355 -0.097999997 -0.56699997 1
2.335 -0.097000003 -0.56599998 1
2.322 -0.096000001 -0.56699997 2
2.3039999 -0.094999999 -0.56599998 2
2.28 -0.093999997 -0.56400001 1
2.266 -0.093000002 -0.565 1
2.2449999 -0.092 -0.56300002 1
2.23 -0.090999998 -0.56300002 1
2.2130001 -0.090000004 -0.56199998 1
2.2019999 -0.089000002 -0.56300002 1
2.1849999 -0.088 -0.56199998 1
2.1730001 -0.086999997 -0.56199998 2
2.158 -0.086999997 -0.56199998 1
2.1429999 -0.086000003 -0.56099999 1
2.1240001 -0.083999999 -0.55900002 1
2.108 -0.082999997 -0.55800003 1
2.086 -0.082000002 -0.55599999 1
2.086 -0.082000002 -0.55900002 1
2.0680001 -0.081 -0.55699998 1
2.056 -0.079999998 -0.55699998 1
2.0380001 -0.079000004 -0.55500001 1
2.0280001 -0.078000002 -0.55599999 1
2.0109999 -0.077 -0.55400002 1
1.998 -0.075999998 -0.55299997 1
1.993 -0.075000003 -0.55500001 1
1.984 -0.075000003 -0.55500001 1
1.97 -0.074000001 -0.55400002 1
1.961 -0.072999999 -0.55400002 1
1.9450001 -0.071999997 -0.55199999 1
1.931 -0.071000002 -0.551 1
1.927 -0.07 -0.55199999 1
1.911 -0.068999998 -0.551 1
1.903 -0.068000004 -0.551 1
1.897 -0.068000004 -0.55199999 1
1.883 -0.067000002 -0.55000001 1
1.883 -0.066 -0.55299997 1
1.863 -0.064999998 -0.54900002 1
1.853 -0.064000003 -0.54900002 1
1.849 -0.064000003 -0.55000001 1
1.839 -0.063000001 -0.54900002 1
1.8279999 -0.061999999 -0.54799998 1
1.816 -0.061000001 -0.54699999 1
1.812 -0.059999999 -0.54799998 1
1.801 -0.059 -0.54699999 1
1.8 -0.059 -0.54900002 1
1.7869999 -0.057999998 -0.54699999 1
1.78 -0.057 -0.54699999 1
1.7819999 -0.057 -0.55000001 1
1.7589999 -0.056000002 -0.54500002 1
1.751 -0.055 -0.54400003 1
1.75 -0.054000001 -0.546 1
1.74 -0.052999999 -0.54500002 1
1.734 -0.052999999 -0.54500002 1
1.73 -0.052000001 -0.546 1
1.706 -0.050999999 -0.54000002 1
1.709 -0.050000001 -0.54299998 1
1.6950001 -0.048999999 -0.54000002 1
1.6849999 -0.048 -0.53899997 1
1.678 -0.048 -0.53899997 1
1.673 -0.046999998 -0.53899997 1
1.668 -0.046 -0.53899997 1
1.658 -0.045000002 -0.537 1
1.656 -0.045000002 -0.53799999 1
1.652 -0.044 -0.53799999 1
1.646 -0.044 -0.53799999 1
1.633 -0.043000001 -0.53500003 1
1.637 -0.041999999 -0.53799999 1
1.627 -0.041000001 -0.53600001 1
1.6210001 -0.041000001 -0.53600001 1
1.624 -0.039999999 -0.53799999 1
1.612 -0.039000001 -0.53600001 1
1.61 -0.039000001 -0.537 1
1.607 -0.037999999 -0.537 1
1.602 -0.037 -0.537 1
1.5880001 -0.035999998 -0.53299999 1
1.5880001 -0.035999998 -0.53500003 1
1.585 -0.035 -0.53500003 1
1.576 -0.034000002 -0.53299999 1
1.575 -0.034000002 -0.53399998 1
1.576 -0.033 -0.53600001 1
1.568 -0.032000002 -0.53399998 1
1.573 -0.032000002 -0.537 1
1.559 -0.030999999 -0.53399998 1
1.552 -0.029999999 -0.53200001 1
1.5599999 -0.029999999 -0.53600001 1
1.5549999 -0.028999999 -0.53500003 1
1.55 -0.028999999 -0.53500003 1
1.545 -0.028000001 -0.53399998 1
1.54 -0.027000001 -0.53399998 1
1.5369999 -0.027000001 -0.53299999 1
1.5369999 -0.026000001 -0.53399998 1
1.5369999 -0.025 -0.53500003 1
1.529 -0.025 -0.53299999 1
1.536 -0.024 -0.537 1
1.523 -0.023 -0.53299999 1
1.5190001 -0.023 -0.53200001 1
1.525 -0.022 -0.53500003 1
1.516 -0.022 -0.53299999 1
1.525 -0.021 -0.537 1
1.52 -0.02 -0.53600001 1
1.516 -0.02 -0.53500003 1
1.5089999 -0.018999999 -0.53299999 1
1.501 -0.017999999 -0.53100002 1
1.505 -0.017999999 -0.53399998 1
1.508 -0.017000001 -0.53500003 1
1.498 -0.017000001 -0.53200001 1
1.508 -0.016000001 -0.53600001 1
1.493 -0.015 -0.53200001 1
1.493 -0.015 -0.53200001 1
1.493 -0.014 -0.53299999 1
1.495 -0.014 -0.53399998 1
1.49 -0.013 -0.53299999 1
1.488 -0.012 -0.53200001 1
1.488 -0.012 -0.53299999 1
1.4809999 -0.011 -0.53100002 1
1.488 -0.0099999998 -0.53299999 1
1.487 -0.0099999998 -0.53399998 1
1.482 -0.0089999996 -0.53200001 1
1.49 -0.0089999996 -0.53500003 1
1.482 -0.0080000004 -0.53299999 1
1.4859999 -0.0070000002 -0.53500003 1
1.48 -0.0070000002 -0.53299999 1
1.4809999 -0.0060000001 -0.53299999 1
1.479 -0.0060000001 -0.53299999 1
1.475 -0.0049999999 -0.53200001 1
1.484 -0.0040000002 -0.53500003 1
1.4809999 -0.0040000002 -0.53399998 1
1.478 -0.003 -0.53299999 1
1.473 -0.003 -0.53100002 1
1.473 -0.0020000001 -0.53200001 1
1.477 -0.0020000001 -0.53299999 1
1.478 -0.001 -0.53299999 1
1.475 0 -0.53200001 1
1.475 0 -0.53200001 1
1.476 0 -0.53299999 1
1.48 0 -0.53399998 1
1.478 0.001 -0.53299999 1
1.477 0.0020000001 -0.53299999 1
1.48 0.0020000001 -0.53399998 1
1.476 0.003 -0.53200001 1
1.477 0.003 -0.53200001 1
1.478 0.0040000002 -0.53299999 1
1.478 0.0040000002 -0.53200001 1
1.4809999 0.0049999999 -0.53299999 1
1.48 0.0060000001 -0.53299999 1
1.484 0.0060000001 -0.53399998 1
1.4809999 0.0070000002 -0.53200001 1
1.483 0.0070000002 -0.53299999 1
1.4859999 0.0080000004 -0.53299999 1
1.485 0.0089999996 -0.53299999 1
1.485 0.0089999996 -0.53200001 1
1.49 0.0099999998 -0.53399998 1
1.4960001 0.0099999998 -0.53600001 1
1.488 0.011 -0.53200001 1
1.492 0.011 -0.53299999 1
1.4960001 0.012 -0.53399998 1
1.495 0.013 -0.53299999 1
1.492 0.013 -0.53200001 1
1.493 0.014 -0.53100002 1
1.4910001 0.014 -0.52999997 1
1.5 0.015 -0.53200001 1
1.505 0.016000001 -0.53399998 1
1.505 0.016000001 -0.53299999 1
1.501 0.017000001 -0.53100002 1
1.506 0.017000001 -0.53200001 1
1.506 0.017999999 -0.53100002 1
1.51 0.017999999 -0.53200001 1
1.516 0.018999999 -0.53299999 1
1.516 0.02 -0.53299999 1
1.521 0.02 -0.53399998 1
1.526 0.021 -0.53500003 1
1.531 0.021 -0.53500003 1
1.536 0.022 -0.53600001 1
1.533 0.022 -0.53399998 1
1.535 0.023 -0.53399998 1
1.534 0.024 -0.53299999 1
1.541 0.024 -0.53399998 1
1.548 0.025 -0.53600001 1
1.5470001 0.025 -0.53399998 1
1.558 0.026000001 -0.537 1
1.55 0.026000001 -0.53299999 1
1.554 0.027000001 -0.53399998 1
1.563 0.028000001 -0.53500003 1
1.5599999 0.028000001 -0.53299999 1
1.5700001 0.028999999 -0.53600001 1
1.573 0.028999999 -0.53500003 1
1.573 0.029999999 -0.53399998 1
1.576 0.030999999 -0.53399998 1
1.577 0.030999999 -0.53299999 1
1.585 0.032000002 -0.53500003 1
1.586 0.032000002 -0.53299999 1
1.595 0.033 -0.53500003 1
1.599 0.033 -0.53500003 1
1.604 0.034000002 -0.53500003 1
1.605 0.035 -0.53399998 1
1.615 0.035 -0.53600001 1
1.624 0.035999998 -0.53799999 1
1.625 0.035999998 -0.53600001 1
1.637 0.037 -0.53899997 1
1.6390001 0.037999999 -0.53799999 1
1.64 0.037999999 -0.537 1
1.649 0.039000001 -0.53799999 1
1.649 0.039000001 -0.53600001 1
1.65 0.039999999 -0.53500003 1
1.665 0.041000001 -0.53799999 1
1.67 0.041000001 -0.53799999 1
1.678 0.041999999 -0.53899997 1
1.686 0.041999999 -0.54000002 1
1.694 0.043000001 -0.54100001 1
1.7079999 0.044 -0.54299998 1
1.71 0.044 -0.542 1
1.7180001 0.045000002 -0.54299998 1
1.725 0.046 -0.54299998 1
1.735 0.046 -0.54400003 1
1.7410001 0.046999998 -0.54400003 1
1.739 0.046999998 -0.542 1
1.753 0.048 -0.54400003 1
1.761 0.048999999 -0.54400003 1
1.767 0.048999999 -0.54400003 1
1.774 0.050000001 -0.54400003 1
1.78 0.050000001 -0.54400003 1
1.7920001 0.050999999 -0.54500002 1
1.8 0.052000001 -0.54500002 1
1.806 0.052000001 -0.54500002 1
1.817 0.052999999 -0.546 1
1.8279999 0.054000001 -0.54699999 1
1.835 0.054000001 -0.54699999 1
1.837 0.055 -0.54500002 1
1.8559999 0.056000002 -0.54799998 1
1.863 0.056000002 -0.54799998 1
1.875 0.057 -0.54900002 1
1.878 0.057 -0.54699999 1
1.892 0.057999998 -0.54900002 1
1.901 0.059 -0.54900002 1
1.915 0.059 -0.55000001 1
1.923 0.059999999 -0.55000001 1
1.9400001 0.061000001 -0.55199999 1
1.9400001 0.061000001 -0.54900002 1
1.95 0.061000001 -0.55000001 1
1.96 0.061999999 -0.54900002 1
1.971 0.063000001 -0.55000001 1
1.984 0.063000001 -0.551 1
1.999 0.064000003 -0.55199999 1
2.0120001 0.064999998 -0.55199999 1
2.0150001 0.064999998 -0.55000001 1
2.027 0.066 -0.551 1
2.0510001 0.067000002 -0.55400002 1
2.062 0.067000002 -0.55400002 1
2.0710001 0.068000004 -0.55299997 1
2.0929999 0.068999998 -0.55599999 1
2.1029999 0.068999998 -0.55500001 1
2.1240001 0.07 -0.55800003 1
2.142 0.071000002 -0.55900002 1
2.1589999 0.071000002 -0.56 1
2.1760001 0.071999997 -0.56099999 2
2.188 0.072999999 -0.56099999 2
2.2079999 0.072999999 -0.56199998 2
2.217 0.074000001 -0.56099999 1
2.234 0.074000001 -0.56199998 1
2.26 0.075000003 -0.565 2
2.277 0.075999998 -0.565 2
2.2920001 0.077 -0.565 2
2.3050001 0.077 -0.565 2
2.3310001 0.078000002 -0.56699997 2
2.348 0.079000004 -0.56699997 2
2.3670001 0.079000004 -0.56800002 2
2.3829999 0.079999998 -0.56800002 2
2.4070001 0.081 -0.56999999 2
2.4230001 0.081 -0.56900001 2
2.4400001 0.082000002 -0.56900001 2
2.4530001 0.082000002 -0.56800002 2
2.487 0.082999997 -0.57200003 2
2.506 0.083999999 -0.57200003 2
2.533 0.083999999 -0.57300001 2
2.55 0.085000001 -0.57300001 2
2.5780001 0.086000003 -0.57499999 2
2.6010001 0.086000003 -0.57499999 2
2.622 0.086999997 -0.57499999 2
2.6359999 0.086999997 -0.574 2
2.671 0.088 -0.57700002 2
2.6989999 0.089000002 -0.57800001 2
2.7260001 0.089000002 -0.579 2
2.7460001 0.090000004 -0.57800001 1
2.9070001 0.094999999 -0.60699999 1
2.9360001 0.094999999 -0.60799998 1
2.905 0.093999997 -0.59600002 1
2.9949999 0.096000001 -0.60900003 1
2.9619999 0.094999999 -0.597 1
3.03 0.097000003 -0.60500002 2
3.0869999 0.097999997 -0.611 2
3.039 0.096000001 -0.59600002 1
3.1359999 0.098999999 -0.60900003 2
3.1489999 0.098999999 -0.60600001 1
3.1930001 0.1 -0.60799998 2
3.2969999 0.102 -0.62199998 2
3.207 0.098999999 -0.59899998 2
3.2509999 0.1 -0.60100001 2
3.3299999 0.101 -0.60900003 2
3.401 0.103 -0.616 2
3.4590001 0.104 -0.62 2
3.454 0.103 -0.61199999 2
3.483 0.103 -0.611 2
3.5239999 0.104 -0.611 2
3.576 0.104 -0.61299998 2
3.645 0.105 -0.61799997 2
3.7049999 0.106 -0.62099999 2
3.766 0.107 -0.62400001 2
3.825 0.108 -0.62699997 2
3.983 0.111 -0.64499998 3
3.961 0.109 -0.63300002 2
3.9649999 0.108 -0.62599999 2
4.0180001 0.109 -0.62699997 3
4.1409998 0.111 -0.63800001 3
4.1799998 0.111 -0.63599998 4
4.2309999 0.111 -0.63499999 3
4.3169999 0.112 -0.63999999 3
4.4239998 0.113 -0.64700001 2
4.4770002 0.113 -0.64600003 2
4.5570002 0.113 -0.64899999 2
4.6440001 0.114 -0.65200001 2
4.7470002 0.115 -0.65700001 3
4.8319998 0.115 -0.65899998 3
4.9130001 0.115 -0.66000003 3
5.0320001 0.116 -0.66600001 3
5.1360002 0.117 -0.67000002 3
5.2589998 0.118 -0.676 5
5.381 0.118 -0.68099999 3
5.5029998 0.119 -0.685 3
5.6329999 0.119 -0.69 3
5.7820001 0.12 -0.69700003 3
5.9120002 0.12 -0.70099998 3
6.0770001 0.121 -0.708 3
6.257 0.122 -0.71600002 4
6.4390001 0.122 -0.72399998 5
6.5960002 0.123 -0.72799999 5
6.7800002 0.123 -0.73500001 6
6.9970002 0.124 -0.745 7
7.197 0.124 -0.75099999 7
7.408 0.124 -0.75800002 7
7.684 0.125 -0.77100003 9
7.9200001 0.125 -0.77899998 7
8.2010002 0.125 -0.79000002 5
8.5609999 0.126 -0.80699998 4
8.8769999 0.126 -0.81900001 4
9.2709999 0.127 -0.83600003 3
9.6759996 0.12800001 -0.85299999 3
10.093 0.12800001 -0.87 3
0 0 0 6
11.176 0.12899999 -0.91799998 14
11.457 0.126 -0.91799998 13
11.895 0.124 -0.92900002 5
12.47 0.123 -0.94800001 3
0 0 0 3
13.877 0.121 -0.99800003 4
14.562 0.118 -1.018 3
15.384 0.116 -1.044 2
16.266001 0.112 -1.071 3
0 0 0 2
0 0 0 2
18.809 0.094999999 -1.124 1
0 0 0 1
0 0 0 0
0 0 0 1
0 0 0 0
0 0 0 0
0 0 0 0
0 0 0 0
0 0 0 9
53.196999 -0.048 -2.2090001 152
53.252998 -0.085000001 -2.1029999 175
53.292 -0.122 -1.998 226
53.271999 -0.16 -1.89 207
53.272999 -0.199 -1.7819999 159
53.263 -0.237 -1.674 26
0 0 0 18
94.158997 -0.55800003 -2.5829999 21
94.227997 -0.62699997 -2.4000001 19
94.208 -0.699 -2.2079999 19
0 0 0 0
0 0 0 20
94.425003 -0.91799998 -1.6440001 51
94.539001 -0.99299997 -1.457 42
0 0 0 0
0 0 0 66
74.352997 -0.95700002 -0.70200002 66
73.549004 -1.006 -0.54799998 112
73.445999 -1.0650001 -0.40099999 89
0 0 0 46
68.724998 -1.109 -0.102 47
69.207001 -1.175 0.035 19
69.318001 -1.234 0.168 14
68.07 -1.2690001 0.29899999 150
68.029999 -1.326 0.433 147
68.091003 -1.386 0.56800002 22
0 0 0 0
0 0 0 0
0 0 0 7
57.601002 -1.372 0.92799997 36
57.377998 -1.418 1.0369999 60
57.136002 -1.4630001 1.143 53
56.360001 -1.493 1.2359999 21
55.330002 -1.516 1.3200001 31
54.472 -1.5420001 1.405 30
53.780998 -1.571 1.4910001 30
53.182999 -1.603 1.577 34
52.584 -1.633 1.659 31
52.228001 -1.67 1.7460001 66
52.235001 -1.719 1.845 38
52.221001 -1.768 1.944 5
0 0 0 0
0 0 0 0
0 0 0 0
0 0 0 15
51.644001 -1.995 2.4100001 22
51.290001 -2.0320001 2.4890001 37
51.250999 -2.0810001 2.5840001 49
49.995998 -2.079 2.6140001 49
49.889 -2.1240001 2.7019999 54
48.784 -2.1259999 2.733 12
48.249001 -2.151 2.7920001 26
48.196999 -2.197 2.878 57
48.200001 -2.2449999 2.9660001 68
48.199001 -2.2939999 3.0539999 68
48.214001 -2.3440001 3.1440001 68
48.198002 -2.3929999 3.2320001 69
48.230999 -2.444 3.322 67
48.228001 -2.494 3.4089999 56
0 0 0 10
44.438 -2.3889999 3.299 11
44.188 -2.421 3.358 51
44.185001 -2.4679999 3.437 63
43.888 -2.497 3.4920001 38
43.220001 -2.5050001 3.516 55
43.213001 -2.5510001 3.592 64
43.208 -2.595 3.665 62
42.055 -2.5710001 3.642 35
41.869999 -2.605 3.7 59
41.882 -2.651 3.7739999 57
41.785 -2.6889999 3.836 50
40.556999 -2.654 3.793 41
40.515999 -2.6949999 3.858 50
40.518002 -2.7390001 3.928 51
40.316002 -2.77 3.977 42
39.221001 -2.737 3.9349999 52
39.182999 -2.777 3.997 59
39.195999 -2.8210001 4.0650001 55
39.151001 -2.862 4.1259999 50
37.903999 -2.813 4.0580001 38
37.831001 -2.849 4.1129999 56
37.846001 -2.8929999 4.177 57
37.729 -2.9260001 4.2280002 29
36.549999 -2.8759999 4.1560001 9
36.172001 -2.8870001 4.1719999 11
36.023998 -2.9159999 4.2140002 47
36.030998 -2.957 4.2740002 60
36.028999 -2.9979999 4.3319998 57
36.032001 -3.039 4.3899999 55
36.040001 -3.0810001 4.448 55
36.035999 -3.1210001 4.5050001 58
36.058998 -3.164 4.5650001 57
36.061001 -3.2060001 4.6220002 56
36.055 -3.247 4.678 58
36.060001 -3.2880001 4.7340002 56
36.074001 -3.3310001 4.7919998 56
36.077999 -3.372 4.848 52
36.070999 -3.4130001 4.902 57
36.074001 -3.4549999 4.9569998 60
36.077 -3.4960001 5.0120001 61
36.084 -3.539 5.0669999 64
36.092999 -3.5810001 5.1230001 60
36.103001 -3.6240001 5.178 61
36.103001 -3.6659999 5.2309999 59
36.112999 -3.7090001 5.2859998 58
36.125999 -3.7520001 5.3410001 60
36.112 -3.7920001 5.3909998 59
36.120998 -3.835 5.4450002 55
36.127998 -3.878 5.4980001 55
36.122002 -3.9189999 5.5479999 53
36.129002 -3.9619999 5.6009998 56
36.131001 -4.0029998 5.652 55
36.150002 -4.0479999 5.7049999 19
36.221001 -4.098 5.7670002 4
36.209 -4.1389999 5.8150001 3
36.264 -4.1869998 5.8740001 5
36.303001 -4.2329998 5.9289999 2
36.424 -4.29 5.9990001 3
36.391998 -4.3280001 6.0419998 4
36.483002 -4.382 6.1059999 4
36.368999 -4.4099998 6.1360002 6
36.202 -4.4330001 6.1550002 11
36.006001 -4.4489999 6.1700001 17
35.902 -4.4780002 6.1989999 24
35.715 -4.4959998 6.2129998 26
35.551998 -4.5170002 6.23 27
35.391998 -4.5370002 6.2459998 27
35.171001 -4.5500002 6.2519999 26
34.965 -4.5630002 6.2589998 26
34.749001 -4.5749998 6.2639999 26
34.567001 -4.5910001 6.2729998 26
34.334999 -4.5999999 6.2729998 25
0 0 0 10
28.43 -3.8740001 5.263 19
28.385 -3.9000001 5.2880001 24
28.344 -3.927 5.3140001 28
28.299 -3.9530001 5.3379998 30
28.275 -3.9820001 5.3670001 38
28.246 -4.0100002 5.3940001 38
28.219 -4.039 5.4219999 40
28.198999 -4.0679998 5.4499998 41
28.191 -4.099 5.48 46
28.169001 -4.1279998 5.507 44
28.145 -4.1560001 5.533 46
28.142 -4.1859999 5.5630002 50
28.142 -4.2179999 5.5939999 53
28.124001 -4.2470002 5.6209998 53
28.136999 -4.2810001 5.6529999 53
28.118999 -4.3099999 5.6789999 53
28.125999 -4.342 5.71 52
28.132999 -4.375 5.7399998 43
28.136999 -4.4060001 5.77 48
28.136999 -4.4380002 5.7979999 43
28.150999 -4.4699998 5.829 36
28.158001 -4.5019999 5.8579998 39
28.171 -4.5349998 5.8889999 38
28.197001 -4.5700002 5.921 31
28.208 -4.6020002 5.9510002 35
28.242001 -4.638 5.9850001 32
28.247999 -4.6690001 6.0120001 29
28.309 -4.71 6.0510001 26
28.341 -4.7449999 6.085 21
28.499001 -4.803 6.1440001 18
29.635 -5.0250001 6.415 22
29.643999 -5.0580001 6.4429998 28
29.541 -5.072 6.447 26
29.438 -5.085 6.4499998 28
29.346001 -5.099 6.454 26
29.240999 -5.1110001 6.4549999 27
29.163 -5.1279998 6.4619999 26
29.070999 -5.1420002 6.4660001 28
28.985001 -5.1560001 6.4699998 28
28.909 -5.1719999 6.4759998 28
28.791 -5.1799998 6.4720001 29
28.733999 -5.1989999 6.4809999 25
28.628 -5.2090001 6.4790001 25
28.559 -5.2249999 6.4850001 23
28.462 -5.2360001 6.4840002 24
28.378 -5.2490001 6.4860001 23
28.283001 -5.2589998 6.4840002 23
28.216999 -5.2740002 6.4889998 24
28.131001 -5.2849998 6.4889998 28
28.072001 -5.302 6.494 25
28.01 -5.3169999 6.4990001 24
27.919001 -5.3270001 6.4959998 29
27.879999 -5.3460002 6.5050001 29
27.802 -5.3579998 6.5050001 24
27.747 -5.3730001 6.5100002 23
27.673 -5.3850002 6.5089998 27
27.584999 -5.3930001 6.5050001 27
27.545 -5.4099998 6.5120001 29
27.482 -5.4239998 6.513 25
27.436001 -5.4400001 6.5180001 31
27.374001 -5.4530001 6.5190001 29
27.312 -5.4650002 6.52 28
27.257999 -5.4780002 6.5219998 29
27.209 -5.493 6.5250001 30
27.160999 -5.507 6.527 30
27.104 -5.52 6.527 28
27.052 -5.5320001 6.527 28
27.003 -5.546 6.5279999 27
26.957001 -5.559 6.5300002 24
26.907 -5.5710001 6.5310001 25
26.858 -5.5840001 6.5310001 30
26.806999 -5.5960002 6.5300002 28
0 0 0 6
20.441999 -4.3000002 4.9970002 15
20.384001 -4.3049998 4.9910002 18
20.356001 -4.316 4.9910002 20
20.333 -4.3270001 4.993 22
20.292999 -4.3340001 4.9910002 25
20.264999 -4.3439999 4.9910002 26
20.246 -4.355 4.993 28
20.235001 -4.368 4.9980001 31
20.211 -4.3790002 4.9980001 33
20.188 -4.3889999 4.9990001 34
20.179001 -4.402 5.0019999 34
20.162001 -4.4130001 5.0040002 37
20.128 -4.421 5.0009999 36
20.122999 -4.434 5.0050001 39
20.117001 -4.4460001 5.0089998 40
20.096001 -4.4559999 5.0079999 41
20.098 -4.4710002 5.013 41
20.077999 -4.48 5.013 41
20.082001 -4.4949999 5.0170002 31
20.061001 -4.5040002 5.0159998 43
20.056 -4.5159998 5.0190001 44
20.059 -4.5300002 5.0219998 44
20.056 -4.5419998 5.0250001 43
20.044001 -4.5510001 5.0250001 49
20.038 -4.5630002 5.027 48
20.041 -4.5760002 5.0300002 48
20.034 -4.5869999 5.0300002 47
20.044001 -4.6009998 5.0349998 35
20.023001 -4.6090002 5.0310001 35
20.011999 -4.618 5.0300002 49
20.016001 -4.6300001 5.033 52
20.01 -4.6399999 5.033 49
19.997 -4.6479998 5.0300002 48
20.011999 -4.6630001 5.0339999 51
20.004 -4.6719999 5.033 50
20.011999 -4.684 5.0349998 37
20.009001 -4.6939998 5.0349998 50
20.004999 -4.704 5.033 51
20.004999 -4.7140002 5.033 50
20.004 -4.724 5.0320001 51
19.988001 -4.73 5.027 51
19.993999 -4.7410002 5.027 48
20.006001 -4.7529998 5.0279999 48
20.004999 -4.7620001 5.027 47
19.989 -4.7670002 5.0209999 47
19.987 -4.776 5.0180001 46
19.990999 -4.7849998 5.0170002 46
19.997999 -4.7950001 5.0159998 44
19.985001 -4.8010001 5.0100002 41
19.990999 -4.8099999 5.0089998 41
19.979 -4.8150001 5.0019999 44
19.993 -4.8270001 5.0019999 47
20.007 -4.8369999 5.0019999 35
19.997999 -4.842 4.9959998 45
20 -4.849 4.993 45
20.007999 -4.8579998 4.9910002 47
19.995001 -4.862 4.9829998 47
19.985001 -4.8660002 4.9759998 45
20.004 -4.8759999 4.9759998 47
20.023001 -4.8870001 4.9759998 47
19.997999 -4.8870001 4.9640002 43
20.01 -4.8959999 4.961 43
19.996 -4.8979998 4.9520001 41
20.011999 -4.908 4.9499998 43
20.006001 -4.9109998 4.9419999 43
20.009001 -4.9169998 4.9359999 40
19.990999 -4.9180002 4.9250002 40
20.011 -4.927 4.9229999 42
20.006001 -4.9299998 4.915 42
20.028 -4.9400001 4.9130001 31
20.018999 -4.941 4.9029999 42
20.024 -4.947 4.8959999 44
20.025 -4.9499998 4.8889999 40
20.025999 -4.954 4.881 39
20.025 -4.9569998 4.8720002 40
20.030001 -4.961 4.8639998 38
20.006001 -4.9580002 4.8499999 36
20.025999 -4.9650002 4.8449998 41
20.02 -4.9660001 4.835 36
20.044001 -4.974 4.8309999 36
20.018999 -4.9699998 4.816 38
20.037001 -4.9759998 4.8099999 36
20.042999 -4.9790001 4.8010001 38
20.035999 -4.9790001 4.789 36
20.032 -4.9790001 4.7779999 29
20.025999 -4.9780002 4.7659998 37
20.028999 -4.9790001 4.756 36
20.040001 -4.9829998 4.7470002 36
20.024 -4.9790001 4.7319999 38
20.023001 -4.9790001 4.7199998 37
20.02 -4.9780002 4.7080002 38
20.038 -4.9819999 4.6999998 36
20.038 -4.9809999 4.6880002 36
20.021 -4.9759998 4.6719999 40
20.041 -4.98 4.664 38
20.027 -4.9749999 4.6479998 38
20.030001 -4.9749999 4.6360002 38
20.011999 -4.9689999 4.619 35
20.023001 -4.9689999 4.6079998 38
20.000999 -4.9619999 4.5900002 39
20.018999 -4.9640002 4.5799999 37
20.016001 -4.961 4.566 40
20.009001 -4.9559999 4.5500002 40
20.007 -4.9530001 4.5349998 41
20 -4.948 4.5190001 43
20.004999 -4.9460001 4.506 41
20.017 -4.9460001 4.494 32
20.004 -4.9380002 4.4759998 43
20.017 -4.9369998 4.4629998 32
20.002001 -4.9299998 4.4450002 41
19.993999 -4.9229999 4.428 41
19.993 -4.9180002 4.4120002 41
19.993 -4.914 4.3959999 42
19.995001 -4.9089999 4.381 42
20.004999 -4.9060001 4.3670001 43
19.983999 -4.8959999 4.3460002 45
19.986 -4.8909998 4.329 45
19.986 -4.8850002 4.3130002 45
19.973 -4.875 4.2940001 44
19.99 -4.8730001 4.2800002 33
19.969 -4.862 4.2589998 43
19.978001 -4.8569999 4.244 45
19.969999 -4.848 4.224 44
19.971001 -4.8410001 4.2069998 44
19.971001 -4.8340001 4.1890001 51
19.957001 -4.823 4.1680002 47
19.971001 -4.8189998 4.1529999 46
19.958 -4.8080001 4.132 47
19.971001 -4.803 4.1170001 32
19.961 -4.7919998 4.0960002 42
19.943001 -4.7789998 4.0739999 36
19.962 -4.7750001 4.059 40
19.952 -4.763 4.0380001 42
19.955999 -4.7550001 4.02 50
19.944 -4.7420001 3.9979999 46
19.955999 -4.7360001 3.9809999 47
19.957001 -4.7259998 3.961 49
19.962 -4.717 3.9419999 49
19.957001 -4.7059999 3.9219999 55
19.958 -4.6950002 3.902 57
19.959 -4.6859999 3.882 55
19.954 -4.6729999 3.8610001 51
19.954 -4.6620002 3.8410001 49
19.969999 -4.6550002 3.823 36
19.966 -4.6420002 3.802 51
19.958 -4.6290002 3.78 50
19.959999 -4.6170001 3.7590001 52
19.976 -4.6090002 3.7409999 36
19.969999 -4.5939999 3.7179999 52
19.966 -4.5819998 3.6960001 51
19.966999 -4.5689998 3.675 51
19.962 -4.5549998 3.652 49
19.978001 -4.5450001 3.6340001 48
19.978001 -4.5320001 3.612 44
19.996 -4.5219998 3.5940001 42
19.979 -4.5050001 3.569 41
20.004999 -4.4970002 3.5510001 43
20.003 -4.4819999 3.529 40
20.014999 -4.4699998 3.5079999 41
20.01 -4.4549999 3.4849999 45
20.018999 -4.4419999 3.4630001 43
20.024 -4.428 3.441 39
20.039 -4.4159999 3.421 39
20.058001 -4.4039998 3.401 28
20.047001 -4.3860002 3.3770001 37
20.075001 -4.3769999 3.358 36
20.082001 -4.3610001 3.336 35
20.101 -4.349 3.3150001 27
20.129999 -4.3390002 3.2969999 32
20.146999 -4.3260002 3.2750001 32
20.176001 -4.316 3.257 24
20.184999 -4.3000002 3.234 26
20.211 -4.2880001 3.214 26
20.243 -4.277 3.1949999 23
20.268 -4.2639999 3.174 21
20.309 -4.2550001 3.1559999 18
20.357 -4.2459998 3.1389999 18
20.393 -4.2350001 3.1199999 8
0 0 0 2
36.659 -7.546 5.5190001 3
36.853001 -7.5510001 5.5029998 2
0 0 0 0
0 0 0 0
0 0 0 0
0 0 0 0
0 0 0 0
0 0 0 2
36.433998 -7.2160001 5.125 2
36.424 -7.177 5.0780001 2
0 0 0 0
0 0 0 0
0 0 0 0
0 0 0 0
0 0 0 0
0 0 0 0
0 0 0 2
0 0 0 0
0 0 0 0
0 0 0 0
0 0 0 0
0 0 0 3
36.265999 -6.632 4.4559999 17
36.268002 -6.5900002 4.4089999 17
36.193001 -6.5349998 4.3540001 2
0 0 0 0
0 0 0 0
0 0 0 0
0 0 0 0
0 0 0 0
0 0 0 2
36.210999 -6.237 4.0289998 6
36.247002 -6.198 3.9860001 10
36.285 -6.1599998 3.9419999 10
36.282001 -6.1139998 3.8959999 8
36.228001 -6.059 3.8429999 3
0 0 0 9
28.221001 -4.6479998 2.9200001 20
28.174 -4.6040001 2.878 28
28.136999 -4.5619998 2.8380001 32
28.101 -4.52 2.7980001 34
28.073999 -4.4790001 2.7590001 36
28.052 -4.4400001 2.72 41
28.033001 -4.3979998 2.6819999 44
28.02 -4.3600001 2.645 47
28.009001 -4.3210001 2.6070001 49
28.007999 -4.283 2.5710001 43
28.000999 -4.244 2.5339999 50
27.993999 -4.2059999 2.497 57
28.004 -4.1680002 2.461 54
28.02 -4.132 2.4260001 57
28.032 -4.0939999 2.3900001 52
28.034 -4.0549998 2.3540001 49
28.055 -4.0190001 2.319 43
28.075001 -3.9820001 2.2839999 40
28.1 -3.9460001 2.25 39
28.125999 -3.9089999 2.2160001 38
28.173 -3.875 2.1830001 35
28.208 -3.8380001 2.1489999 29
28.27 -3.806 2.1170001 24
28.375999 -3.7780001 2.0880001 13
28.482 -3.7509999 2.0580001 2
0 0 0 54
36.041 -4.6399999 2.513 53
36.034 -4.585 2.4649999 64
36.027 -4.5300002 2.418 76
36.016998 -4.474 2.3710001 80
36.018002 -4.4200001 2.325 79
36.000999 -4.3629999 2.2780001 84
36.009998 -4.309 2.2320001 85
35.995998 -4.2519999 2.1849999 81
35.997002 -4.1960001 2.1389999 94
35.986 -4.1389999 2.0929999 92
35.985001 -4.0830002 2.0469999 82
35.980999 -4.0250001 2 86
35.972 -3.967 1.954 77
35.965 -3.911 1.909 71
35.958 -3.8529999 1.863 74
35.964001 -3.796 1.818 86
35.958 -3.7379999 1.773 82
35.945999 -3.6789999 1.727 88
35.938999 -3.6199999 1.682 87
35.675999 -3.5369999 1.626 68
35.181999 -3.4300001 1.559 81
35.238998 -3.3789999 1.518 45
35.837002 -3.378 1.5 22
35.910999 -3.326 1.459 77
35.917 -3.266 1.414 95
36.036999 -3.2190001 1.375 12
36.203999 -3.1730001 1.337 7
36.014 -3.096 1.286 29
36.07 -3.0409999 1.244 25
37.743 -3.119 1.257 7
39.740002 -3.217 1.275 48
39.791 -3.152 1.229 82
39.797001 -3.085 1.181 91
39.787998 -3.017 1.133 87
39.992001 -2.9649999 1.092 5
40.480999 -2.931 1.057 5
41.106998 -2.9059999 1.024 4
41.48 -2.8599999 0.98500001 15
43.838001 -2.947 0.98900002 94
43.846001 -2.8710001 0.93800002 104
43.825001 -2.793 0.88599998 100
43.891998 -2.721 0.83600003 15
44.602001 -2.688 0.79900002 5
46.337002 -2.711 0.77600002 18
44.723 -2.5369999 0.69800001 19
44.724998 -2.457 0.64600003 28
44.714001 -2.3770001 0.59500003 28
44.709999 -2.2969999 0.54400003 5
0 0 0 24
48.693001 -2.3280001 0.48199999 33
48.666 -2.2420001 0.42899999 35
0 0 0 74
52.255001 -2.22 0.345 19
52.610001 -2.1400001 0.289 15
52.566002 -2.043 0.23100001 26
0 0 0 68
59.957001 -2.1140001 0.133 72
60.005001 -2.006 0.068000004 150
60 -1.896 0.003 123
59.994999 -1.786 -0.059999999 88
60.292999 -1.684 -0.125 24
60.657001 -1.5829999 -0.19 5
0 0 0 91
68.036003 -1.526 -0.35600001 95
68.015999 -1.399 -0.42699999 72
68.166 -1.276 -0.49900001 51
68.339996 -1.151 -0.57200003 23
0 0 0 61
74.318001 -0.97799999 -0.77200001 45
74.337997 -0.83999997 -0.84799999 11
0 0 0 38
0 0 0 41
94.477997 -0.53899997 -1.3609999 49
94.461998 -0.361 -1.455 63
94.355003 -0.183 -1.546 29
94.230003 -0.0049999999 -1.637 21
94.158997 0.17200001 -1.727 15
0 0 0 0
0 0 0 19
94.112 0.70899999 -1.999 14
94.226997 0.88599998 -2.0899999 39
94.190002 1.067 -2.1789999 80
94.18 1.243 -2.2650001 123
94.144997 1.425 -2.3529999 150
94.106003 1.601 -2.438 153
94.100998 1.781 -2.5239999 154
94.125999 1.9579999 -2.609 150
94.135002 2.138 -2.6949999 131
94.125 2.3180001 -2.779 150
94.107002 2.4979999 -2.862 152
94.088997 2.678 -2.944 123
0 0 0 15
87.307999 2.8169999 -2.8840001 35
0 0 0 0
0 0 0 40
90.463997 3.4389999 -3.2190001 31
0 0 0 0
0 0 0 3
41.144001 1.801 -1.567 7
40.981998 1.873 -1.594 6
40.991001 1.952 -1.628 3
41.671001 2.0650001 -1.689 3
0 0 0 0
0 0 0 3
41.68 2.3050001 -1.788 4
41.695 2.385 -1.821 3
41.778999 2.471 -1.857 3
0 0 0 0
0 0 0 0
0 0 0 0
0 0 0 0
0 0 0 0
0 0 0 1
0 0 0 25
0 0 0 25
0 0 0 1
0 0 0 2
0 0 0 25
0 0 0 0
0 0 0 1
21.208 1.823 -1.155 1
0 0 0 1
18.962999 1.7029999 -1.058 2
19.653 1.802 -1.109 2
19.308001 1.808 -1.102 2
19.15 1.829 -1.105 1
18.371 1.79 -1.072 2
18.076 1.795 -1.066 2
17.747 1.796 -1.057 2
17.48 1.802 -1.052 2
17.15 1.8 -1.0420001 3
16.679001 1.783 -1.023 3
16.455999 1.791 -1.0190001 3
16.186001 1.791 -1.012 3
15.844 1.784 -1 3
15.511 1.776 -0.98699999 2
15.225 1.772 -0.97799999 3
15.072 1.7819999 -0.97600001 3
14.878 1.7869999 -0.972 3
14.676 1.791 -0.96700001 3
14.52 1.798 -0.96399999 3
14.314 1.8 -0.958 3
14.149 1.806 -0.954 3
13.98 1.8099999 -0.949 4
13.775 1.809 -0.94300002 3
13.589 1.8099999 -0.93599999 3
13.291 1.795 -0.92199999 3
13.259 1.8150001 -0.926 3
13.115 1.819 -0.92199999 3
12.995 1.827 -0.92000002 3
12.821 1.826 -0.91399997 3
12.678 1.8279999 -0.90899998 3
12.574 1.836 -0.90700001 3
12.434 1.839 -0.90200001 3
12.317 1.844 -0.89899999 3
12.178 1.846 -0.89399999 3
12.039 1.846 -0.889 2
11.929 1.851 -0.88599998 3
11.821 1.8559999 -0.88200003 2
11.73 1.863 -0.88 3
11.621 1.8660001 -0.87599999 3
11.495 1.867 -0.87099999 3
11.418 1.874 -0.87 2
11.329 1.88 -0.86699998 2
11.282 1.892 -0.86699998 3
11.173 1.8940001 -0.86299998 4
11.096 1.9 -0.861 3
11.017 1.906 -0.85799998 3
10.921 1.909 -0.85500002 4
10.852 1.916 -0.85299999 3
10.773 1.92 -0.85000002 3
10.682 1.923 -0.84600002 4
10.637 1.933 -0.84500003 2
10.536 1.934 -0.84100002 3
10.462 1.938 -0.838 3
10.41 1.946 -0.83700001 3
10.304 1.944 -0.83099997 4
10.263 1.9529999 -0.82999998 3
10.209 1.96 -0.829 3
10.146 1.965 -0.82599998 4
10.097 1.973 -0.82499999 4
10.043 1.979 -0.82300001 3
9.9709997 1.9809999 -0.81900001 3
9.9259996 1.989 -0.81699997 2
9.8599997 1.992 -0.81400001 3
9.8000002 1.9960001 -0.81099999 2
9.7379999 1.999 -0.80800003 3
9.6680002 2.0009999 -0.80400002 3
9.6379995 2.01 -0.80400002 3
9.6040001 2.0179999 -0.80299997 2
9.5349998 2.0190001 -0.79900002 3
9.5019999 2.027 -0.79799998 2
9.4530001 2.0309999 -0.79500002 3
9.4099998 2.0369999 -0.79299998 3
9.4259996 2.0550001 -0.796 4
9.3290005 2.049 -0.78899997 3
9.2939997 2.056 -0.787 3
9.2700005 2.0650001 -0.78600001 3
9.2279997 2.0699999 -0.78399998 3
9.1940002 2.076 -0.78299999 3
9.1719999 2.085 -0.78100002 2
9.1429996 2.092 -0.77999997 3
9.1090002 2.098 -0.778 3
9.0970001 2.109 -0.778 2
9.0710001 2.1170001 -0.77700001 3
9.0629997 2.128 -0.77700001 4
9.1110001 2.1530001 -0.78200001 4
9.0600004 2.154 -0.778 3
9.0539999 2.1659999 -0.778 3
9.0819998 2.1860001 -0.78100002 4
9.0539999 2.1919999 -0.77999997 3
9.0290003 2.1989999 -0.778 3
9.0249996 2.21 -0.778 3
9.0010004 2.217 -0.77600002 5
8.9610004 2.22 -0.773 6
8.9870005 2.2390001 -0.77499998 5
8.9580002 2.244 -0.773 6
8.9490004 2.2539999 -0.77200001 7
8.934 2.2620001 -0.77100003 8
8.9359999 2.2750001 -0.77100003 8
8.9519997 2.2909999 -0.773 8
8.9119997 2.293 -0.76899999 9
8.9180002 2.306 -0.76999998 8
8.8920002 2.3110001 -0.76700002 10
8.8999996 2.3239999 -0.76800001 10
8.9020004 2.336 -0.76800001 11
8.8940001 2.346 -0.76700002 9
8.901 2.359 -0.76700002 9
8.8879995 2.3659999 -0.76599997 9
8.8660002 2.372 -0.76300001 8
8.8660002 2.382 -0.76300001 8
8.8940001 2.401 -0.76499999 6
8.8950005 2.4119999 -0.764 4
8.8870001 2.421 -0.76300001 4
8.8789997 2.4289999 -0.76099998 4
8.9069996 2.447 -0.76300001 3
8.8979998 2.4549999 -0.76200002 3
8.9110003 2.4690001 -0.76200002 3
8.9200001 2.4820001 -0.76200002 3
8.9449997 2.4990001 -0.76300001 3
8.9499998 2.51 -0.76300001 3
8.9700003 2.526 -0.76300001 5
8.9680004 2.5350001 -0.76200002 6
9.033 2.5639999 -0.76599997 4
9.0559998 2.5799999 -0.76700002 3
9.1300001 2.6110001 -0.77200001 3
9.1750002 2.6340001 -0.77499998 3
9.2510004 2.665 -0.77999997 3
9.323 2.6949999 -0.78500003 5
9.3109999 2.701 -0.78299999 5
9.3079996 2.71 -0.78100002 6
9.3450003 2.73 -0.78200001 6
9.3529997 2.7409999 -0.78100002 9
9.3900003 2.7609999 -0.78299999 8
9.4130001 2.777 -0.78299999 7
9.4219999 2.789 -0.78200001 9
9.4490004 2.8050001 -0.78299999 8
9.4589996 2.8169999 -0.78200001 9
9.4940004 2.836 -0.78299999 7
9.5380001 2.858 -0.78500003 10
9.5430002 2.868 -0.78299999 8
9.5500002 2.878 -0.78200001 4
9.5600004 2.8889999 -0.78100002 4
9.5909996 2.9070001 -0.78100002 4
9.6400003 2.9300001 -0.78299999 4
9.7040005 2.957 -0.78600001 3
9.7290001 2.973 -0.78600001 4
9.7869997 2.9979999 -0.78799999 4
9.8409996 3.023 -0.79100001 5
9.8990002 3.0480001 -0.79299998 6
9.9799995 3.0799999 -0.79699999 6
10.058 3.112 -0.80000001 6
10.127 3.141 -0.80400002 7
10.175 3.1630001 -0.80500001 6
10.245 3.1919999 -0.80800003 6
10.301 3.2160001 -0.80900002 8
10.362 3.2420001 -0.81099999 6
10.416 3.266 -0.81300002 7
10.473 3.2909999 -0.815 6
10.508 3.3080001 -0.81400001 7
10.547 3.3269999 -0.815 6
10.602 3.3510001 -0.81599998 8
10.665 3.3770001 -0.81800002 5
10.693 3.3929999 -0.81699997 6
10.734 3.4119999 -0.81699997 6
10.785 3.434 -0.81699997 5
10.837 3.4560001 -0.81800002 6
10.895 3.48 -0.81900001 4
10.938 3.5 -0.81900001 4
10.992 3.523 -0.81999999 5
11.046 3.5450001 -0.81999999 6
11.084 3.563 -0.81900001 6
11.162 3.5929999 -0.82099998 5
11.215 3.615 -0.82200003 6
11.259 3.6340001 -0.82099998 5
11.297 3.651 -0.81999999 6
11.318 3.6630001 -0.81800002 6
11.345 3.6760001 -0.81599998 5
11.382 3.6919999 -0.815 6
11.393 3.7 -0.81199998 5
11.412 3.71 -0.80900002 5
11.421 3.7160001 -0.80599999 6
11.408 3.7160001 -0.801 6
11.421 3.724 -0.79699999 5
11.406 3.7219999 -0.792 5
11.409 3.7260001 -0.78799999 5
11.414 3.7309999 -0.78500003 5
11.4 3.7290001 -0.77899998 5
11.398 3.7309999 -0.77499998 5
11.407 3.7360001 -0.77200001 5
11.403 3.737 -0.76700002 5
11.414 3.743 -0.76300001 6
11.411 3.744 -0.759 6
11.417 3.7479999 -0.755 7
11.42 3.7509999 -0.75 8
11.419 3.7520001 -0.74599999 9
11.42 3.7539999 -0.74199998 10
11.429 3.7579999 -0.73799998 10
11.414 3.7539999 -0.73199999 10
11.414 3.7550001 -0.72799999 12
11.406 3.753 -0.72299999 12
11.371 3.7420001 -0.71600002 10
11.27 3.7090001 -0.70499998 13
11.157 3.6719999 -0.69300002 21
11.046 3.635 -0.68199998 18
10.464 3.444 -0.64099997 16
10.253 3.3740001 -0.625 12
10.236 3.368 -0.61900002 8
10.373 3.4130001 -0.62300003 7
10.266 3.3770001 -0.61199999 4
10.281 3.381 -0.60900003 2
10.647 3.5 -0.62599999 2
10.549 3.467 -0.616 2
10.432 3.427 -0.60399997 2
10.371 3.4059999 -0.597 5
10.333 3.391 -0.58999997 10
10.314 3.3829999 -0.58399999 11
10.304 3.378 -0.579 10
10.312 3.3789999 -0.57499999 10
10.281 3.3670001 -0.56900001 14
10.281 3.3640001 -0.56400001 13
10.278 3.3610001 -0.56 13
10.282 3.359 -0.55500001 13
10.272 3.3529999 -0.55000001 13
10.283 3.3540001 -0.546 14
10.255 3.342 -0.54100001 16
10.157 3.3069999 -0.53100002 26
10.081 3.279 -0.52200001 25
10.018 3.2550001 -0.514 25
9.9569998 3.2309999 -0.50700003 31
9.9130001 3.2130001 -0.5 36
9.8839998 3.2 -0.49399999 41
9.8920002 3.1989999 -0.49000001 43
9.8850002 3.1930001 -0.486 43
9.8889999 3.1889999 -0.48100001 44
9.8850002 3.184 -0.47600001 46
9.8830004 3.1789999 -0.472 47
9.8760004 3.1719999 -0.46700001 49
9.8809996 3.1689999 -0.463 50
9.8809996 3.164 -0.458 54
9.8830004 3.1589999 -0.454 61
9.8979998 3.1589999 -0.44999999 74
9.8940001 3.152 -0.44499999 90
9.8950005 3.1470001 -0.44 108
9.9020004 3.1440001 -0.43599999 125
9.9099998 3.141 -0.43200001 136
9.9099998 3.135 -0.428 136
9.9130001 3.1300001 -0.42300001 136
9.9160004 3.125 -0.419 138
9.9119997 3.1170001 -0.414 136
9.927 3.115 -0.41 132
9.9189997 3.1059999 -0.405 128
9.9020004 3.0940001 -0.40000001 126
9.9160004 3.092 -0.396 128
9.9219999 3.086 -0.391 123
9.9180002 3.0780001 -0.38600001 125
9.9200001 3.0710001 -0.382 126
9.9280005 3.0669999 -0.37799999 123
9.9309998 3.0599999 -0.373 128
9.9259996 3.0510001 -0.368 126
9.9359999 3.046 -0.36399999 128
9.9350004 3.0380001 -0.36000001 123
9.9359999 3.03 -0.35499999 123
9.9309998 3.0209999 -0.34999999 121
9.9379997 3.0139999 -0.34599999 114
9.9370003 3.006 -0.34099999 108
9.9420004 2.9979999 -0.33700001 91
9.9390001 2.9890001 -0.33199999 83
9.9379997 2.98 -0.32800001 70
9.9499998 2.974 -0.324 56
9.9490004 2.9649999 -0.31900001 44
9.948 2.9549999 -0.315 34
9.9499998 2.9460001 -0.31 29
9.9630003 2.941 -0.30599999 17
9.9659996 2.9319999 -0.30199999 21
9.9750004 2.925 -0.29800001 17
9.9729996 2.914 -0.29300001 12
9.9969997 2.911 -0.289 10
9.9799995 2.8959999 -0.28400001 8
10.008 2.8940001 -0.28 7
10.032 2.891 -0.27599999 6
10.038 2.882 -0.27200001 5
10.061 2.878 -0.26800001 5
10.066 2.868 -0.264 4
10.072 2.859 -0.25999999 4
10.077 2.849 -0.25600001 4
10.1 2.8440001 -0.252 3
10.101 2.8329999 -0.24699999 3
10.115 2.825 -0.243 3
10.118 2.8150001 -0.23899999 3
10.142 2.809 -0.235 3
10.16 2.803 -0.23100001 2
10.187 2.7980001 -0.227 3
10.195 2.7880001 -0.223 3
10.197 2.776 -0.219 3
10.215 2.7679999 -0.215 3
10.225 2.7579999 -0.211 2
10.251 2.753 -0.207 2
10.28 2.747 -0.204 1
10.301 2.74 -0.2 1
10.291 2.724 -0.19599999 1
10.319 2.7179999 -0.192 1
10.345 2.711 -0.18799999 1
10.382 2.707 -0.185 1
10.398 2.697 -0.18099999 1
10.424 2.691 -0.177 1
10.441 2.681 -0.17299999 1
10.506 2.6830001 -0.17 1
10.587 2.6889999 -0.168 1
10.642 2.6889999 -0.164 3
10.669 2.6800001 -0.161 11
10.733 2.6819999 -0.15800001 72
10.78 2.678 -0.154 90
10.817 2.6719999 -0.15099999 2
0 0 0 3
12.624 3.082 -0.167 1
12.628 3.0639999 -0.162 1
12.635 3.0480001 -0.15800001 1
12.66 3.0350001 -0.153 5
12.663 3.017 -0.149 5
12.675 3.0009999 -0.14399999 3
12.723 2.993 -0.141 1
12.809 2.994 -0.13699999 1
12.891 2.993 -0.134 1
12.953 2.9879999 -0.13 1
13.039 2.9879999 -0.126 1
13.053 2.971 -0.122 1
13.203 2.984 -0.119 1
0 0 0 0
0 0 0 0
0 0 0 0
0 0 0 0
0 0 0 0
0 0 0 0
0 0 0 0
0 0 0 0
0 0 0 0
0 0 0 0
0 0 0 0
0 0 0 11
59.755001 12.241 -0.31200001 6
0 0 0 0
0 0 0 10
0 0 0 0
0 0 0 15
63.924 12.546 -0.248 27
0 0 0 0
0 0 0 0
0 0 0 12
0 0 0 7
0 0 0 0
0 0 0 8
0 0 0 0
0 0 0 0
0 0 0 0
0 0 0 48
0 0 0 0
0 0 0 63
0 0 0 38
0 0 0 0
0 0 0 9
0 0 0 0
0 0 0 57
0 0 0 7
0 0 0 64
0 0 0 13
87.464996 13.847 0.015 14
0 0 0 0
0 0 0 11
77.313004 11.803 0.043000001 19
77.344002 11.66 0.052000001 61
77.375999 11.519 0.059999999 59
0 0 0 13
0 0 0 0
0 0 0 0
0 0 0 0
0 0 0 0
0 0 0 0
0 0 0 0
0 0 0 0
0 0 0 26
117.645 15.231 0.186 32
117.634 14.998 0.192 47
117.635 14.769 0.19499999 56
117.729 14.547 0.2 43
117.82 14.324 0.20299999 28
0 0 0 0
0 0 0 0
0 0 0 0
0 0 0 0
0 0 0 35
0 0 0 0
0 0 0 0
0 0 0 0
0 0 0 0
0 0 0 0
0 0 0 0
0 0 0 0
0 0 0 0
0 0 0 0
0 0 0 0
0 0 0 0
0 0 0 0
0 0 0 0
0 0 0 0
0 0 0 0
0 0 0 13
0 0 0 0
0 0 0 0
0 0 0 0
0 0 0 0
0 0 0 0
0 0 0 0
0 0 0 12
88.588997 5.5219998 -0.030999999 14
88.403999 5.3260002 -0.046 13
88.263 5.1360002 -0.063000001 16
0 0 0 0
0 0 0 0
0 0 0 33
0 0 0 0
0 0 0 0
0 0 0 24
88.752998 3.8640001 -0.193 18
88.628998 3.675 -0.214 14
0 0 0 0
0 0 0 0
0 0 0 34
0 0 0 0
0 0 0 31
0 0 0 0
0 0 0 0
0 0 0 0
0 0 0 0
0 0 0 0
0 0 0 0
0 0 0 37
134.63699 1.909 -0.824 38
134.672 1.625 -0.87 37
134.689 1.345 -0.91600001 40
134.657 1.057 -0.963 51
134.793 0.773 -1.012 61
134.827 0.48899999 -1.062 71
134.85699 0.205 -1.112 75
134.821 -0.074000001 -1.1619999 75
134.91 -0.36300001 -1.215 95
0 0 0 32
74.286003 -0.51499999 -0.72799999 31
74.323997 -0.671 -0.759 29
74.348999 -0.82599998 -0.78899997 20
73.545998 -0.972 -0.81199998 79
0 0 0 0
0 0 0 77
68.001999 -1.327 -0.83899999 77
68.004997 -1.47 -0.86900002 112
67.978996 -1.612 -0.89999998 118
68.065002 -1.756 -0.93300003 27
0 0 0 19
59.959999 -1.801 -0.87900001 114
0 0 0 7
45.838001 -1.568 -0.71600002 32
45.868 -1.665 -0.73900002 30
45.539001 -1.748 -0.75700003 10
45.063 -1.825 -0.77200001 23
45.047001 -1.918 -0.79500002 42
45.076 -2.01 -0.81800002 42
44.995998 -2.0999999 -0.84100002 18
45.007 -2.1949999 -0.86500001 29
44.532001 -2.2620001 -0.88 41
43.487 -2.3 -0.88300002 39
43.373001 -2.381 -0.90399998 39
43.306999 -2.467 -0.92699999 33
43.386002 -2.5610001 -0.95300001 32
43.756001 -2.6719999 -0.98699999 68
43.766998 -2.7620001 -1.012 99
43.775002 -2.8529999 -1.038 101
41.696999 -2.802 -1.013 2
40.914001 -2.832 -1.018 5
40.282001 -2.8710001 -1.027 4
0 0 0 1
23.483 -1.7690001 -0.62699997 9
22.774 -1.761 -0.62199998 1
0 0 0 0
0 0 0 1
0 0 0 0
0 0 0 1
21.094999 -1.8430001 -0.64300001 1
20.632999 -1.844 -0.64300001 4
20.308001 -1.855 -0.64600003 3
20.252001 -1.89 -0.65799999 3
20.114 -1.9170001 -0.667 1
0 0 0 0
0 0 0 25
0 0 0 5
19.934 -2.056 -0.71499997 4
19.761999 -2.0780001 -0.72299999 1
19.704 -2.1099999 -0.73400003 1
19.691999 -2.1470001 -0.74800003 1
19.629 -2.178 -0.759 1
19.645 -2.2179999 -0.77399999 1
19.645 -2.256 -0.78799999 2
19.622999 -2.2920001 -0.80199999 2
19.625 -2.329 -0.81599998 3
19.605 -2.3640001 -0.829 3
19.601999 -2.401 -0.84399998 3
19.614 -2.4400001 -0.85900003 3
19.646999 -2.4820001 -0.875 3
19.715 -2.527 -0.89300001 5
19.743999 -2.5680001 -0.91000003 3
19.756001 -2.6070001 -0.92500001 3
19.774 -2.6459999 -0.94099998 3
19.929001 -2.704 -0.96399999 3
20.142 -2.7720001 -0.99000001 5
20.487 -2.8570001 -1.023 3
0 0 0 0
0 0 0 1
20.511999 -2.974 -1.073 1
20.521 -3.013 -1.09 1
0 0 0 4
23.007999 -3.461 -1.2589999 3
23.031 -3.506 -1.279 3
0 0 0 0
0 0 0 27
0 0 0 1
21.392 -3.4100001 -1.258 1
22.211 -3.5799999 -1.324 1
0 0 0 0
0 0 0 1
19.136 -3.1860001 -1.189 1
19.153999 -3.2219999 -1.206 2
0 0 0 1
17.43 -2.993 -1.128 1
16.945 -2.9389999 -1.1109999 2
17.409 -3.049 -1.156 2
16.952 -2.9979999 -1.14 2
16.636999 -2.971 -1.133 2
16.091999 -2.901 -1.11 2
15.59 -2.8369999 -1.089 2
15.234 -2.7980001 -1.077 2
14.912 -2.7639999 -1.067 2
14.545 -2.72 -1.054 2
14.296 -2.697 -1.048 3
13.995 -2.6630001 -1.038 3
13.665 -2.6229999 -1.026 3
13.361 -2.586 -1.015 3
13.063 -2.55 -1.0039999 3
12.76 -2.5109999 -0.99199998 3
12.476 -2.4749999 -0.98100001 3
12.246 -2.45 -0.97399998 3
12.059 -2.431 -0.96899998 3
11.846 -2.4070001 -0.963 3
11.632 -2.381 -0.95599997 3
11.447 -2.3610001 -0.95099998 4
11.269 -2.342 -0.94599998 5
11.106 -2.326 -0.94300002 6
10.94 -2.3080001 -0.93800002 5
10.724 -2.2780001 -0.93000001 4
10.484 -2.243 -0.91799998 3
10.209 -2.2 -0.903 2
10.014 -2.1730001 -0.89499998 2
9.7950001 -2.1400001 -0.884 2
9.651 -2.1229999 -0.88 3
9.4720001 -2.0969999 -0.87199998 2
9.3190002 -2.0769999 -0.86699998 3
9.1800003 -2.059 -0.86199999 2
9.0019999 -2.0320001 -0.85399997 4
8.8620005 -2.0139999 -0.84799999 4
8.7110004 -1.992 -0.84200001 4
8.5690002 -1.971 -0.83600003 5
8.4619999 -1.959 -0.833 4
8.3299999 -1.9400001 -0.82800001 5
8.1920004 -1.919 -0.82200003 5
8.0830002 -1.904 -0.81800002 4
7.9489999 -1.8839999 -0.81199998 5
7.8379998 -1.868 -0.80699998 4
7.7290001 -1.852 -0.80299997 5
7.592 -1.829 -0.796 4
7.5100002 -1.8200001 -0.79400003 4
7.3899999 -1.8 -0.78799999 4
7.3049998 -1.789 -0.78600001 4
7.198 -1.772 -0.78100002 4
7.1059999 -1.758 -0.77700001 3
7.0190001 -1.7460001 -0.77399999 4
6.9380002 -1.735 -0.77100003 4
6.8540001 -1.722 -0.76800001 4
6.7680001 -1.709 -0.76499999 4
6.6820002 -1.6950001 -0.76099998 4
6.6009998 -1.683 -0.75800002 4
6.5209999 -1.67 -0.75400001 4
6.4489999 -1.659 -0.75199997 4
6.3709998 -1.647 -0.74800003 3
6.2880001 -1.633 -0.74400002 4
6.2189999 -1.622 -0.74199998 4
6.1479998 -1.6109999 -0.73900002 3
6.0819998 -1.6 -0.736 4
6.0219998 -1.591 -0.73400003 3
5.9499998 -1.579 -0.73100001 3
5.881 -1.567 -0.727 3
5.8270001 -1.559 -0.72600001 3
5.77 -1.55 -0.72399998 2
5.697 -1.536 -0.72000003 2
5.6339998 -1.525 -0.71700001 2
5.5710001 -1.5140001 -0.71399999 2
5.506 -1.502 -0.70999998 2
5.4699998 -1.498 -0.70999998 2
5.4109998 -1.487 -0.70700002 2
5.3569999 -1.478 -0.70499998 2
5.3140001 -1.471 -0.704 3
5.2529998 -1.459 -0.69999999 3
5.2220001 -1.456 -0.69999999 3
5.1620002 -1.444 -0.69700003 3
5.1199999 -1.437 -0.69599998 3
5.0770001 -1.4299999 -0.69400001 3
5.027 -1.42 -0.69099998 3
4.9899998 -1.414 -0.69 3
4.9429998 -1.405 -0.68800002 3
4.914 -1.402 -0.68800002 3
4.8740001 -1.395 -0.68699998 3
4.8369999 -1.388 -0.685 3
4.789 -1.378 -0.68199998 4
4.7459998 -1.37 -0.68000001 2
4.7140002 -1.364 -0.67900002 3
4.6789999 -1.358 -0.67799997 3
4.6459999 -1.352 -0.67699999 3
4.605 -1.344 -0.67500001 2
4.5710001 -1.337 -0.67400002 2
4.5479999 -1.334 -0.67400002 2
4.5110002 -1.326 -0.67199999 2
4.4790001 -1.3200001 -0.671 2
4.448 -1.3150001 -0.67000002 2
4.4070001 -1.306 -0.667 4
4.3870001 -1.303 -0.667 4
4.3569999 -1.2970001 -0.66600001 2
4.3379998 -1.294 -0.66600001 2
4.2919998 -1.283 -0.66299999 4
4.2620001 -1.277 -0.66100001 2
4.2210002 -1.267 -0.65799999 4
4.2459998 -1.277 -0.66500002 2
4.2020001 -1.267 -0.66100001 2
4.1529999 -1.255 -0.65700001 2
4.1939998 -1.27 -0.66600001 2
4.1090002 -1.2460001 -0.65600002 2
4.0949998 -1.244 -0.65600002 2
4.026 -1.225 -0.648 3
4.0700002 -1.2410001 -0.65799999 3
4.007 -1.224 -0.65100002 3
4.0079999 -1.226 -0.65399998 2
3.9949999 -1.224 -0.65499997 3
3.9519999 -1.2130001 -0.64999998 3
3.9519999 -1.215 -0.653 3
3.921 -1.207 -0.65100002 3
4.0079999 -1.2359999 -0.66799998 3
3.8740001 -1.196 -0.648 2
3.8870001 -1.201 -0.653 2
3.8440001 -1.1900001 -0.648 2
3.786 -1.173 -0.64099997 2
3.7690001 -1.169 -0.63999999 2
3.809 -1.183 -0.64899999 2
3.7980001 -1.181 -0.64999998 2
3.7260001 -1.16 -0.63999999 2
3.7839999 -1.179 -0.65200001 3
3.7179999 -1.16 -0.64300001 3
3.6789999 -1.149 -0.639 3
3.6919999 -1.154 -0.64300001 3
3.675 -1.15 -0.64200002 3
3.619 -1.133 -0.63499999 2
3.5799999 -1.122 -0.63 1
3.638 -1.141 -0.64200002 3
3.5899999 -1.126 -0.63599998 2
3.5710001 -1.1210001 -0.63499999 2
3.5480001 -1.115 -0.63200003 1
3.5929999 -1.1289999 -0.64200002 3
3.5710001 -1.123 -0.64099997 3
3.523 -1.109 -0.634 3
3.5439999 -1.1160001 -0.63999999 3
3.5179999 -1.108 -0.63700002 3
3.447 -1.086 -0.625 1
3.438 -1.0829999 -0.62599999 2
3.4979999 -1.103 -0.63800001 3
3.4519999 -1.0880001 -0.63200003 1
3.395 -1.071 -0.62300003 1
3.4159999 -1.077 -0.62800002 1
3.4590001 -1.091 -0.63800001 2
3.4219999 -1.079 -0.63300002 3
3.3959999 -1.071 -0.62900001 1
3.326 -1.049 -0.61799997 2
3.391 -1.0700001 -0.63200003 2
3.3759999 -1.0650001 -0.63 1
3.313 -1.045 -0.62 1
