# .PCD v0.7 - Point Cloud Data file format
VERSION 0.7
FIELDS x y z intensity
SIZE 4 4 4 4
TYPE F F F F
COUNT 1 1 1 1
WIDTH 1700
HEIGHT 1
VIEWPOINT 0 0 0 1 0 0 0
POINTS 1700
DATA ascii
9.4020004 -0.23 -0.079000004 32
9.4029999 -0.25 -0.075000003 34
9.3920002 -0.27000001 -0.071999997 35
9.3760004 -0.289 -0.068000004 38
9.3690004 -0.308 -0.064000003 38
9.3640003 -0.32800001 -0.061000001 39
9.3719997 -0.34799999 -0.057999998 39
9.3549995 -0.36700001 -0.054000001 42
9.3509998 -0.38699999 -0.050999999 47
9.3470001 -0.40599999 -0.048 48
9.3500004 -0.426 -0.045000002 55
9.3380003 -0.44499999 -0.041999999 54
9.3439999 -0.46599999 -0.039000001 58
9.3520002 -0.486 -0.035999998 51
9.335 -0.505 -0.033 50
9.3430004 -0.52399999 -0.029999999 42
9.3470001 -0.54500002 -0.028000001 42
9.3549995 -0.565 -0.025 39
9.342 -0.58399999 -0.023 36
9.3540001 -0.60399997 -0.02 12
8.9029999 -0.59399998 -0.017000001 1
0 0 0 0
0 0 0 0
0 0 0 0
0 0 0 28
9.4139996 -0.727 -0.0070000002 29
9.4230003 -0.74699998 -0.0049999999 27
9.3830004 -0.764 -0.003 7
0 0 0 0
0 0 0 2
8.5240002 -0.74699998 0.0020000001 1
0 0 0 0
0 0 0 1
8.3990002 -0.78899997 0.0060000001 1
0 0 0 0
0 0 0 0
0 0 0 0
0 0 0 0
0 0 0 0
0 0 0 0
0 0 0 0
0 0 0 0
0 0 0 0
0 0 0 0
0 0 0 1
0 0 0 0
0 0 0 10
39.529999 -4.8660002 0.094999999 17
39.672001 -4.9650002 0.097999997 24
39.709 -5.0500002 0.101 25
39.751999 -5.1370001 0.103 14
0 0 0 0
0 0 0 1
0 0 0 0
0 0 0 0
0 0 0 0
0 0 0 12
50.486 -7.2410002 0.14 14
50.555 -7.3530002 0.141 15
50.528 -7.4510002 0.14 14
0 0 0 13
20.764 -3.1440001 0.057 23
20.695999 -3.175 0.056000002 28
20.639 -3.2079999 0.055 32
20.568001 -3.2379999 0.054000001 33
20.556 -3.277 0.052999999 38
20.534 -3.3139999 0.052000001 32
20.506001 -3.3499999 0.050999999 44
20.496 -3.3889999 0.050000001 51
20.48 -3.4260001 0.048999999 41
20.466 -3.464 0.046999998 43
20.454 -3.5020001 0.045000002 71
20.445 -3.539 0.043000001 65
20.451 -3.5799999 0.041999999 53
20.450001 -3.6199999 0.039999999 36
20.457001 -3.661 0.037 46
20.455999 -3.7 0.035 42
20.469999 -3.743 0.033 38
20.502001 -3.7880001 0.030999999 28
20.514 -3.829 0.028000001 37
20.555 -3.8759999 0.025 30
20.612 -3.9260001 0.023 25
20.662001 -3.974 0.02 20
20.759001 -4.0310001 0.017000001 7
0 0 0 38
31.577999 -6.2509999 0.016000001 41
31.546 -6.3039999 0.011 45
31.51 -6.355 0.0049999999 52
31.493 -6.4099998 0 59
31.464001 -6.4619999 -0.0049999999 64
31.459999 -6.5190001 -0.011 59
31.451 -6.5749998 -0.017000001 56
31.474001 -6.6370001 -0.023 47
31.483 -6.6950002 -0.028999999 43
31.518 -6.7600002 -0.035999998 38
31.531 -6.8200002 -0.043000001 35
31.566999 -6.8839998 -0.048999999 28
31.638 -6.9559999 -0.057 16
31.766001 -7.0409999 -0.064000003 4
0 0 0 29
42.330002 -9.5299997 -0.105 31
42.360001 -9.6120005 -0.115 26
42.424 -9.6999998 -0.126 25
42.462002 -9.783 -0.13699999 30
42.469002 -9.8570004 -0.147 50
42.551998 -9.948 -0.15899999 29
42.592999 -10.03 -0.169 26
42.658001 -10.118 -0.18099999 24
42.705002 -10.201 -0.193 25
42.740002 -10.282 -0.205 30
42.785 -10.364 -0.21799999 26
42.84 -10.449 -0.23 25
42.889999 -10.532 -0.242 23
42.931999 -10.615 -0.255 25
42.991001 -10.698 -0.26800001 28
43.012001 -10.774 -0.28 22
43.061001 -10.856 -0.29499999 25
43.096001 -10.933 -0.308 26
43.167 -11.02 -0.322 24
43.210999 -11.101 -0.336 24
43.245998 -11.177 -0.34900001 26
43.286999 -11.256 -0.36300001 26
43.338001 -11.337 -0.37799999 29
43.395 -11.42 -0.39300001 28
43.435001 -11.497 -0.40799999 27
43.494999 -11.58 -0.42300001 25
43.514999 -11.651 -0.43799999 25
43.570999 -11.731 -0.454 28
43.606998 -11.806 -0.46900001 29
0 0 0 0
0 0 0 5
50.973999 -14.029 -0.60299999 5
51.988998 -14.385 -0.634 7
52.610001 -14.632 -0.66000003 30
52.596001 -14.704 -0.67900002 33
52.598 -14.78 -0.69800001 33
52.613998 -14.859 -0.71799999 35
52.606998 -14.93 -0.73799998 34
52.818001 -15.064 -0.75999999 36
52.951 -15.177 -0.78299999 27
0 0 0 0
0 0 0 5
49.651001 -14.434 -0.79100001 14
0 0 0 0
0 0 0 0
0 0 0 14
0 0 0 6
0 0 0 0
0 0 0 11
0 0 0 0
0 0 0 0
0 0 0 9
49.502998 -15.029 -0.98699999 13
49.398998 -15.056 -1.006 12
49.333 -15.096 -1.025 12
49.236 -15.126 -1.044 18
49.157001 -15.16 -1.063 32
49.091 -15.198 -1.082 38
49.021 -15.233 -1.1 39
48.964001 -15.271 -1.12 29
48.941002 -15.32 -1.14 20
48.856998 -15.349 -1.16 24
48.789001 -15.381 -1.178 10
48.740002 -15.42 -1.198 20
48.719002 -15.466 -1.2180001 20
48.639 -15.494 -1.238 21
48.564999 -15.52 -1.257 6
0 0 0 0
0 0 0 7
0 0 0 0
0 0 0 8
48.311001 -15.688 -1.357 13
48.230999 -15.709 -1.375 8
48.219002 -15.753 -1.395 8
48.148998 -15.775 -1.416 10
48.088001 -15.801 -1.436 4
48.008999 -15.82 -1.454 8
47.992001 -15.858 -1.475 8
0 0 0 0
0 0 0 4
0 0 0 0
0 0 0 0
0 0 0 0
0 0 0 12
47.653 -16.035999 -1.614 12
47.569 -16.046 -1.633 12
47.564999 -16.083 -1.655 9
47.287998 -16.025999 -1.665 16
47.166 -16.021999 -1.682 36
47.122002 -16.042999 -1.702 49
47.082001 -16.063999 -1.722 53
47.039001 -16.084 -1.742 44
47.006001 -16.106001 -1.763 48
46.972 -16.128 -1.783 49
46.948002 -16.150999 -1.802 42
46.898998 -16.166 -1.821 49
46.856998 -16.183001 -1.841 53
46.82 -16.200001 -1.86 50
46.801998 -16.223 -1.882 50
46.761002 -16.238001 -1.901 57
46.734001 -16.257 -1.92 60
46.687 -16.268 -1.9400001 57
46.674999 -16.290001 -1.959 55
46.646999 -16.306999 -1.979 56
46.618999 -16.323 -1.999 57
46.582001 -16.334999 -2.0190001 54
46.550999 -16.348 -2.0380001 53
46.528999 -16.364 -2.0580001 53
46.500999 -16.377001 -2.0780001 52
46.464001 -16.386 -2.096 52
46.445 -16.400999 -2.118 49
46.412998 -16.41 -2.1359999 55
46.393002 -16.423 -2.1559999 59
46.393002 -16.441999 -2.1760001 57
46.360001 -16.448999 -2.1960001 58
46.346001 -16.462 -2.2160001 55
46.304001 -16.464001 -2.234 49
46.243999 -16.459999 -2.2520001 41
46.088001 -16.42 -2.263 44
45.966 -16.392 -2.2780001 39
45.903999 -16.384001 -2.2950001 35
45.849998 -16.379 -2.312 38
45.811001 -16.378 -2.3310001 39
45.791 -16.382999 -2.348 34
45.749001 -16.379999 -2.3659999 39
45.742001 -16.388 -2.3859999 34
45.698002 -16.382999 -2.4030001 31
45.674999 -16.384001 -2.4219999 29
45.685001 -16.396999 -2.4419999 23
45.646999 -16.392 -2.4590001 22
45.618999 -16.389 -2.477 18
45.611 -16.393 -2.4949999 15
45.591 -16.393 -2.513 15
45.591999 -16.398001 -2.5320001 11
45.577999 -16.398001 -2.5510001 8
45.556999 -16.395 -2.569 5
45.415001 -16.347 -2.5799999 4
0 0 0 0
0 0 0 0
0 0 0 0
0 0 0 0
0 0 0 0
0 0 0 0
0 0 0 0
0 0 0 0
0 0 0 0
0 0 0 0
0 0 0 0
0 0 0 0
0 0 0 0
0 0 0 0
0 0 0 0
0 0 0 0
0 0 0 0
0 0 0 0
0 0 0 0
0 0 0 0
0 0 0 0
0 0 0 1
0 0 0 0
0 0 0 1
20.775 -7.4190001 -1.3789999 1
21.099001 -7.5279999 -1.408 1
20.945999 -7.467 -1.406 1
20.68 -7.3649998 -1.395 1
20.554001 -7.3130002 -1.393 1
20.381001 -7.244 -1.3890001 1
0 0 0 1
18.548 -6.5780001 -1.276 1
18.226 -6.4559999 -1.26 1
17.820999 -6.3049998 -1.238 1
17.851999 -6.3080001 -1.2460001 1
17.638 -6.2249999 -1.237 1
0 0 0 0
0 0 0 1
17.76 -6.2420001 -1.262 1
17.533001 -6.1539998 -1.252 1
17.417 -6.1040001 -1.249 2
17.295 -6.052 -1.245 2
17.141001 -5.9889998 -1.239 2
16.976 -5.921 -1.232 2
16.849001 -5.8670001 -1.228 2
16.676001 -5.7969999 -1.221 2
16.451 -5.7090001 -1.209 1
16.375999 -5.6729999 -1.2079999 2
16.219999 -5.6090002 -1.201 2
16.093 -5.5539999 -1.196 2
15.865 -5.4650002 -1.183 2
15.642 -5.3779998 -1.171 1
15.503 -5.3189998 -1.165 2
15.29 -5.2360001 -1.153 2
15.168 -5.1830001 -1.147 2
15.117 -5.1539998 -1.147 2
14.938 -5.0819998 -1.138 2
14.799 -5.0240002 -1.13 2
14.685 -4.974 -1.125 2
14.574 -4.9250002 -1.12 2
14.476 -4.8800001 -1.1160001 2
14.462 -4.8639998 -1.119 2
14.334 -4.809 -1.112 2
14.238 -4.7649999 -1.108 2
14.108 -4.71 -1.101 2
14.003 -4.6620002 -1.096 2
13.845 -4.5970001 -1.086 2
13.791 -4.5679998 -1.085 2
13.699 -4.5250001 -1.08 2
13.649 -4.4959998 -1.079 2
13.519 -4.4400001 -1.071 2
13.404 -4.3899999 -1.0650001 2
13.33 -4.3530002 -1.062 2
13.253 -4.3150001 -1.058 2
13.151 -4.2690001 -1.052 2
13.047 -4.2220001 -1.046 2
12.988 -4.1900001 -1.043 2
12.89 -4.1459999 -1.0369999 2
12.861 -4.1230001 -1.0369999 2
12.746 -4.073 -1.03 2
12.644 -4.027 -1.024 2
12.63 -4.0089998 -1.024 2
12.567 -3.9749999 -1.021 2
12.467 -3.9300001 -1.015 2
12.393 -3.8929999 -1.01 2
12.353 -3.8670001 -1.0089999 2
12.299 -3.835 -1.006 2
12.248 -3.806 -1.003 2
12.193 -3.7750001 -1 1
12.112 -3.7360001 -0.995 1
12.047 -3.701 -0.991 2
11.999 -3.6730001 -0.98799998 2
11.973 -3.651 -0.98699999 2
11.953 -3.6300001 -0.986 2
11.867 -3.589 -0.98000002 2
11.784 -3.549 -0.97399998 2
11.748 -3.5239999 -0.972 2
11.772 -3.517 -0.97500002 2
11.694 -3.4790001 -0.96899998 2
11.686 -3.461 -0.96899998 2
11.619 -3.427 -0.96499997 2
11.612 -3.4089999 -0.96399999 2
11.607 -3.3929999 -0.96399999 2
11.579 -3.369 -0.96200001 2
11.553 -3.346 -0.95999998 2
11.542 -3.3280001 -0.95999998 2
11.498 -3.3 -0.95700002 2
11.501 -3.2850001 -0.95700002 2
11.468 -3.26 -0.954 2
11.467 -3.244 -0.95499998 2
11.46 -3.2260001 -0.954 2
11.437 -3.2030001 -0.95200002 2
11.456 -3.1919999 -0.95300001 2
11.428 -3.168 -0.95099998 2
11.422 -3.1500001 -0.94999999 2
11.435 -3.1370001 -0.95099998 2
11.42 -3.1170001 -0.949 2
11.384 -3.0899999 -0.94599998 2
11.416 -3.082 -0.94800001 2
11.438 -3.0710001 -0.949 2
11.419 -3.049 -0.94700003 2
11.417 -3.0320001 -0.94599998 2
11.422 -3.016 -0.94499999 2
11.445 -3.0039999 -0.94599998 2
11.444 -2.987 -0.94599998 2
11.424 -2.964 -0.94300002 2
11.471 -2.9579999 -0.94599998 2
11.513 -2.9519999 -0.94800001 2
11.53 -2.938 -0.94800001 2
11.541 -2.9219999 -0.94800001 2
11.554 -2.9070001 -0.94800001 2
11.581 -2.8959999 -0.94800001 2
11.643 -2.8929999 -0.95200002 2
11.703 -2.8889999 -0.95499998 2
11.716 -2.8729999 -0.95499998 3
11.748 -2.862 -0.95599997 3
11.787 -2.852 -0.95700002 3
11.856 -2.8499999 -0.96100003 3
11.871 -2.8340001 -0.95999998 2
11.918 -2.825 -0.96200001 2
11.95 -2.813 -0.96200001 2
12.027 -2.8110001 -0.96600002 2
12.057 -2.7980001 -0.96600002 3
12.152 -2.8 -0.972 2
12.201 -2.7909999 -0.97299999 3
12.233 -2.777 -0.97299999 2
12.303 -2.773 -0.97600001 3
12.336 -2.7590001 -0.97600001 2
12.402 -2.753 -0.97799999 2
12.466 -2.7460001 -0.98000002 2
12.536 -2.7390001 -0.98299998 2
12.647 -2.7420001 -0.98799998 2
12.696 -2.73 -0.98900002 3
12.797 -2.7290001 -0.99400002 3
12.84 -2.7160001 -0.99299997 3
12.947 -2.7160001 -0.99800003 3
13.065 -2.7179999 -1.003 3
13.186 -2.72 -1.0089999 3
13.236 -2.7060001 -1.0089999 3
13.322 -2.7 -1.011 2
13.45 -2.7019999 -1.017 2
13.544 -2.697 -1.02 2
13.669 -2.697 -1.025 2
13.786 -2.6949999 -1.029 2
13.933 -2.6989999 -1.035 2
14.032 -2.6919999 -1.038 2
14.144 -2.688 -1.041 2
14.305 -2.6930001 -1.048 2
14.47 -2.697 -1.0549999 2
14.575 -2.6900001 -1.057 2
14.696 -2.6849999 -1.0599999 2
14.792 -2.6760001 -1.061 2
14.991 -2.684 -1.0700001 2
15.129 -2.681 -1.074 2
15.234 -2.671 -1.075 2
15.386 -2.6689999 -1.08 2
15.53 -2.6659999 -1.0829999 2
15.795 -2.681 -1.095 2
15.97 -2.681 -1.1 2
16.177 -2.6860001 -1.107 2
16.433001 -2.697 -1.117 2
15.72 -2.5510001 -1.062 2
16.1 -2.582 -1.08 1
16.320999 -2.586 -1.087 1
16.573999 -2.595 -1.096 1
16.923 -2.618 -1.1109999 1
17.002001 -2.598 -1.108 1
17.438999 -2.632 -1.128 1
0 0 0 1
8.158 -1.2 -0.51899999 43
8.1590004 -1.184 -0.51499999 56
8.1560001 -1.168 -0.51099998 63
8.1429996 -1.151 -0.505 52
8.1190004 -1.132 -0.5 40
0 0 0 0
0 0 0 0
0 0 0 0
0 0 0 1
8.059 -1.046 -0.47299999 15
8.0749998 -1.0319999 -0.46900001 50
8.0559998 -1.0140001 -0.46399999 54
8.0690002 -1 -0.45899999 62
8.0489998 -0.98199999 -0.45300001 47
8.0389996 -0.96499997 -0.44800001 54
8.04 -0.949 -0.44299999 66
8.0369997 -0.93300003 -0.43799999 60
8.0270004 -0.91600001 -0.43200001 44
8.0629997 -0.90499997 -0.42899999 41
8.0880003 -0.89200002 -0.42500001 54
8.0950003 -0.87699997 -0.41999999 38
8.1459999 -0.86699998 -0.417 62
8.1370001 -0.84899998 -0.41100001 45
8.1800003 -0.838 -0.40799999 48
8.21 -0.82499999 -0.40400001 67
8.2119999 -0.80900002 -0.398 36
8.2639999 -0.79799998 -0.39500001 57
8.2589998 -0.78200001 -0.389 37
8.3070002 -0.76999998 -0.38499999 64
8.302 -0.75300002 -0.37900001 39
8.316 -0.73799998 -0.37400001 17
0 0 0 0
0 0 0 1
0 0 0 0
0 0 0 12
8.4759998 -0.66900003 -0.34900001 53
8.4969997 -0.65399998 -0.34400001 34
8.5480003 -0.64200002 -0.33899999 61
8.5480003 -0.625 -0.33199999 37
8.5860004 -0.611 -0.32699999 51
8.592 -0.59399998 -0.32100001 38
8.632 -0.58099997 -0.315 40
8.6440001 -0.565 -0.30899999 40
8.6669998 -0.54900002 -0.30199999 42
8.7119999 -0.53500003 -0.29699999 39
8.75 -0.51999998 -0.29100001 44
8.7709999 -0.50400001 -0.28400001 51
8.9610004 -0.498 -0.28299999 29
9.3070002 -0.49900001 -0.28600001 47
9.316 -0.48100001 -0.278 50
9.3129997 -0.463 -0.27000001 51
9.3100004 -0.44499999 -0.26199999 52
9.3260002 -0.42699999 -0.25400001 50
9.3210001 -0.40900001 -0.245 50
9.3319998 -0.39199999 -0.23800001 45
9.323 -0.373 -0.229 46
9.3389997 -0.35600001 -0.221 40
9.3409996 -0.338 -0.213 36
9.3520002 -0.32100001 -0.204 36
9.3520002 -0.303 -0.19599999 39
9.3549995 -0.28400001 -0.18700001 34
9.3660002 -0.26699999 -0.178 33
9.3710003 -0.249 -0.17 31
9.3879995 -0.23100001 -0.161 30
9.4020004 -0.214 -0.152 30
9.4110003 -0.19599999 -0.14300001 31
9.4300003 -0.17900001 -0.13500001 27
9.4499998 -0.161 -0.126 27
9.4659996 -0.14300001 -0.117 25
9.4759998 -0.126 -0.107 27
9.5089998 -0.108 -0.097999997 23
9.5270004 -0.090000004 -0.089000002 16
9.5550003 -0.072999999 -0.079999998 16
9.5810003 -0.055 -0.07 13
9.632 -0.037 -0.061000001 10
9.6949997 -0.018999999 -0.050999999 12
9.7889996 -0.001 -0.041999999 1
0 0 0 23
27.629999 0.097999997 -0.061999999 30
27.580999 0.149 -0.033 34
27.559 0.2 -0.0040000002 41
27.521999 0.25 0.023 42
27.516001 0.30000001 0.052999999 50
27.488001 0.35100001 0.082000002 58
27.459 0.40099999 0.111 67
27.475 0.45100001 0.141 66
27.475 0.50199997 0.17 56
27.495001 0.55199999 0.2 54
27.500999 0.60299999 0.23100001 50
27.517 0.65200001 0.25999999 46
27.556999 0.70200002 0.29100001 44
27.591 0.75199997 0.322 40
27.645 0.80299997 0.35299999 36
27.716 0.85399997 0.384 29
27.99 0.912 0.419 16
28.686001 0.986 0.461 9
28.844 1.0420001 0.49700001 1
0 0 0 10
31.316 1.243 0.61000001 13
31.275 1.296 0.64499998 14
31.219 1.349 0.68000001 13
31.205 1.402 0.71499997 10
31.242001 1.459 0.75300002 5
31.304001 1.516 0.79100001 1
0 0 0 0
0 0 0 0
0 0 0 0
0 0 0 2
35.808998 2.0409999 1.113 4
0 0 0 3
28.381001 1.714 0.94999999 2
0 0 0 5
0 0 0 0
0 0 0 1
0 0 0 10
31.371 2.1570001 1.238 14
31.354 2.2079999 1.275 15
31.309 2.2550001 1.3099999 14
31.254999 2.302 1.346 13
31.221001 2.3499999 1.382 24
31.226 2.402 1.42 39
31.207001 2.451 1.4579999 50
31.167999 2.4979999 1.494 50
31.153999 2.5469999 1.5319999 50
31.127001 2.596 1.5700001 45
31.106001 2.6440001 1.607 34
31.205 2.701 1.651 23
31.294001 2.7579999 1.694 24
31.389 2.816 1.739 24
31.497 2.875 1.784 23
0 0 0 86
35.014 3.3050001 2.0710001 104
35.006001 3.3599999 2.115 93
34.959 3.4070001 2.155 68
34.769001 3.4430001 2.187 27
34.601002 3.4790001 2.22 43
34.289001 3.5 2.244 24
33.785999 3.4990001 2.253 19
33.283001 3.497 2.2620001 19
32.889999 3.5050001 2.277 19
32.551998 3.517 2.2950001 21
32.362999 3.5450001 2.323 22
32.337002 3.589 2.362 17
32.423 3.6459999 2.4089999 17
32.553001 3.707 2.46 18
32.640999 3.7650001 2.5090001 17
32.736 3.822 2.5569999 17
32.858002 3.882 2.609 17
32.942001 3.9389999 2.6559999 17
33.080002 4.0019999 2.71 17
33.160999 4.0580001 2.7590001 16
33.264999 4.118 2.8110001 17
33.375 4.178 2.8629999 17
33.5 4.2389998 2.9159999 16
33.650002 4.3039999 2.9719999 23
34.092999 4.4070001 3.0550001 24
34.306 4.4819999 3.119 39
34.405998 4.5409999 3.171 33
34.408001 4.5869999 3.2160001 27
34.452999 4.6389999 3.2639999 19
34.466 4.6859999 3.3099999 6
0 0 0 0
0 0 0 0
0 0 0 0
0 0 0 0
0 0 0 0
0 0 0 0
0 0 0 0
0 0 0 0
0 0 0 0
0 0 0 0
0 0 0 0
0 0 0 0
0 0 0 0
0 0 0 0
0 0 0 13
34.014 5.2989998 3.961 17
34.018002 5.3400002 4.0050001 6
0 0 0 0
0 0 0 0
0 0 0 0
0 0 0 0
0 0 0 0
0 0 0 3
33.912998 5.5900002 4.2909999 7
33.876999 5.6209998 4.329 8
33.848999 5.6529999 4.368 9
33.804001 5.6810002 4.4029999 9
33.763 5.71 4.4400001 5
33.667999 5.73 4.4699998 2
0 0 0 0
0 0 0 2
37.573002 6.5110002 5.1279998 2
37.395 6.5190001 5.1500001 2
0 0 0 3
16.959 2.99 2.3770001 14
16.909 2.997 2.3900001 15
16.844 3.0020001 2.402 21
16.802999 3.0109999 2.4159999 24
16.775 3.0220001 2.4330001 27
16.733 3.03 2.447 30
16.724001 3.0439999 2.4660001 32
16.702 3.0550001 2.483 34
16.698999 3.0699999 2.5020001 37
16.679001 3.082 2.5190001 37
16.658001 3.092 2.536 40
16.636999 3.1029999 2.552 39
16.642 3.119 2.572 28
16.621 3.1289999 2.589 45
16.610001 3.141 2.6059999 46
16.608999 3.155 2.6259999 30
16.598 3.1670001 2.6429999 48
16.577 3.1760001 2.6589999 47
16.563 3.188 2.6760001 46
16.577 3.204 2.698 30
16.563999 3.214 2.714 39
16.547001 3.224 2.73 41
16.554001 3.2379999 2.7509999 50
16.535 3.247 2.766 45
16.541 3.2609999 2.7850001 51
16.514999 3.2679999 2.8 50
16.521999 3.2809999 2.819 50
16.523001 3.293 2.8380001 48
16.514 3.303 2.855 50
16.514999 3.3150001 2.8729999 52
16.509001 3.325 2.8900001 49
16.509001 3.336 2.908 53
16.493 3.3440001 2.9230001 51
16.500999 3.3570001 2.9419999 51
16.504999 3.368 2.96 34
16.511 3.3800001 2.9790001 34
16.504 3.3889999 2.9949999 56
16.497999 3.398 3.0109999 54
16.487 3.405 3.027 51
16.504 3.418 3.0469999 47
16.487 3.424 3.0599999 50
16.495001 3.4360001 3.079 46
16.495001 3.4449999 3.096 48
16.493999 3.454 3.112 44
16.509001 3.4660001 3.132 49
16.5 3.473 3.1470001 48
16.497 3.4809999 3.1630001 47
16.500999 3.49 3.1800001 47
16.511 3.5009999 3.198 46
16.506001 3.5079999 3.2130001 43
16.502001 3.5150001 3.2279999 42
16.497 3.5220001 3.243 38
16.516001 3.533 3.263 45
16.516001 3.54 3.2780001 43
16.504999 3.5450001 3.2909999 39
16.523001 3.556 3.3099999 38
16.523001 3.563 3.325 38
16.525999 3.5710001 3.3410001 39
16.514999 3.575 3.3540001 39
16.518999 3.582 3.3699999 36
16.528 3.5899999 3.3859999 37
16.535999 3.598 3.4030001 37
16.535 3.6040001 3.4170001 36
16.537001 3.6099999 3.4319999 34
16.546 3.6170001 3.448 33
16.545 3.622 3.4619999 33
16.559999 3.6300001 3.4790001 35
16.561001 3.6359999 3.493 32
16.558001 3.6400001 3.506 31
16.563999 3.6459999 3.52 32
16.562 3.6500001 3.533 32
16.556999 3.6530001 3.546 29
16.561001 3.658 3.5599999 32
16.572001 3.665 3.575 32
16.568001 3.6670001 3.5880001 30
16.573 3.6719999 3.6010001 31
16.584 3.678 3.6159999 32
16.582001 3.681 3.628 30
16.587999 3.6849999 3.642 31
16.580999 3.6860001 3.6530001 31
16.59 3.691 3.6659999 32
16.599001 3.6960001 3.681 31
16.6 3.698 3.6930001 31
16.589001 3.698 3.7019999 30
16.603001 3.7030001 3.7160001 29
16.615999 3.7079999 3.73 22
16.603001 3.707 3.7379999 29
16.611 3.7090001 3.7520001 28
16.6 3.7090001 3.76 28
16.608999 3.7119999 3.7720001 27
16.608999 3.7130001 3.783 27
16.604 3.7119999 3.7920001 28
16.618999 3.7160001 3.806 24
16.610001 3.7149999 3.8139999 25
16.6 3.7130001 3.8210001 27
16.601 3.7130001 3.8310001 26
16.617001 3.717 3.845 20
16.606001 3.714 3.852 25
16.613001 3.7149999 3.862 26
16.629999 3.7179999 3.875 26
16.614 3.714 3.8800001 26
16.613001 3.7130001 3.8889999 25
16.627001 3.7149999 3.9000001 25
16.634001 3.7160001 3.911 25
16.624001 3.7119999 3.9170001 25
16.612 3.707 3.9219999 25
16.606001 3.704 3.9289999 28
16.617001 3.7049999 3.9389999 28
16.603001 3.7 3.9430001 28
16.603001 3.697 3.951 29
16.610001 3.697 3.96 30
16.611 3.694 3.967 22
16.607 3.6900001 3.973 28
16.599001 3.6860001 3.977 29
16.599001 3.6830001 3.984 29
16.598 3.6789999 3.99 31
16.603001 3.677 3.9979999 31
16.587 3.6700001 4 30
16.596001 3.668 4.0079999 33
16.577999 3.6600001 4.0089998 32
16.598 3.6600001 4.02 24
16.594 3.655 4.0240002 33
16.575001 3.6470001 4.0250001 33
16.572001 3.642 4.0289998 32
16.566 3.6359999 4.0320001 32
16.594 3.6370001 4.0440001 25
16.573 3.6270001 4.0430002 35
16.576 3.622 4.0479999 39
16.575001 3.6170001 4.052 37
16.566999 3.609 4.0539999 39
16.562 3.6029999 4.0570002 39
16.563999 3.5969999 4.0609999 36
16.563999 3.5910001 4.0640001 39
16.562 3.5840001 4.0669999 42
16.552999 3.576 4.0669999 39
16.556999 3.5710001 4.0710001 39
16.555 3.5639999 4.0739999 27
16.549999 3.556 4.0749998 38
16.546 3.5480001 4.0760002 37
16.549 3.5409999 4.079 38
16.545 3.533 4.0799999 37
16.552 3.527 4.0830002 38
16.534 3.516 4.0809999 42
16.533001 3.5079999 4.0819998 42
16.544001 3.5020001 4.086 43
16.537001 3.493 4.085 45
16.537001 3.4849999 4.086 44
16.527 3.474 4.0840001 45
16.532 3.467 4.086 45
16.538 3.4590001 4.0879998 30
16.535999 3.45 4.0869999 46
16.532 3.4400001 4.086 45
16.548 3.4349999 4.0900002 31
16.535999 3.4230001 4.086 47
16.530001 3.4130001 4.0840001 43
16.541 3.405 4.086 45
16.531 3.3940001 4.0830002 45
16.535 3.385 4.0819998 45
16.534 3.375 4.0809999 54
16.528999 3.3640001 4.0780001 44
16.535999 3.355 4.0780001 46
16.542 3.346 4.0770001 49
16.542999 3.336 4.0760002 48
16.544001 3.325 4.0739999 48
16.538 3.313 4.0700002 48
16.541 3.3039999 4.0679998 46
16.548 3.2939999 4.0669999 49
16.554001 3.2839999 4.0650001 49
16.558001 3.273 4.0630002 50
16.563999 3.263 4.0609999 49
16.577999 3.2539999 4.0599999 47
16.59 3.2449999 4.0599999 31
16.580999 3.2309999 4.053 49
16.591 3.221 4.052 49
16.593 3.21 4.0479999 46
16.601999 3.1989999 4.0450001 42
16.610001 3.188 4.0430002 38
16.612 3.1760001 4.0380001 41
16.621 3.1659999 4.0349998 30
16.613001 3.151 4.0279999 46
16.625999 3.141 4.026 42
16.638 3.1300001 4.0229998 42
16.642 3.118 4.0180001 41
16.65 3.1059999 4.0139999 42
16.681 3.098 4.0149999 29
16.673 3.0829999 4.007 41
16.674999 3.0699999 4 38
16.700001 3.0610001 4 42
16.718 3.05 3.997 39
16.737 3.039 3.994 35
16.747 3.027 3.9890001 34
16.759001 3.0150001 3.984 33
16.785 3.0050001 3.9820001 32
16.792 2.9920001 3.9760001 29
16.827 2.984 3.9760001 25
16.851999 2.974 3.974 23
16.896999 2.967 3.9760001 21
16.934999 2.9579999 3.9760001 17
16.983 2.9519999 3.9779999 14
17.039 2.9460001 3.9820001 8
17.091 2.9389999 3.984 1
0 0 0 20
27.184 4.6259999 6.3060002 24
27.212 4.605 6.2969999 30
27.283001 4.592 6.2969999 25
27.333 4.5739999 6.2919998 29
27.389 4.5580001 6.2870002 29
27.469 4.546 6.289 24
27.521999 4.5279999 6.283 25
27.601 4.5139999 6.283 24
27.672001 4.4990001 6.2810001 25
27.737 4.4829998 6.276 29
27.797001 4.4650002 6.2709999 27
27.877001 4.4510002 6.2690001 23
27.966 4.4380002 6.2690001 26
28.032 4.4200001 6.2639999 29
28.117001 4.4060001 6.2620001 25
28.186001 4.3889999 6.257 27
28.266001 4.3730001 6.2529998 25
28.360001 4.3579998 6.2529998 25
28.43 4.3410001 6.2459998 25
28.514 4.3239999 6.2420001 28
28.611 4.3099999 6.2410002 27
28.701 4.2930002 6.237 26
28.797001 4.2789998 6.2340002 24
28.889 4.2620001 6.23 25
28.969999 4.244 6.223 28
29.072001 4.2290001 6.2199998 25
29.181 4.2140002 6.2189999 23
29.268 4.1960001 6.2119999 28
29.372 4.1789999 6.2080002 27
29.469 4.1620002 6.2020001 24
29.587999 4.1469998 6.1999998 26
29.694 4.131 6.1950002 24
29.809999 4.1139998 6.1929998 25
29.909 4.0960002 6.184 24
30.062 4.0840001 6.1869998 23
30.17 4.066 6.1810002 27
30.294001 4.0500002 6.177 24
30.423 4.0339999 6.1729999 23
30.555 4.0190001 6.1700001 23
30.667 4 6.1620002 22
30.802999 3.983 6.158 23
30.927 3.9660001 6.151 24
31.049 3.947 6.1440001 21
31.188 3.9300001 6.1389999 22
31.351 3.9159999 6.138 21
31.471001 3.895 6.1279998 23
31.621 3.8789999 6.1230001 26
31.745001 3.858 6.1129999 22
31.903999 3.842 6.1090002 23
32.056999 3.823 6.1020002 22
32.229 3.8069999 6.099 21
32.395 3.79 6.0939999 22
32.551998 3.7720001 6.086 23
32.699001 3.7520001 6.0780001 23
32.875999 3.7349999 6.073 23
33.021999 3.714 6.0609999 23
33.202 3.697 6.0549998 23
33.359001 3.6760001 6.0450001 24
33.535 3.658 6.0370002 24
33.736 3.641 6.0320001 24
33.924999 3.6229999 6.0250001 24
34.084999 3.602 6.0120001 25
34.264999 3.5810001 6.0019999 25
34.422001 3.5580001 5.987 25
34.603001 3.5369999 5.9749999 23
34.757 3.513 5.9580002 20
34.901001 3.487 5.9380002 15
35.085999 3.4660001 5.9250002 12
35.233002 3.4389999 5.9039998 6
35.585999 3.4319999 5.9169998 4
35.812 3.414 5.9089999 4
35.921001 3.382 5.8790002 4
36.386002 3.3840001 5.9070001 3
35.859001 3.2950001 5.7740002 2
36.924 3.3499999 5.8959999 2
37.237 3.336 5.8969998 2
37.479 3.313 5.8829999 2
35.540001 3.1010001 5.5300002 2
35.442001 3.0510001 5.4660001 3
35.366001 3.0039999 5.4050002 5
35.425999 2.9679999 5.3649998 13
35.401001 2.9260001 5.3119998 11
35.459999 2.8900001 5.27 15
35.499001 2.852 5.2259998 13
35.508999 2.812 5.1760001 2
0 0 0 3
40.459999 3.1099999 5.7810001 2
40.487999 3.0650001 5.7259998 2
0 0 0 0
0 0 0 2
0 0 0 0
0 0 0 0
0 0 0 0
0 0 0 2
0 0 0 0
0 0 0 0
0 0 0 0
0 0 0 0
0 0 0 3
31.804001 1.974 3.9219999 9
31.796 1.937 3.872 12
31.834999 1.904 3.826 15
31.854 1.87 3.779 13
31.874001 1.835 3.7309999 15
31.889999 1.8 3.6819999 12
31.896 1.7640001 3.631 11
31.941999 1.7309999 3.585 15
31.966999 1.697 3.536 12
31.98 1.6619999 3.4849999 10
32.000999 1.627 3.4360001 15
32.012001 1.592 3.3840001 13
32.011002 1.557 3.3310001 11
32.042999 1.523 3.2820001 13
32.075001 1.489 3.2320001 13
32.058998 1.4529999 3.1760001 13
31.916 1.4119999 3.108 23
31.799999 1.372 3.043 33
31.754 1.335 2.9849999 41
31.749001 1.301 2.931 48
31.764999 1.268 2.8789999 49
31.781 1.234 2.826 46
31.811001 1.201 2.7739999 48
31.832001 1.168 2.721 47
31.841 1.1339999 2.6670001 47
31.861 1.101 2.6140001 47
31.885 1.069 2.5610001 49
0 0 0 1
27.868999 0.875 2.1400001 12
27.785999 0.84299999 2.085 24
27.743 0.81300002 2.0320001 31
27.695999 0.78299999 1.979 36
27.664 0.75300002 1.928 38
27.613001 0.72299999 1.875 41
27.613001 0.69499999 1.825 41
27.582001 0.66600001 1.774 44
27.570999 0.63800001 1.724 47
27.558001 0.61000001 1.673 48
27.545 0.58200002 1.622 53
27.530001 0.55400002 1.571 53
27.527 0.52600002 1.521 60
27.51 0.498 1.469 48
27.504 0.47099999 1.419 50
27.499001 0.44400001 1.368 51
27.490999 0.41600001 1.316 67
27.504 0.38999999 1.266 62
27.49 0.36300001 1.214 59
27.513 0.33700001 1.165 53
27.537001 0.31099999 1.114 57
27.556999 0.28400001 1.064 42
27.558001 0.259 1.012 37
27.570999 0.233 0.96100003 42
27.583 0.207 0.90899998 41
27.584999 0.18099999 0.85699999 41
27.618999 0.155 0.80599999 36
27.639 0.13 0.75400001 34
27.677 0.105 0.70200002 31
27.702 0.079999998 0.65100002 29
27.75 0.055 0.59899998 25
27.808001 0.029999999 0.54699999 19
0 0 0 1
9.7440004 -0.0060000001 0.154 7
9.6949997 -0.015 0.134 13
9.6599998 -0.023 0.115 17
9.6230001 -0.032000002 0.096000001 18
9.6020002 -0.039999999 0.077 20
9.5909996 -0.048 0.057999998 19
9.5710001 -0.056000002 0.039999999 20
9.5539999 -0.064000003 0.021 16
9.5450001 -0.071999997 0.0020000001 16
9.5209999 -0.079999998 -0.015 24
9.5139999 -0.088 -0.034000002 24
9.5039997 -0.096000001 -0.052999999 24
9.4980001 -0.103 -0.071000002 24
9.4770002 -0.111 -0.090000004 26
9.4759998 -0.119 -0.108 28
9.467 -0.126 -0.127 27
9.4650002 -0.134 -0.146 26
9.4469995 -0.141 -0.164 27
9.4320002 -0.148 -0.182 29
9.4350004 -0.155 -0.20100001 29
9.4160004 -0.162 -0.22 28
9.4180002 -0.17 -0.23899999 30
9.4180002 -0.177 -0.257 30
9.408 -0.183 -0.27599999 31
9.3999996 -0.19 -0.294 31
9.3970003 -0.197 -0.31299999 30
9.3789997 -0.204 -0.331 32
9.3909998 -0.211 -0.34999999 33
9.3789997 -0.21699999 -0.368 31
9.368 -0.22400001 -0.38699999 30
9.3570004 -0.23 -0.405 32
9.3549995 -0.236 -0.42399999 34
9.3540001 -0.243 -0.442 34
9.3500004 -0.249 -0.461 33
9.3430004 -0.255 -0.479 34
9.3380003 -0.26100001 -0.498 33
9.3450003 -0.26800001 -0.51700002 33
9.3369999 -0.27399999 -0.53500003 33
9.3319998 -0.27900001 -0.55400002 30
9.3299999 -0.285 -0.57200003 33
9.3310003 -0.29100001 -0.59100002 33
9.3310003 -0.29699999 -0.61000001 34
9.3129997 -0.30199999 -0.62800002 32
9.3140001 -0.308 -0.64700001 34
9.323 -0.31400001 -0.66600001 34
9.3190002 -0.31999999 -0.68400002 33
9.3149996 -0.32499999 -0.70300001 32
9.3070002 -0.33000001 -0.72100002 33
9.3129997 -0.336 -0.74000001 35
9.2980003 -0.34099999 -0.75800002 34
9.3070002 -0.34599999 -0.778 28
9.2469997 -0.34900001 -0.79100001 19
9.1059999 -0.34900001 -0.79699999 11
8.6999998 -0.338 -0.77899998 5
8.3809996 -0.33000001 -0.76800001 5
8.1059999 -0.324 -0.759 5
7.8400002 -0.317 -0.75 5
7.645 -0.31299999 -0.74699998 5
7.4330001 -0.308 -0.741 5
7.2519999 -0.30500001 -0.73699999 4
7.04 -0.29899999 -0.73000002 4
6.862 -0.29499999 -0.72500002 4
6.6760001 -0.28999999 -0.71899998 3
6.4970002 -0.285 -0.713 4
6.3699999 -0.28299999 -0.71200001 3
6.2150002 -0.27900001 -0.70700002 2
6.033 -0.273 -0.69800001 1
5.8660002 -0.26800001 -0.69 1
5.7259998 -0.26499999 -0.685 2
5.625 -0.26199999 -0.68400002 2
5.5430002 -0.26100001 -0.685 4
5.4419999 -0.25799999 -0.68400002 5
5.309 -0.25400001 -0.67799997 4
5.1999998 -0.25099999 -0.67400002 3
5.0780001 -0.24699999 -0.66799998 3
4.9330001 -0.242 -0.65899998 4
4.8150001 -0.23800001 -0.653 6
4.724 -0.235 -0.64999998 9
4.6490002 -0.233 -0.648 13
4.5890002 -0.23199999 -0.64899999 10
4.533 -0.23100001 -0.64999998 6
4.4460001 -0.228 -0.64600003 3
4.3400002 -0.22400001 -0.639 2
4.283 -0.223 -0.639 2
4.1989999 -0.22 -0.63499999 2
4.1440001 -0.21799999 -0.63499999 2
4.052 -0.214 -0.62900001 2
3.9820001 -0.212 -0.625 2
4.0229998 -0.215 -0.63999999 3
3.8610001 -0.208 -0.62099999 2
3.813 -0.206 -0.62099999 2
3.747 -0.204 -0.61799997 2
3.6900001 -0.20200001 -0.61500001 2
3.724 -0.205 -0.62800002 2
3.6110001 -0.199 -0.616 2
3.513 -0.19499999 -0.60600001 2
3.464 -0.193 -0.60399997 1
3.4519999 -0.193 -0.60799998 1
3.467 -0.19499999 -0.61699998 2
3.391 -0.191 -0.61000001 2
3.336 -0.189 -0.60699999 1
3.3 -0.18799999 -0.60600001 1
3.207 -0.183 -0.59500003 1
3.1849999 -0.182 -0.597 1
3.2279999 -0.185 -0.611 1
3.2019999 -0.185 -0.61199999 1
3.214 -0.186 -0.62 1
3.029 -0.176 -0.58999997 2
3 -0.17399999 -0.58999997 2
2.9619999 -0.17299999 -0.588 2
2.9260001 -0.171 -0.58600003 2
2.8959999 -0.17 -0.58499998 2
2.862 -0.168 -0.58399999 2
2.8310001 -0.167 -0.583 2
2.7969999 -0.16500001 -0.58099997 2
2.7739999 -0.164 -0.58099997 2
2.747 -0.163 -0.57999998 2
2.714 -0.161 -0.57800001 2
2.687 -0.16 -0.57700002 2
2.665 -0.15899999 -0.57700002 2
2.6429999 -0.15800001 -0.57700002 2
2.6110001 -0.156 -0.574 1
2.582 -0.155 -0.57200003 1
2.579 -0.155 -0.57599998 1
2.5880001 -0.155 -0.583 1
2.579 -0.155 -0.58499998 1
2.54 -0.153 -0.58099997 1
2.549 -0.154 -0.58700001 1
2.4690001 -0.149 -0.57300001 1
2.572 -0.155 -0.60100001 1
0 0 0 1
2.474 -0.149 -0.58700001 1
2.3970001 -0.145 -0.57200003 1
2.3380001 -0.141 -0.56199998 1
2.401 -0.145 -0.58099997 1
2.322 -0.14 -0.56599998 1
2.3559999 -0.142 -0.57800001 1
2.2679999 -0.13699999 -0.56 1
2.247 -0.13600001 -0.55900002 1
2.2390001 -0.13500001 -0.56 1
2.2130001 -0.134 -0.55699998 1
2.197 -0.133 -0.55699998 1
2.1849999 -0.132 -0.55699998 1
2.1700001 -0.131 -0.55699998 1
2.1570001 -0.13 -0.55699998 1
2.1400001 -0.12899999 -0.55599999 1
2.1259999 -0.12800001 -0.55500001 1
2.1029999 -0.126 -0.55299997 1
2.0969999 -0.126 -0.55400002 1
2.0799999 -0.125 -0.55299997 1
2.062 -0.124 -0.551 1
2.056 -0.123 -0.55299997 1
2.05 -0.123 -0.55400002 1
2.0439999 -0.122 -0.55500001 1
2.0239999 -0.121 -0.55299997 1
2.0090001 -0.12 -0.55199999 1
1.997 -0.119 -0.55199999 1
1.985 -0.118 -0.551 1
1.973 -0.117 -0.55000001 1
1.959 -0.116 -0.55000001 1
1.949 -0.115 -0.54900002 1
1.943 -0.114 -0.55000001 1
1.934 -0.114 -0.551 1
1.929 -0.113 -0.55199999 1
1.905 -0.111 -0.54799998 1
1.8940001 -0.11 -0.54699999 1
1.891 -0.11 -0.54900002 1
1.882 -0.109 -0.54799998 1
1.868 -0.108 -0.54699999 1
1.849 -0.107 -0.54400003 1
1.847 -0.106 -0.546 1
1.831 -0.105 -0.54299998 1
1.829 -0.105 -0.54500002 1
1.8200001 -0.104 -0.54500002 1
1.816 -0.103 -0.546 1
1.798 -0.102 -0.542 1
1.791 -0.101 -0.54299998 1
1.795 -0.101 -0.546 1
1.781 -0.1 -0.54400003 1
1.771 -0.098999999 -0.54299998 1
1.7640001 -0.097999997 -0.54299998 1
1.761 -0.097999997 -0.54400003 1
1.752 -0.097000003 -0.54400003 1
1.745 -0.096000001 -0.54299998 1
1.7359999 -0.094999999 -0.54299998 1
1.732 -0.094999999 -0.54299998 1
1.721 -0.093999997 -0.542 1
1.7180001 -0.093000002 -0.54299998 1
1.711 -0.092 -0.542 1
1.692 -0.090999998 -0.53799999 1
1.688 -0.090000004 -0.53899997 1
1.689 -0.090000004 -0.54100001 1
1.679 -0.089000002 -0.53899997 1
1.666 -0.088 -0.537 1
1.661 -0.086999997 -0.537 1
1.652 -0.086000003 -0.53600001 1
1.649 -0.086000003 -0.537 1
1.635 -0.085000001 -0.53399998 1
1.638 -0.083999999 -0.53600001 1
1.635 -0.083999999 -0.537 1
1.625 -0.082999997 -0.53500003 1
1.62 -0.082000002 -0.53500003 1
1.6160001 -0.081 -0.53500003 1
1.609 -0.081 -0.53399998 1
1.597 -0.079000004 -0.53200001 1
1.603 -0.079000004 -0.53500003 1
1.5880001 -0.078000002 -0.53100002 1
1.589 -0.078000002 -0.53299999 1
1.5880001 -0.077 -0.53399998 1
1.579 -0.075999998 -0.53200001 1
1.569 -0.075000003 -0.52999997 1
1.5700001 -0.075000003 -0.53200001 1
1.563 -0.074000001 -0.53100002 1
1.553 -0.072999999 -0.52899998 1
1.5549999 -0.072999999 -0.52999997 1
1.553 -0.071999997 -0.53100002 1
1.552 -0.071999997 -0.53200001 1
1.553 -0.071000002 -0.53299999 1
1.553 -0.071000002 -0.53399998 1
1.545 -0.07 -0.53200001 1
1.543 -0.068999998 -0.53299999 1
1.539 -0.068000004 -0.53299999 1
1.541 -0.068000004 -0.53399998 1
1.533 -0.067000002 -0.53200001 1
1.5369999 -0.067000002 -0.53500003 1
1.5319999 -0.066 -0.53399998 1
1.527 -0.064999998 -0.53299999 1
1.522 -0.064999998 -0.53200001 1
1.524 -0.064000003 -0.53399998 1
1.516 -0.063000001 -0.53200001 1
1.513 -0.063000001 -0.53200001 1
1.505 -0.061999999 -0.52899998 1
1.505 -0.061000001 -0.52999997 1
1.506 -0.061000001 -0.53100002 1
1.497 -0.059999999 -0.52899998 1
1.505 -0.059999999 -0.53200001 1
1.4910001 -0.059 -0.528 1
1.4960001 -0.057999998 -0.53100002 1
1.494 -0.057999998 -0.52999997 1
1.494 -0.057 -0.53100002 1
1.488 -0.056000002 -0.52999997 1
1.487 -0.056000002 -0.52999997 1
1.485 -0.055 -0.52999997 1
1.485 -0.054000001 -0.52999997 1
1.476 -0.054000001 -0.52700001 1
1.484 -0.052999999 -0.53100002 1
1.484 -0.052999999 -0.53100002 1
1.476 -0.052000001 -0.52899998 1
1.467 -0.050999999 -0.52600002 1
1.475 -0.050999999 -0.52899998 1
1.475 -0.050000001 -0.52999997 1
1.473 -0.048999999 -0.52899998 1
1.467 -0.048999999 -0.52700001 1
1.475 -0.048 -0.53100002 1
1.464 -0.046999998 -0.52700001 1
1.46 -0.046999998 -0.52600002 1
1.466 -0.046 -0.528 1
1.466 -0.046 -0.528 1
1.454 -0.045000002 -0.52399999 1
1.455 -0.044 -0.52499998 1
1.4630001 -0.044 -0.528 1
1.455 -0.043000001 -0.52499998 1
1.46 -0.043000001 -0.52700001 1
1.455 -0.041999999 -0.52499998 1
1.4630001 -0.041999999 -0.528 1
1.4630001 -0.041000001 -0.528 1
1.461 -0.039999999 -0.52700001 1
1.4630001 -0.039999999 -0.528 1
1.461 -0.039000001 -0.52700001 1
1.465 -0.039000001 -0.52899998 1
1.466 -0.037999999 -0.52899998 1
1.461 -0.037999999 -0.52700001 1
1.464 -0.037 -0.528 1
1.467 -0.037 -0.52899998 1
1.464 -0.035999998 -0.528 1
1.464 -0.035 -0.52700001 1
1.467 -0.035 -0.528 1
1.474 -0.034000002 -0.53100002 1
1.4630001 -0.033 -0.52600002 1
1.475 -0.033 -0.52999997 1
1.466 -0.032000002 -0.52700001 1
1.466 -0.032000002 -0.52700001 1
1.484 -0.032000002 -0.53299999 1
1.483 -0.030999999 -0.53200001 1
1.4859999 -0.029999999 -0.53299999 1
1.482 -0.029999999 -0.53100002 1
1.4809999 -0.028999999 -0.52999997 1
1.482 -0.028000001 -0.52999997 1
1.483 -0.028000001 -0.52999997 1
1.4859999 -0.027000001 -0.53100002 1
1.487 -0.027000001 -0.52999997 1
1.49 -0.026000001 -0.53100002 1
1.492 -0.026000001 -0.53100002 1
1.4910001 -0.025 -0.52999997 1
1.4910001 -0.024 -0.52899998 1
1.497 -0.024 -0.53100002 1
1.497 -0.023 -0.52999997 1
1.495 -0.023 -0.52899998 1
1.505 -0.022 -0.53200001 1
1.5039999 -0.022 -0.53100002 1
1.5039999 -0.021 -0.52999997 1
1.513 -0.02 -0.53200001 1
1.5039999 -0.02 -0.528 1
1.5140001 -0.018999999 -0.53100002 1
1.5140001 -0.018999999 -0.52999997 1
1.517 -0.017999999 -0.53100002 1
1.5319999 -0.017999999 -0.53500003 1
1.528 -0.017000001 -0.53299999 1
1.525 -0.016000001 -0.52999997 1
1.534 -0.016000001 -0.53299999 1
1.535 -0.015 -0.53200001 1
1.538 -0.015 -0.53200001 1
1.5369999 -0.014 -0.53100002 1
1.541 -0.014 -0.53100002 1
1.544 -0.013 -0.53100002 1
1.548 -0.012 -0.53100002 1
1.549 -0.012 -0.52999997 1
1.558 -0.011 -0.53200001 1
1.567 -0.011 -0.53399998 1
1.5700001 -0.0099999998 -0.53399998 1
1.577 -0.0099999998 -0.53500003 1
1.5700001 -0.0089999996 -0.53200001 1
1.579 -0.0080000004 -0.53299999 1
1.5829999 -0.0080000004 -0.53299999 1
1.5880001 -0.0070000002 -0.53399998 1
1.589 -0.0070000002 -0.53299999 1
1.596 -0.0060000001 -0.53399998 1
1.599 -0.0060000001 -0.53299999 1
1.6059999 -0.0049999999 -0.53399998 1
1.6059999 -0.0040000002 -0.53299999 1
1.6160001 -0.0040000002 -0.53500003 1
1.62 -0.003 -0.53500003 1
1.6289999 -0.003 -0.53600001 1
1.633 -0.0020000001 -0.53600001 1
1.6390001 -0.0020000001 -0.53600001 1
1.646 -0.001 -0.537 1
1.642 0 -0.53399998 1
1.6569999 0 -0.537 1
1.6670001 0 -0.53899997 1
1.6670001 0 -0.537 1
1.676 0.001 -0.53799999 1
1.6799999 0.001 -0.53799999 1
1.689 0.0020000001 -0.53899997 1
1.688 0.003 -0.537 1
1.697 0.003 -0.53799999 1
1.7029999 0.0040000002 -0.537 1
1.7079999 0.0040000002 -0.537 1
1.715 0.0049999999 -0.53799999 1
1.723 0.0060000001 -0.53799999 1
1.726 0.0060000001 -0.537 1
1.753 0.0070000002 -0.54299998 1
1.757 0.0070000002 -0.542 1
1.766 0.0080000004 -0.54299998 1
1.772 0.0080000004 -0.54299998 1
1.783 0.0089999996 -0.54400003 1
1.788 0.0099999998 -0.54299998 1
1.796 0.0099999998 -0.54400003 1
1.801 0.011 -0.54299998 1
1.811 0.011 -0.54400003 1
1.83 0.012 -0.54699999 1
1.8380001 0.013 -0.54699999 1
1.841 0.013 -0.546 1
1.857 0.014 -0.54799998 1
1.864 0.014 -0.54699999 1
1.8710001 0.015 -0.54699999 1
1.88 0.016000001 -0.54699999 1
1.893 0.016000001 -0.54799998 1
1.899 0.017000001 -0.54699999 1
1.9069999 0.017000001 -0.54699999 1
1.921 0.017999999 -0.54799998 1
1.932 0.018999999 -0.54900002 1
1.9400001 0.018999999 -0.54900002 1
1.955 0.02 -0.55000001 1
1.959 0.02 -0.54799998 1
1.972 0.021 -0.54900002 1
1.985 0.021 -0.55000001 1
1.995 0.022 -0.55000001 1
2 0.023 -0.54799998 1
2.0209999 0.023 -0.551 1
2.0409999 0.024 -0.55299997 1
2.0480001 0.024 -0.55199999 1
2.0599999 0.025 -0.55199999 1
2.0680001 0.026000001 -0.551 1
2.086 0.026000001 -0.55299997 1
2.0940001 0.027000001 -0.55199999 1
2.1140001 0.027000001 -0.55400002 1
2.131 0.028000001 -0.55500001 1
2.141 0.028999999 -0.55400002 1
2.161 0.028999999 -0.55599999 1
2.171 0.029999999 -0.55500001 1
2.187 0.029999999 -0.55599999 1
2.2049999 0.030999999 -0.55699998 1
2.2179999 0.030999999 -0.55599999 1
2.233 0.032000002 -0.55599999 1
2.2690001 0.033 -0.56199998 1
2.2780001 0.033 -0.56 1
2.2969999 0.034000002 -0.56099999 1
2.313 0.035 -0.56099999 1
2.3280001 0.035 -0.56099999 1
2.3510001 0.035999998 -0.56199998 1
2.4170001 0.037 -0.574 1
2.454 0.037999999 -0.579 1
2.4430001 0.037999999 -0.57200003 1
2.4260001 0.037999999 -0.56400001 1
2.457 0.039000001 -0.56699997 1
2.48 0.039000001 -0.56800002 1
2.5079999 0.039999999 -0.56999999 1
2.529 0.039999999 -0.56999999 1
2.5469999 0.041000001 -0.56999999 1
2.573 0.041999999 -0.57099998 1
2.596 0.041999999 -0.57200003 1
2.619 0.043000001 -0.57200003 2
2.651 0.043000001 -0.57499999 2
2.677 0.044 -0.57499999 2
2.6960001 0.044 -0.57499999 2
2.7260001 0.045000002 -0.57599998 2
2.757 0.046 -0.57800001 2
2.7920001 0.046 -0.57999998 2
2.822 0.046999998 -0.58099997 2
2.852 0.046999998 -0.58200002 2
2.8870001 0.048 -0.58399999 2
2.918 0.048999999 -0.58499998 2
2.954 0.048999999 -0.58600003 2
2.9809999 0.050000001 -0.58600003 2
3.0150001 0.050000001 -0.58700001 2
3.0610001 0.050999999 -0.58999997 2
3.096 0.050999999 -0.59200001 2
3.128 0.052000001 -0.59200001 2
3.177 0.052999999 -0.59500003 2
3.211 0.052999999 -0.59500003 2
3.247 0.052999999 -0.59600002 2
3.348 0.055 -0.60799998 2
3.4590001 0.057 -0.62199998 2
3.473 0.057 -0.61699998 2
3.4460001 0.056000002 -0.60600001 2
3.4979999 0.056000002 -0.60799998 2
3.5350001 0.057 -0.60799998 2
3.677 0.059 -0.625 3
3.698 0.059 -0.62199998 2
3.707 0.057999998 -0.616 2
3.757 0.059 -0.61699998 2
3.826 0.059 -0.62099999 2
3.855 0.059 -0.61799997 2
3.9649999 0.061000001 -0.62800002 2
4.0180001 0.061000001 -0.62800002 2
4.0890002 0.061000001 -0.63200003 3
4.1409998 0.061000001 -0.63099998 3
4.2020001 0.061999999 -0.63200003 2
4.2989998 0.061999999 -0.63800001 2
4.368 0.063000001 -0.63999999 2
4.448 0.063000001 -0.64300001 3
4.52 0.063000001 -0.64399999 3
4.6059999 0.064000003 -0.64700001 3
4.6950002 0.064000003 -0.64999998 3
4.7940001 0.064000003 -0.65399998 3
4.9330001 0.064999998 -0.66299999 5
5.0419998 0.064999998 -0.667 7
5.1090002 0.064999998 -0.66600001 12
5.1960001 0.064999998 -0.667 12
5.303 0.064999998 -0.67000002 9
5.4349999 0.064999998 -0.676 6
5.5749998 0.066 -0.68199998 5
5.7129998 0.066 -0.68699998 4
5.8800001 0.066 -0.69499999 4
6.0100002 0.066 -0.69800001 5
6.1500001 0.066 -0.70200002 4
6.296 0.066 -0.70499998 5
6.4889998 0.066 -0.71399999 5
6.6620002 0.064999998 -0.71899998 5
6.8260002 0.064999998 -0.72299999 5
7.007 0.064000003 -0.727 6
7.2150002 0.064000003 -0.73400003 6
7.4200001 0.063000001 -0.74000001 6
7.6430001 0.063000001 -0.74599999 6
7.869 0.061999999 -0.75199997 6
8.1070004 0.061000001 -0.75800002 5
8.3990002 0.059999999 -0.76800001 5
8.8409996 0.059999999 -0.79000002 6
9.2019997 0.059 -0.80299997 12
9.4799995 0.057 -0.80800003 17
9.7980003 0.055 -0.815 11
10.14 0.052999999 -0.82200003 6
10.605 0.050999999 -0.838 3
11.15 0.050000001 -0.85799998 2
10.788 0.043000001 -0.80800003 2
0 0 0 0
0 0 0 2
9.7229996 0.026000001 -0.667 5
9.6949997 0.022 -0.64499998 8
9.6990004 0.017999999 -0.625 11
9.6780005 0.013 -0.60299999 15
9.651 0.0089999996 -0.58200002 15
9.6379995 0.0040000002 -0.56099999 15
9.6280003 0 -0.54100001 16
9.6199999 -0.0040000002 -0.52100003 17
9.599 -0.0089999996 -0.5 10
9.5900002 -0.014 -0.479 20
9.5699997 -0.017999999 -0.45899999 20
9.5679998 -0.023 -0.43900001 20
9.5500002 -0.028000001 -0.419 20
9.5489998 -0.033 -0.39899999 15
9.552 -0.037999999 -0.37900001 22
9.5360003 -0.044 -0.35800001 23
9.5220003 -0.048999999 -0.338 23
9.5290003 -0.054000001 -0.31900001 24
9.526 -0.059 -0.29899999 25
9.5050001 -0.064999998 -0.27900001 25
9.5019999 -0.07 -0.259 25
9.4989996 -0.075999998 -0.23999999 25
9.5010004 -0.081 -0.22 26
9.4890003 -0.086999997 -0.2 27
9.4919996 -0.093000002 -0.18099999 27
9.4799995 -0.097999997 -0.161 28
9.4829998 -0.104 -0.141 28
9.4720001 -0.11 -0.122 31
9.4659996 -0.116 -0.102 30
9.4639997 -0.122 -0.082999997 29
9.4560003 -0.12800001 -0.063000001 31
9.4610004 -0.134 -0.044 31
9.448 -0.14 -0.025 32
9.4440002 -0.147 -0.0049999999 32
9.4300003 -0.153 0.013 30
9.4359999 -0.15899999 0.032000002 30
9.4289999 -0.16599999 0.050999999 29
9.4219999 -0.17200001 0.07 31
9.4219999 -0.178 0.089000002 35
9.4230003 -0.185 0.108 36
9.4060001 -0.191 0.127 36
9.408 -0.198 0.146 36
9.4049997 -0.205 0.16500001 36
9.4029999 -0.212 0.184 37
9.4029999 -0.219 0.20200001 38
9.3929996 -0.22499999 0.221 38
9.3959999 -0.233 0.23999999 38
9.3950005 -0.23999999 0.25799999 36
9.3800001 -0.24699999 0.27700001 36
9.3839998 -0.25400001 0.296 38
9.375 -0.26100001 0.31400001 41
9.3850002 -0.26800001 0.333 37
9.3800001 -0.27599999 0.35100001 40
9.3780003 -0.28299999 0.37 41
9.3739996 -0.28999999 0.38800001 44
9.3559999 -0.29699999 0.40599999 42
9.3629999 -0.30500001 0.42399999 41
9.3760004 -0.31299999 0.44299999 44
9.3629999 -0.31999999 0.461 41
9.3640003 -0.32800001 0.479 42
9.3559999 -0.336 0.49700001 45
9.3620005 -0.34400001 0.51499999 48
9.3620005 -0.35100001 0.53299999 50
9.3540001 -0.359 0.551 49
9.3500004 -0.36700001 0.56800002 49
9.3549995 -0.375 0.58700001 47
9.3549995 -0.38299999 0.60399997 48
9.3450003 -0.391 0.62199998 53
9.3500004 -0.39899999 0.63999999 50
9.3450003 -0.40700001 0.65700001 49
9.3479996 -0.41499999 0.67500001 50
9.3649998 -0.42399999 0.69400001 49
9.3629999 -0.433 0.71100003 51
9.3430004 -0.44 0.727 50
9.3559999 -0.449 0.74599999 50
9.3479996 -0.45699999 0.76200002 50
9.3459997 -0.46599999 0.77999997 50
9.3579998 -0.47499999 0.79699999 52
9.3439999 -0.48199999 0.81300002 48
9.3500004 -0.491 0.83099997 43
9.3590002 -0.5 0.84899998 39
9.3509998 -0.509 0.86500001 39
9.3590002 -0.51800001 0.88300002 44
9.3549995 -0.52600002 0.89899999 46
9.3620005 -0.53600001 0.917 46
9.3559999 -0.54400003 0.93300003 45
9.3579998 -0.55299997 0.94999999 44
9.3660002 -0.56300002 0.96799999 43
9.3629999 -0.57200003 0.98400003 43
9.3730001 -0.58099997 1.002 41
9.3669996 -0.58999997 1.018 41
9.3760004 -0.60000002 1.035 41
9.3730001 -0.60900003 1.051 39
9.3690004 -0.61699998 1.067 37
9.3800001 -0.62699997 1.085 37
9.382 -0.63700002 1.101 37
9.3900003 -0.64600003 1.118 36
9.3970003 -0.65600002 1.135 34
9.3990002 -0.66600001 1.151 33
9.401 -0.67500001 1.168 30
9.4040003 -0.685 1.183 31
9.4130001 -0.69499999 1.201 33
9.4110003 -0.704 1.216 32
9.4160004 -0.71399999 1.233 32
9.427 -0.72399998 1.249 29
9.4390001 -0.73500001 1.266 29
9.4429998 -0.74400002 1.283 31
9.4320002 -0.75300002 1.2970001 32
9.4510002 -0.764 1.314 32
9.448 -0.77399999 1.329 30
9.4720001 -0.78500003 1.348 28
9.4809999 -0.796 1.365 29
9.4890003 -0.80599999 1.381 29
9.4989996 -0.81699997 1.397 28
9.4969997 -0.82599998 1.4119999 26
9.4980001 -0.83600003 1.427 26
9.5310001 -0.84899998 1.447 25
9.5310001 -0.85900003 1.462 24
9.5419998 -0.87 1.478 24
9.5600004 -0.88099998 1.495 22
9.5889997 -0.89399999 1.5140001 16
9.5830002 -0.903 1.528 21
9.6120005 -0.91600001 1.5470001 21
9.6389999 -0.92900002 1.566 21
9.6639996 -0.94099998 1.585 17
9.7030001 -0.95499998 1.605 14
9.7299995 -0.96799999 1.624 10
9.7969999 -0.98500001 1.649 2
0 0 0 20
36.064999 -3.7019999 6.178 20
35.831001 -3.7160001 6.1890001 21
35.570999 -3.727 6.1950002 21
35.321999 -3.737 6.2020001 21
35.104 -3.7509999 6.2129998 21
34.890999 -3.7650001 6.224 21
34.643002 -3.7750001 6.2280002 22
34.425999 -3.7869999 6.237 21
34.230999 -3.8010001 6.2480001 23
33.998001 -3.812 6.2509999 22
33.793999 -3.823 6.2589998 22
33.612 -3.8380001 6.2709999 24
33.375999 -3.8469999 6.2719998 24
33.202 -3.862 6.283 22
33.007999 -3.8740001 6.29 22
32.810001 -3.885 6.296 21
32.629002 -3.8970001 6.302 23
32.421001 -3.9070001 6.3039999 22
0 0 0 1
29.915001 -3.6670001 5.8930001 6
29.759001 -3.6800001 5.8990002 10
29.613001 -3.6930001 5.9070001 14
29.544001 -3.7149999 5.9299998 18
29.473 -3.737 5.9530001 21
29.344 -3.7509999 5.9619999 22
29.187 -3.7620001 5.9650002 25
29.044001 -3.773 5.9699998 22
28.91 -3.7850001 5.9759998 23
28.768 -3.796 5.9809999 23
28.603001 -3.8039999 5.98 24
28.471001 -3.816 5.9860001 27
28.344999 -3.8280001 5.9920001 27
28.231001 -3.842 5.9990001 23
28.1 -3.8529999 6.0029998 22
27.969 -3.8640001 6.006 26
27.834 -3.8740001 6.0079999 27
27.719999 -3.885 6.0139999 26
27.613001 -3.8989999 6.02 27
27.502001 -3.911 6.0250001 22
27.396 -3.9230001 6.0300002 23
27.271 -3.9330001 6.0310001 22
27.138 -3.941 6.0310001 24
27.031 -3.9530001 6.0349998 27
26.934999 -3.9660001 6.0409999 28
26.827999 -3.977 6.0440001 27
26.749001 -3.9920001 6.052 24
26.643 -4.0019999 6.0539999 26
0 0 0 3
21.047001 -3.2030001 4.823 15
20.982 -3.214 4.8280001 19
20.947001 -3.2290001 4.8400002 23
20.906 -3.243 4.8499999 25
20.872 -3.2590001 4.8610001 30
20.851 -3.2750001 4.875 31
20.823 -3.2909999 4.8870001 31
20.799999 -3.3069999 4.8990002 33
20.771 -3.322 4.9109998 38
20.754 -3.339 4.9250002 39
20.731001 -3.3559999 4.9369998 40
20.716999 -3.3729999 4.9510002 38
20.712999 -3.392 4.967 41
20.709 -3.411 4.9829998 42
20.694 -3.428 4.9959998 31
20.684 -3.4460001 5.0100002 42
20.676001 -3.4630001 5.0240002 41
20.664 -3.48 5.0359998 43
20.65 -3.497 5.0489998 41
20.660999 -3.517 5.0669999 44
20.639999 -3.5320001 5.0770001 45
20.653 -3.5539999 5.0949998 47
20.639 -3.5699999 5.1069999 47
20.642 -3.589 5.1220002 48
20.639999 -3.6059999 5.1350002 49
20.639999 -3.6240001 5.1490002 48
20.631001 -3.641 5.1609998 47
20.636999 -3.6600001 5.1750002 47
20.635 -3.678 5.1880002 48
20.636 -3.6949999 5.2010002 46
20.636 -3.7130001 5.2140002 45
20.645 -3.733 5.2290001 44
20.639999 -3.7490001 5.2399998 44
20.648001 -3.767 5.2540002 45
20.643999 -3.7839999 5.2639999 44
20.639 -3.8 5.2740002 41
20.643999 -3.8180001 5.2870002 40
20.66 -3.8380001 5.302 40
20.690001 -3.8599999 5.3200002 39
20.660999 -3.8710001 5.323 35
20.698999 -3.895 5.3429999 35
20.711 -3.9130001 5.3559999 35
20.732 -3.9330001 5.3709998 36
20.739 -3.95 5.3829999 34
20.74 -3.967 5.3920002 34
20.759001 -3.9860001 5.4060001 33
20.773001 -4.0050001 5.4190001 32
20.801001 -4.026 5.4349999 30
20.816999 -4.0440001 5.447 28
20.847 -4.066 5.4629998 27
20.858999 -4.0830002 5.474 24
20.900999 -4.1069999 5.4920001 21
20.951 -4.131 5.513 17
