# .PCD v0.7 - Point Cloud Data file format
VERSION 0.7
FIELDS x y z intensity
SIZE 4 4 4 4
TYPE F F F F
COUNT 1 1 1 1
WIDTH 1766
HEIGHT 1
VIEWPOINT 0 0 0 1 0 0 0
POINTS 1766
DATA ascii
17.448 -1.334 4.2589998 47
17.441 -1.345 4.2800002 51
17.450001 -1.358 4.3049998 51
17.445 -1.37 4.3249998 49
17.440001 -1.381 4.3460002 49
17.440001 -1.3940001 4.368 57
17.433001 -1.405 4.3870001 51
17.437 -1.4170001 4.4089999 53
17.434999 -1.429 4.4299998 56
17.440001 -1.442 4.4520001 60
17.434 -1.4529999 4.4720001 56
17.408001 -1.4630001 4.4850001 58
17.42 -1.476 4.5079999 56
17.415001 -1.488 4.527 57
17.413 -1.5 4.5469999 52
17.417 -1.512 4.5679998 50
17.423 -1.525 4.5890002 52
17.423 -1.5369999 4.6079998 33
17.423 -1.549 4.6269999 51
17.431 -1.562 4.6479998 50
17.427 -1.573 4.665 55
17.417 -1.584 4.6810002 50
17.417999 -1.596 4.6989999 50
17.441 -1.6109999 4.724 33
17.444 -1.623 4.7420001 32
17.445 -1.635 4.7600002 45
17.438999 -1.646 4.776 45
17.445999 -1.659 4.7950001 40
17.451 -1.671 4.8130002 45
17.438999 -1.682 4.8260002 45
17.455 -1.696 4.8470001 46
17.469999 -1.709 4.868 45
17.466 -1.72 4.8829999 45
17.476 -1.733 4.901 45
17.483999 -1.745 4.9200001 46
17.490999 -1.758 4.9369998 30
17.485001 -1.7690001 4.9510002 46
17.497 -1.7819999 4.9689999 45
17.488001 -1.793 4.9809999 43
17.511 -1.806 5.0019999 41
17.525 -1.819 5.02 38
17.523001 -1.83 5.0339999 36
17.516001 -1.841 5.046 35
17.540001 -1.855 5.0669999 34
17.542999 -1.867 5.0809999 32
17.559 -1.88 5.099 31
17.563 -1.891 5.1129999 30
17.576 -1.904 5.1290002 29
17.608999 -1.919 5.152 28
17.629999 -1.933 5.1700001 28
17.639999 -1.9450001 5.1849999 24
17.650999 -1.957 5.1999998 24
17.677999 -1.971 5.2199998 21
17.709999 -1.9859999 5.2410002 16
17.719999 -1.998 5.2550001 16
17.761 -2.0139999 5.2789998 14
17.806 -2.03 5.303 10
17.83 -2.043 5.3200002 3
0 0 0 27
22.959 -2.6600001 6.8779998 31
22.92 -2.6689999 6.8790002 27
22.863001 -2.6760001 6.8740001 30
22.839001 -2.687 6.8790002 32
22.795 -2.6960001 6.8769999 27
22.76 -2.7049999 6.8779998 31
22.74 -2.7160001 6.8829999 31
22.693001 -2.724 6.8800001 32
22.674999 -2.7349999 6.8850002 32
22.646 -2.7449999 6.8860002 26
22.620001 -2.7550001 6.888 27
22.591 -2.763 6.8889999 27
22.559 -2.7720001 6.888 25
22.538 -2.783 6.8909998 31
22.518 -2.793 6.8930001 26
22.497 -2.802 6.895 30
22.464001 -2.8110001 6.8930001 30
22.445999 -2.8210001 6.895 31
22.413 -2.829 6.8920002 29
22.393 -2.839 6.8930001 24
22.377001 -2.848 6.895 24
22.349001 -2.8570001 6.8930001 29
22.33 -2.8659999 6.8930001 30
22.292 -2.872 6.8870001 28
22.292 -2.8840001 6.8920002 29
22.268999 -2.8929999 6.8909998 25
22.249001 -2.901 6.8889999 24
22.231001 -2.9100001 6.888 29
22.218 -2.9189999 6.888 25
22.207001 -2.9289999 6.8889999 25
22.184999 -2.937 6.8860002 30
22.17 -2.9460001 6.8839998 30
22.169001 -2.957 6.8870001 32
22.155001 -2.9660001 6.8850002 31
22.146 -2.974 6.8850002 25
22.141001 -2.984 6.8860002 31
22.139999 -2.994 6.8870001 25
22.136999 -3.0039999 6.8870001 31
22.132 -3.013 6.8870001 25
22.122999 -3.0220001 6.8850002 26
22.115 -3.0309999 6.8829999 25
22.117001 -3.0409999 6.8839998 32
22.121 -3.0510001 6.8860002 24
22.108999 -3.0580001 6.881 29
22.118999 -3.069 6.8839998 31
22.118999 -3.0780001 6.8829999 26
22.131001 -3.089 6.8860002 26
22.125 -3.098 6.882 30
22.129 -3.1070001 6.881 25
22.141001 -3.1170001 6.8829999 29
22.136 -3.125 6.8790002 29
22.141001 -3.1340001 6.8779998 29
22.15 -3.1440001 6.8779998 30
22.156 -3.1530001 6.8759999 31
22.17 -3.1630001 6.8769999 31
22.188999 -3.174 6.8790002 25
22.191 -3.1819999 6.875 29
22.207001 -3.1919999 6.8759999 24
22.216999 -3.201 6.8740001 29
22.233 -3.211 6.8740001 29
22.250999 -3.221 6.8740001 29
22.282 -3.233 6.8779998 24
22.302 -3.243 6.8769999 24
22.320999 -3.253 6.8769999 24
22.329 -3.2609999 6.8730001 27
22.358 -3.2720001 6.875 22
22.389 -3.283 6.8769999 23
22.419001 -3.2939999 6.8790002 24
22.443001 -3.3039999 6.8779998 25
22.459 -3.313 6.875 28
22.487 -3.323 6.875 25
22.52 -3.3340001 6.8759999 25
22.542 -3.3429999 6.8740001 30
22.573999 -3.3540001 6.8740001 24
22.614 -3.365 6.8759999 26
22.638 -3.3740001 6.8740001 30
22.662001 -3.3829999 6.8709998 26
22.684 -3.392 6.8670001 32
22.709999 -3.401 6.8639998 30
22.74 -3.4100001 6.8610001 31
22.764999 -3.4189999 6.8569999 30
22.804001 -3.4289999 6.8569999 27
22.844999 -3.4400001 6.8569999 27
22.868999 -3.448 6.8520002 34
22.908001 -3.4590001 6.8509998 27
22.941 -3.4679999 6.8470001 33
22.990999 -3.4790001 6.849 27
23.030001 -3.4890001 6.8470001 26
23.068001 -3.4979999 6.8439999 26
23.117001 -3.5090001 6.8439999 29
23.163 -3.52 6.8429999 31
23.216 -3.5309999 6.8429999 30
23.263 -3.5409999 6.842 26
23.302 -3.55 6.8379998 31
23.353001 -3.5599999 6.8369999 32
23.398001 -3.569 6.8340001 31
23.452999 -3.5810001 6.8330002 32
23.506001 -3.5910001 6.8319998 32
23.549 -3.5999999 6.8270001 31
23.593 -3.609 6.822 33
23.646999 -3.619 6.8189998 32
23.695999 -3.628 6.816 26
23.783001 -3.6429999 6.822 27
23.827999 -3.651 6.816 32
23.891001 -3.6619999 6.8150001 30
23.961 -3.674 6.8150001 30
24.028 -3.6849999 6.8140001 30
24.086 -3.6949999 6.8099999 27
24.139999 -3.704 6.8049998 30
24.218 -3.717 6.8060002 26
24.268 -3.724 6.7989998 27
24.351999 -3.737 6.8010001 30
24.41 -3.7460001 6.7950001 30
24.492001 -3.7579999 6.796 30
24.579 -3.7709999 6.7969999 25
24.653 -3.7820001 6.7940001 24
24.726 -3.7920001 6.7919998 29
24.806 -3.803 6.79 25
24.886 -3.8150001 6.7880001 29
24.964001 -3.825 6.7849998 29
25.039 -3.835 6.7800002 30
25.112 -3.8440001 6.7750001 29
25.225 -3.8599999 6.7810001 25
25.292 -3.868 6.7729998 30
25.378 -3.8789999 6.77 24
25.469999 -3.8900001 6.7680001 27
25.541 -3.898 6.7600002 28
25.621 -3.908 6.7540002 28
25.695 -3.915 6.7459998 28
25.759001 -3.9219999 6.7340002 28
25.771 -3.9200001 6.71 31
25.792999 -3.9200001 6.6869998 28
25.802 -3.918 6.6609998 28
25.819 -3.9159999 6.6360002 30
25.813 -3.911 6.6059999 28
25.789 -3.9030001 6.5700002 26
25.75 -3.892 6.5300002 30
25.625 -3.869 6.4679999 28
25.500999 -3.845 6.4070001 27
25.434999 -3.8299999 6.3600001 16
25.358999 -3.813 6.3119998 17
25.344 -3.8050001 6.277 26
25.417 -3.8099999 6.2649999 25
25.534 -3.822 6.263 26
25.646999 -3.8329999 6.2589998 30
25.77 -3.845 6.257 25
25.888 -3.8559999 6.2529998 25
26.02 -3.869 6.2519999 26
26.135 -3.8789999 6.2470002 27
26.247 -3.888 6.2399998 31
26.371 -3.8989999 6.2360001 25
26.483 -3.908 6.2290001 28
26.632999 -3.9219999 6.2290001 27
26.761 -3.9330001 6.224 27
26.895 -3.944 6.2199998 26
27.028 -3.954 6.2150002 30
27.150999 -3.9630001 6.2069998 24
27.306 -3.977 6.2059999 24
27.454 -3.9890001 6.2020001 25
27.601999 -4 6.1989999 27
27.737 -4.0100002 6.191 31
27.884001 -4.0209999 6.1859999 25
28.044001 -4.033 6.1830001 25
28.188 -4.0430002 6.1750002 30
28.341999 -4.0539999 6.1690001 30
28.5 -4.0650001 6.164 27
28.655001 -4.0749998 6.1560001 24
28.833 -4.0879998 6.1539998 24
28.992001 -4.099 6.1469998 25
29.177 -4.1129999 6.145 24
29.347 -4.1240001 6.1389999 23
29.511 -4.1329999 6.1300001 26
29.705 -4.1459999 6.1269999 25
29.874001 -4.1560001 6.118 26
30.062 -4.1680002 6.112 24
30.278 -4.1830001 6.1110001 22
30.465 -4.1939998 6.1030002 23
30.658001 -4.2059999 6.0970001 22
30.870001 -4.2199998 6.0939999 22
31.069 -4.2309999 6.0869999 24
31.271999 -4.2420001 6.079 22
31.482 -4.2529998 6.072 23
31.702999 -4.2659998 6.066 21
31.900999 -4.276 6.0560002 21
32.144001 -4.2909999 6.052 22
32.387001 -4.3049998 6.0479999 22
32.582001 -4.3119998 6.0349998 23
32.820999 -4.3249998 6.0279999 23
33.091999 -4.3410001 6.026 23
33.331001 -4.3530002 6.0170002 24
33.553001 -4.362 6.0050001 24
33.800999 -4.3730001 5.9959998 24
34.051998 -4.3839998 5.9860001 25
34.294998 -4.3940001 5.974 25
34.491001 -4.3969998 5.954 21
34.657001 -4.3959999 5.927 14
34.875999 -4.401 5.9099998 8
35.068001 -4.402 5.8850002 3
0 0 0 0
0 0 0 2
0 0 0 0
0 0 0 0
0 0 0 0
0 0 0 0
0 0 0 4
34.749001 -4.1700001 5.382 3
34.667999 -4.1350002 5.3130002 2
0 0 0 0
0 0 0 2
36.823002 -4.3099999 5.461 2
36.929001 -4.2940001 5.4159999 2
0 0 0 0
0 0 0 0
0 0 0 0
0 0 0 2
0 0 0 0
0 0 0 2
0 0 0 1
17.716999 -1.947 2.362 8
17.672001 -1.927 2.326 13
17.631001 -1.908 2.2909999 17
17.6 -1.89 2.2579999 19
17.573999 -1.872 2.2249999 21
17.549 -1.854 2.1919999 18
17.502001 -1.834 2.1570001 25
17.496 -1.819 2.1270001 29
17.476 -1.801 2.095 30
17.459 -1.783 2.063 22
17.441 -1.766 2.0309999 33
17.443001 -1.75 2.0020001 26
17.427999 -1.732 1.97 28
17.406 -1.714 1.938 39
17.396999 -1.697 1.9069999 44
17.386999 -1.6799999 1.876 43
17.365999 -1.661 1.844 47
17.377001 -1.646 1.816 33
17.355 -1.626 1.783 48
17.365999 -1.6109999 1.755 33
17.360001 -1.5930001 1.724 48
17.348 -1.575 1.694 46
17.337999 -1.557 1.663 49
17.343 -1.54 1.6339999 34
17.333 -1.522 1.603 37
17.334999 -1.505 1.574 37
17.32 -1.4859999 1.543 58
17.332001 -1.4680001 1.5140001 37
17.311001 -1.449 1.482 58
17.322001 -1.431 1.4529999 37
17.32 -1.413 1.423 36
17.326 -1.395 1.3940001 61
17.33 -1.377 1.364 60
17.326 -1.358 1.334 37
17.33 -1.339 1.304 57
17.327999 -1.3200001 1.274 57
17.341 -1.302 1.2460001 34
17.351 -1.283 1.216 52
17.363001 -1.265 1.188 32
17.344999 -1.244 1.1569999 49
17.357 -1.226 1.128 46
17.368999 -1.207 1.1 48
17.377001 -1.188 1.0700001 48
17.396 -1.169 1.041 27
17.406 -1.15 1.012 43
17.417 -1.13 0.98299998 39
17.441 -1.1109999 0.954 26
17.452999 -1.091 0.92500001 33
17.464001 -1.071 0.89600003 34
17.499001 -1.053 0.86799997 31
17.518999 -1.033 0.83999997 29
17.539 -1.013 0.81099999 24
17.601 -0.995 0.78299999 21
17.676001 -0.97799999 0.75700003 16
17.700001 -0.958 0.72799999 8
0 0 0 95
33.953999 -1.7539999 1.2819999 86
33.931999 -1.71 1.223 120
33.918999 -1.6670001 1.166 118
33.924 -1.625 1.109 93
33.904999 -1.582 1.052 124
33.894001 -1.538 0.995 121
33.889 -1.495 0.93800002 88
33.869999 -1.451 0.88099998 121
33.848999 -1.406 0.824 120
33.842999 -1.362 0.76800001 122
33.827999 -1.318 0.71100003 119
33.827 -1.274 0.65600002 90
33.818001 -1.229 0.59899998 129
33.789001 -1.1849999 0.54400003 101
33.813 -1.141 0.48899999 52
33.790001 -1.096 0.43399999 46
33.981998 -1.056 0.38 33
34.051998 -1.013 0.32499999 13
34.092999 -0.96899998 0.271 18
0 0 0 6
64.459 -1.658 0.30199999 6
0 0 0 0
0 0 0 150
17.457001 -0.377 -0.003 156
17.385 -0.352 -0.029999999 61
17.281 -0.32499999 -0.057999998 5
17.169001 -0.29899999 -0.086000003 6
17.190001 -0.27500001 -0.114 1
17.049999 -0.249 -0.14 1
17.009001 -0.22499999 -0.16599999 1
16.972 -0.2 -0.193 1
16.952999 -0.176 -0.219 1
16.961 -0.152 -0.24600001 1
16.898001 -0.12800001 -0.27200001 1
16.941999 -0.104 -0.29899999 2
16.924 -0.079000004 -0.32499999 3
16.973 -0.055 -0.35299999 4
16.861 -0.029999999 -0.377 15
16.796 -0.0060000001 -0.40200001 170
16.792 0.017999999 -0.42699999 184
16.775 0.041999999 -0.45199999 184
16.759001 0.066 -0.477 178
16.756001 0.090000004 -0.50300002 159
16.739 0.115 -0.528 151
16.874001 0.141 -0.55800003 11
16.808001 0.16500001 -0.58099997 4
16.809 0.19 -0.60600001 2
16.812 0.215 -0.63099998 2
16.861 0.241 -0.65799999 2
16.948999 0.26699999 -0.68599999 2
17.204 0.29699999 -0.72299999 2
17.823 0.33399999 -0.77499998 1
17.875 0.36199999 -0.80400002 1
0 0 0 0
0 0 0 0
0 0 0 1
0 0 0 1
0 0 0 1
18.643999 0.54699999 -1.001 2
17.971001 0.55500001 -0.99000001 2
17.114 0.55500001 -0.96799999 2
16.245001 0.55199999 -0.94199997 2
15.412 0.54699999 -0.91500002 2
14.697 0.54500002 -0.89399999 4
14.295 0.551 -0.889 4
14.068 0.565 -0.89399999 8
13.46 0.56099999 -0.87400001 3
12.911 0.55800003 -0.85699999 3
12.439 0.55699998 -0.84200001 3
12.053 0.55900002 -0.833 2
11.709 0.56099999 -0.82499999 2
11.415 0.565 -0.81999999 3
11.095 0.56599998 -0.81099999 2
10.767 0.56599998 -0.80199999 2
10.478 0.56699997 -0.79400003 3
10.222 0.56999999 -0.78899997 2
9.9440002 0.56999999 -0.77999997 3
9.6719999 0.56900001 -0.77200001 3
9.4200001 0.56900001 -0.764 5
9.2049999 0.57099998 -0.75800002 7
9.0270004 0.574 -0.755 11
8.8199997 0.57499999 -0.74900001 14
8.6350002 0.57599998 -0.745 17
8.5200005 0.58200002 -0.74599999 16
8.4289999 0.58899999 -0.74800003 15
8.2880001 0.59200001 -0.74599999 9
8.0249996 0.58600003 -0.73199999 4
7.842 0.58499998 -0.72500002 3
7.6859999 0.58600003 -0.72000003 3
7.5380001 0.58600003 -0.71600002 3
7.4190001 0.58899999 -0.713 3
7.2659998 0.588 -0.70700002 3
7.1469998 0.58999997 -0.704 3
7.0279999 0.59100002 -0.70099998 4
6.9109998 0.59299999 -0.69800001 3
6.7880001 0.59299999 -0.69300002 3
6.671 0.59299999 -0.68900001 3
6.5619998 0.59399998 -0.68599999 3
6.4439998 0.59299999 -0.68099999 3
6.3559999 0.59500003 -0.67900002 3
6.256 0.59600002 -0.67500001 3
6.1830001 0.59899998 -0.67400002 3
6.1079998 0.60100001 -0.67299998 3
6.0209999 0.602 -0.67000002 3
5.9250002 0.602 -0.66600001 2
5.842 0.602 -0.66299999 2
5.756 0.60299999 -0.66000003 3
5.6890001 0.60500002 -0.65799999 2
5.6100001 0.60500002 -0.65499997 3
5.5300002 0.60500002 -0.65200001 3
5.4770002 0.60799998 -0.65100002 3
5.4180002 0.61000001 -0.64999998 3
5.342 0.61000001 -0.64600003 3
5.2820001 0.611 -0.64499998 3
5.2119999 0.611 -0.64099997 3
5.1500001 0.61199999 -0.639 3
5.0999999 0.61400002 -0.63800001 3
5.04 0.61500001 -0.63599998 3
4.987 0.616 -0.634 3
4.9180002 0.616 -0.63 3
4.8699999 0.61699998 -0.62900001 3
4.8249998 0.61900002 -0.62699997 3
4.7789998 0.62099999 -0.62599999 3
4.7290001 0.62199998 -0.62400001 5
4.6939998 0.62400001 -0.62400001 3
4.6339998 0.62300003 -0.62 4
4.598 0.62599999 -0.62 4
4.5580001 0.62699997 -0.61900002 2
4.5100002 0.62800002 -0.616 2
4.4819999 0.63099998 -0.61699998 3
4.4390001 0.63099998 -0.61500001 3
4.3860002 0.63099998 -0.611 3
4.4569998 0.648 -0.625 3
4.3509998 0.639 -0.61400002 3
4.289 0.63599998 -0.60900003 3
4.2709999 0.63999999 -0.61000001 3
4.1890001 0.634 -0.602 5
4.1690001 0.63700002 -0.60299999 4
4.1760001 0.64499998 -0.60699999 3
4.191 0.653 -0.61299998 3
4.1700001 0.65600002 -0.61299998 3
4.0840001 0.64899999 -0.60399997 3
4.0749998 0.65399998 -0.60600001 3
4.0710001 0.65899998 -0.60799998 3
4.0409999 0.66000003 -0.60699999 3
3.9389999 0.64899999 -0.59500003 3
3.927 0.653 -0.59600002 4
3.905 0.65499997 -0.59500003 4
3.977 0.67299998 -0.60900003 3
3.937 0.67199999 -0.60600001 3
3.875 0.667 -0.59899998 2
3.8139999 0.662 -0.59299999 2
3.9219999 0.68699998 -0.61199999 3
3.8929999 0.68699998 -0.611 2
3.816 0.67900002 -0.60100001 2
3.7509999 0.67299998 -0.59299999 2
3.7590001 0.68000001 -0.597 2
3.7290001 0.67900002 -0.59500003 2
3.7490001 0.68800002 -0.60100001 2
3.757 0.69499999 -0.60399997 3
3.753 0.69999999 -0.60600001 3
3.661 0.68800002 -0.59399998 2
3.6830001 0.69700003 -0.59899998 2
3.6919999 0.704 -0.60299999 2
3.615 0.69400001 -0.59299999 2
3.602 0.69599998 -0.59299999 2
3.5699999 0.69499999 -0.58999997 2
3.5369999 0.69300002 -0.58600003 2
3.493 0.69 -0.58099997 2
3.5829999 0.71200001 -0.59799999 2
3.506 0.70200002 -0.58700001 2
3.5150001 0.708 -0.59100002 2
3.425 0.69499999 -0.57700002 2
3.4319999 0.70099998 -0.57999998 2
3.4820001 0.71499997 -0.58999997 2
3.414 0.70599997 -0.58099997 2
3.4430001 0.71600002 -0.58700001 2
3.368 0.70499998 -0.57599998 2
3.3610001 0.708 -0.57700002 2
3.359 0.71200001 -0.57800001 3
3.4100001 0.727 -0.58899999 2
3.4089999 0.73100001 -0.58999997 2
3.437 0.74199998 -0.59600002 2
3.398 0.73699999 -0.59100002 2
3.3740001 0.736 -0.588 2
3.4360001 0.75400001 -0.60100001 2
3.4189999 0.755 -0.59899998 2
3.329 0.73900002 -0.58499998 2
3.3399999 0.745 -0.588 2
3.312 0.74299997 -0.58399999 2
3.332 0.75099999 -0.58899999 2
3.4130001 0.77399999 -0.60500002 2
3.352 0.764 -0.59500003 2
3.2620001 0.74699998 -0.57999998 1
3.257 0.75 -0.58099997 2
3.25 0.75199997 -0.58099997 2
3.2869999 0.764 -0.588 2
3.319 0.77600002 -0.59500003 2
3.2590001 0.76499999 -0.58499998 1
3.2409999 0.76499999 -0.583 2
3.316 0.78600001 -0.59799999 2
3.2950001 0.78500003 -0.59500003 2
3.227 0.77200001 -0.583 1
3.244 0.77999997 -0.58700001 2
3.313 0.80000001 -0.60100001 2
3.2490001 0.78799999 -0.58999997 2
3.224 0.78500003 -0.58600003 2
3.204 0.78399998 -0.583 2
3.1530001 0.77399999 -0.57499999 1
3.2360001 0.79799998 -0.59100002 2
3.2479999 0.80400002 -0.59299999 2
3.1800001 0.79100001 -0.58200002 1
3.2249999 0.80500001 -0.59100002 2
3.2379999 0.81199998 -0.59299999 2
3.1619999 0.796 -0.57999998 1
3.2119999 0.81099999 -0.58999997 2
3.233 0.81999999 -0.59399998 2
3.1559999 0.80299997 -0.58099997 2
3.1400001 0.80199999 -0.57800001 2
3.2090001 0.82300001 -0.59100002 2
3.165 0.81400001 -0.583 2
3.293 0.85000002 -0.60699999 2
3.207 0.83099997 -0.59200001 1
3.2060001 0.833 -0.59200001 2
3.2349999 0.84399998 -0.59799999 2
3.135 0.81999999 -0.57999998 2
3.211 0.84299999 -0.59399998 1
3.178 0.83700001 -0.588 2
3.2320001 0.85399997 -0.59799999 1
3.194 0.84600002 -0.59100002 2
3.1700001 0.84299999 -0.58700001 1
3.1919999 0.85100001 -0.59100002 2
3.1919999 0.85399997 -0.59100002 2
3.191 0.85600001 -0.59100002 2
3.165 0.85100001 -0.58600003 2
3.2049999 0.86500001 -0.59399998 2
3.227 0.87300003 -0.59799999 1
3.1889999 0.86500001 -0.59100002 2
3.2119999 0.87300003 -0.59500003 2
3.0599999 0.83399999 -0.56699997 2
3.0650001 0.838 -0.56699997 2
3.0639999 0.83999997 -0.56699997 2
3.063 0.84100002 -0.56699997 2
3.063 0.84299999 -0.56699997 2
3.0580001 0.84399998 -0.56599998 2
3.063 0.847 -0.56599998 2
3.0799999 0.85399997 -0.56900001 2
3.2130001 0.89300001 -0.59299999 2
3.079 0.85699999 -0.56800002 2
3.191 0.89099997 -0.58899999 1
3.0840001 0.86199999 -0.56800002 2
3.214 0.90100002 -0.59200001 2
3.079 0.86500001 -0.56699997 1
3.0869999 0.86799997 -0.56800002 2
3.0899999 0.87099999 -0.56800002 2
3.096 0.87400001 -0.56900001 3
3.1029999 0.87800002 -0.56900001 3
3.0940001 0.87699997 -0.56699997 3
3.109 0.88300002 -0.56900001 4
3.115 0.88599998 -0.56999999 4
3.1170001 0.88800001 -0.56999999 4
3.1159999 0.889 -0.56900001 5
3.1170001 0.89099997 -0.56800002 5
3.1159999 0.89200002 -0.56699997 6
3.118 0.89300001 -0.56699997 6
3.119 0.89499998 -0.56699997 6
3.128 0.89899999 -0.56699997 6
3.1259999 0.89899999 -0.56599998 6
3.1270001 0.90100002 -0.56599998 5
3.1300001 0.903 -0.565 5
3.1370001 0.90600002 -0.56599998 4
3.152 0.91100001 -0.56800002 3
3.151 0.912 -0.56699997 3
3.158 0.91500002 -0.56699997 2
3.1670001 0.91900003 -0.56800002 2
3.2420001 0.94099998 -0.57999998 2
3.3010001 0.95899999 -0.58899999 2
3.3610001 0.977 -0.59899998 2
3.2969999 0.95899999 -0.58700001 2
3.2179999 0.93699998 -0.57200003 2
3.2360001 0.94300002 -0.574 3
3.2420001 0.94599998 -0.57300001 3
3.2490001 0.94800001 -0.574 3
3.2609999 0.95200002 -0.57499999 3
3.2550001 0.95099998 -0.57200003 3
3.2679999 0.95499998 -0.57300001 3
3.2780001 0.95899999 -0.574 3
3.2820001 0.95999998 -0.57300001 3
3.29 0.963 -0.57300001 3
3.289 0.963 -0.57200003 3
3.3010001 0.96700001 -0.57300001 3
3.309 0.96899998 -0.57300001 3
3.3069999 0.96899998 -0.57099998 3
3.3199999 0.97299999 -0.57200003 3
3.3239999 0.97399998 -0.57099998 3
3.3329999 0.977 -0.57099998 3
3.3410001 0.97899997 -0.57099998 3
3.365 0.986 -0.57300001 2
3.3699999 0.98799998 -0.57300001 2
3.418 1.001 -0.579 2
3.4779999 1.0190001 -0.588 2
3.5150001 1.03 -0.59200001 3
3.506 1.027 -0.58899999 2
3.461 1.013 -0.57999998 2
3.5350001 1.035 -0.58999997 3
3.5369999 1.035 -0.58899999 2
3.5150001 1.028 -0.583 2
3.497 1.022 -0.579 2
3.556 1.039 -0.58600003 2
3.595 1.05 -0.59100002 2
3.546 1.035 -0.58099997 2
3.7309999 1.0880001 -0.60900003 3
3.612 1.053 -0.588 2
3.599 1.048 -0.58399999 2
3.618 1.053 -0.58499998 2
3.7479999 1.089 -0.60399997 3
3.6530001 1.061 -0.58600003 2
3.632 1.054 -0.58099997 3
3.6470001 1.057 -0.58099997 3
3.6589999 1.0599999 -0.58099997 3
3.675 1.063 -0.58099997 3
3.7 1.069 -0.583 3
3.711 1.071 -0.58200002 3
3.7190001 1.072 -0.58099997 3
3.7379999 1.076 -0.58200002 4
3.75 1.0779999 -0.58099997 3
3.773 1.0829999 -0.58200002 3
3.79 1.087 -0.583 3
3.819 1.0930001 -0.58499998 3
3.8729999 1.107 -0.58999997 2
3.927 1.1210001 -0.59600002 2
3.937 1.122 -0.59500003 2
3.908 1.112 -0.588 2
3.9530001 1.123 -0.59200001 2
3.9560001 1.122 -0.58999997 2
4.006 1.1339999 -0.59500003 2
4.0489998 1.1440001 -0.59899998 2
4.0180001 1.133 -0.59100002 2
4.0300002 1.1339999 -0.58999997 2
4.0539999 1.1390001 -0.59100002 2
4.072 1.142 -0.59100002 2
4.079 1.141 -0.58899999 2
4.1079998 1.147 -0.58999997 2
4.158 1.158 -0.59399998 2
4.1869998 1.164 -0.59600002 3
4.2199998 1.17 -0.597 4
4.2509999 1.176 -0.59899998 4
4.2789998 1.181 -0.59899998 2
4.3080001 1.186 -0.60000002 4
4.3520002 1.1950001 -0.60299999 2
4.3829999 1.201 -0.60399997 2
4.4070001 1.204 -0.60399997 4
4.4400001 1.21 -0.60600001 4
4.4720001 1.216 -0.60699999 4
4.5139999 1.224 -0.60900003 2
4.546 1.229 -0.61000001 2
4.5689998 1.232 -0.61000001 2
4.6020002 1.237 -0.611 2
4.6440001 1.245 -0.61199999 2
4.6789999 1.25 -0.61299998 2
4.7049999 1.253 -0.61299998 4
4.7389998 1.258 -0.61400002 2
4.7750001 1.2640001 -0.61500001 2
4.816 1.271 -0.616 3
4.8720002 1.281 -0.62 2
4.9050002 1.286 -0.62 2
4.9549999 1.294 -0.62300003 3
5.0019999 1.302 -0.625 2
5.0560002 1.311 -0.62699997 2
5.1079998 1.3200001 -0.63 2
5.145 1.325 -0.63 2
5.1750002 1.3279999 -0.63 4
5.2459998 1.341 -0.634 3
5.2810001 1.345 -0.634 3
5.323 1.35 -0.63499999 2
5.3730001 1.358 -0.63599998 3
5.4310002 1.367 -0.639 3
5.4770002 1.373 -0.63999999 3
5.5380001 1.382 -0.64200002 3
5.579 1.387 -0.64200002 3
5.6440001 1.397 -0.64499998 3
5.6989999 1.404 -0.64700001 3
5.756 1.4119999 -0.64899999 3
5.809 1.419 -0.64999998 3
5.8839998 1.431 -0.653 3
5.947 1.439 -0.65499997 3
5.9970002 1.4450001 -0.65600002 3
6.0689998 1.455 -0.65899998 3
6.138 1.464 -0.66100001 3
6.2090001 1.474 -0.66399997 3
6.2870002 1.485 -0.667 3
6.3509998 1.493 -0.66799998 3
6.434 1.505 -0.67199999 3
6.5110002 1.515 -0.67400002 3
6.5869999 1.525 -0.676 3
6.6750002 1.5369999 -0.68000001 4
6.7490001 1.546 -0.68199998 4
6.8309999 1.556 -0.68400002 4
6.914 1.566 -0.68699998 4
6.9819999 1.572 -0.68699998 4
7.0539999 1.58 -0.68900001 3
7.1570001 1.594 -0.69300002 3
7.2550001 1.6059999 -0.69599998 4
7.3379998 1.614 -0.69800001 3
7.4460001 1.628 -0.70200002 3
7.5469999 1.64 -0.70499998 3
7.6459999 1.652 -0.708 3
7.743 1.6619999 -0.70999998 4
7.8270001 1.669 -0.71100003 4
7.9499998 1.6849999 -0.71600002 5
8.1269999 1.711 -0.72500002 10
8.1960001 1.714 -0.72399998 16
8.2309999 1.71 -0.72000003 16
8.3319998 1.719 -0.722 16
8.4239998 1.726 -0.72299999 16
8.5209999 1.734 -0.72399998 16
8.6499996 1.748 -0.72799999 10
8.7700005 1.7589999 -0.73100001 8
8.9069996 1.774 -0.73500001 6
9.0620003 1.791 -0.74000001 4
9.1859999 1.802 -0.74299997 4
9.3610001 1.823 -0.74900001 3
9.4960003 1.835 -0.75199997 3
9.6339998 1.847 -0.755 3
9.8310003 1.869 -0.76200002 3
9.9849997 1.8839999 -0.76599997 3
10.151 1.899 -0.76999998 3
10.283 1.908 -0.77200001 3
10.444 1.9220001 -0.77499998 3
10.613 1.936 -0.77899998 3
10.804 1.954 -0.78399998 3
11.01 1.974 -0.79000002 3
11.17 1.985 -0.79299998 3
11.346 1.998 -0.796 3
11.527 2.0109999 -0.79900002 2
11.717 2.026 -0.80299997 2
11.891 2.036 -0.80500001 2
12.144 2.059 -0.81300002 3
12.404 2.0829999 -0.81999999 3
12.68 2.109 -0.82800001 3
13.041 2.148 -0.84200001 7
13.115 2.138 -0.83600003 3
13.439 2.168 -0.84600002 3
13.649 2.1789999 -0.84799999 2
13.926 2.1989999 -0.85500002 2
14.161 2.2119999 -0.85799998 2
14.526 2.244 -0.86900002 2
14.837 2.266 -0.87599999 2
15.245 2.303 -0.88800001 2
15.658 2.3380001 -0.89999998 2
16.004999 2.362 -0.90799999 2
16.125 2.3510001 -0.90200001 3
15.655 2.2550001 -0.86400002 2
0 0 0 2
17.700001 2.487 -0.95099998 2
18.215 2.527 -0.96499997 1
18.530001 2.5380001 -0.96700001 1
18.587 2.5120001 -0.95700002 2
0 0 0 0
0 0 0 0
0 0 0 0
0 0 0 0
0 0 0 3
22.708 2.822 -1.0700001 3
23.783001 2.9100001 -1.103 3
24.198 2.9170001 -1.1059999 3
24.389999 2.895 -1.097 2
24.409 2.8510001 -1.081 3
24.354 2.799 -1.061 15
24.323999 2.75 -1.043 152
24.358999 2.7090001 -1.028 56
24.396999 2.6659999 -1.013 90
24.413 2.6210001 -0.99699998 97
0 0 0 3
36.542 3.7839999 -1.444 22
36.555 3.7160001 -1.42 22
0 0 0 2
20.32 1.987 -0.76200002 8
20.044001 1.9220001 -0.73900002 4
19.764999 1.8559999 -0.71600002 4
19.677999 1.8099999 -0.69999999 3
19.353001 1.742 -0.676 1
18.929001 1.6670001 -0.64999998 2
18.615999 1.603 -0.62699997 2
18.379999 1.5470001 -0.60799998 2
18.207001 1.4960001 -0.59100002 2
17.25 1.3839999 -0.54900002 4
17.181 1.344 -0.537 3
17.183001 1.3099999 -0.52700001 4
17.174999 1.276 -0.51700002 3
17.186001 1.243 -0.50700003 2
0 0 0 0
0 0 0 0
0 0 0 1
16.912001 1.087 -0.46000001 1
16.915001 1.053 -0.45100001 6
16.913 1.018 -0.44100001 2
16.857 0.98000002 -0.43099999 1
16.795 0.94199997 -0.41999999 1
16.785 0.90899998 -0.41100001 1
16.729 0.87099999 -0.40099999 2
16.707001 0.83700001 -0.39199999 3
16.695 0.80199999 -0.38299999 5
16.683001 0.76700002 -0.37400001 6
16.688999 0.73299998 -0.366 8
16.66 0.69800001 -0.35699999 9
16.663 0.66299999 -0.34900001 12
16.662001 0.62900001 -0.34099999 6
16.694 0.59500003 -0.333 1
16.777 0.56300002 -0.32699999 6
16.808001 0.52899998 -0.31999999 14
16.851999 0.49599999 -0.31299999 9
16.722 0.45699999 -0.303 33
16.658001 0.421 -0.294 121
16.704 0.38800001 -0.28799999 32
16.787001 0.35499999 -0.28200001 16
16.827999 0.32100001 -0.27599999 10
16.806 0.285 -0.26800001 8
16.796 0.25 -0.26100001 5
16.844 0.215 -0.255 4
16.867001 0.18000001 -0.249 8
16.872999 0.145 -0.242 7
16.903 0.109 -0.236 9
16.91 0.074000001 -0.23 8
16.927999 0.039000001 -0.22400001 10
16.929001 0.003 -0.21799999 9
16.940001 -0.032000002 -0.212 8
16.943001 -0.068000004 -0.206 4
16.931 -0.104 -0.2 1
16.902 -0.139 -0.19400001 1
16.948999 -0.175 -0.189 1
16.996 -0.212 -0.184 1
16.981001 -0.248 -0.178 1
0 0 0 0
0 0 0 0
0 0 0 1
0 0 0 0
0 0 0 1
0 0 0 0
0 0 0 16
33.785 -1.066 -0.27700001 53
33.798 -1.14 -0.26899999 56
33.82 -1.211 -0.26100001 62
33.844002 -1.284 -0.25299999 68
33.842999 -1.3559999 -0.245 70
33.860001 -1.4299999 -0.237 73
33.890999 -1.503 -0.23 78
33.903 -1.576 -0.222 65
33.915001 -1.649 -0.21600001 85
0 0 0 3
17.608999 -0.93099999 -0.105 18
17.521 -0.96399999 -0.101 26
17.469 -0.99800003 -0.097999997 24
17.416 -1.031 -0.093999997 35
17.393 -1.067 -0.090999998 40
17.364 -1.103 -0.088 41
17.341999 -1.1390001 -0.086000003 28
17.320999 -1.174 -0.082999997 54
17.308001 -1.21 -0.081 54
17.299 -1.2460001 -0.078000002 58
17.274 -1.28 -0.075999998 60
17.268 -1.316 -0.074000001 63
17.267 -1.353 -0.071999997 42
17.25 -1.388 -0.07 68
0 0 0 0
0 0 0 56
15.598 -1.353 -0.059 28
15.49 -1.377 -0.057999998 23
15.446 -1.405 -0.057 4
15.42 -1.4349999 -0.055 54
15.289 -1.455 -0.054000001 53
15.24 -1.483 -0.052999999 53
15.163 -1.507 -0.052000001 52
15.164 -1.539 -0.052000001 37
15.216 -1.576 -0.052000001 21
15.343 -1.622 -0.052000001 54
15.298 -1.648 -0.050999999 33
15.339 -1.6849999 -0.050999999 36
15.431 -1.727 -0.052000001 20
15.374 -1.752 -0.052000001 23
15.361 -1.783 -0.052000001 15
15.362 -1.814 -0.052000001 12
15.361 -1.846 -0.052000001 2
15.268 -1.867 -0.052999999 1
15.114 -1.8789999 -0.052999999 1
15.095 -1.9069999 -0.052999999 2
15.072 -1.9349999 -0.054000001 9
15.078 -1.967 -0.055 2
15.141 -2.006 -0.056000002 1
0 0 0 0
0 0 0 3
35.029999 -4.855 -0.138 17
34.91 -4.9089999 -0.141 12
34.66 -4.9439998 -0.14300001 3
34.519001 -4.993 -0.146 31
34.501999 -5.0599999 -0.149 38
34.743 -5.165 -0.154 19
0 0 0 1
0 0 0 1
0 0 0 6
0 0 0 2
12.798 -2.029 -0.064999998 11
12.913 -2.073 -0.068000004 19
12.784 -2.0769999 -0.068999998 21
12.79 -2.1029999 -0.071000002 23
12.713 -2.1159999 -0.072999999 22
12.595 -2.1210001 -0.074000001 37
12.655 -2.1559999 -0.077 37
12.627 -2.1760001 -0.079000004 37
12.595 -2.1949999 -0.081 37
12.668 -2.2320001 -0.083999999 36
12.626 -2.2490001 -0.086000003 31
12.581 -2.2650001 -0.089000002 37
12.651 -2.302 -0.092 37
12.65 -2.326 -0.094999999 37
12.481 -2.319 -0.096000001 29
12.483 -2.3429999 -0.098999999 42
12.46 -2.362 -0.102 37
12.45 -2.3829999 -0.104 35
12.509 -2.4189999 -0.108 36
12.428 -2.4260001 -0.11 41
12.457 -2.454 -0.114 36
12.46 -2.4779999 -0.117 37
12.553 -2.52 -0.121 37
12.61 -2.5539999 -0.125 33
12.483 -2.5510001 -0.127 3
0 0 0 38
27.982 -5.8210001 -0.301 47
28.002001 -5.8769999 -0.31 49
28.014 -5.9299998 -0.31799999 53
28.025999 -5.9829998 -0.32699999 52
28.023001 -6.0320001 -0.33500001 53
28.042999 -6.0869999 -0.34400001 51
28.047001 -6.138 -0.352 51
28.07 -6.1919999 -0.36199999 51
28.091999 -6.2470002 -0.37099999 47
28.099001 -6.2969999 -0.38 45
28.111 -6.348 -0.38999999 7
0 0 0 1
6.5970001 -1.512 -0.094999999 1
6.573 -1.518 -0.097000003 2
6.5500002 -1.524 -0.098999999 3
6.5700002 -1.54 -0.102 2
6.572 -1.551 -0.104 2
6.5640001 -1.5599999 -0.106 2
6.5710001 -1.573 -0.109 2
6.5689998 -1.584 -0.111 2
6.585 -1.598 -0.114 2
6.5760002 -1.607 -0.116 2
6.5929999 -1.622 -0.119 1
0 0 0 0
0 0 0 5
27.51 -6.902 -0.52899998 14
27.396999 -6.9169998 -0.53799999 23
27.330999 -6.9439998 -0.54699999 29
27.283001 -6.9749999 -0.55699998 31
27.253 -7.0100002 -0.56699997 34
27.215 -7.0430002 -0.57800001 33
27.183001 -7.0770001 -0.588 43
27.146999 -7.1090002 -0.59799999 45
27.124001 -7.145 -0.60900003 48
27.118999 -7.184 -0.61900002 44
27.087 -7.217 -0.63 60
27.087 -7.2579999 -0.64200002 61
27.076 -7.2950001 -0.653 53
27.070999 -7.3340001 -0.66399997 50
27.077 -7.375 -0.676 36
27.075001 -7.415 -0.68800002 42
27.084999 -7.4569998 -0.699 33
27.094999 -7.4980001 -0.71200001 34
27.094 -7.5359998 -0.72299999 33
27.128 -7.5840001 -0.736 31
27.149 -7.6279998 -0.74900001 23
27.179001 -7.6739998 -0.76099998 21
0 0 0 6
9.8830004 -2.8169999 -0.285 9
9.8170004 -2.812 -0.28799999 15
9.7849998 -2.816 -0.292 11
9.7550001 -2.8210001 -0.29499999 14
9.724 -2.8239999 -0.29899999 18
9.698 -2.8299999 -0.30199999 18
9.6789999 -2.8369999 -0.30599999 18
9.6569996 -2.8429999 -0.31 20
9.6400003 -2.8499999 -0.31400001 18
9.6190004 -2.8559999 -0.31799999 23
9.6020002 -2.8640001 -0.322 27
9.599 -2.875 -0.32600001 28
9.5810003 -2.881 -0.33000001 30
9.5760002 -2.891 -0.33399999 31
9.5670004 -2.9000001 -0.33899999 29
9.5459995 -2.905 -0.34299999 29
9.5439997 -2.9159999 -0.347 30
9.5310001 -2.9230001 -0.35100001 31
9.5270004 -2.9330001 -0.35499999 32
9.5159998 -2.9400001 -0.36000001 30
9.5030003 -2.948 -0.36399999 31
9.4969997 -2.9560001 -0.368 32
9.4879999 -2.964 -0.37200001 34
9.4720001 -2.9690001 -0.37599999 34
9.4840002 -2.983 -0.38100001 37
9.4709997 -2.99 -0.38499999 36
9.4630003 -2.997 -0.38999999 38
9.46 -3.006 -0.39399999 36
9.4469995 -3.0120001 -0.398 35
9.4390001 -3.0190001 -0.40200001 37
9.441 -3.029 -0.40700001 39
9.4259996 -3.0339999 -0.41100001 38
9.4250002 -3.0420001 -0.41600001 38
9.4200001 -3.05 -0.41999999 39
9.4090004 -3.056 -0.42399999 41
9.4029999 -3.063 -0.42899999 43
9.4119997 -3.0739999 -0.43399999 43
9.3999996 -3.079 -0.43799999 44
9.3999996 -3.0880001 -0.44299999 45
9.4029999 -3.0969999 -0.447 47
9.4049997 -3.1059999 -0.45199999 49
9.3900003 -3.109 -0.456 49
9.3839998 -3.115 -0.46000001 47
9.3809996 -3.122 -0.465 47
9.3809996 -3.1300001 -0.46900001 46
9.3830004 -3.138 -0.47400001 43
9.3900003 -3.148 -0.479 44
9.3859997 -3.154 -0.48300001 43
9.3789997 -3.1589999 -0.48800001 42
9.382 -3.1670001 -0.49200001 42
9.3699999 -3.1700001 -0.49700001 42
9.2089996 -3.122 -0.49200001 28
9.0889997 -3.0880001 -0.49000001 25
9.0200005 -3.0710001 -0.491 31
8.8610001 -3.023 -0.48699999 31
8.8540001 -3.026 -0.491 41
8.8439999 -3.029 -0.495 56
8.8360004 -3.0320001 -0.498 59
8.8269997 -3.0339999 -0.50199997 54
8.8199997 -3.0369999 -0.50599998 45
8.8070002 -3.0380001 -0.509 35
8.8030005 -3.0420001 -0.514 34
8.7840004 -3.04 -0.51599997 45
8.783 -3.0450001 -0.52100003 56
8.7810001 -3.049 -0.52499998 65
8.7720003 -3.0510001 -0.528 65
8.7589998 -3.0510001 -0.53200001 58
8.7530003 -3.053 -0.53500003 47
8.7390003 -3.052 -0.53899997 37
8.7299995 -3.053 -0.542 33
8.7250004 -3.056 -0.546 36
8.7189999 -3.0580001 -0.55000001 45
8.7080002 -3.0569999 -0.55299997 51
8.7060003 -3.0599999 -0.55699998 55
8.7010002 -3.062 -0.56099999 55
8.7040005 -3.066 -0.565 51
8.6890001 -3.0639999 -0.56800002 47
8.6809998 -3.0650001 -0.57200003 41
8.6870003 -3.0699999 -0.57599998 34
8.6680002 -3.066 -0.579 29
8.6619997 -3.0669999 -0.58200002 29
8.6630001 -3.069 -0.58600003 31
8.651 -3.0680001 -0.58899999 34
8.6560001 -3.072 -0.59399998 37
8.6440001 -3.0699999 -0.597 38
8.6490002 -3.0739999 -0.60100001 37
8.6450005 -3.0739999 -0.60399997 34
8.6470003 -3.0769999 -0.60799998 29
8.6499996 -3.0799999 -0.61199999 26
8.6540003 -3.0829999 -0.616 23
8.6549997 -3.0840001 -0.62 15
8.6560001 -3.086 -0.62400001 13
8.6689997 -3.092 -0.62800002 10
8.6789999 -3.096 -0.63300002 8
8.684 -3.099 -0.63700002 8
8.6990004 -3.1059999 -0.64200002 5
8.7250004 -3.1159999 -0.64700001 3
8.7410002 -3.122 -0.65200001 2
8.7530003 -3.1259999 -0.65600002 2
8.7550001 -3.128 -0.66000003 1
8.7510004 -3.1259999 -0.66399997 1
8.7559996 -3.128 -0.667 1
0 0 0 0
0 0 0 0
0 0 0 0
0 0 0 0
0 0 0 0
0 0 0 0
0 0 0 0
0 0 0 0
0 0 0 0
0 0 0 0
0 0 0 0
0 0 0 0
0 0 0 0
0 0 0 0
0 0 0 0
0 0 0 0
0 0 0 0
0 0 0 0
0 0 0 0
0 0 0 0
0 0 0 0
0 0 0 0
0 0 0 0
0 0 0 0
0 0 0 0
0 0 0 0
0 0 0 0
0 0 0 0
0 0 0 0
0 0 0 0
0 0 0 0
0 0 0 0
0 0 0 0
0 0 0 0
0 0 0 1
9.0819998 -3.1589999 -0.80599999 1
9.0970001 -3.1589999 -0.81 1
9.0679998 -3.1440001 -0.81 3
9.0539999 -3.1340001 -0.81099999 3
9.0609999 -3.131 -0.81400001 4
9.066 -3.128 -0.81699997 5
9.1099997 -3.138 -0.82300001 6
9.1190004 -3.135 -0.82599998 8
9.1079998 -3.1259999 -0.82800001 6
9.0710001 -3.1070001 -0.82700002 8
9.0059996 -3.079 -0.82300001 7
8.9390001 -3.05 -0.81900001 5
8.9069996 -3.033 -0.81800002 5
8.8459997 -3.006 -0.815 5
8.7790003 -2.977 -0.81 5
8.7650003 -2.967 -0.81099999 4
8.6929998 -2.9360001 -0.80599999 6
8.677 -2.924 -0.80599999 6
8.6529999 -2.9089999 -0.80599999 4
8.585 -2.8800001 -0.801 6
8.5480003 -2.8610001 -0.80000001 5
8.5380001 -2.8499999 -0.80000001 4
8.4809999 -2.825 -0.79699999 5
8.4720001 -2.8139999 -0.79699999 4
8.4499998 -2.8 -0.79699999 4
8.4110003 -2.78 -0.79500002 4
8.3739996 -2.76 -0.79299998 5
8.3699999 -2.7520001 -0.79400003 4
8.3459997 -2.737 -0.79299998 4
8.3129997 -2.7179999 -0.79100001 4
8.276 -2.698 -0.78899997 4
8.2550001 -2.684 -0.78799999 5
8.2200003 -2.665 -0.78600001 5
8.2309999 -2.661 -0.78799999 4
8.1949997 -2.641 -0.78600001 4
8.1859999 -2.6300001 -0.78600001 4
8.1709995 -2.6170001 -0.78500003 4
8.1400003 -2.599 -0.78299999 5
8.1190004 -2.5840001 -0.78200001 5
8.1210003 -2.576 -0.78299999 4
8.099 -2.5610001 -0.78200001 5
8.0889997 -2.549 -0.78200001 5
8.0839996 -2.539 -0.78200001 5
8.0699997 -2.526 -0.78200001 6
8.0629997 -2.5150001 -0.78200001 4
8.0349998 -2.497 -0.77999997 5
8.033 -2.4879999 -0.77999997 5
8.0139999 -2.473 -0.77899998 5
8.0179996 -2.4649999 -0.77899998 4
8 -2.45 -0.778 6
8 -2.441 -0.778 5
7.9829998 -2.4260001 -0.77700001 6
7.9749999 -2.415 -0.77700001 5
7.9650002 -2.402 -0.77600002 5
7.967 -2.3929999 -0.77700001 5
7.9520001 -2.3789999 -0.77499998 5
7.9530001 -2.3699999 -0.77499998 5
7.9510002 -2.359 -0.77499998 5
7.9489999 -2.349 -0.77499998 6
7.9359999 -2.335 -0.77399999 5
7.9320002 -2.3239999 -0.773 6
7.9559999 -2.3199999 -0.77600002 6
7.941 -2.306 -0.77399999 5
7.9299998 -2.293 -0.773 5
7.927 -2.2809999 -0.773 5
7.9289999 -2.2709999 -0.77200001 5
7.9310002 -2.2609999 -0.77200001 5
7.9400001 -2.253 -0.773 6
7.9549999 -2.247 -0.77399999 5
7.9580002 -2.237 -0.77399999 5
7.9530001 -2.224 -0.773 6
7.9580002 -2.2149999 -0.773 5
7.9689999 -2.207 -0.773 5
7.9759998 -2.197 -0.773 5
7.9689999 -2.184 -0.77200001 5
7.98 -2.1760001 -0.77200001 5
7.9689999 -2.161 -0.76999998 5
7.9860001 -2.155 -0.77100003 5
8.0050001 -2.148 -0.77200001 5
8.0120001 -2.138 -0.77200001 5
8.0249996 -2.1300001 -0.77200001 5
8.0310001 -2.1199999 -0.77100003 5
8.0369997 -2.1099999 -0.77100003 5
8.0530005 -2.102 -0.77100003 5
8.0679998 -2.0929999 -0.77100003 4
0 0 0 1
0 0 0 1
6.5159998 -1.661 -0.62 3
6.5190001 -1.652 -0.61900002 3
6.5019999 -1.638 -0.616 2
6.513 -1.63 -0.616 2
6.5050001 -1.618 -0.61400002 2
6.5029998 -1.607 -0.61299998 2
6.4970002 -1.595 -0.611 2
6.4970002 -1.585 -0.60900003 3
6.4689999 -1.568 -0.60500002 4
6.48 -1.5599999 -0.60500002 5
6.4749999 -1.549 -0.60299999 7
6.4689999 -1.5369999 -0.60100001 7
6.4679999 -1.526 -0.59899998 8
6.4510002 -1.512 -0.59600002 14
6.4559999 -1.503 -0.59500003 13
6.4559999 -1.492 -0.59299999 29
6.474 -1.485 -0.59299999 6
6.4510002 -1.469 -0.58899999 10
6.4819999 -1.465 -0.58999997 15
6.4819999 -1.455 -0.588 14
6.5029998 -1.448 -0.588 26
6.527 -1.443 -0.588 7
6.5679998 -1.441 -0.58999997 6
6.5809999 -1.432 -0.58899999 9
6.632 -1.432 -0.59100002 6
6.6240001 -1.419 -0.588 2
0 0 0 3
9.1049995 -1.92 -0.80299997 3
9.1079998 -1.905 -0.80000001 4
9.1949997 -1.9069999 -0.80400002 4
9.2559996 -1.903 -0.80599999 4
9.3290005 -1.902 -0.80900002 4
9.3979998 -1.899 -0.81099999 4
9.4390001 -1.891 -0.81099999 4
9.4910002 -1.885 -0.81099999 4
9.5719995 -1.8839999 -0.815 3
9.6429996 -1.88 -0.81699997 3
9.7159996 -1.877 -0.81900001 3
9.7779999 -1.872 -0.81999999 3
9.8559999 -1.869 -0.82200003 4
9.9490004 -1.869 -0.82599998 2
10.011 -1.863 -0.82599998 4
10.115 -1.864 -0.82999998 3
10.21 -1.863 -0.833 3
10.272 -1.855 -0.83399999 2
10.353 -1.851 -0.83499998 3
10.452 -1.85 -0.838 3
10.58 -1.853 -0.84299999 2
10.668 -1.848 -0.84500003 2
10.775 -1.848 -0.84799999 2
10.896 -1.849 -0.852 2
11.017 -1.849 -0.85600001 2
11.165 -1.853 -0.861 3
11.304 -1.855 -0.866 2
11.414 -1.852 -0.86799997 2
11.599 -1.8609999 -0.87599999 2
11.756 -1.864 -0.88099998 3
11.938 -1.87 -0.88800001 4
12.111 -1.875 -0.89399999 3
12.243 -1.873 -0.89700001 4
12.357 -1.867 -0.898 4
12.536 -1.87 -0.90399998 5
12.668 -1.8660001 -0.90600002 6
12.824 -1.865 -0.90899998 6
12.982 -1.864 -0.91299999 3
13.115 -1.858 -0.91399997 3
13.277 -1.8559999 -0.917 3
13.526 -1.865 -0.92500001 3
13.81 -1.878 -0.93599999 4
14.092 -1.89 -0.94599998 4
14.342 -1.896 -0.95300001 4
13.835 -1.803 -0.91000003 4
0 0 0 13
14.878 -1.882 -0.95899999 24
14.904 -1.8559999 -0.94999999 24
14.918 -1.83 -0.94099998 24
14.896 -1.798 -0.92900002 40
14.903 -1.771 -0.91900003 47
14.876 -1.74 -0.90700001 44
14.878 -1.712 -0.89600003 51
14.875 -1.683 -0.88499999 39
14.854 -1.652 -0.87300003 31
14.858 -1.624 -0.86199999 47
14.848 -1.595 -0.85100001 40
14.847 -1.566 -0.83899999 46
14.855 -1.538 -0.82800001 33
14.868 -1.511 -0.81800002 13
14.964 -1.492 -0.81099999 10
15.046 -1.471 -0.80400002 10
15.133 -1.451 -0.79699999 12
15.228 -1.431 -0.78899997 12
15.311 -1.409 -0.78100002 10
15.403 -1.388 -0.773 11
15.479 -1.3660001 -0.76499999 8
15.577 -1.345 -0.75700003 9
15.688 -1.324 -0.74900001 10
16.003 -1.3200001 -0.75099999 12
0 0 0 56
17.247 -1.357 -0.77999997 62
17.237 -1.323 -0.76499999 59
17.257 -1.291 -0.75 37
17.257999 -1.258 -0.73500001 52
17.285999 -1.227 -0.72100002 54
17.282 -1.194 -0.70499998 49
17.296 -1.1619999 -0.69 42
17.312 -1.13 -0.676 45
17.32 -1.098 -0.66000003 41
17.351 -1.066 -0.64499998 38
17.398001 -1.036 -0.63099998 27
17.409 -1.0039999 -0.61500001 33
17.451 -0.97299999 -0.60000002 33
17.495001 -0.94199997 -0.58499998 27
17.594999 -0.91500002 -0.57200003 16
17.684999 -0.88599998 -0.55800003 3
0 0 0 51
33.84 -1.567 -1.003 23
33.633999 -1.494 -0.96399999 13
33.499001 -1.425 -0.92699999 13
33.688 -1.369 -0.89899999 13
33.304001 -1.29 -0.85500002 22
0 0 0 1
19.82 -0.69300002 -0.46900001 10
19.85 -0.65700001 -0.449 20
19.857 -0.62 -0.42899999 30
19.865999 -0.583 -0.40900001 22
0 0 0 1
17.254999 -0.442 -0.31999999 1
17.218 -0.41 -0.301 1
0 0 0 0
0 0 0 1
0 0 0 0
0 0 0 0
0 0 0 0
0 0 0 1
17.006001 -0.186 -0.171 1
16.973 -0.154 -0.152 1
16.976 -0.123 -0.133 1
16.937 -0.092 -0.114 2
16.950001 -0.061000001 -0.094999999 2
16.931999 -0.030999999 -0.077 1
16.903 0 -0.057 2
16.907 0.028999999 -0.039000001 3
16.895 0.059999999 -0.018999999 1
16.879 0.090000004 0 1
0 0 0 0
0 0 0 0
0 0 0 25
0 0 0 1
17.306999 0.24699999 0.098999999 1
17.41 0.27900001 0.119 1
17.556 0.31200001 0.141 1
17.907 0.35100001 0.16500001 2
17.974001 0.38299999 0.18700001 1
18.027 0.41600001 0.20900001 1
0 0 0 0
0 0 0 0
0 0 0 0
0 0 0 0
0 0 0 0
0 0 0 0
0 0 0 0
0 0 0 1
0 0 0 0
0 0 0 0
0 0 0 0
0 0 0 0
0 0 0 0
0 0 0 0
0 0 0 0
0 0 0 2
33.132 1.723 1.074 17
33.112 1.776 1.1160001 49
33.084 1.83 1.1569999 79
33.07 1.8839999 1.199 106
33.044998 1.9349999 1.24 109
33.047001 1.989 1.2819999 117
33.022999 2.04 1.323 109
33.002998 2.092 1.364 110
33.006001 2.145 1.4069999 110
32.984001 2.197 1.449 102
32.972 2.2479999 1.49 102
32.973999 2.3 1.533 105
32.945999 2.3510001 1.575 110
32.938 2.402 1.617 116
32.932999 2.4530001 1.66 103
32.915001 2.5039999 1.7029999 109
32.918999 2.5550001 1.7460001 107
32.895 2.6029999 1.7869999 99
32.874001 2.651 1.829 63
32.893002 2.7030001 1.873 64
32.859001 2.75 1.914 98
32.856998 2.8 1.9579999 91
33.049999 2.8659999 2.013 11
33.042999 2.9159999 2.0569999 11
32.972 2.9590001 2.096 15
32.884998 3 2.1340001 25
32.841999 3.0439999 2.175 36
32.831001 3.0899999 2.217 47
32.814999 3.1359999 2.2590001 48
32.806999 3.1830001 2.303 49
32.784 3.2279999 2.345 47
32.784 3.2750001 2.388 49
32.765999 3.3210001 2.4319999 50
32.756001 3.3670001 2.4749999 50
32.740002 3.4100001 2.517 51
32.894001 3.473 2.573 18
32.991001 3.529 2.625 27
33.365002 3.6159999 2.7 18
33.712002 3.701 2.7739999 34
34.167 3.7969999 2.8559999 44
34.462002 3.8759999 2.927 19
35.043999 3.9890001 3.0239999 14
35.449001 4.0840001 3.1070001 6
0 0 0 36
38.626999 4.552 3.4890001 38
39.904999 4.757 3.6589999 66
39.882999 4.8060002 3.71 62
39.977001 4.869 3.7720001 39
40.832001 5.026 3.908 63
40.849998 5.0809999 3.9649999 59
41.092999 5.164 4.0430002 11
41.556999 5.2750001 4.1440001 10
0 0 0 60
44.827999 5.803 4.5910001 63
44.824001 5.8590002 4.652 62
44.801998 5.9109998 4.7080002 64
44.791 5.9629998 4.7659998 67
44.786999 6.0170002 4.8260002 49
45.092999 6.1129999 4.9200001 12
46.264 6.3280001 5.1100001 26
46.490002 6.4159999 5.198 55
47.799999 6.6529999 5.4089999 54
47.813 6.711 5.473 50
48.778 6.9039998 5.6490002 41
49.116001 7.006 5.7519999 55
49.985001 7.1880002 5.921 36
50.457001 7.3130002 6.0430002 42
50.785 7.4180002 6.1500001 31
51.695999 7.6100001 6.3299999 24
51.778 7.678 6.4089999 12
52.383999 7.8249998 6.552 10
52.976002 7.9720001 6.6960001 8
53.655998 8.1330004 6.8530002 9
54.298 8.29 7.007 5
0 0 0 25
0 0 0 0
0 0 0 43
0 0 0 0
0 0 0 23
0 0 0 0
0 0 0 0
0 0 0 34
114.789 18.587999 16.159 60
114.719 18.693001 16.298 59
0 0 0 0
0 0 0 0
0 0 0 0
0 0 0 0
0 0 0 0
0 0 0 0
0 0 0 0
0 0 0 0
0 0 0 0
0 0 0 0
0 0 0 0
0 0 0 0
0 0 0 31
117.25 20.6 18.73 33
117.243 20.700001 18.874001 32
117.207 20.791 19.013 29
117.078 20.861 19.136999 34
117.064 20.952999 19.278 36
116.997 21.035 19.407 32
117.096 21.145 19.566 30
117.078 21.233999 19.701 29
116.931 21.294001 19.818001 34
116.933 21.384001 19.955999 39
116.858 21.458 20.083 45
116.8 21.534 20.212 55
116.774 21.614 20.347 56
116.73 21.691 20.473 62
116.738 21.775 20.612 70
116.748 21.858999 20.750999 71
116.662 21.924 20.871 67
116.649 22.000999 21.004 71
116.626 22.075001 21.131001 68
116.599 22.150999 21.26 70
116.617 22.23 21.396 69
116.6 22.302 21.525 88
116.559 22.367001 21.65 77
116.573 22.441999 21.783001 83
116.541 22.507999 21.903999 75
116.494 22.569 22.025 86
116.503 22.639999 22.152 82
116.446 22.693001 22.27 87
116.475 22.768999 22.402 81
116.424 22.822001 22.516001 79
116.435 22.888 22.643 67
116.393 22.943001 22.756001 54
116.394 23.006001 22.881001 34
0 0 0 0
0 0 0 0
0 0 0 51
155.41 31.031 31.202 70
155.354 31.099001 31.349001 82
155.37199 31.176001 31.511999 76
155.257 31.224001 31.646 68
155.201 31.278999 31.788 46
152.744 30.851 31.438 41
0 0 0 0
0 0 0 51
152.64 31.023001 31.863001 45
0 0 0 0
0 0 0 0
0 0 0 43
147.05901 30.118 31.26 48
147.005 30.16 31.386 61
146.933 30.195999 31.507999 56
146.881 30.235001 31.632 55
146.845 30.278999 31.757 59
146.897 30.337 31.900999 73
146.83 30.368 32.018002 64
0 0 0 0
0 0 0 53
144.265 29.962 31.834999 54
144.18401 29.983999 31.941999 51
144.105 30.004 32.047001 50
143.985 30.014999 32.141998 40
141.496 29.528999 31.705 43
141.478 29.559 31.813999 56
141.47301 29.587999 31.927999 52
141.35201 29.591999 32.015999 54
141.362 29.622999 32.126999 56
141.245 29.625 32.212002 43
138.735 29.122 31.749001 42
138.67799 29.135 31.839001 48
138.55299 29.129999 31.916 50
138.591 29.158001 32.028999 61
138.55099 29.167999 32.123001 55
138.50999 29.177 32.216 56
138.446 29.179001 32.300999 44
135.89101 28.653999 31.802999 34
135.95799 28.681 31.915001 43
135.959 28.695 32.006001 49
135.849 28.681 32.074001 65
135.765 28.672001 32.146 61
135.819 28.691 32.25 57
135.793 28.691 32.333 55
135.636 28.663 32.382999 40
135.65401 28.672001 32.471001 37
133.02 28.117001 31.924 32
0 0 0 0
0 0 0 32
133.037 28.120001 32.167999 32
0 0 0 0
0 0 0 36
130.276 27.521999 31.726 44
130.218 27.504999 31.782 57
130.226 27.497999 31.855 73
130.23 27.489 31.926001 67
130.186 27.472 31.981001 76
130.198 27.462 32.051998 81
130.23199 27.455999 32.125999 82
130.187 27.431 32.179001 85
130.21001 27.42 32.248001 86
130.213 27.403 32.310001 70
130.194 27.382999 32.362999 70
130.145 27.351999 32.41 53
130.14 27.33 32.466 54
130.157 27.311001 32.526001 45
0 0 0 0
0 0 0 0
0 0 0 0
0 0 0 47
128.12601 26.761 32.269001 55
128.028 26.711 32.291 50
128.103 26.695999 32.355999 63
128.02 26.646999 32.379002 56
128.026 26.615 32.423 58
127.941 26.563 32.442001 55
127.989 26.537001 32.493999 59
128.049 26.516001 32.544998 54
128 26.468 32.57 49
128.00101 26.429001 32.605999 42
127.912 26.370001 32.617001 41
0 0 0 0
0 0 0 0
0 0 0 0
0 0 0 0
0 0 0 0
0 0 0 0
0 0 0 0
0 0 0 0
0 0 0 0
0 0 0 0
0 0 0 30
0 0 0 0
0 0 0 28
0 0 0 0
0 0 0 0
0 0 0 0
0 0 0 29
125.25 24.934999 32.286999 28
0 0 0 0
0 0 0 26
0 0 0 0
0 0 0 28
0 0 0 0
0 0 0 0
0 0 0 29
125.461 24.469 32.346001 31
125.478 24.406 32.344002 29
0 0 0 0
0 0 0 0
0 0 0 0
0 0 0 0
0 0 0 0
0 0 0 0
0 0 0 0
0 0 0 0
0 0 0 0
0 0 0 0
0 0 0 0
0 0 0 0
0 0 0 0
0 0 0 27
125.718 23.305 32.144001 29
0 0 0 0
0 0 0 0
0 0 0 0
0 0 0 0
0 0 0 29
0 0 0 0
0 0 0 0
0 0 0 0
0 0 0 0
0 0 0 0
0 0 0 34
129.01401 22.815001 32.528999 41
129.04201 22.721001 32.486 51
129.08299 22.629 32.446999 55
129.11099 22.534 32.403999 58
129.03 22.419001 32.331001 50
128.703 22.261 32.195 29
0 0 0 0
0 0 0 0
0 0 0 0
0 0 0 31
129.47701 21.879 32.094002 62
129.44 21.766001 32.021999 55
0 0 0 0
0 0 0 0
0 0 0 52
131.742 21.714001 32.319 53
131.72701 21.599001 32.243999 62
131.826 21.500999 32.194 69
131.86501 21.393 32.129002 76
131.888 21.285 32.057999 88
131.967 21.181999 31.999001 99
131.957 21.063999 31.917 91
132.041 20.959999 31.856001 102
132.05701 20.844 31.777 90
132.03999 20.722 31.688999 71
132.092 20.611 31.615999 70
132.241 20.517 31.563999 64
132.315 20.407 31.493 49
132.297 20.283001 31.399 39
0 0 0 0
0 0 0 35
135.229 20.358 31.808001 31
135.26601 20.237 31.719 33
0 0 0 0
0 0 0 36
138.11 20.275999 32.075001 42
0 0 0 14
49.626999 7.1900001 11.448 29
49.638 7.145 11.411 35
49.664001 7.0999999 11.377 44
49.679001 7.0539999 11.34 24
49.362 6.961 11.226 11
48.666 6.8150001 11.028 9
48.194 6.7010002 10.88 8
47.903999 6.6129999 10.773 13
47.839001 6.5580001 10.717 18
47.223 6.4260001 10.537 18
46.654999 6.302 10.369 32
46.655998 6.256 10.327 34
45.909 6.1100001 10.119 24
45.327 5.9860001 9.9490004 33
45.34 5.9429998 9.9090004 33
44.5 5.7870002 9.684 25
43.995998 5.677 9.5319996 32
43.998001 5.632 9.4890003 32
42.794998 5.4349999 9.1879997 17
42.68 5.3759999 9.1210003 30
42.691002 5.3330002 9.0810003 33
42.466 5.2620001 8.9899998 31
41.362999 5.0819998 8.7139997 33
41.349998 5.0370002 8.6689997 37
41.355 4.9949999 8.6269999 37
40.490002 4.848 8.4040003 25
40.028999 4.75 8.2650003 39
40.029999 4.7090001 8.2229996 39
40.001999 4.664 8.1739998 33
38.752998 4.4770002 7.8759999 31
38.708 4.4289999 7.8239999 43
38.728001 4.3920002 7.7849998 41
38.575001 4.3330002 7.711 33
37.403 4.1609998 7.434 28
37.366001 4.118 7.382 35
37.372002 4.079 7.342 33
37.377998 4.04 7.2979999 30
36.131001 3.8659999 7.013 27
36.053001 3.8199999 6.9559999 42
36.055 3.7809999 6.9130001 43
36.064999 3.743 6.8709998 39
35.382999 3.6340001 6.698 23
34.726002 3.53 6.5310001 38
34.724998 3.4920001 6.4879999 42
34.735001 3.4560001 6.447 45
34.533001 3.3989999 6.3660002 25
33.431999 3.2539999 6.1209998 11
33.127998 3.1889999 6.0229998 10
32.931999 3.1340001 5.9450002 41
32.938 3.0999999 5.9039998 51
32.926998 3.063 5.8590002 53
32.953999 3.03 5.822 54
32.964001 2.994 5.7779999 56
32.962002 2.9579999 5.7340002 57
32.958 2.9230001 5.6900001 55
32.970001 2.888 5.6469998 56
32.988998 2.8540001 5.605 60
32.993999 2.8180001 5.5609999 62
32.993 2.7820001 5.5149999 59
