# .PCD v0.7 - Point Cloud Data file format
VERSION 0.7
FIELDS x y z intensity
SIZE 4 4 4 4
TYPE F F F F
COUNT 1 1 1 1
WIDTH 1772
HEIGHT 1
VIEWPOINT 0 0 0 1 0 0 0
POINTS 1772
DATA ascii
2.21 0.226 -0.54799998 1
2.2 0.227 -0.54799998 1
2.188 0.228 -0.54699999 1
2.1789999 0.229 -0.54699999 1
2.1700001 0.23 -0.54699999 1
2.152 0.23 -0.54500002 1
2.1489999 0.23199999 -0.54699999 1
2.141 0.233 -0.54699999 1
2.1300001 0.234 -0.546 1
2.122 0.235 -0.54699999 1
2.105 0.235 -0.54500002 1
2.095 0.236 -0.54400003 1
2.0910001 0.237 -0.54500002 1
2.0739999 0.237 -0.54299998 1
2.073 0.23899999 -0.54400003 1
2.0599999 0.23899999 -0.54299998 1
2.053 0.23999999 -0.54299998 1
2.033 0.23999999 -0.54000002 1
2.0339999 0.242 -0.542 1
2.023 0.242 -0.54100001 1
2.0179999 0.244 -0.54100001 1
2.0079999 0.244 -0.54100001 1
1.998 0.245 -0.54000002 1
1.99 0.245 -0.53899997 1
1.982 0.24600001 -0.53899997 1
1.977 0.24699999 -0.53899997 1
1.969 0.248 -0.53899997 1
1.965 0.249 -0.53899997 1
1.957 0.25 -0.53899997 1
1.9579999 0.252 -0.54000002 1
1.931 0.25 -0.53500003 1
1.933 0.252 -0.537 1
1.928 0.25299999 -0.537 1
1.926 0.25400001 -0.53799999 1
1.911 0.25400001 -0.53500003 1
1.916 0.25600001 -0.53799999 1
1.908 0.25600001 -0.537 1
1.897 0.25600001 -0.53500003 1
1.891 0.257 -0.53500003 1
1.877 0.257 -0.53200001 1
1.874 0.25799999 -0.53299999 1
1.869 0.259 -0.53200001 1
1.876 0.26100001 -0.53600001 1
1.869 0.26199999 -0.53500003 1
1.858 0.26199999 -0.53299999 1
1.859 0.26300001 -0.53399998 1
1.857 0.264 -0.53500003 1
1.842 0.264 -0.53200001 1
1.845 0.266 -0.53399998 1
1.844 0.26699999 -0.53500003 1
1.8329999 0.26699999 -0.53200001 1
1.8279999 0.26699999 -0.53200001 1
1.827 0.26899999 -0.53299999 1
1.825 0.27000001 -0.53299999 1
1.817 0.27000001 -0.53200001 1
1.817 0.271 -0.53200001 1
1.808 0.271 -0.53100002 1
1.803 0.27200001 -0.52999997 1
1.808 0.27399999 -0.53200001 1
1.798 0.273 -0.52999997 1
1.801 0.27500001 -0.53200001 1
1.791 0.27500001 -0.52999997 1
1.7920001 0.27599999 -0.53100002 1
1.794 0.278 -0.53200001 1
1.788 0.278 -0.53100002 1
1.78 0.278 -0.52899998 1
1.785 0.28 -0.53100002 1
1.772 0.27900001 -0.528 1
1.776 0.28099999 -0.52999997 1
1.781 0.28299999 -0.53200001 1
1.775 0.28299999 -0.53100002 1
1.7690001 0.28299999 -0.52999997 1
1.766 0.28400001 -0.52899998 1
1.768 0.285 -0.52999997 1
1.7690001 0.287 -0.53100002 1
1.766 0.287 -0.53100002 1
1.756 0.287 -0.528 1
1.756 0.28799999 -0.528 1
1.765 0.28999999 -0.53200001 1
1.755 0.28999999 -0.52899998 1
1.7539999 0.28999999 -0.52899998 1
1.752 0.29100001 -0.52899998 1
1.755 0.29300001 -0.52999997 1
1.753 0.29300001 -0.52899998 1
1.755 0.29499999 -0.52999997 1
1.751 0.29499999 -0.52899998 1
1.747 0.29499999 -0.528 1
1.749 0.296 -0.52899998 1
1.7460001 0.29699999 -0.528 1
1.745 0.29699999 -0.528 1
1.749 0.29899999 -0.52899998 1
1.75 0.30000001 -0.52999997 1
1.743 0.30000001 -0.528 1
1.748 0.301 -0.52899998 1
1.745 0.30199999 -0.528 1
1.745 0.303 -0.528 1
1.748 0.30399999 -0.52899998 1
1.752 0.30500001 -0.52999997 1
1.7460001 0.30500001 -0.528 1
1.756 0.308 -0.53100002 1
1.745 0.30599999 -0.528 1
1.7539999 0.30899999 -0.53100002 1
1.7539999 0.31 -0.52999997 1
1.7539999 0.31 -0.52999997 1
1.756 0.31099999 -0.53100002 1
1.7539999 0.31200001 -0.52999997 1
1.7539999 0.31200001 -0.52899998 1
1.751 0.31200001 -0.528 1
1.755 0.31400001 -0.52899998 1
1.755 0.315 -0.52899998 1
1.755 0.315 -0.52899998 1
1.755 0.31600001 -0.528 1
1.7589999 0.317 -0.52899998 1
1.758 0.317 -0.52899998 1
1.761 0.31900001 -0.52899998 1
1.761 0.31900001 -0.52899998 1
1.766 0.31999999 -0.52999997 1
1.768 0.32100001 -0.52999997 1
1.766 0.322 -0.52899998 1
1.771 0.32300001 -0.52899998 1
1.77 0.32300001 -0.52899998 1
1.773 0.324 -0.52899998 1
1.773 0.32499999 -0.528 1
1.775 0.32600001 -0.528 1
1.777 0.32600001 -0.528 1
1.7819999 0.32800001 -0.52899998 1
1.7869999 0.329 -0.52999997 1
1.788 0.329 -0.52899998 1
1.79 0.33000001 -0.52899998 1
1.79 0.331 -0.52899998 1
1.791 0.331 -0.528 1
1.802 0.33399999 -0.53100002 1
1.808 0.33500001 -0.53200001 1
1.8099999 0.336 -0.53100002 1
1.8099999 0.336 -0.53100002 1
1.817 0.338 -0.53200001 1
1.818 0.338 -0.53100002 1
1.821 0.33899999 -0.53100002 1
1.826 0.34 -0.53200001 1
1.829 0.34099999 -0.53100002 1
1.83 0.34099999 -0.52999997 1
1.829 0.34099999 -0.52899998 1
1.835 0.34200001 -0.52999997 1
1.846 0.34400001 -0.53200001 1
1.848 0.345 -0.53100002 1
1.853 0.34599999 -0.53200001 1
1.853 0.34599999 -0.53100002 1
1.864 0.34799999 -0.53299999 1
1.8609999 0.34799999 -0.53100002 1
1.872 0.34999999 -0.53299999 1
1.87 0.34900001 -0.53100002 1
1.877 0.35100001 -0.53200001 1
1.883 0.352 -0.53200001 1
1.891 0.35299999 -0.53299999 1
1.892 0.354 -0.53200001 1
1.897 0.354 -0.53200001 1
1.9 0.35499999 -0.53100002 1
1.9170001 0.35800001 -0.53500003 1
1.919 0.35800001 -0.53399998 1
1.923 0.359 -0.53299999 1
1.9349999 0.361 -0.53500003 1
1.938 0.361 -0.53500003 1
1.942 0.36199999 -0.53399998 1
1.949 0.36300001 -0.53399998 1
1.9579999 0.36399999 -0.53500003 1
1.957 0.36399999 -0.53399998 1
1.965 0.36500001 -0.53399998 1
1.97 0.366 -0.53399998 1
1.9809999 0.36700001 -0.53500003 1
1.994 0.37 -0.537 1
2 0.37 -0.537 1
2.003 0.37099999 -0.53600001 1
2.016 0.373 -0.537 1
2.026 0.37400001 -0.53799999 1
2.027 0.37400001 -0.537 1
2.0409999 0.37599999 -0.53899997 1
2.0469999 0.377 -0.53799999 1
2.0539999 0.377 -0.53799999 1
2.0669999 0.37900001 -0.53899997 1
2.0710001 0.37900001 -0.53899997 1
2.0780001 0.38 -0.53799999 1
2.0929999 0.382 -0.54000002 1
2.102 0.38299999 -0.54100001 1
2.112 0.38499999 -0.54100001 1
2.1259999 0.38699999 -0.542 1
2.1270001 0.38600001 -0.54000002 1
2.1340001 0.38699999 -0.54000002 1
2.1440001 0.38800001 -0.54000002 1
2.1500001 0.38800001 -0.54000002 1
2.1659999 0.38999999 -0.54100001 1
2.1730001 0.391 -0.54100001 1
2.188 0.39300001 -0.542 1
2.2030001 0.39399999 -0.54400003 1
2.2060001 0.39399999 -0.542 1
2.2179999 0.39500001 -0.542 1
2.233 0.39700001 -0.54400003 1
2.244 0.398 -0.54400003 1
2.25 0.398 -0.54299998 1
2.273 0.40099999 -0.546 1
2.283 0.40200001 -0.54500002 1
2.29 0.40200001 -0.54500002 1
2.3050001 0.40400001 -0.546 1
2.323 0.40599999 -0.54699999 1
2.3310001 0.40599999 -0.546 1
2.3510001 0.40900001 -0.54799998 1
2.3559999 0.40799999 -0.546 1
2.378 0.41100001 -0.54900002 1
2.382 0.41 -0.54699999 1
2.4030001 0.41299999 -0.54900002 1
2.4189999 0.414 -0.55000001 1
2.4430001 0.417 -0.55199999 1
2.447 0.41600001 -0.55000001 1
2.4719999 0.419 -0.55299997 1
2.4860001 0.41999999 -0.55299997 1
2.4990001 0.421 -0.55199999 1
2.5090001 0.421 -0.55199999 1
2.553 0.42699999 -0.55800003 1
2.612 0.435 -0.56800002 1
2.632 0.43700001 -0.56900001 1
2.6159999 0.433 -0.56199998 1
2.714 0.447 -0.57999998 1
2.651 0.435 -0.56199998 1
2.681 0.43799999 -0.565 1
2.766 0.44999999 -0.57999998 1
2.6800001 0.43399999 -0.55800003 1
2.7190001 0.43900001 -0.56300002 1
2.79 0.44800001 -0.574 1
2.7409999 0.43799999 -0.56 2
2.756 0.43900001 -0.55900002 2
2.7850001 0.44100001 -0.56099999 2
2.8010001 0.442 -0.56099999 2
2.825 0.44400001 -0.56199998 2
2.8499999 0.44499999 -0.56300002 2
2.9360001 0.456 -0.57599998 2
3.0150001 0.46700001 -0.58700001 2
2.9779999 0.458 -0.57599998 2
3.0009999 0.46000001 -0.57599998 1
3.0599999 0.46599999 -0.58399999 2
3.1110001 0.47099999 -0.58899999 2
3.1989999 0.48199999 -0.60100001 2
3.062 0.45899999 -0.57099998 2
3.096 0.461 -0.57300001 2
3.1159999 0.46200001 -0.57200003 2
3.1530001 0.465 -0.57499999 2
3.1830001 0.46599999 -0.57599998 2
3.2079999 0.46700001 -0.57599998 2
3.3670001 0.48699999 -0.60000002 2
3.296 0.47400001 -0.58200002 2
3.398 0.486 -0.59500003 2
3.404 0.48300001 -0.59200001 2
3.4679999 0.48899999 -0.59799999 2
3.4200001 0.47999999 -0.58499998 3
3.4519999 0.48100001 -0.58499998 3
3.48 0.48100001 -0.58499998 3
3.5120001 0.48300001 -0.58499998 3
3.6300001 0.495 -0.60000002 2
3.622 0.49000001 -0.59299999 2
3.767 0.50700003 -0.611 2
3.7550001 0.50099999 -0.60399997 2
3.8369999 0.50800002 -0.611 2
3.825 0.50300002 -0.60399997 2
3.918 0.51099998 -0.61299998 3
3.839 0.49700001 -0.59500003 2
3.99 0.51200002 -0.61299998 3
4 0.509 -0.60799998 3
4.0180001 0.50800002 -0.60500002 3
4.0760002 0.51099998 -0.60799998 3
4.151 0.51599997 -0.61299998 3
4.152 0.51099998 -0.60699999 3
4.1750002 0.50999999 -0.60399997 3
4.2779999 0.51700002 -0.61199999 3
4.3140001 0.51700002 -0.611 3
4.415 0.52399999 -0.61900002 3
4.428 0.52100003 -0.61400002 4
4.4899998 0.523 -0.616 4
4.5739999 0.528 -0.62099999 3
4.6399999 0.52999997 -0.62300003 3
4.7010002 0.53200001 -0.62400001 3
4.7789998 0.53500003 -0.62699997 3
4.8520002 0.537 -0.62900001 4
4.9260001 0.53899997 -0.63200003 3
5.013 0.54299998 -0.63499999 3
5.1079998 0.54699999 -0.63999999 3
5.1960001 0.55000001 -0.64300001 3
5.2930002 0.55400002 -0.64700001 3
5.3930001 0.55800003 -0.65100002 3
5.4809999 0.56099999 -0.65399998 3
5.5700002 0.56300002 -0.65600002 3
5.6739998 0.56599998 -0.66000003 3
5.7810001 0.56999999 -0.66299999 3
5.9180002 0.57599998 -0.67000002 3
6.0310001 0.579 -0.67400002 4
6.1230001 0.57999998 -0.67500001 4
6.2360001 0.583 -0.67799997 4
6.369 0.58700001 -0.68300003 4
6.4959998 0.58999997 -0.68699998 4
6.6339998 0.59399998 -0.69199997 4
6.8060002 0.60000002 -0.69999999 4
6.9679999 0.60500002 -0.70599997 4
7.1009998 0.60799998 -0.70899999 5
7.2389998 0.61000001 -0.71200001 4
7.382 0.61199999 -0.71499997 4
7.5549998 0.616 -0.72000003 4
7.7360001 0.62 -0.72600001 4
7.8969998 0.62199998 -0.72899997 4
8.0620003 0.62400001 -0.73299998 3
8.309 0.63200003 -0.74299997 3
8.4890003 0.634 -0.74599999 4
8.7110004 0.63800001 -0.75300002 3
8.941 0.64200002 -0.75999999 3
9.1820002 0.64700001 -0.76599997 4
9.4239998 0.64999998 -0.773 3
9.651 0.65200001 -0.77700001 3
9.9530001 0.65799999 -0.787 3
10.252 0.66299999 -0.79500002 3
10.535 0.66600001 -0.80199999 4
10.855 0.671 -0.81 3
11.176 0.67400002 -0.81800002 4
11.508 0.67699999 -0.82499999 2
11.893 0.68199998 -0.83600003 2
12.318 0.68800002 -0.84799999 3
12.742 0.69300002 -0.85799998 3
13.261 0.70099998 -0.87400001 3
13.751 0.70700002 -0.88700002 3
14.213 0.70899999 -0.89600003 3
14.746 0.713 -0.90799999 3
15.436 0.72299999 -0.92799997 2
15.221 0.69 -0.89399999 2
0 0 0 4
16.971001 0.71700001 -0.94800001 6
17.471001 0.71100003 -0.95099998 6
17.388 0.68000001 -0.92199999 4
17.356001 0.65200001 -0.89600003 4
17.322001 0.62400001 -0.87 4
17.315001 0.59600002 -0.84500003 4
17.302 0.56800002 -0.81999999 3
17.292999 0.54000002 -0.79500002 7
17.385 0.51499999 -0.77499998 6
17.211 0.48300001 -0.74400002 6
17.139 0.45300001 -0.71700001 4
17.062 0.42399999 -0.69 4
16.976 0.39399999 -0.66299999 2
16.868 0.36399999 -0.63499999 2
16.836 0.336 -0.611 2
16.825001 0.30899999 -0.588 2
16.778999 0.28 -0.56300002 2
16.766001 0.252 -0.54000002 1
16.785 0.22499999 -0.51800001 1
16.777 0.197 -0.495 1
16.802 0.169 -0.47299999 1
16.733999 0.141 -0.449 1
16.73 0.113 -0.426 4
16.724001 0.085000001 -0.40400001 9
16.73 0.057 -0.382 13
16.718 0.028999999 -0.359 14
16.787001 0 -0.33899999 1
16.799 -0.027000001 -0.317 1
16.867001 -0.056000002 -0.296 9
16.881001 -0.085000001 -0.27399999 14
16.860001 -0.114 -0.25299999 12
16.865999 -0.14300001 -0.23100001 10
16.870001 -0.17200001 -0.20900001 9
16.889 -0.20100001 -0.18799999 7
16.941 -0.23100001 -0.167 7
16.948999 -0.25999999 -0.146 4
16.915001 -0.28799999 -0.124 4
16.84 -0.31600001 -0.103 4
16.849001 -0.34599999 -0.081 6
16.864 -0.37599999 -0.059999999 4
16.886 -0.40599999 -0.039999999 2
16.865999 -0.435 -0.018999999 1
0 0 0 0
0 0 0 0
0 0 0 0
0 0 0 1
17.559999 -0.60699999 0.085000001 1
17.667999 -0.64200002 0.107 1
17.829 -0.68000001 0.12899999 1
18.195 -0.72600001 0.153 1
18.364 -0.76599997 0.176 1
18.395 -0.79900002 0.198 1
18.594999 -0.84200001 0.222 1
0 0 0 6
33.923 -1.6569999 0.48300001 36
33.93 -1.7180001 0.52200001 5
33.988998 -1.783 0.56199998 1
0 0 0 6
0 0 0 0
0 0 0 6
64.431 -3.8440001 1.354 6
64.452003 -3.9630001 1.426 7
0 0 0 7
34.064999 -2.217 0.82700002 10
33.922001 -2.27 0.861 25
33.807999 -2.3239999 0.89399999 52
33.787998 -2.3840001 0.93000001 106
33.808998 -2.447 0.96700001 131
33.817001 -2.51 1.003 121
33.834 -2.572 1.038 121
33.842999 -2.635 1.074 131
33.856998 -2.698 1.109 132
33.875999 -2.7609999 1.145 92
33.895 -2.825 1.1799999 95
33.890999 -2.888 1.215 121
33.914001 -2.95 1.249 90
0 0 0 3
17.646 -1.6 0.685 19
17.540001 -1.622 0.69800001 25
17.504 -1.651 0.71399999 31
17.466 -1.6799999 0.72899997 38
17.438 -1.71 0.745 41
17.4 -1.737 0.75999999 43
17.386 -1.7690001 0.77600002 47
17.367001 -1.798 0.79100001 46
17.344 -1.8279999 0.80599999 53
17.334999 -1.858 0.82200003 34
17.302999 -1.887 0.83600003 57
17.304001 -1.919 0.852 67
17.289 -1.949 0.86699998 59
17.283001 -1.98 0.88200003 67
17.285 -2.0120001 0.898 39
17.277 -2.0420001 0.912 67
17.277 -2.0739999 0.92799997 61
17.289 -2.1070001 0.94300002 38
17.302 -2.141 0.95899999 60
17.305 -2.1730001 0.97399998 55
17.319 -2.2060001 0.98900002 56
17.323 -2.2379999 1.003 52
17.337999 -2.2720001 1.0190001 52
17.358999 -2.306 1.034 47
17.386999 -2.342 1.05 30
17.403 -2.375 1.0650001 37
17.431999 -2.411 1.081 32
17.469999 -2.447 1.097 27
17.549999 -2.49 1.115 20
17.649 -2.5369999 1.135 9
0 0 0 49
34.41 -5.0710001 2.266 49
34.424 -5.1339998 2.293 51
34.426998 -5.197 2.319 50
34.456001 -5.2639999 2.346 51
34.459 -5.3260002 2.3710001 50
34.478001 -5.3920002 2.398 50
34.493 -5.4559999 2.4230001 49
34.507 -5.5190001 2.448 46
34.521999 -5.5819998 2.473 48
34.534 -5.6469998 2.4979999 49
34.541 -5.7080002 2.5220001 51
34.561001 -5.7729998 2.546 50
34.584999 -5.8390002 2.5710001 50
34.577 -5.8990002 2.5929999 50
34.618999 -5.9679999 2.619 44
34.610001 -6.026 2.6400001 51
34.623001 -6.0879998 2.6630001 52
34.639999 -6.152 2.6849999 52
34.646 -6.2129998 2.707 53
34.644001 -6.2729998 2.7279999 58
34.612 -6.3280001 2.747 19
34.443001 -6.3569999 2.7539999 17
34.292 -6.3889999 2.763 17
34.138 -6.4190001 2.7690001 16
33.98 -6.447 2.776 18
33.854 -6.4819999 2.7850001 16
33.713001 -6.513 2.7920001 17
33.562 -6.5409999 2.7969999 17
33.431 -6.572 2.8050001 17
33.287998 -6.6009998 2.8110001 17
33.147999 -6.6290002 2.816 17
32.994999 -6.6550002 2.8199999 16
32.882 -6.6869998 2.8269999 16
32.737 -6.7129998 2.8310001 17
32.612999 -6.743 2.8369999 18
32.501999 -6.7729998 2.8429999 18
32.346001 -6.7940001 2.845 17
32.240002 -6.8260002 2.8510001 17
32.097 -6.849 2.8540001 18
31.965 -6.8730001 2.8570001 22
31.844 -6.9000001 2.8599999 17
31.733999 -6.928 2.8640001 17
31.622 -6.9549999 2.868 18
31.490999 -6.9759998 2.8699999 17
31.358 -6.9980001 2.8699999 21
31.247999 -7.0240002 2.8729999 22
31.155001 -7.052 2.8770001 17
31.056 -7.079 2.881 17
30.91 -7.0939999 2.8789999 21
30.871 -7.1329999 2.8870001 40
30.878 -7.184 2.8989999 45
30.892 -7.2360001 2.911 43
30.903 -7.2859998 2.924 41
30.907 -7.335 2.9360001 35
30.952 -7.3940001 2.95 36
30.972 -7.4460001 2.9630001 28
30.951 -7.487 2.971 23
31 -7.546 2.9849999 20
31.039 -7.6020002 2.9990001 19
31.153999 -7.677 3.02 26
31.202 -7.7360001 3.0339999 21
31.237 -7.79 3.0469999 21
31.292999 -7.8509998 3.0610001 17
31.334999 -7.908 3.0739999 15
31.382 -7.9660001 3.0869999 17
31.385 -8.0120001 3.096 14
31.436001 -8.0710001 3.109 12
31.434 -8.1160002 3.1159999 11
31.440001 -8.1630001 3.125 15
31.474001 -8.2159996 3.135 16
31.473 -8.2609997 3.142 12
31.478001 -8.3059998 3.1500001 13
31.495001 -8.3549995 3.1589999 14
31.483999 -8.3950005 3.165 14
31.51 -8.4449997 3.1730001 10
31.525 -8.4919996 3.181 13
31.540001 -8.54 3.1889999 14
31.545 -8.5830002 3.1949999 13
31.563999 -8.6309996 3.2030001 11
31.549999 -8.6689997 3.2060001 13
31.551001 -8.71 3.211 13
31.576 -8.7580004 3.2179999 10
31.584999 -8.802 3.2249999 13
31.597 -8.8470001 3.23 14
31.587999 -8.8839998 3.233 11
31.587999 -8.9239998 3.237 13
31.627001 -8.9750004 3.2449999 16
31.608999 -9.0100002 3.247 27
31.606001 -9.0480003 3.25 21
31.646 -9.0979996 3.256 15
31.639999 -9.1350002 3.2579999 13
31.67 -9.1809998 3.2650001 15
0 0 0 2
27.379 -8.0019999 2.8269999 13
27.305 -8.0129995 2.8210001 24
27.247999 -8.0279999 2.816 27
27.205 -8.0459995 2.8139999 30
27.164 -8.0649996 2.8110001 32
27.127001 -8.085 2.8080001 35
27.107 -8.1099997 2.8069999 37
27.065001 -8.1269999 2.803 41
27.048 -8.1520004 2.802 43
27.024 -8.1739998 2.799 43
27.01 -8.198 2.7980001 45
27.002001 -8.2250004 2.7980001 47
26.978001 -8.2460003 2.7950001 49
26.964001 -8.2700005 2.793 54
26.955 -8.2950001 2.7909999 59
26.954 -8.3219995 2.7909999 56
26.945999 -8.3470001 2.79 57
26.933001 -8.3699999 2.7869999 53
26.927 -8.3950005 2.7850001 55
26.924 -8.4200001 2.7839999 52
26.926001 -8.4460001 2.783 50
26.929001 -8.4729996 2.7820001 48
26.927999 -8.4980001 2.779 45
26.931 -8.5229998 2.7780001 44
26.931 -8.5480003 2.7750001 41
26.937 -8.5740004 2.7739999 39
26.938 -8.5979996 2.7720001 38
26.954 -8.6269999 2.7709999 36
26.962 -8.6520004 2.7690001 36
26.975 -8.6789999 2.767 34
26.974001 -8.7010002 2.7639999 32
26.997999 -8.7309999 2.763 29
0 0 0 1
9.8979998 -3.217 1.01 6
9.8690004 -3.2149999 1.006 13
9.8339996 -3.211 1.001 15
9.8050003 -3.21 0.99699998 17
9.7939997 -3.2130001 0.99400002 11
9.776 -3.214 0.991 13
9.7480001 -3.2119999 0.986 14
9.7370005 -3.2149999 0.98299998 15
9.7030001 -3.211 0.97799999 16
9.7040005 -3.2179999 0.97600001 17
9.6899996 -3.22 0.97299999 18
9.6780005 -3.2219999 0.97000003 16
9.6730003 -3.2260001 0.96799999 18
9.658 -3.227 0.96399999 18
9.6400003 -3.227 0.96100003 18
9.6339998 -3.2309999 0.958 18
9.6350002 -3.237 0.95599997 18
9.6239996 -3.2390001 0.95200002 21
9.618 -3.2420001 0.94999999 27
9.6099997 -3.2449999 0.94700003 27
9.6029997 -3.2479999 0.94400001 27
9.5950003 -3.25 0.94099998 28
9.592 -3.2539999 0.93800002 28
9.5810003 -3.2550001 0.93400002 27
9.592 -3.263 0.93300003 28
9.5790005 -3.263 0.92900002 28
9.5780001 -3.267 0.926 29
9.5749998 -3.27 0.92400002 29
9.5550003 -3.2679999 0.91900003 29
9.559 -3.273 0.91600001 30
9.5570002 -3.276 0.91299999 30
9.5389996 -3.273 0.90899998 30
9.5550003 -3.2820001 0.90799999 30
9.54 -3.28 0.903 31
9.533 -3.2809999 0.89999998 31
9.5389996 -3.2869999 0.89700001 31
9.5369997 -3.289 0.89399999 31
9.5349998 -3.2909999 0.88999999 31
9.5290003 -3.2909999 0.88700002 31
9.533 -3.2950001 0.884 30
9.5240002 -3.2950001 0.88 31
9.526 -3.2980001 0.87699997 30
9.5019999 -3.2909999 0.87099999 30
9.5109997 -3.2969999 0.86900002 31
9.5030003 -3.296 0.86500001 30
9.5089998 -3.3 0.86199999 30
9.5100002 -3.302 0.85900003 30
9.5039997 -3.3010001 0.85399997 30
9.5100002 -3.3039999 0.85100001 30
9.5080004 -3.3050001 0.84799999 29
9.5 -3.303 0.84299999 29
9.5 -3.3039999 0.83999997 29
9.493 -3.303 0.83499998 28
9.4949999 -3.3039999 0.83200002 28
9.5120001 -3.3099999 0.82999998 27
9.5089998 -3.3099999 0.82499999 28
9.5059996 -3.309 0.82099998 28
9.5139999 -3.312 0.81800002 28
9.5089998 -3.3099999 0.81400001 28
9.5039997 -3.309 0.80900002 29
9.4969997 -3.306 0.80500001 29
9.5019999 -3.3069999 0.801 29
9.5019999 -3.306 0.79699999 29
9.5010004 -3.3050001 0.79299998 29
9.5010004 -3.3050001 0.78799999 29
9.5129995 -3.3080001 0.78500003 30
9.4969997 -3.3010001 0.77999997 30
9.493 -3.2980001 0.77499998 29
9.5150003 -3.3050001 0.77200001 29
9.5039997 -3.299 0.76700002 30
9.5030003 -3.2969999 0.76300001 29
9.5050001 -3.296 0.759 29
9.5039997 -3.2939999 0.75400001 30
9.526 -3.3 0.75199997 30
9.5129995 -3.293 0.74599999 29
9.5100002 -3.29 0.741 29
9.5190001 -3.29 0.73699999 29
9.5220003 -3.289 0.73299998 30
9.5240002 -3.2869999 0.72899997 29
9.5270004 -3.2850001 0.72399998 29
9.5290003 -3.283 0.72000003 30
9.5340004 -3.2809999 0.71499997 30
9.5480003 -3.283 0.71100003 30
9.5360003 -3.2750001 0.70599997 30
9.533 -3.27 0.70099998 29
9.5349998 -3.2679999 0.69599998 29
9.5469999 -3.2679999 0.69199997 29
9.552 -3.266 0.68800002 29
9.5489998 -3.26 0.68300003 29
9.5600004 -3.26 0.67799997 29
9.5609999 -3.256 0.67299998 29
9.5649996 -3.253 0.66900003 29
9.5760002 -3.2520001 0.66500002 28
9.5810003 -3.2490001 0.66000003 28
9.5869999 -3.2460001 0.65499997 27
9.5880003 -3.2409999 0.64999998 26
9.5959997 -3.2390001 0.64600003 27
9.6009998 -3.2349999 0.64099997 26
9.6149998 -3.234 0.63700002 27
9.6169996 -3.2290001 0.63200003 25
9.6149998 -3.223 0.62599999 24
9.6300001 -3.2219999 0.62199998 20
9.6490002 -3.2219999 0.61799997 20
9.651 -3.217 0.61299998 20
9.6560001 -3.2119999 0.60799998 18
9.6750002 -3.2119999 0.60399997 16
9.6730003 -3.2049999 0.59799999 18
9.7049999 -3.2090001 0.59500003 25
9.6940002 -3.1989999 0.58899999 18
9.7200003 -3.2 0.58499998 18
9.7370005 -3.1989999 0.58099997 14
9.7580004 -3.1989999 0.57599998 12
9.7810001 -3.198 0.57200003 12
9.7989998 -3.197 0.56800002 18
9.8199997 -3.1960001 0.56300002 15
9.8620005 -3.2019999 0.56 8
9.8950005 -3.204 0.55599999 6
9.9300003 -3.207 0.55299997 1
0 0 0 29
26.957001 -8.6630001 1.47 32
26.941999 -8.6350002 1.454 32
26.924 -8.6049995 1.438 37
26.912001 -8.5769997 1.4220001 38
26.92 -8.5559998 1.4069999 33
26.896999 -8.5240002 1.39 41
26.886999 -8.4960003 1.374 44
26.889 -8.4709997 1.359 46
26.882999 -8.4440002 1.3430001 47
26.900999 -8.4230003 1.3279999 50
26.882999 -8.3909998 1.312 52
26.896 -8.3690004 1.2970001 55
26.886 -8.3389997 1.281 60
26.889999 -8.3129997 1.266 59
26.896 -8.2869997 1.25 62
26.874001 -8.2519999 1.233 66
26.910999 -8.2349997 1.219 47
26.924999 -8.21 1.204 61
26.947001 -8.1879997 1.1900001 54
26.952999 -8.1599998 1.174 43
26.982 -8.1400003 1.16 41
26.986 -8.1120005 1.1440001 47
27.004999 -8.0860004 1.13 43
27.030001 -8.0629997 1.115 41
27.059999 -8.04 1.1 35
27.094999 -8.0190001 1.086 39
27.129999 -7.9980001 1.071 34
27.177999 -7.98 1.057 26
27.216999 -7.9580002 1.043 26
27.278999 -7.9429998 1.029 22
27.377001 -7.9380002 1.017 10
0 0 0 6
35.485001 -10.202 1.278 9
35.450001 -10.145 1.256 8
35.459 -10.104 1.2359999 8
35.441002 -10.053 1.215 8
35.428001 -10.003 1.194 8
35.41 -9.9519997 1.173 8
35.396999 -9.9020004 1.152 7
35.368999 -9.8470001 1.131 7
35.356998 -9.7959995 1.11 8
35.362 -9.75 1.09 8
35.362999 -9.7019997 1.0700001 7
35.369999 -9.6560001 1.051 6
35.375 -9.6090002 1.031 6
35.344002 -9.5509996 1.01 4
35.359001 -9.5050001 0.99000001 3
35.317001 -9.4440002 0.96899998 2
0 0 0 0
0 0 0 0
0 0 0 0
0 0 0 3
28.195 -7.336 0.69599998 2
0 0 0 0
0 0 0 2
0 0 0 0
0 0 0 0
0 0 0 6
31.122999 -7.8179998 0.667 6
31.108999 -7.7670002 0.64999998 6
31.108999 -7.7189999 0.63300002 6
31.063999 -7.6589999 0.616 7
31.076 -7.6129999 0.60000002 7
31.077 -7.566 0.583 6
31.065001 -7.5139999 0.56699997 7
31.032 -7.4559999 0.55000001 6
31.034 -7.4070001 0.53399998 6
31.044001 -7.3600001 0.51800001 6
31.037001 -7.3080001 0.50199997 6
30.993999 -7.2470002 0.486 6
31.083 -7.217 0.472 3
31.212999 -7.1950002 0.458 3
31.34 -7.1729999 0.44400001 3
31.469 -7.151 0.43099999 3
0 0 0 3
27.922001 -6.2509999 0.354 3
0 0 0 0
0 0 0 0
0 0 0 0
0 0 0 9
34.835999 -7.5019999 0.35800001 9
34.797001 -7.4349999 0.34200001 9
34.810001 -7.3769999 0.32600001 9
34.769001 -7.3080001 0.31 8
34.756001 -7.244 0.29300001 8
34.757 -7.1830001 0.278 7
0 0 0 1
27.666 -5.6199999 0.19599999 1
27.719999 -5.5819998 0.185 2
27.702 -5.5289998 0.17200001 2
27.698999 -5.4790001 0.16 2
27.627001 -5.415 0.148 2
27.681999 -5.3740001 0.13600001 2
27.677 -5.3239999 0.125 2
27.555 -5.25 0.112 2
27.607 -5.2080002 0.102 2
27.688999 -5.1729999 0.090000004 1
0 0 0 17
34.57 -6.3309999 0.086000003 19
34.562 -6.2649999 0.071999997 19
34.615002 -6.21 0.057999998 5
34.782001 -6.1760001 0.045000002 9
34.887001 -6.1290002 0.032000002 11
34.897999 -6.0650001 0.018999999 3
0 0 0 0
0 0 0 0
0 0 0 0
0 0 0 0
0 0 0 0
0 0 0 5
34.750999 -5.572 -0.067000002 10
34.754002 -5.5050001 -0.079000004 6
0 0 0 5
0 0 0 11
15.356 -2.342 -0.050000001 9
15.372 -2.3150001 -0.054000001 15
15.402 -2.289 -0.059 20
15.323 -2.247 -0.064000003 45
15.269 -2.2090001 -0.068000004 54
15.263 -2.178 -0.072999999 54
15.22 -2.141 -0.077 53
15.256 -2.1159999 -0.081 54
15.2 -2.0780001 -0.085000001 53
15.208 -2.049 -0.089000002 53
15.265 -2.026 -0.093999997 53
15.324 -2.003 -0.097999997 54
15.479 -1.992 -0.103 4
15.387 -1.949 -0.106 54
15.404 -1.92 -0.11 4
15.439 -1.893 -0.114 4
15.638 -1.886 -0.119 4
15.694 -1.8609999 -0.123 41
0 0 0 0
0 0 0 58
17.254999 -1.9400001 -0.146 49
17.27 -1.9069999 -0.15000001 51
17.275 -1.872 -0.153 46
17.290001 -1.8380001 -0.15700001 48
17.302 -1.803 -0.16 46
17.34 -1.771 -0.163 43
17.354 -1.737 -0.16599999 37
17.386 -1.705 -0.169 42
17.410999 -1.671 -0.17200001 26
17.452 -1.638 -0.175 22
17.479 -1.605 -0.178 27
17.587 -1.577 -0.182 15
17.679001 -1.549 -0.185 10
0 0 0 58
33.882999 -2.8269999 -0.36300001 55
33.869999 -2.756 -0.36700001 56
33.861 -2.684 -0.37 59
33.832001 -2.6099999 -0.373 57
33.821999 -2.54 -0.37599999 53
33.784 -2.4660001 -0.37900001 43
0 0 0 1
19.878 -1.367 -0.226 4
19.968 -1.332 -0.228 4
0 0 0 1
17.252001 -1.0779999 -0.199 1
17.165001 -1.036 -0.199 1
0 0 0 0
0 0 0 0
0 0 0 0
0 0 0 0
0 0 0 1
17.018999 -0.81 -0.199 1
16.966999 -0.77200001 -0.199 1
16.907 -0.73299998 -0.198 1
16.98 -0.69999999 -0.199 4
16.961 -0.66299999 -0.198 8
16.945999 -0.62699997 -0.197 8
16.973 -0.59100002 -0.197 9
16.948 -0.55500001 -0.19599999 8
16.959999 -0.51899999 -0.19499999 7
16.955 -0.48300001 -0.19499999 7
16.934999 -0.44600001 -0.193 8
16.841 -0.40799999 -0.191 1
16.812 -0.37099999 -0.189 3
16.785 -0.33500001 -0.18799999 10
16.856001 -0.301 -0.18700001 3
16.885 -0.266 -0.186 6
16.884001 -0.229 -0.184 5
16.893999 -0.19400001 -0.182 7
16.886 -0.15899999 -0.18000001 7
16.900999 -0.123 -0.178 9
16.882 -0.086999997 -0.176 8
16.886 -0.050000001 -0.17399999 12
16.896999 -0.015 -0.171 15
16.860001 0.02 -0.169 1
16.768999 0.055 -0.16500001 1
16.792 0.090999998 -0.163 1
16.833 0.127 -0.16 1
16.862 0.162 -0.15700001 1
16.768 0.197 -0.154 1
0 0 0 0
0 0 0 0
0 0 0 0
0 0 0 0
0 0 0 0
0 0 0 1
16.872999 0.44600001 -0.13 1
0 0 0 0
0 0 0 0
0 0 0 0
0 0 0 0
0 0 0 0
0 0 0 0
0 0 0 1
0 0 0 0
0 0 0 1
18.334 0.866 -0.093000002 1
0 0 0 0
0 0 0 1
0 0 0 0
0 0 0 0
0 0 0 0
0 0 0 0
0 0 0 26
36.756001 2.3399999 -0.093000002 90
36.75 2.414 -0.079999998 93
36.773998 2.4909999 -0.067000002 16
37.403999 2.609 -0.055 5
38.157001 2.74 -0.041999999 8
38.512001 2.8440001 -0.028000001 10
38.442001 2.9170001 -0.013 6
0 0 0 11
35.570999 2.8429999 0.014 33
35.610001 2.918 0.028999999 12
35.662998 2.994 0.043000001 11
0 0 0 29
41.188999 3.6229999 0.083999999 28
41.435001 3.7260001 0.101 13
41.370998 3.803 0.119 8
0 0 0 25
45.375999 4.3499999 0.169 18
45.808998 4.4819999 0.191 4
0 0 0 100
48.721001 4.9590001 0.24699999 36
0 0 0 6
41.999001 4.4380002 0.25099999 12
0 0 0 10
56.02 6.1370001 0.38699999 62
56.633999 6.3140001 0.419 110
56.637001 6.421 0.44600001 119
56.612999 6.5279999 0.47299999 111
56.862999 6.664 0.50300002 28
57.193001 6.8130002 0.53399998 20
57.181 6.921 0.56300002 7
0 0 0 72
64.586998 8.066 0.70300001 43
64.600998 8.1899996 0.73699999 58
65.474998 8.4250002 0.78100002 15
65.182999 8.5100002 0.81199998 29
0 0 0 0
0 0 0 0
0 0 0 0
0 0 0 0
0 0 0 11
70.425003 9.9759998 1.105 15
72.116997 10.348 1.173 16
0 0 0 16
83.189003 12.24 1.447 17
82.810997 12.332 1.4859999 16
81.422997 12.272 1.508 21
0 0 0 0
0 0 0 0
0 0 0 13
0 0 0 0
0 0 0 0
0 0 0 0
0 0 0 0
0 0 0 0
0 0 0 0
0 0 0 0
0 0 0 0
0 0 0 0
0 0 0 0
0 0 0 19
84.887001 15.01 2.3410001 18
84.907997 15.155 2.3940001 24
84.900002 15.295 2.448 24
84.692001 15.399 2.4960001 24
0 0 0 0
0 0 0 0
0 0 0 18
86.385002 16.271999 2.7679999 19
86.167 16.371 2.8180001 18
86.240997 16.524 2.8770001 17
86.398003 16.691999 2.9389999 14
86.394997 16.829 2.9960001 19
0 0 0 0
0 0 0 15
0 0 0 0
0 0 0 24
86.378998 17.504999 3.2839999 25
0 0 0 0
0 0 0 14
0 0 0 0
0 0 0 13
0 0 0 0
0 0 0 0
0 0 0 16
83.363998 17.893999 3.6210001 23
83.416 18.027 3.681 18
0 0 0 0
0 0 0 0
0 0 0 0
0 0 0 0
0 0 0 0
0 0 0 0
0 0 0 0
0 0 0 0
0 0 0 0
0 0 0 0
0 0 0 0
0 0 0 16
0 0 0 0
0 0 0 15
0 0 0 150
112.312 26.733 6.2049999 118
112.304 26.875 6.2839999 144
112.27 27.01 6.3610001 130
112.246 27.146 6.4400001 123
112.195 27.274 6.5159998 103
112.177 27.407 6.592 100
0 0 0 9
66.764999 16.475 4.0180001 21
66.726997 16.546 4.0630002 28
66.642998 16.605 4.105 30
0 0 0 5
42.381001 10.659 2.6689999 4
42.976002 10.86 2.7360001 7
42.951 10.902 2.766 13
42.77 10.904 2.783 23
42.376999 10.852 2.7880001 23
42.147999 10.841 2.802 26
42.157001 10.889 2.832 29
42.077 10.915 2.8570001 21
42.098999 10.966 2.8870001 32
42.061001 11.001 2.914 39
42.214001 11.086 2.9549999 39
42.153999 11.112 2.98 37
42.028999 11.124 2.9990001 39
42.125999 11.193 3.036 39
42.334 11.291 3.0799999 40
42.188 11.294 3.099 33
42.084 11.307 3.1210001 39
41.959 11.314 3.141 39
41.830002 11.32 3.1600001 39
41.710999 11.327 3.1800001 37
41.804001 11.391 3.2160001 39
41.735001 11.411 3.24 39
41.717999 11.445 3.266 39
41.662998 11.466 3.29 37
41.722 11.52 3.322 39
41.542 11.507 3.336 38
41.525002 11.538 3.362 38
41.368 11.528 3.378 38
41.263 11.535 3.3970001 36
41.245998 11.563 3.4230001 38
41.25 11.598 3.451 37
41.229 11.624 3.477 34
41.240002 11.659 3.5039999 37
41.283001 11.704 3.5350001 38
41.304001 11.741 3.5639999 33
41.313 11.774 3.592 24
41.352001 11.816 3.622 17
41.393002 11.857 3.6530001 12
41.431999 11.898 3.6830001 12
41.478001 11.94 3.7130001 14
41.504002 11.976 3.744 12
0 0 0 0
0 0 0 0
0 0 0 12
32.155998 9.3620005 2.9809999 19
32.055 9.3520002 2.9920001 23
32.027 9.3640003 3.0090001 22
31.92 9.3509998 3.0190001 22
31.742001 9.3170004 3.0220001 21
31.620001 9.2989998 3.03 34
31.604 9.3109999 3.0469999 33
31.525999 9.3059998 3.0580001 37
31.445999 9.2989998 3.0699999 41
31.403999 9.3030005 3.085 42
31.360001 9.3050003 3.0999999 41
31.334 9.3129997 3.1159999 49
31.325001 9.3249998 3.1329999 50
31.341999 9.3450003 3.154 42
31.378 9.3690004 3.175 37
31.382999 9.3839998 3.194 31
31.398001 9.4020004 3.214 27
31.407 9.4169998 3.233 27
31.424 9.4350004 3.2520001 26
31.443001 9.4519997 3.273 22
31.448 9.4650002 3.2909999 17
31.440001 9.474 3.3069999 13
31.459999 9.4910002 3.326 8
31.474001 9.5059996 3.345 4
0 0 0 0
0 0 0 16
44.632 13.52 4.816 15
44.654999 13.539 4.8429999 15
44.602001 13.535 4.8610001 15
44.554001 13.531 4.8790002 13
0 0 0 0
0 0 0 0
0 0 0 9
42.356998 12.9 4.7249999 9
42.417 12.926 4.7529998 15
42.421001 12.934 4.7750001 17
42.456001 12.951 4.7989998 21
42.451 12.955 4.8210001 24
42.470001 12.966 4.8429999 29
42.490002 12.977 4.8649998 31
42.528 12.993 4.8899999 32
42.587002 13.015 4.9159999 32
42.648998 13.037 4.9429998 33
42.731998 13.065 4.973 32
42.785 13.083 4.9970002 33
42.808998 13.091 5.0209999 34
42.854 13.106 5.0440001 34
42.886002 13.116 5.0669999 34
42.938999 13.132 5.092 42
42.951 13.135 5.1110001 35
43.048 13.163 5.1409998 35
43.035999 13.157 5.158 40
43.082001 13.169 5.1799998 34
43.108002 13.173 5.2020001 35
43.153999 13.183 5.2249999 34
43.249001 13.208 5.2529998 33
43.366001 13.238 5.2839999 32
43.487 13.27 5.316 25
43.571999 13.289 5.3429999 25
43.685001 13.317 5.3730001 25
43.821999 13.351 5.4060001 25
44.014 13.402 5.4450002 26
44.227001 13.458 5.487 30
44.487 13.528 5.5349998 32
44.681 13.577 5.5749998 31
44.816002 13.607 5.6069999 27
44.905998 13.623 5.6339998 29
45.035 13.65 5.665 32
45.23 13.697 5.704 27
45.324001 13.712 5.7309999 27
45.549999 13.767 5.7740002 28
45.707001 13.8 5.8070002 28
45.898998 13.843 5.8439999 28
46.039001 13.87 5.875 30
46.171001 13.893 5.9060001 28
46.238998 13.895 5.9289999 28
46.292 13.894 5.947 28
46.356998 13.895 5.9679999 20
46.377998 13.883 5.9829998 13
46.366001 13.86 5.993 8
46.396 13.849 6.0079999 5
0 0 0 31
65.836998 19.593 8.5570002 27
65.861 19.568001 8.5769997 25
65.889999 19.546 8.5939999 23
65.948997 19.530001 8.6169996 23
65.960999 19.5 8.632 18
66.028 19.486 8.6540003 15
65.990997 19.438 8.6639996 12
65.992996 19.403999 8.6750002 12
66.128998 19.407 8.7060003 11
66.066002 19.35 8.7089996 8
65.802002 19.235001 8.6850004 8
65.891998 19.222 8.7080002 10
0 0 0 0
0 0 0 0
0 0 0 0
0 0 0 7
0 0 0 0
0 0 0 0
0 0 0 0
0 0 0 0
0 0 0 0
0 0 0 0
0 0 0 0
0 0 0 0
0 0 0 0
0 0 0 23
111.786 31.443001 14.961 28
111.813 31.362 14.972 26
111.778 31.264 14.971 34
111.865 31.197001 14.987 28
111.857 31.101999 14.99 28
111.886 31.018999 14.996 30
111.887 30.924 14.998 28
111.987 30.855 15.014 27
112.003 30.763 15.015 25
0 0 0 0
0 0 0 0
0 0 0 0
0 0 0 0
0 0 0 0
0 0 0 0
0 0 0 0
0 0 0 0
0 0 0 0
0 0 0 32
0 0 0 0
0 0 0 0
0 0 0 0
0 0 0 0
0 0 0 0
0 0 0 0
0 0 0 0
0 0 0 0
0 0 0 0
0 0 0 0
0 0 0 0
0 0 0 21
0 0 0 0
0 0 0 0
0 0 0 0
0 0 0 0
0 0 0 0
0 0 0 0
0 0 0 0
0 0 0 0
0 0 0 0
0 0 0 0
0 0 0 26
112.883 26.952 14.655 22
112.697 26.771 14.6 24
0 0 0 0
0 0 0 0
0 0 0 0
0 0 0 22
0 0 0 0
0 0 0 0
0 0 0 0
0 0 0 25
0 0 0 0
0 0 0 0
0 0 0 0
0 0 0 0
0 0 0 25
0 0 0 0
0 0 0 0
0 0 0 0
0 0 0 26
113.341 24.247999 14.002 23
0 0 0 0
0 0 0 0
0 0 0 0
0 0 0 0
0 0 0 32
113.477 23.327999 13.728 41
113.512 23.173 13.681 38
113.474 22.997999 13.624 41
113.54 22.847 13.579 49
113.58 22.688999 13.526 56
113.631 22.537001 13.475 55
113.589 22.361 13.414 46
113.632 22.202 13.361 49
113.65 22.038 13.305 50
116.113 22.343 13.533 32
116.267 22.202 13.489 43
116.246 22.024 13.424 41
116.315 21.861 13.368 51
116.321 21.683001 13.305 52
116.352 21.511999 13.243 59
116.384 21.34 13.177 66
116.412 21.167 13.112 69
116.52 21.007999 13.056 68
116.508 20.826 12.985 68
116.535 20.655001 12.917 70
116.568 20.479 12.85 77
116.658 20.313999 12.787 68
116.658 20.132 12.714 71
116.704 19.957001 12.644 75
116.714 19.775 12.57 83
116.758 19.601999 12.498 69
116.803 19.424999 12.426 75
116.869 19.25 12.354 76
116.901 19.069 12.278 77
116.976 18.895 12.206 86
116.981 18.709 12.125 77
117.027 18.532 12.047 82
117.103 18.356001 11.972 80
117.137 18.172001 11.891 62
117.184 17.99 11.81 59
117.243 17.813 11.73 45
117.223 17.618999 11.64 37
0 0 0 0
0 0 0 31
123.319 17.936001 11.964 35
123.337 17.736 11.87 30
0 0 0 0
0 0 0 31
0 0 0 58
70.835999 9.7220001 6.5910001 55
69.241997 9.3879995 6.3860002 46
67.821999 9.0830002 6.1989999 55
65.384003 8.6499996 5.9219999 14
64.274002 8.3940001 5.7670002 48
62.861 8.1070004 5.5869999 48
61.480999 7.8270001 5.4109998 55
60.173 7.559 5.244 58
58.960999 7.3099999 5.0869999 49
57.387001 7.0190001 4.9000001 36
57.021999 6.881 4.8200002 48
56.002998 6.664 4.6830001 55
54.659 6.4120002 4.5209999 55
53.327999 6.1680002 4.3629999 46
52.428001 5.9749999 4.2410002 44
51.950001 5.8330002 4.1529999 57
50.668999 5.6040001 4.0029998 61
49.414001 5.381 3.8559999 49
49.154999 5.2690001 3.789 51
48.021999 5.0669999 3.655 57
46.848999 4.8629999 3.52 44
46.261002 4.7249999 3.431 20
44.999001 4.52 3.293 24
0 0 0 5
40.981998 3.977 2.9170001 20
40.362 3.848 2.832 16
39.831001 3.7309999 2.7550001 58
39.202 3.6059999 2.671 55
38.502998 3.4760001 2.5829999 102
38.451 3.4059999 2.54 15
37.234001 3.2349999 2.4200001 23
36.932999 3.1470001 2.362 28
36.455002 3.0439999 2.2920001 10
36.042999 2.948 2.2279999 6
35.57 2.849 2.1600001 6
35.372002 2.773 2.109 8
35.52 2.7249999 2.0799999 8
36.027 2.701 2.069 9
0 0 0 5
33.036999 2.3659999 1.824 10
33.042999 2.3110001 1.7869999 7
33.056999 2.256 1.751 4
33.056 2.1989999 1.7130001 2
0 0 0 11
36.264999 2.2909999 1.796 16
36.550999 2.247 1.768 27
34.931999 2.0880001 1.648 7
34.508999 2.0039999 1.5880001 8
34.123001 1.924 1.53 7
33.737999 1.845 1.472 7
33.332001 1.767 1.414 7
33 1.694 1.3609999 48
32.978001 1.636 1.319 103
32.973 1.582 1.279 98
32.993 1.527 1.24 102
32.994999 1.472 1.199 102
33.001999 1.416 1.1569999 107
33.025002 1.362 1.117 79
33.033001 1.307 1.076 70
0 0 0 1
0 0 0 0
0 0 0 0
0 0 0 1
0 0 0 0
0 0 0 0
0 0 0 0
0 0 0 0
0 0 0 0
0 0 0 0
0 0 0 0
0 0 0 0
0 0 0 0
0 0 0 0
0 0 0 1
17.979 0.237 0.20900001 1
17.82 0.206 0.182 1
17.735001 0.176 0.15700001 1
17.450001 0.145 0.131 1
17.337 0.116 0.106 1
0 0 0 0
0 0 0 0
0 0 0 0
0 0 0 1
16.844999 -0.021 -0.014 2
16.816 -0.046999998 -0.037 10
16.809 -0.074000001 -0.061000001 17
16.834 -0.1 -0.085000001 10
16.921 -0.12800001 -0.11 4
16.919001 -0.154 -0.134 5
16.924 -0.18099999 -0.15800001 7
16.905001 -0.207 -0.182 5
16.856001 -0.23199999 -0.206 7
16.875999 -0.259 -0.23100001 7
16.841999 -0.285 -0.255 7
16.811001 -0.31 -0.28 10
16.747999 -0.33500001 -0.303 147
16.771999 -0.361 -0.32800001 155
16.818001 -0.38800001 -0.354 170
16.796 -0.41299999 -0.37900001 184
16.757999 -0.43799999 -0.403 184
16.771 -0.463 -0.428 184
16.773001 -0.48899999 -0.454 184
16.823999 -0.51599997 -0.48100001 184
16.799999 -0.54000002 -0.505 159
16.855 -0.56800002 -0.53299999 5
16.902 -0.59500003 -0.56 2
16.9 -0.62 -0.58600003 2
16.933001 -0.64600003 -0.61299998 3
16.926001 -0.671 -0.639 2
16.973 -0.69800001 -0.66600001 2
17.091999 -0.72799999 -0.69800001 2
17.191 -0.75700003 -0.72899997 3
17.372 -0.79000002 -0.76300001 3
17.434999 -0.81800002 -0.79299998 6
17.492001 -0.84600002 -0.82300001 5
17.537001 -0.87400001 -0.852 4
17.549 -0.89899999 -0.88 4
17.566 -0.92500001 -0.90899998 4
17.608999 -0.95300001 -0.93900001 3
17.653 -0.98000002 -0.96799999 4
17.671 -1.005 -0.99699998 4
0 0 0 2
0 0 0 2
15.502 -0.94700003 -0.949 2
14.871 -0.92900002 -0.93400002 3
14.339 -0.91500002 -0.92299998 3
13.711 -0.89399999 -0.90399998 3
13.164 -0.87599999 -0.889 3
12.599 -0.85600001 -0.87099999 3
12.123 -0.83999997 -0.85799998 2
11.789 -0.83200002 -0.85299999 3
11.357 -0.81699997 -0.83899999 3
10.968 -0.80400002 -0.829 3
10.604 -0.79100001 -0.81800002 5
10.337 -0.78399998 -0.81400001 6
10.045 -0.77499998 -0.80699998 7
9.8120003 -0.76999998 -0.80500001 8
9.5410004 -0.76099998 -0.79799998 7
9.2270002 -0.74800003 -0.78600001 5
8.9510002 -0.73699999 -0.778 5
8.7159996 -0.72899997 -0.77100003 5
8.4980001 -0.72100002 -0.76599997 6
8.2740002 -0.713 -0.759 5
8.0190001 -0.70099998 -0.74900001 4
7.8039999 -0.69199997 -0.741 4
7.6220002 -0.685 -0.736 4
7.4689999 -0.68000001 -0.73400003 4
7.283 -0.67199999 -0.727 4
7.1420002 -0.66799998 -0.72500002 4
6.98 -0.66100001 -0.72000003 3
6.8150001 -0.65399998 -0.71399999 4
6.6700001 -0.648 -0.70999998 4
6.5310001 -0.64200002 -0.70499998 3
6.3969998 -0.63599998 -0.70099998 3
6.263 -0.63 -0.69700003 3
6.1290002 -0.62400001 -0.69199997 3
6.0120001 -0.61900002 -0.68800002 3
5.8720002 -0.611 -0.68199998 3
5.7709999 -0.60699999 -0.68000001 3
5.6669998 -0.60299999 -0.67699999 3
5.5479999 -0.59600002 -0.67199999 3
5.4429998 -0.59100002 -0.66799998 4
5.3280001 -0.58499998 -0.662 3
5.243 -0.58099997 -0.66000003 4
5.1430001 -0.57599998 -0.65600002 3
5.0679998 -0.57300001 -0.65499997 3
4.994 -0.56999999 -0.653 3
4.8909998 -0.56300002 -0.648 3
4.8130002 -0.55900002 -0.64499998 3
4.7290001 -0.55400002 -0.64200002 4
4.6659999 -0.55199999 -0.64099997 3
4.599 -0.54900002 -0.639 2
4.533 -0.54500002 -0.63700002 4
4.4770002 -0.54299998 -0.63599998 2
4.4060001 -0.53899997 -0.63300002 2
4.3600001 -0.53799999 -0.634 4
4.2709999 -0.53100002 -0.62800002 2
4.2329998 -0.53100002 -0.62900001 2
4.1500001 -0.52399999 -0.62300003 2
4.1399999 -0.52700001 -0.62900001 2
4.0549998 -0.51999998 -0.62199998 2
4.0009999 -0.51700002 -0.62 2
3.9349999 -0.51200002 -0.616 2
4.0019999 -0.52499998 -0.63300002 3
3.973 -0.52499998 -0.63499999 3
3.8740001 -0.51499999 -0.62599999 2
3.7550001 -0.50300002 -0.61199999 2
3.7539999 -0.50599998 -0.61799997 3
3.694 -0.50099999 -0.61400002 3
3.6500001 -0.49900001 -0.61299998 2
3.6140001 -0.49700001 -0.61199999 2
3.536 -0.48899999 -0.60500002 1
3.526 -0.491 -0.60799998 2
3.4349999 -0.48100001 -0.59799999 1
3.415 -0.48100001 -0.60000002 1
3.454 -0.49000001 -0.61199999 2
3.3640001 -0.47999999 -0.60100001 1
3.369 -0.48300001 -0.60799998 1
3.3180001 -0.479 -0.60299999 1
3.2679999 -0.47400001 -0.59899998 1
3.21 -0.46799999 -0.59399998 1
3.247 -0.47600001 -0.60600001 1
3.277 -0.48300001 -0.616 1
3.2030001 -0.47499999 -0.60699999 1
3.174 -0.47299999 -0.60600001 1
3.1340001 -0.46900001 -0.60399997 2
3.1470001 -0.47400001 -0.611 2
3.0469999 -0.461 -0.59600002 2
3.131 -0.47600001 -0.61699998 2
2.96 -0.45199999 -0.588 1
2.9719999 -0.456 -0.59500003 1
2.9159999 -0.449 -0.588 1
2.878 -0.44600001 -0.58499998 1
2.8889999 -0.449 -0.59100002 1
2.823 -0.44100001 -0.58200002 1
2.773 -0.435 -0.57599998 1
2.7869999 -0.43900001 -0.583 1
2.809 -0.44400001 -0.59100002 1
2.737 -0.435 -0.57999998 1
2.7149999 -0.433 -0.579 1
2.757 -0.44100001 -0.59299999 1
2.7479999 -0.442 -0.59500003 1
2.661 -0.42899999 -0.57999998 1
2.6359999 -0.42699999 -0.57800001 1
2.7279999 -0.44299999 -0.602 1
2.5799999 -0.421 -0.57300001 1
2.5810001 -0.42300001 -0.57700002 1
2.52 -0.414 -0.56699997 1
2.5380001 -0.41800001 -0.574 1
2.5380001 -0.41999999 -0.57800001 1
2.49 -0.41299999 -0.56999999 1
2.4960001 -0.41600001 -0.57499999 1
2.4200001 -0.40400001 -0.56099999 1
2.441 -0.40900001 -0.56900001 1
2.3989999 -0.403 -0.56300002 1
2.4000001 -0.405 -0.56599998 1
2.4419999 -0.41299999 -0.579 1
2.4979999 -0.42300001 -0.59600002 1
2.4100001 -0.41 -0.57800001 1
2.3770001 -0.405 -0.57300001 1
2.3759999 -0.40599999 -0.57599998 1
2.3050001 -0.39500001 -0.56199998 1
2.382 -0.40900001 -0.58399999 1
2.3610001 -0.40700001 -0.58200002 1
2.3829999 -0.412 -0.58999997 1
2.24 -0.38800001 -0.55800003 1
2.224 -0.38600001 -0.55599999 1
2.211 -0.38499999 -0.55599999 1
2.194 -0.38299999 -0.55400002 1
2.1830001 -0.38100001 -0.55400002 1
2.1760001 -0.38100001 -0.55500001 1
2.164 -0.38 -0.55500001 1
2.155 -0.37900001 -0.55500001 1
2.1400001 -0.377 -0.55400002 1
2.1329999 -0.37599999 -0.55400002 1
2.125 -0.37599999 -0.55500001 1
2.115 -0.375 -0.55500001 1
2.096 -0.37200001 -0.55199999 1
2.0910001 -0.37200001 -0.55299997 1
2.0829999 -0.37099999 -0.55400002 1
2.0710001 -0.36899999 -0.55299997 1
2.0610001 -0.368 -0.55299997 1
2.053 -0.36700001 -0.55299997 1
2.036 -0.36500001 -0.55000001 1
2.0309999 -0.36399999 -0.551 1
2.0150001 -0.36199999 -0.54900002 1
2.006 -0.361 -0.54900002 1
1.993 -0.359 -0.54699999 1
1.985 -0.35800001 -0.54699999 1
1.98 -0.35800001 -0.54799998 1
1.97 -0.35600001 -0.54699999 1
1.9680001 -0.35600001 -0.54900002 1
1.9579999 -0.35499999 -0.54799998 1
1.941 -0.352 -0.54500002 1
1.936 -0.352 -0.546 1
1.924 -0.34999999 -0.54400003 1
1.92 -0.34900001 -0.54500002 1
1.911 -0.34799999 -0.54400003 1
1.908 -0.34799999 -0.54500002 1
1.902 -0.347 -0.54500002 1
1.895 -0.34599999 -0.54500002 1
1.888 -0.345 -0.54500002 1
1.881 -0.34400001 -0.54400003 1
1.876 -0.34299999 -0.54500002 1
1.8609999 -0.34 -0.542 1
1.855 -0.33899999 -0.542 1
1.854 -0.33899999 -0.54299998 1
1.852 -0.33899999 -0.54400003 1
1.847 -0.338 -0.54400003 1
1.837 -0.33700001 -0.54299998 1
1.832 -0.336 -0.54299998 1
1.83 -0.33500001 -0.54400003 1
1.821 -0.33399999 -0.54299998 1
1.808 -0.331 -0.54000002 1
1.8 -0.33000001 -0.53899997 1
1.7970001 -0.329 -0.54000002 1
1.795 -0.329 -0.54000002 1
1.788 -0.32800001 -0.54000002 1
1.7819999 -0.32699999 -0.53899997 1
1.783 -0.32699999 -0.54100001 1
1.773 -0.32499999 -0.53899997 1
1.773 -0.32499999 -0.54000002 1
1.768 -0.324 -0.54000002 1
1.763 -0.32300001 -0.53899997 1
1.755 -0.32100001 -0.53799999 1
1.751 -0.31999999 -0.53799999 1
1.755 -0.32100001 -0.54000002 1
1.7460001 -0.31900001 -0.53899997 1
1.74 -0.31799999 -0.53799999 1
1.738 -0.317 -0.53899997 1
1.7359999 -0.317 -0.53899997 1
1.727 -0.315 -0.537 1
1.732 -0.315 -0.54000002 1
1.723 -0.31299999 -0.53799999 1
1.722 -0.31299999 -0.53799999 1
1.714 -0.31099999 -0.537 1
1.7130001 -0.31099999 -0.537 1
1.7130001 -0.31099999 -0.53799999 1
1.7130001 -0.31 -0.53899997 1
1.7079999 -0.30899999 -0.53799999 1
1.705 -0.308 -0.53799999 1
1.704 -0.308 -0.53799999 1
1.704 -0.30700001 -0.53899997 1
1.697 -0.30599999 -0.53799999 1
1.692 -0.30399999 -0.537 1
1.692 -0.30399999 -0.53799999 1
1.693 -0.30399999 -0.53799999 1
1.691 -0.303 -0.53899997 1
1.6799999 -0.30000001 -0.53500003 1
1.67 -0.29800001 -0.53299999 1
1.6720001 -0.29800001 -0.53399998 1
1.671 -0.29699999 -0.53399998 1
1.671 -0.29699999 -0.53500003 1
1.665 -0.296 -0.53399998 1
1.664 -0.29499999 -0.53399998 1
1.664 -0.294 -0.53399998 1
1.664 -0.294 -0.53500003 1
1.66 -0.29300001 -0.53399998 1
1.658 -0.292 -0.53299999 1
1.6619999 -0.292 -0.53500003 1
1.659 -0.29100001 -0.53399998 1
1.6569999 -0.28999999 -0.53399998 1
1.659 -0.28999999 -0.53500003 1
1.6569999 -0.289 -0.53500003 1
1.654 -0.287 -0.53399998 1
1.654 -0.287 -0.53399998 1
1.654 -0.28600001 -0.53399998 1
1.65 -0.285 -0.53299999 1
1.654 -0.285 -0.53500003 1
1.6569999 -0.285 -0.53600001 1
1.654 -0.28400001 -0.53500003 1
1.65 -0.28200001 -0.53399998 1
1.652 -0.28200001 -0.53500003 1
1.651 -0.28099999 -0.53399998 1
1.652 -0.28 -0.53399998 1
1.654 -0.28 -0.53500003 1
1.652 -0.27900001 -0.53399998 1
1.65 -0.278 -0.53399998 1
1.655 -0.278 -0.53500003 1
1.655 -0.27700001 -0.53500003 1
1.6569999 -0.27700001 -0.53600001 1
1.658 -0.27599999 -0.53600001 1
1.655 -0.27500001 -0.53500003 1
1.652 -0.273 -0.53399998 1
1.656 -0.273 -0.53500003 1
1.655 -0.27200001 -0.53399998 1
1.659 -0.27200001 -0.53500003 1
1.656 -0.271 -0.53399998 1
1.663 -0.271 -0.53600001 1
1.661 -0.27000001 -0.53500003 1
1.665 -0.26899999 -0.53600001 1
1.656 -0.26699999 -0.53299999 1
1.673 -0.26899999 -0.53799999 1
1.681 -0.26899999 -0.54000002 1
1.676 -0.26800001 -0.53799999 1
1.665 -0.26499999 -0.53399998 1
1.677 -0.266 -0.53799999 1
1.6670001 -0.26300001 -0.53399998 1
1.668 -0.26300001 -0.53399998 1
1.671 -0.26199999 -0.53399998 1
1.682 -0.26300001 -0.537 1
1.6720001 -0.25999999 -0.53299999 1
1.675 -0.25999999 -0.53399998 1
1.688 -0.26100001 -0.537 1
1.693 -0.25999999 -0.53799999 1
1.697 -0.25999999 -0.53899997 1
1.702 -0.25999999 -0.53899997 1
1.702 -0.259 -0.53799999 1
1.705 -0.25799999 -0.53899997 1
1.707 -0.257 -0.53899997 1
1.7079999 -0.25600001 -0.53799999 1
1.709 -0.255 -0.53799999 1
1.7180001 -0.255 -0.54000002 1
1.719 -0.25400001 -0.53899997 1
1.723 -0.25400001 -0.54000002 1
1.722 -0.25299999 -0.53799999 1
1.729 -0.252 -0.53899997 1
1.7309999 -0.252 -0.53899997 1
1.739 -0.252 -0.54100001 1
1.735 -0.25 -0.53799999 1
1.745 -0.25 -0.54000002 1
1.749 -0.249 -0.54100001 1
1.7460001 -0.248 -0.53899997 1
1.753 -0.248 -0.53899997 1
1.757 -0.24699999 -0.54000002 1
1.755 -0.245 -0.53799999 1
1.762 -0.245 -0.53899997 1
1.775 -0.24600001 -0.542 1
1.774 -0.244 -0.54000002 1
1.7819999 -0.244 -0.54100001 1
1.786 -0.243 -0.54100001 1
1.79 -0.242 -0.54100001 1
1.794 -0.242 -0.54100001 1
1.804 -0.242 -0.54299998 1
1.806 -0.241 -0.542 1
1.806 -0.23899999 -0.54000002 1
1.811 -0.23899999 -0.54000002 1
1.813 -0.23800001 -0.53899997 1
1.831 -0.23899999 -0.54299998 1
1.8380001 -0.23800001 -0.54400003 1
1.84 -0.237 -0.54299998 1
1.849 -0.237 -0.54400003 1
1.8559999 -0.236 -0.54400003 1
1.855 -0.235 -0.54299998 1
1.865 -0.234 -0.54400003 1
1.873 -0.234 -0.54400003 1
1.8839999 -0.234 -0.546 1
1.886 -0.233 -0.54400003 1
1.89 -0.23199999 -0.54400003 1
1.893 -0.23100001 -0.54299998 1
1.901 -0.23 -0.54299998 1
1.918 -0.23100001 -0.546 1
1.927 -0.23 -0.54699999 1
1.931 -0.229 -0.546 1
1.939 -0.228 -0.546 1
1.9529999 -0.229 -0.54799998 1
1.957 -0.228 -0.54799998 1
1.961 -0.226 -0.546 1
1.972 -0.226 -0.54699999 1
1.989 -0.226 -0.55000001 1
1.997 -0.226 -0.55000001 1
2.006 -0.22499999 -0.55000001 1
2.0120001 -0.22400001 -0.55000001 1
2.0139999 -0.223 -0.54799998 1
2.0280001 -0.223 -0.54900002 1
2.033 -0.221 -0.54799998 1
2.0469999 -0.221 -0.55000001 1
2.0599999 -0.221 -0.551 1
2.069 -0.22 -0.551 1
2.0769999 -0.219 -0.551 1
2.0899999 -0.219 -0.551 1
2.1040001 -0.219 -0.55199999 1
2.1199999 -0.219 -0.55400002 1
2.1389999 -0.219 -0.55599999 1
2.142 -0.21699999 -0.55400002 1
2.1600001 -0.21699999 -0.55599999 1
2.1689999 -0.21699999 -0.55599999 1
2.1760001 -0.21600001 -0.55500001 1
2.1930001 -0.215 -0.55599999 1
2.2090001 -0.215 -0.55699998 1
2.2130001 -0.214 -0.55599999 1
2.2349999 -0.214 -0.55800003 1
2.243 -0.213 -0.55699998 1
2.257 -0.212 -0.55800003 1
2.2780001 -0.212 -0.56 1
2.2980001 -0.212 -0.56099999 1
2.3069999 -0.211 -0.56 1
2.401 -0.21799999 -0.57999998 1
2.3510001 -0.211 -0.565 1
0 0 0 1
2.3929999 -0.211 -0.56800002 1
2.5320001 -0.221 -0.597 1
2.494 -0.21600001 -0.58499998 1
2.4289999 -0.208 -0.56599998 1
2.4419999 -0.207 -0.565 1
2.517 -0.212 -0.579 1
2.517 -0.20999999 -0.57499999 1
2.549 -0.20999999 -0.579 1
2.507 -0.205 -0.565 1
2.6010001 -0.20999999 -0.583 1
2.595 -0.208 -0.57700002 1
2.6070001 -0.207 -0.57599998 1
2.638 -0.207 -0.579 1
2.6240001 -0.204 -0.57200003 1
2.6570001 -0.204 -0.57499999 1
2.747 -0.20900001 -0.58999997 1
2.6989999 -0.20299999 -0.57499999 1
2.756 -0.205 -0.583 1
2.734 -0.20100001 -0.574 1
2.8180001 -0.205 -0.58700001 1
2.8150001 -0.20200001 -0.58200002 1
2.8410001 -0.20200001 -0.583 1
2.878 -0.20200001 -0.58600003 1
2.9349999 -0.204 -0.59299999 1
2.984 -0.205 -0.59799999 1
3.0799999 -0.20900001 -0.61199999 2
3.092 -0.208 -0.60900003 2
