# .PCD v0.7 - Point Cloud Data file format
VERSION 0.7
FIELDS x y z intensity
SIZE 4 4 4 4
TYPE F F F F
COUNT 1 1 1 1
WIDTH 1718
HEIGHT 1
VIEWPOINT 0 0 0 1 0 0 0
POINTS 1718
DATA ascii
0 0 0 0
0 0 0 0
0 0 0 0
0 0 0 26
115.302 28.43 20.115 28
115.346 28.490999 20.215 27
115.301 28.528999 20.299 27
115.401 28.601 20.408001 32
115.203 28.599001 20.459999 33
115.244 28.655001 20.554001 38
115.191 28.684999 20.632999 39
115.14 28.715 20.712 43
115.119 28.75 20.796 53
115.026 28.766001 20.865 49
115.04 28.808001 20.952999 53
115.044 28.846001 21.039 63
114.972 28.864 21.106001 65
115.016 28.909 21.197001 58
115.006 28.940001 21.278 70
115.018 28.974001 21.361 55
114.969 28.99 21.431999 68
114.954 29.014999 21.509001 64
114.975 29.048 21.591999 68
114.943 29.066999 21.66 69
114.952 29.094 21.739 70
114.963 29.120001 21.818001 69
114.936 29.135 21.888 67
114.929 29.153999 21.961 62
114.935 29.174999 22.035999 78
114.9 29.184 22.101 70
114.935 29.209 22.18 76
114.916 29.221001 22.243999 83
114.92 29.236 22.315001 79
114.903 29.245001 22.379999 86
114.863 29.245001 22.441 79
114.887 29.261999 22.511999 78
114.863 29.264 22.573999 77
114.857 29.271 22.635 84
114.882 29.284 22.704 72
114.891 29.290001 22.768999 76
114.886 29.294001 22.827999 79
114.885 29.296 22.889 79
114.878 29.295 22.948 79
114.871 29.292 23.006001 75
114.873 29.292 23.062 83
114.883 29.289 23.125 69
114.885 29.285 23.181 66
114.886 29.278999 23.237 52
114.864 29.266001 23.287001 48
114.841 29.253 23.333 47
114.904 29.259001 23.399 33
114.871 29.24 23.444 32
114.823 29.215 23.485001 30
0 0 0 0
0 0 0 0
0 0 0 0
0 0 0 54
153.505 38.950001 31.709999 55
153.552 38.933998 31.778999 66
153.638 38.926998 31.855 68
153.539 38.874001 31.888 70
153.576 38.851002 31.951 64
153.664 38.839001 32.022999 82
153.62199 38.792 32.066002 83
153.576 38.745998 32.104 80
153.592 38.708 32.160999 81
153.601 38.672001 32.207001 85
153.54601 38.615002 32.242001 82
153.68401 38.605 32.317001 58
153.619 38.546001 32.344002 58
153.62399 38.499001 32.387001 58
153.658 38.458 32.435001 53
153.58099 38.384998 32.462002 45
153.565 38.331001 32.493 46
0 0 0 0
0 0 0 40
151.412 37.626999 32.140999 41
151.41701 37.569 32.174 46
151.28101 37.474998 32.174999 47
151.42101 37.446999 32.233002 47
151.265 37.345001 32.228001 43
151.401 37.317001 32.278999 44
151.366 37.241001 32.296001 50
151.339 37.166 32.313 53
151.408 37.112999 32.348999 49
0 0 0 0
0 0 0 0
0 0 0 0
0 0 0 0
0 0 0 0
0 0 0 0
0 0 0 0
0 0 0 0
0 0 0 0
0 0 0 0
0 0 0 44
151.62 36.206001 32.532001 41
151.57401 36.105 32.523998 40
0 0 0 0
0 0 0 0
0 0 0 0
0 0 0 0
0 0 0 0
0 0 0 0
0 0 0 0
0 0 0 0
0 0 0 0
0 0 0 39
0 0 0 0
0 0 0 0
0 0 0 0
0 0 0 0
0 0 0 0
0 0 0 0
0 0 0 0
0 0 0 0
0 0 0 0
0 0 0 0
0 0 0 0
0 0 0 0
0 0 0 0
0 0 0 0
0 0 0 10
48.779999 10.704 10.308 44
48.779999 10.662 10.295 57
48.804001 10.625 10.287 53
48.821999 10.588 10.277 45
48.813 10.544 10.261 36
48.68 10.472 10.218 13
48.122002 10.309 10.086 22
48.091 10.26 10.063 42
47.862 10.168 10 39
47.176998 9.9790001 9.842 36
47.182999 9.9379997 9.8260002 36
46.875999 9.8290005 9.7449999 29
45.882999 9.5780001 9.5209999 32
45.873001 9.5319996 9.5019999 37
45.673 9.4469995 9.441 34
44.613998 9.1850004 9.2049999 34
44.59 9.1359997 9.1820002 34
44.537998 9.0830002 9.1520004 44
43.355999 8.7989998 8.8900003 42
43.301998 8.7460003 8.8599997 32
43.323002 8.7069998 8.8439999 35
42.507999 8.5010004 8.658 26
42.007999 8.3579998 8.5360003 31
42 8.3129997 8.5139999 38
41.757 8.2229996 8.4440002 31
40.707001 7.974 8.2110004 39
40.699001 7.9299998 8.1890001 39
40.703999 7.888 8.1680002 41
40.044998 7.7179999 8.0139999 21
39.393002 7.5510001 7.862 39
39.412998 7.5120001 7.8449998 41
39.407001 7.4689999 7.8210001 39
38.301998 7.2179999 7.5780001 32
38.112999 7.1399999 7.5190001 40
38.127998 7.1009998 7.5 40
38.106998 7.0549998 7.4710002 34
36.875999 6.7880001 7.2069998 30
36.780998 6.7290001 7.165 37
36.799 6.691 7.145 37
36.810001 6.6500001 7.1240001 38
35.636002 6.3979998 6.8730001 26
35.516998 6.336 6.8270001 42
35.530998 6.2969999 6.8049998 44
35.535 6.257 6.7810001 44
34.719002 6.073 6.6009998 26
34.205002 5.9429998 6.4790001 42
34.227001 5.9070001 6.4590001 37
34.222 5.8670001 6.4330001 42
33.731998 5.743 6.316 14
32.854 5.5549998 6.1269999 10
32.487 5.4549999 6.0339999 17
32.457001 5.4109998 6.0029998 45
32.474998 5.375 5.9809999 53
32.487 5.3390002 5.9580002 55
32.485001 5.2989998 5.9310002 55
32.512001 5.2639999 5.9109998 47
32.525002 5.2270002 5.8870001 53
32.540001 5.1900001 5.8629999 53
32.532001 5.1490002 5.8340001 55
32.560001 5.1129999 5.8109999 55
32.560001 5.0739999 5.783 55
32.577 5.0359998 5.7579999 53
32.59 4.9970002 5.7319999 53
32.602001 4.9580002 5.704 54
32.608002 4.9190001 5.677 55
32.629002 4.881 5.6500001 60
32.645 4.842 5.6230001 50
32.647999 4.8010001 5.5939999 56
32.668999 4.763 5.5669999 56
32.681999 4.723 5.5370002 56
32.693001 4.684 5.5079999 47
32.691002 4.6420002 5.4759998 53
32.706001 4.6020002 5.448 52
32.728001 4.5630002 5.4190001 52
32.738998 4.5219998 5.388 51
32.749001 4.4809999 5.3559999 50
32.783001 4.4429998 5.329 44
32.811001 4.4050002 5.3000002 8
32.960999 4.382 5.29 3
33.075001 4.355 5.2740002 2
33.084 4.3130002 5.2410002 2
0 0 0 0
0 0 0 0
0 0 0 0
0 0 0 0
0 0 0 0
0 0 0 0
0 0 0 2
0 0 0 0
0 0 0 0
0 0 0 2
0 0 0 0
0 0 0 0
0 0 0 2
37.542 4.2010002 5.3590002 2
0 0 0 0
0 0 0 2
0 0 0 14
25.242001 2.6889999 3.4809999 23
25.188 2.6500001 3.4430001 31
25.132999 2.6099999 3.404 34
25.107 2.575 3.3699999 38
25.082001 2.539 3.335 40
25.059999 2.5020001 3.3 46
25.049 2.467 3.267 48
24.999001 2.4289999 3.2279999 52
25.007 2.3959999 3.197 52
24.995001 2.362 3.164 56
24.993999 2.329 3.131 59
24.993 2.2950001 3.098 63
24.997999 2.2620001 3.066 47
25.002001 2.2290001 3.033 47
24.993 2.194 2.9990001 58
25.016001 2.1630001 2.9679999 44
25.007 2.1289999 2.9330001 51
25.042 2.099 2.9030001 45
25.076 2.069 2.8740001 36
25.087999 2.0350001 2.8399999 36
25.115 2.0039999 2.8080001 40
25.139 1.973 2.777 38
25.181 1.943 2.7460001 33
25.219 1.9119999 2.7149999 29
25.281 1.883 2.6860001 23
25.372999 1.8559999 2.6589999 17
25.462999 1.83 2.6329999 1
0 0 0 35
33.459 2.3150001 3.3629999 48
33.464001 2.2709999 3.3139999 50
33.466 2.227 3.266 51
33.462002 2.1830001 3.217 51
33.457001 2.1389999 3.1670001 52
33.470001 2.095 3.118 54
33.474998 2.052 3.069 53
33.495998 2.01 3.0220001 49
33.514 1.967 2.973 53
33.523998 1.924 2.9230001 53
33.549999 1.881 2.8740001 53
33.540001 1.8380001 2.823 56
33.554001 1.795 2.7720001 56
33.585999 1.752 2.7219999 48
33.591 1.709 2.671 56
33.604 1.665 2.618 54
33.623001 1.623 2.5680001 56
33.633999 1.58 2.5150001 54
33.660999 1.538 2.464 43
33.691002 1.4960001 2.414 32
33.757999 1.456 2.365 17
33.726002 1.4119999 2.309 16
33.693001 1.367 2.253 53
33.701 1.325 2.1989999 58
33.709999 1.2819999 2.145 61
33.717999 1.24 2.0899999 85
33.721001 1.197 2.0339999 80
33.717999 1.154 1.979 118
33.738998 1.113 1.926 117
33.761002 1.071 1.8710001 87
33.780998 1.03 1.816 89
33.780998 0.98799998 1.76 125
33.796001 0.94599998 1.704 96
33.821999 0.90499997 1.649 89
33.820999 0.86299998 1.592 88
33.811001 0.82099998 1.534 122
33.848 0.78100002 1.479 92
33.845001 0.73799998 1.42 131
0 0 0 7
17.535 0.34 0.676 16
17.462 0.317 0.64300001 21
17.424 0.296 0.61199999 21
17.388 0.27399999 0.57999998 22
17.358 0.252 0.54799998 24
17.334999 0.23100001 0.51700002 35
17.309999 0.211 0.48699999 36
17.304001 0.191 0.45699999 39
17.280001 0.17 0.426 42
17.263 0.149 0.39500001 43
17.271999 0.12899999 0.36500001 28
17.247 0.109 0.33399999 48
17.226 0.089000002 0.30199999 46
17.209999 0.068999998 0.271 46
17.207001 0.050000001 0.242 57
17.209 0.029999999 0.211 58
17.188999 0.0099999998 0.18000001 58
17.193001 -0.0080000004 0.149 67
17.187 -0.028000001 0.118 67
17.181 -0.046999998 0.086999997 67
17.184 -0.066 0.055 67
17.174 -0.085000001 0.024 67
17.181999 -0.104 -0.0060000001 41
0 0 0 0
0 0 0 55
15.561 -0.145 -0.090999998 4
15.577 -0.162 -0.119 30
15.564 -0.17900001 -0.148 26
15.554 -0.19599999 -0.176 6
15.469 -0.211 -0.204 4
15.554 -0.229 -0.234 10
15.381 -0.242 -0.25999999 4
15.563 -0.26199999 -0.292 16
15.625 -0.27900001 -0.32300001 4
15.281 -0.289 -0.34400001 10
15.238 -0.30399999 -0.37200001 9
15.183 -0.31799999 -0.398 11
15.13 -0.33199999 -0.42500001 9
15.078 -0.347 -0.45199999 14
15.054 -0.361 -0.479 10
14.991 -0.37400001 -0.505 12
14.975 -0.389 -0.53299999 10
14.9 -0.40099999 -0.55800003 11
14.877 -0.41499999 -0.58499998 11
14.808 -0.428 -0.61000001 13
14.77 -0.44100001 -0.63700002 29
14.784 -0.456 -0.66500002 24
14.79 -0.47 -0.69400001 44
14.786 -0.484 -0.722 35
14.797 -0.498 -0.75 38
14.795 -0.51200002 -0.778 41
14.795 -0.52499998 -0.80599999 48
14.819 -0.54000002 -0.83600003 31
14.791 -0.55199999 -0.86199999 42
14.761 -0.565 -0.889 31
14.44 -0.56599998 -0.89700001 9
0 0 0 3
0 0 0 3
12.071 -0.505 -0.81900001 2
11.632 -0.49700001 -0.81199998 2
11.176 -0.48699999 -0.801 3
10.715 -0.47600001 -0.78899997 2
10.31 -0.46700001 -0.778 4
9.9519997 -0.45899999 -0.77100003 3
9.5889997 -0.44999999 -0.76099998 4
9.2580004 -0.442 -0.75199997 5
9.0010004 -0.43700001 -0.74800003 4
8.7069998 -0.43000001 -0.741 4
8.4110003 -0.42199999 -0.73100001 3
8.1000004 -0.41299999 -0.72000003 6
7.8239999 -0.405 -0.71100003 14
7.6589999 -0.403 -0.70999998 13
7.5310001 -0.40200001 -0.713 13
7.3569999 -0.398 -0.70999998 7
7.0970001 -0.38999999 -0.699 3
6.888 -0.38299999 -0.69199997 3
6.7150002 -0.37900001 -0.68699998 3
6.5619998 -0.375 -0.68400002 4
6.4060001 -0.37099999 -0.68000001 4
6.2399998 -0.366 -0.67400002 4
6.0830002 -0.361 -0.66900003 3
5.9349999 -0.35600001 -0.66399997 3
5.8060002 -0.35299999 -0.66100001 3
5.6760001 -0.34900001 -0.65700001 3
5.5419998 -0.345 -0.65200001 3
5.4330001 -0.34200001 -0.64899999 3
5.3210001 -0.338 -0.64600003 3
5.217 -0.33500001 -0.64300001 3
5.086 -0.33000001 -0.63700002 5
5.0029998 -0.32800001 -0.63599998 3
4.8930001 -0.324 -0.63099998 3
4.7989998 -0.32100001 -0.62800002 3
4.7199998 -0.31900001 -0.62699997 3
4.631 -0.315 -0.62400001 2
4.5500002 -0.31299999 -0.62199998 2
4.48 -0.31099999 -0.62099999 2
4.4089999 -0.30899999 -0.61900002 2
4.3150001 -0.30500001 -0.61400002 2
4.2880001 -0.30500001 -0.61799997 4
4.1849999 -0.30000001 -0.611 2
4.1129999 -0.29699999 -0.60900003 2
4.0630002 -0.296 -0.60900003 2
4.0149999 -0.29499999 -0.60900003 2
4.0029998 -0.296 -0.61500001 2
3.9030001 -0.29100001 -0.60699999 2
3.869 -0.29100001 -0.60900003 2
3.7839999 -0.28600001 -0.602 3
3.71 -0.28299999 -0.597 2
3.767 -0.289 -0.61400002 3
3.5929999 -0.278 -0.59200001 2
3.5810001 -0.278 -0.597 2
3.494 -0.273 -0.58899999 1
3.4749999 -0.27399999 -0.59200001 2
3.3840001 -0.26800001 -0.58200002 2
3.474 -0.27700001 -0.60399997 2
3.4630001 -0.278 -0.60900003 2
3.277 -0.264 -0.58200002 3
3.243 -0.26300001 -0.58200002 3
3.207 -0.26100001 -0.58099997 3
3.168 -0.25999999 -0.57999998 2
3.187 -0.26300001 -0.58899999 1
3.2420001 -0.26899999 -0.60500002 1
3.2179999 -0.26800001 -0.60600001 1
3.0929999 -0.259 -0.588 1
3.1229999 -0.26300001 -0.59899998 2
2.971 -0.25099999 -0.57599998 1
2.9660001 -0.252 -0.57999998 2
2.954 -0.252 -0.583 1
2.938 -0.252 -0.58499998 1
2.8859999 -0.248 -0.57999998 1
2.865 -0.248 -0.57999998 1
2.835 -0.24600001 -0.579 1
2.7679999 -0.241 -0.56999999 1
2.7409999 -0.23999999 -0.56999999 1
2.6900001 -0.236 -0.56400001 1
2.652 -0.234 -0.56 1
2.6289999 -0.233 -0.56 1
2.609 -0.23199999 -0.56 1
2.5899999 -0.23100001 -0.56099999 1
2.562 -0.229 -0.55900002 1
2.5420001 -0.228 -0.55900002 1
2.5250001 -0.227 -0.55900002 1
2.5009999 -0.226 -0.55800003 1
2.47 -0.22400001 -0.55500001 1
2.5840001 -0.235 -0.58499998 1
2.47 -0.22499999 -0.56400001 1
2.539 -0.23199999 -0.58399999 1
2.448 -0.22400001 -0.56699997 1
2.474 -0.227 -0.57700002 1
2.513 -0.23100001 -0.58999997 1
0 0 0 1
2.3770001 -0.22 -0.56599998 1
2.4030001 -0.223 -0.57599998 1
2.421 -0.22499999 -0.58399999 1
2.329 -0.21699999 -0.56599998 1
2.2539999 -0.20999999 -0.551 1
2.3269999 -0.21799999 -0.57200003 1
2.2720001 -0.213 -0.56199998 1
2.2720001 -0.213 -0.56599998 1
2.2509999 -0.212 -0.56400001 1
2.2420001 -0.211 -0.565 1
2.1489999 -0.20299999 -0.54500002 1
2.1329999 -0.20200001 -0.54500002 1
2.1159999 -0.2 -0.54400003 1
2.1059999 -0.2 -0.54400003 1
2.089 -0.198 -0.54299998 1
2.076 -0.197 -0.542 1
2.069 -0.197 -0.54400003 1
2.0510001 -0.19599999 -0.542 1
2.043 -0.19499999 -0.54299998 1
2.03 -0.19400001 -0.542 1
2.023 -0.19400001 -0.54299998 1
2.0090001 -0.192 -0.54299998 1
2.0009999 -0.192 -0.54299998 1
1.987 -0.191 -0.542 1
1.976 -0.19 -0.542 1
1.961 -0.18799999 -0.54100001 1
1.952 -0.18799999 -0.54100001 1
1.9400001 -0.18700001 -0.54000002 1
1.934 -0.186 -0.542 1
1.918 -0.185 -0.54000002 1
1.9119999 -0.184 -0.54000002 1
1.895 -0.183 -0.53799999 1
1.89 -0.182 -0.53899997 1
1.88 -0.18099999 -0.53899997 1
1.87 -0.18000001 -0.53799999 1
1.864 -0.18000001 -0.53899997 1
1.852 -0.17900001 -0.53799999 1
1.836 -0.177 -0.53600001 1
1.8329999 -0.177 -0.537 1
1.823 -0.176 -0.53600001 1
1.814 -0.175 -0.53600001 1
1.8049999 -0.17399999 -0.53600001 1
1.799 -0.17299999 -0.53600001 1
1.794 -0.17299999 -0.537 1
1.775 -0.171 -0.53299999 1
1.7690001 -0.17 -0.53299999 1
1.766 -0.17 -0.53500003 1
1.744 -0.168 -0.52999997 1
1.747 -0.168 -0.53299999 1
1.739 -0.167 -0.53299999 1
1.733 -0.16599999 -0.53299999 1
1.719 -0.16500001 -0.52999997 1
1.714 -0.164 -0.52999997 1
1.71 -0.164 -0.53100002 1
1.714 -0.164 -0.53399998 1
1.704 -0.163 -0.53299999 1
1.684 -0.161 -0.52899998 1
1.6799999 -0.16 -0.52899998 1
1.675 -0.15899999 -0.52899998 1
1.666 -0.15800001 -0.528 1
1.658 -0.15700001 -0.52700001 1
1.655 -0.15700001 -0.528 1
1.651 -0.156 -0.528 1
1.646 -0.155 -0.528 1
1.6390001 -0.155 -0.528 1
1.632 -0.154 -0.52700001 1
1.6289999 -0.153 -0.528 1
1.618 -0.152 -0.52600002 1
1.615 -0.15099999 -0.52600002 1
1.607 -0.15000001 -0.52499998 1
1.598 -0.149 -0.523 1
1.595 -0.149 -0.52399999 1
1.595 -0.148 -0.52499998 1
1.586 -0.147 -0.523 1
1.584 -0.147 -0.52399999 1
1.581 -0.146 -0.52499998 1
1.582 -0.146 -0.52600002 1
1.567 -0.14399999 -0.52200001 1
1.567 -0.14399999 -0.52399999 1
1.567 -0.14399999 -0.52499998 1
1.554 -0.142 -0.52200001 1
1.55 -0.141 -0.52100003 1
1.551 -0.141 -0.523 1
1.55 -0.141 -0.52399999 1
1.549 -0.14 -0.52399999 1
1.549 -0.14 -0.52499998 1
1.548 -0.139 -0.52600002 1
1.539 -0.138 -0.52399999 1
1.538 -0.138 -0.52499998 1
1.539 -0.13699999 -0.52600002 1
1.536 -0.13699999 -0.52600002 1
1.529 -0.13600001 -0.52499998 1
1.521 -0.13500001 -0.523 1
1.521 -0.134 -0.52399999 1
1.511 -0.133 -0.52100003 1
1.512 -0.132 -0.52200001 1
1.503 -0.131 -0.51999998 1
1.503 -0.131 -0.52100003 1
1.502 -0.13 -0.52100003 1
1.501 -0.13 -0.52200001 1
1.501 -0.12899999 -0.52200001 1
1.501 -0.12899999 -0.523 1
1.5 -0.12800001 -0.52399999 1
1.497 -0.12800001 -0.523 1
1.495 -0.127 -0.523 1
1.4960001 -0.127 -0.52399999 1
1.499 -0.126 -0.52499998 1
1.488 -0.125 -0.52200001 1
1.489 -0.125 -0.523 1
1.4859999 -0.124 -0.523 1
1.495 -0.124 -0.52600002 1
1.4859999 -0.123 -0.52399999 1
1.484 -0.122 -0.523 1
1.487 -0.122 -0.52499998 1
1.479 -0.121 -0.523 1
1.4809999 -0.12 -0.52399999 1
1.479 -0.12 -0.523 1
1.4809999 -0.119 -0.52399999 1
1.479 -0.119 -0.52399999 1
1.479 -0.118 -0.52399999 1
1.4630001 -0.116 -0.51899999 1
1.473 -0.116 -0.523 1
1.477 -0.116 -0.52399999 1
1.48 -0.116 -0.52600002 1
1.472 -0.115 -0.523 1
1.471 -0.114 -0.523 1
1.471 -0.114 -0.523 1
1.4630001 -0.112 -0.51999998 1
1.46 -0.111 -0.51899999 1
1.4630001 -0.111 -0.51999998 1
1.464 -0.111 -0.52100003 1
1.459 -0.11 -0.51899999 1
1.465 -0.11 -0.52100003 1
1.4630001 -0.109 -0.52100003 1
1.465 -0.108 -0.52100003 1
1.4630001 -0.108 -0.51999998 1
1.464 -0.107 -0.52100003 1
1.471 -0.107 -0.523 1
1.4630001 -0.106 -0.51999998 1
1.46 -0.105 -0.51899999 1
1.4630001 -0.105 -0.51999998 1
1.465 -0.104 -0.52100003 1
1.474 -0.104 -0.52399999 1
1.471 -0.103 -0.52200001 1
1.478 -0.103 -0.52399999 1
1.472 -0.102 -0.52200001 1
1.4630001 -0.101 -0.51899999 1
1.47 -0.101 -0.52100003 1
1.475 -0.1 -0.523 1
1.483 -0.1 -0.52499998 1
1.478 -0.098999999 -0.523 1
1.464 -0.097999997 -0.51700002 1
1.475 -0.097999997 -0.52100003 1
1.4809999 -0.097000003 -0.523 1
1.487 -0.097000003 -0.52399999 1
1.483 -0.096000001 -0.52200001 1
1.476 -0.094999999 -0.51899999 1
1.4859999 -0.094999999 -0.523 1
1.489 -0.094999999 -0.523 1
1.4910001 -0.093999997 -0.523 1
1.4910001 -0.093000002 -0.52200001 1
1.489 -0.093000002 -0.52100003 1
1.495 -0.092 -0.523 1
1.495 -0.092 -0.52200001 1
1.494 -0.090999998 -0.52100003 1
1.498 -0.090000004 -0.52200001 1
1.498 -0.090000004 -0.52100003 1
1.506 -0.089000002 -0.523 1
1.506 -0.089000002 -0.52200001 1
1.511 -0.088 -0.523 1
1.515 -0.088 -0.52399999 1
1.511 -0.086999997 -0.52200001 1
1.516 -0.086000003 -0.52200001 1
1.507 -0.085000001 -0.51899999 1
1.5190001 -0.085000001 -0.52200001 1
1.52 -0.085000001 -0.52100003 1
1.529 -0.083999999 -0.523 1
1.526 -0.082999997 -0.52100003 1
1.535 -0.082999997 -0.52399999 1
1.538 -0.082999997 -0.523 1
1.5470001 -0.082000002 -0.52600002 1
1.543 -0.081 -0.523 1
1.5470001 -0.081 -0.523 1
1.544 -0.079999998 -0.52100003 1
1.551 -0.079000004 -0.52200001 1
1.556 -0.079000004 -0.523 1
1.559 -0.078000002 -0.523 1
1.5599999 -0.078000002 -0.52200001 1
1.577 -0.078000002 -0.52600002 1
1.585 -0.077 -0.528 1
1.58 -0.075999998 -0.52499998 1
1.586 -0.075999998 -0.52499998 1
1.587 -0.075000003 -0.52499998 1
1.592 -0.075000003 -0.52499998 1
1.596 -0.074000001 -0.52499998 1
1.6 -0.072999999 -0.52499998 1
1.603 -0.072999999 -0.52399999 1
1.614 -0.072999999 -0.52600002 1
1.609 -0.071999997 -0.523 1
1.626 -0.071999997 -0.52700001 1
1.618 -0.07 -0.523 1
1.627 -0.07 -0.52499998 1
1.632 -0.068999998 -0.52399999 1
1.647 -0.068999998 -0.528 1
1.655 -0.068999998 -0.528 1
1.6569999 -0.068000004 -0.528 1
1.666 -0.068000004 -0.52899998 1
1.67 -0.067000002 -0.528 1
1.677 -0.066 -0.52899998 1
1.681 -0.066 -0.528 1
1.692 -0.066 -0.52999997 1
1.7029999 -0.064999998 -0.53100002 1
1.711 -0.064999998 -0.53200001 1
1.721 -0.064000003 -0.53299999 1
1.722 -0.063000001 -0.53200001 1
1.7359999 -0.063000001 -0.53399998 1
1.74 -0.061999999 -0.53299999 1
1.749 -0.061999999 -0.53399998 1
1.755 -0.061000001 -0.53399998 1
1.761 -0.061000001 -0.53399998 1
1.766 -0.059999999 -0.53299999 1
1.775 -0.059999999 -0.53299999 1
1.779 -0.059 -0.53299999 1
1.7920001 -0.057999998 -0.53399998 1
1.796 -0.057999998 -0.53299999 1
1.806 -0.057 -0.53399998 1
1.8200001 -0.057 -0.53600001 1
1.826 -0.056000002 -0.53500003 1
1.8380001 -0.056000002 -0.53600001 1
1.854 -0.055 -0.53799999 1
1.862 -0.055 -0.53799999 1
1.864 -0.054000001 -0.53600001 1
1.8710001 -0.052999999 -0.53600001 1
1.886 -0.052999999 -0.53799999 1
1.898 -0.052999999 -0.53799999 1
1.905 -0.052000001 -0.53799999 1
1.9170001 -0.050999999 -0.53899997 1
1.923 -0.050999999 -0.53799999 1
1.937 -0.050000001 -0.53899997 1
1.95 -0.050000001 -0.54000002 1
1.959 -0.048999999 -0.53899997 1
1.969 -0.048999999 -0.53899997 1
1.974 -0.048 -0.53799999 1
1.9910001 -0.046999998 -0.54000002 1
2.0079999 -0.046999998 -0.54100001 1
2.0209999 -0.046 -0.542 1
2.0320001 -0.046 -0.542 1
2.04 -0.045000002 -0.54100001 1
2.0550001 -0.045000002 -0.542 1
2.069 -0.044 -0.542 1
2.0840001 -0.044 -0.54299998 1
2.1440001 -0.044 -0.55500001 1
2.1500001 -0.043000001 -0.55299997 1
2.168 -0.043000001 -0.55500001 1
2.171 -0.041999999 -0.55199999 1
2.2309999 -0.043000001 -0.56400001 1
2.27 -0.041999999 -0.56999999 1
2.194 -0.039999999 -0.54699999 1
2.2049999 -0.039999999 -0.54699999 1
2.2309999 -0.039000001 -0.55000001 1
2.234 -0.037999999 -0.54699999 1
2.257 -0.037999999 -0.54900002 1
2.276 -0.037 -0.54900002 1
2.3570001 -0.037999999 -0.565 1
2.398 -0.037999999 -0.57099998 1
2.3369999 -0.035999998 -0.55299997 1
2.3510001 -0.035 -0.55199999 1
2.368 -0.035 -0.55199999 1
2.3959999 -0.035 -0.55400002 1
2.4089999 -0.034000002 -0.55299997 1
2.424 -0.033 -0.55299997 1
2.454 -0.033 -0.55500001 1
2.4849999 -0.033 -0.55800003 1
2.513 -0.032000002 -0.56 1
2.5869999 -0.032000002 -0.57200003 1
2.5550001 -0.030999999 -0.56 1
2.612 -0.030999999 -0.56800002 1
2.635 -0.030999999 -0.56800002 1
2.7049999 -0.030999999 -0.579 1
2.6849999 -0.029999999 -0.56999999 1
2.7309999 -0.028999999 -0.574 1
2.721 -0.028999999 -0.56699997 1
2.777 -0.028000001 -0.574 1
2.786 -0.028000001 -0.57099998 1
2.7880001 -0.027000001 -0.56599998 1
2.852 -0.027000001 -0.574 1
2.895 -0.027000001 -0.57700002 1
2.8740001 -0.026000001 -0.56800002 2
2.9000001 -0.025 -0.56800002 1
2.9349999 -0.025 -0.56900001 2
3.033 -0.025 -0.58200002 2
3.0999999 -0.025 -0.58899999 2
3.1830001 -0.025 -0.59899998 2
3.095 -0.023 -0.57700002 2
3.175 -0.023 -0.58600003 1
3.2460001 -0.023 -0.59200001 1
3.303 -0.023 -0.59600002 1
3.3369999 -0.023 -0.59600002 2
3.2820001 -0.022 -0.57999998 1
3.3789999 -0.022 -0.59100002 2
3.405 -0.021 -0.58899999 1
3.4219999 -0.021 -0.58499998 1
3.451 -0.02 -0.583 2
3.5320001 -0.02 -0.58999997 2
3.609 -0.02 -0.59600002 3
3.619 -0.02 -0.59100002 2
3.681 -0.018999999 -0.59299999 2
3.7539999 -0.018999999 -0.59799999 3
3.8340001 -0.018999999 -0.60299999 2
3.925 -0.018999999 -0.61000001 2
3.9549999 -0.018999999 -0.60699999 2
3.97 -0.018999999 -0.60100001 2
4.0409999 -0.017999999 -0.60399997 2
4.1399999 -0.018999999 -0.61000001 2
4.2140002 -0.017999999 -0.61299998 3
4.2740002 -0.017999999 -0.61299998 2
4.375 -0.017999999 -0.61799997 2
4.4289999 -0.017999999 -0.61699998 4
4.4990001 -0.017999999 -0.61799997 5
4.5770001 -0.017999999 -0.61900002 4
4.6700001 -0.017999999 -0.62199998 3
4.7709999 -0.018999999 -0.62599999 3
4.8660002 -0.018999999 -0.62800002 4
4.9689999 -0.018999999 -0.63200003 4
5.0710001 -0.018999999 -0.634 4
5.1880002 -0.02 -0.63800001 4
5.322 -0.02 -0.64399999 4
5.4790001 -0.02 -0.65200001 5
5.5599999 -0.021 -0.64999998 6
5.664 -0.021 -0.64999998 6
5.8439999 -0.022 -0.65899998 3
6.0240002 -0.023 -0.667 3
6.1919999 -0.023 -0.67199999 4
6.3410001 -0.024 -0.67500001 4
6.5289998 -0.025 -0.68199998 4
6.7080002 -0.026000001 -0.68699998 4
6.9089999 -0.027000001 -0.69300002 4
7.073 -0.028000001 -0.69499999 4
7.2930002 -0.028999999 -0.70099998 3
7.5139999 -0.030999999 -0.70700002 4
7.7420001 -0.032000002 -0.71200001 4
8.0380001 -0.034000002 -0.722 5
8.3870001 -0.037 -0.736 7
8.6789999 -0.039000001 -0.74299997 14
8.9119997 -0.041000001 -0.745 16
9.2329998 -0.043000001 -0.75199997 6
9.6079998 -0.046 -0.76200002 5
9.9860001 -0.048999999 -0.77100003 5
10.412 -0.052999999 -0.78200001 3
10.87 -0.056000002 -0.79400003 3
11.374 -0.061000001 -0.80599999 4
11.849 -0.064999998 -0.815 3
12.439 -0.07 -0.82999998 3
13.177 -0.075999998 -0.85100001 3
0 0 0 4
0 0 0 4
15.166 -0.096000001 -0.884 4
0 0 0 0
0 0 0 36
17.158001 -0.119 -0.89099997 64
17.153 -0.123 -0.85399997 64
17.142 -0.126 -0.81699997 67
17.138 -0.13 -0.78100002 42
17.01 -0.133 -0.73900002 43
0 0 0 0
0 0 0 0
0 0 0 0
0 0 0 20
15.741 -0.14300001 -0.51599997 6
16.136 -0.15099999 -0.495 5
15.713 -0.152 -0.449 4
15.654 -0.156 -0.41299999 10
15.65 -0.16 -0.38100001 11
15.652 -0.16500001 -0.34799999 4
15.604 -0.169 -0.31400001 21
15.571 -0.17399999 -0.27900001 20
15.517 -0.178 -0.245 4
15.573 -0.184 -0.213 14
15.478 -0.18799999 -0.17900001 35
15.446 -0.193 -0.146 54
15.417 -0.198 -0.113 54
15.357 -0.20299999 -0.079999998 53
15.313 -0.208 -0.048 4
15.419 -0.215 -0.016000001 13
15.459 -0.222 0.016000001 50
15.555 -0.229 0.048999999 9
0 0 0 48
17.237 -0.26699999 0.127 64
17.225 -0.27399999 0.163 61
17.229 -0.28200001 0.2 62
17.24 -0.289 0.236 60
17.253 -0.296 0.27200001 56
17.263 -0.30399999 0.30899999 35
17.256001 -0.31200001 0.345 58
17.27 -0.31999999 0.382 64
17.266001 -0.32699999 0.417 58
17.273001 -0.33500001 0.45300001 51
17.292 -0.34400001 0.49000001 34
17.287001 -0.352 0.52600002 52
17.281 -0.36000001 0.56099999 51
17.292 -0.36899999 0.59799999 54
17.302 -0.37799999 0.634 48
17.299999 -0.38600001 0.66900003 46
17.336 -0.396 0.70599997 30
17.327999 -0.40400001 0.74199998 42
17.323 -0.41299999 0.77600002 43
17.337 -0.42199999 0.81300002 40
17.356001 -0.43200001 0.84899998 43
17.371 -0.442 0.88499999 31
17.378 -0.45100001 0.921 46
17.381001 -0.461 0.95700002 42
17.403999 -0.47099999 0.99299997 29
17.403 -0.48100001 1.028 40
17.424999 -0.491 1.0650001 27
17.417999 -0.50099999 1.1 33
17.448 -0.51200002 1.136 33
17.451 -0.52200001 1.171 29
17.471001 -0.53299999 1.2079999 19
17.504999 -0.54400003 1.245 25
17.531 -0.55599999 1.2819999 22
17.558001 -0.56699997 1.319 18
17.601 -0.579 1.357 15
17.627001 -0.59100002 1.393 8
17.693001 -0.60399997 1.433 2
0 0 0 57
34.556999 -1.224 2.9349999 56
34.568001 -1.2460001 3.003 57
34.584 -1.268 3.072 54
34.615002 -1.2920001 3.1429999 50
34.643002 -1.316 3.2130001 42
34.646999 -1.339 3.2809999 18
34.687 -1.364 3.352 5
0 0 0 0
0 0 0 0
0 0 0 0
0 0 0 0
0 0 0 0
0 0 0 0
0 0 0 0
0 0 0 0
0 0 0 0
0 0 0 0
0 0 0 0
0 0 0 0
0 0 0 0
0 0 0 8
34.778 -1.733 4.342 11
34.785999 -1.7589999 4.4070001 8
34.737999 -1.7819999 4.4640002 3
34.726002 -1.807 4.5250001 6
34.831001 -1.839 4.6020002 10
34.853001 -1.8660001 4.6680002 17
34.847 -1.892 4.73 8
0 0 0 0
0 0 0 0
0 0 0 2
34.956001 -2.0050001 4.994 4
34.931999 -2.0309999 5.052 2
0 0 0 0
0 0 0 0
0 0 0 0
0 0 0 0
0 0 0 0
0 0 0 0
0 0 0 0
0 0 0 0
0 0 0 0
0 0 0 0
0 0 0 0
0 0 0 2
0 0 0 0
0 0 0 3
35.146 -2.464 5.9759998 8
34.945999 -2.4790001 5.9990001 17
34.775002 -2.4949999 6.026 21
34.527 -2.506 6.039 23
34.312 -2.5190001 6.0560002 25
34.091 -2.5309999 6.072 25
33.852001 -2.54 6.0830002 24
33.608002 -2.55 6.092 24
33.356998 -2.559 6.099 24
33.132 -2.569 6.1090002 23
32.876999 -2.5780001 6.1129999 23
32.668999 -2.5880001 6.1240001 23
32.408001 -2.595 6.125 21
32.191002 -2.605 6.1329999 22
31.966999 -2.6129999 6.1389999 22
31.754 -2.6229999 6.1459999 23
31.531 -2.631 6.1500001 25
31.323 -2.641 6.1560001 24
31.143 -2.6530001 6.1680002 27
30.917999 -2.6600001 6.1690001 23
30.729 -2.6689999 6.1760001 25
30.531 -2.6789999 6.1799998 24
30.336 -2.688 6.184 25
30.143 -2.6960001 6.1880002 25
29.968 -2.7060001 6.1939998 28
29.792999 -2.7149999 6.2010002 23
29.606001 -2.724 6.204 28
29.438999 -2.734 6.2090001 31
29.280001 -2.7449999 6.2160001 25
29.111 -2.7539999 6.2199998 29
28.945999 -2.763 6.224 23
28.782 -2.7720001 6.2280002 27
28.621 -2.7809999 6.2309999 24
28.459999 -2.789 6.2340002 29
28.313 -2.799 6.2389998 24
28.17 -2.809 6.244 25
28.031 -2.8199999 6.25 25
27.891001 -2.8299999 6.2550001 26
27.750999 -2.8399999 6.2589998 25
27.598 -2.848 6.2589998 27
27.466999 -2.8570001 6.2639999 26
27.35 -2.868 6.2709999 23
27.222 -2.878 6.2750001 28
27.093 -2.8870001 6.2789998 30
26.961 -2.8970001 6.2810001 28
26.848 -2.9070001 6.2870002 29
26.719999 -2.9170001 6.289 28
26.6 -2.9260001 6.2919998 23
26.493 -2.937 6.2979999 24
26.382999 -2.948 6.302 25
26.243 -2.954 6.2989998 25
26.148001 -2.9660001 6.3060002 25
26.017 -2.9719999 6.303 24
25.917999 -2.983 6.3080001 29
25.816 -2.993 6.3119998 28
25.719 -3.003 6.316 25
25.612 -3.0120001 6.3169999 24
25.51 -3.0220001 6.3189998 28
25.406 -3.0309999 6.3200002 29
25.302 -3.039 6.3210001 30
25.231001 -3.052 6.329 29
25.129 -3.0599999 6.329 30
25.035999 -3.069 6.3309999 25
24.945 -3.079 6.3330002 28
24.882 -3.092 6.342 29
24.794001 -3.1010001 6.3429999 29
24.712999 -3.112 6.3460002 25
24.618 -3.119 6.3449998 24
24.525 -3.1270001 6.3439999 30
24.465 -3.1400001 6.3509998 24
24.379999 -3.148 6.3509998 24
24.287001 -3.1559999 6.349 28
24.208 -3.165 6.3499999 23
24.139 -3.1760001 6.3530002 23
24.059 -3.1849999 6.3530002 28
23.997999 -3.1949999 6.3569999 26
23.916 -3.2030001 6.3559999 33
23.858 -3.214 6.3600001 33
23.809 -3.227 6.3670001 26
23.746 -3.237 6.369 32
23.686001 -3.247 6.3720002 25
23.614 -3.256 6.3709998 30
23.552 -3.2650001 6.3730001 29
23.492001 -3.2739999 6.3730001 25
23.445 -3.286 6.3790002 24
23.382999 -3.2950001 6.3790002 26
23.326 -3.3050001 6.3800001 26
23.261999 -3.313 6.3790002 27
23.212999 -3.323 6.381 31
23.165001 -3.3340001 6.3839998 28
23.112 -3.3429999 6.3839998 31
23.063 -3.3529999 6.3860002 32
23.011 -3.3629999 6.3870001 32
22.969999 -3.3729999 6.3899999 26
22.909 -3.381 6.3870001 30
22.872999 -3.392 6.3909998 25
22.826 -3.401 6.3909998 25
22.775 -3.4100001 6.3899999 29
22.724001 -3.4189999 6.388 30
22.700001 -3.431 6.3940001 29
22.660999 -3.441 6.3959999 25
22.610001 -3.448 6.3930001 24
22.589001 -3.461 6.3990002 26
22.541 -3.4690001 6.3969998 26
22.51 -3.4790001 6.3990002 26
22.466 -3.487 6.3969998 26
22.445 -3.4990001 6.402 27
22.402 -3.507 6.3990002 26
22.375999 -3.5179999 6.402 27
22.351 -3.529 6.4039998 30
22.313 -3.5369999 6.402 26
22.284 -3.5469999 6.4029999 26
22.254 -3.556 6.4029999 27
22.226 -3.566 6.4029999 25
22.191 -3.5739999 6.401 32
22.17 -3.585 6.4029999 26
22.139 -3.5929999 6.402 25
22.103001 -3.6010001 6.3979998 30
22.09 -3.612 6.401 29
22.061001 -3.6210001 6.3990002 30
22.039 -3.6300001 6.3990002 28
22.030001 -3.642 6.402 30
22.007999 -3.651 6.402 30
21.988001 -3.6600001 6.401 30
21.983 -3.6719999 6.4039998 30
21.958 -3.6800001 6.402 29
21.957001 -3.6919999 6.4070001 27
21.934999 -3.701 6.4039998 31
21.917999 -3.71 6.4029999 32
21.908001 -3.72 6.4039998 31
21.9 -3.73 6.4050002 32
21.889 -3.74 6.4050002 32
21.882 -3.75 6.4050002 31
21.875999 -3.76 6.4060001 32
21.868999 -3.77 6.4060001 30
21.861 -3.779 6.4060001 32
21.860001 -3.79 6.4070001 27
21.851999 -3.8 6.4060001 27
21.853001 -3.8099999 6.4070001 32
21.85 -3.8199999 6.4070001 25
21.841 -3.829 6.4050002 26
21.841999 -3.839 6.4060001 31
21.841 -3.8499999 6.4050002 30
21.844 -3.859 6.4060001 32
21.837 -3.868 6.4029999 31
21.84 -3.878 6.4029999 32
21.853001 -3.8900001 6.4060001 32
21.85 -3.898 6.4029999 31
21.867001 -3.9100001 6.4070001 31
21.861 -3.9189999 6.4029999 32
21.863001 -3.928 6.401 31
21.872 -3.938 6.401 30
21.882999 -3.948 6.401 31
21.9 -3.96 6.4029999 25
21.907 -3.9690001 6.401 26
21.92 -3.9790001 6.401 30
21.931 -3.9890001 6.401 26
21.938999 -3.9990001 6.3979998 30
21.948 -4.0079999 6.3959999 31
21.950001 -4.0149999 6.3930001 31
21.976999 -4.0279999 6.395 28
22.01 -4.0409999 6.3990002 26
22.025999 -4.0510001 6.3979998 26
22.028999 -4.0580001 6.3930001 31
22.047001 -4.0679998 6.3920002 31
22.073999 -4.079 6.3930001 26
22.099001 -4.0900002 6.3940001 28
22.110001 -4.099 6.3889999 32
22.129 -4.1090002 6.3870001 26
22.143999 -4.1170001 6.3839998 31
22.167999 -4.1269999 6.3829999 25
22.205999 -4.1399999 6.3850002 31
22.23 -4.1500001 6.3839998 30
22.261 -4.1609998 6.3839998 25
22.287001 -4.171 6.382 24
22.318001 -4.1810002 6.382 24
22.337999 -4.1890001 6.3779998 28
22.363001 -4.198 6.375 28
22.403 -4.21 6.3759999 29
22.457001 -4.2249999 6.381 24
22.478001 -4.2329998 6.3759999 27
22.511 -4.243 6.3740001 23
22.561001 -4.2550001 6.3769999 24
22.599001 -4.2659998 6.3759999 30
22.628 -4.2750001 6.3720002 29
22.666 -4.2859998 6.3699999 28
22.718 -4.2979999 6.3720002 24
22.763 -4.3099999 6.3720002 25
22.788 -4.3169999 6.3660002 30
22.823999 -4.3260002 6.3629999 31
22.874001 -4.3369999 6.3629999 30
22.92 -4.349 6.3610001 31
22.968 -4.3600001 6.3600001 29
23.02 -4.3709998 6.3600001 29
23.056 -4.3790002 6.355 28
23.104 -4.3899999 6.3530002 24
23.159 -4.401 6.3520002 28
23.209999 -4.4120002 6.3499999 28
23.268999 -4.4239998 6.3499999 23
23.320999 -4.434 6.348 26
23.372 -4.4450002 6.3449998 27
23.434999 -4.4569998 6.3449998 26
23.504999 -4.4699998 6.3470001 23
23.556999 -4.48 6.3429999 28
23.618999 -4.4910002 6.342 28
23.695 -4.5050001 6.3439999 29
23.754 -4.5149999 6.3410001 25
23.811001 -4.5250001 6.3369999 30
23.865999 -4.5339999 6.3319998 28
23.944 -4.5479999 6.3340001 24
23.997999 -4.5570002 6.3280001 28
24.084 -4.5710001 6.3309999 26
24.149 -4.5809999 6.3270001 29
24.215 -4.592 6.3239999 25
24.271 -4.5999999 6.3179998 29
24.349001 -4.612 6.316 29
24.429001 -4.6240001 6.3150001 26
24.496 -4.6339998 6.3099999 29
24.587 -4.6479998 6.3109999 27
24.660999 -4.658 6.3070002 25
24.736 -4.6690001 6.3039999 27
24.819 -4.6799998 6.3010001 26
24.913 -4.6929998 6.302 23
24.995001 -4.7049999 6.2979999 23
25.091999 -4.7179999 6.2989998 23
25.181999 -4.73 6.2969999 23
25.266001 -4.7410002 6.2919998 25
25.351 -4.7509999 6.2880001 27
25.452999 -4.7649999 6.2870002 27
25.558001 -4.7779999 6.2880001 24
25.634001 -4.7870002 6.2800002 25
25.711 -4.7950001 6.2729998 28
25.805 -4.8060002 6.2680001 28
25.895 -4.816 6.263 27
26.002001 -4.8280001 6.2610002 27
26.115 -4.842 6.2600002 24
26.215 -4.8530002 6.256 24
26.327999 -4.8660002 6.2540002 24
26.43 -4.8769999 6.2490001 28
26.546 -4.8909998 6.2470002 30
26.642 -4.9000001 6.2399998 29
26.766001 -4.9130001 6.2389998 25
26.882999 -4.9260001 6.2360001 23
27.009001 -4.9390001 6.2340002 29
27.117001 -4.9489999 6.2270002 24
27.247 -4.9629998 6.2249999 29
27.372999 -4.9759998 6.2210002 25
27.493 -4.987 6.2160001 24
27.618 -4.9990001 6.2119999 27
27.73 -5.0079999 6.204 25
27.829 -5.0139999 6.1929998 21
27.969 -5.027 6.1900001 18
28.121 -5.0430002 6.1900001 21
28.298 -5.0619998 6.1939998 24
28.434 -5.0739999 6.1880002 23
28.554001 -5.0819998 6.178 26
28.681 -5.0910001 6.1700001 26
28.802999 -5.099 6.1599998 26
28.940001 -5.1100001 6.1529999 23
29.104 -5.1240001 6.151 22
29.26 -5.1370001 6.1459999 25
29.408001 -5.1479998 6.1389999 24
29.569 -5.1609998 6.1339998 22
29.743 -5.1750002 6.131 19
29.916 -5.1890001 6.1269999 21
30.07 -5.1999998 6.1199999 22
30.231001 -5.211 6.1129999 22
30.396 -5.223 6.1059999 21
30.587999 -5.2379999 6.1040001 21
30.728001 -5.244 6.0900002 20
30.921 -5.2589998 6.0879998 20
31.103001 -5.2719998 6.0809999 20
31.290001 -5.2839999 6.0749998 22
31.489 -5.2989998 6.0700002 21
31.679001 -5.3109999 6.0630002 21
31.854 -5.3200002 6.0539999 22
32.091 -5.3400002 6.0539999 22
32.283001 -5.3499999 6.0450001 23
32.483002 -5.3629999 6.0370002 23
32.695 -5.3759999 6.0310001 23
32.926998 -5.3920002 6.027 23
33.118 -5.401 6.0149999 24
33.341999 -5.414 6.0100002 24
33.577999 -5.4289999 6.0040002 24
33.791 -5.4390001 5.994 25
34.047001 -5.4559999 5.9899998 25
34.271999 -5.467 5.98 21
34.525002 -5.4819999 5.974 26
34.743 -5.4910002 5.961 21
34.999001 -5.5050001 5.954 26
35.235001 -5.5149999 5.9419999 27
35.445 -5.52 5.9260001 22
35.662998 -5.526 5.9109998 20
35.839001 -5.526 5.8870001 15
36.049999 -5.5300002 5.869 8
36.355999 -5.5479999 5.8660002 4
36.695999 -5.5700002 5.8660002 3
37.004002 -5.586 5.8600001 2
0 0 0 0
0 0 0 0
0 0 0 2
36.016998 -5.3169999 5.4879999 3
36.027 -5.2870002 5.4359999 6
36.000999 -5.2519999 5.3779998 7
35.985001 -5.2179999 5.322 4
0 0 0 0
0 0 0 3
40.425999 -5.7529998 5.7940001 2
40.450001 -5.7199998 5.7350001 2
0 0 0 11
35.923 -5.013 4.9840002 11
0 0 0 0
0 0 0 0
0 0 0 0
0 0 0 3
31.768999 -4.2820001 4.1630001 2
31.785 -4.2529998 4.1149998 5
31.816 -4.2259998 4.0700002 6
0 0 0 0
0 0 0 0
0 0 0 0
0 0 0 0
0 0 0 2
31.739 -4.0219998 3.763 8
0 0 0 2
35.686001 -4.4460001 4.119 2
0 0 0 0
0 0 0 2
0 0 0 0
0 0 0 0
0 0 0 0
0 0 0 0
0 0 0 0
0 0 0 0
0 0 0 5
31.552999 -3.5829999 3.145 9
31.596001 -3.553 3.0999999 15
31.674999 -3.5250001 3.0569999 23
31.771999 -3.5 3.0179999 16
31.851 -3.471 2.9749999 16
31.923 -3.4419999 2.931 16
32.005001 -3.4119999 2.888 17
32.098999 -3.3840001 2.846 16
32.171001 -3.3529999 2.8010001 16
32.256001 -3.3239999 2.7590001 17
32.347 -3.2939999 2.7149999 16
32.444 -3.2639999 2.6719999 16
32.542 -3.233 2.628 16
32.623001 -3.201 2.5829999 16
32.709999 -3.1700001 2.539 16
32.827 -3.1400001 2.4960001 16
32.900002 -3.105 2.45 15
33.006001 -3.0739999 2.4070001 16
33.143002 -3.0450001 2.365 17
33.409 -3.027 2.3310001 22
33.811001 -3.0190001 2.306 17
34.487999 -3.0350001 2.2980001 20
34.925999 -3.029 2.273 44
35.023998 -2.9909999 2.2249999 56
35.029999 -2.9460001 2.171 72
35.008999 -2.898 2.115 75
34.993999 -2.8510001 2.0599999 73
34.979 -2.803 2.0039999 74
34.963001 -2.7550001 1.95 73
34.943001 -2.7060001 1.8940001 74
34.938 -2.658 1.839 77
34.928001 -2.6099999 1.785 82
34.887001 -2.559 1.729 78
34.874001 -2.51 1.674 76
34.849998 -2.46 1.619 75
34.874001 -2.4130001 1.566 9
34.941002 -2.368 1.515 18
35.104 -2.3310001 1.4680001 34
35.167999 -2.286 1.418 24
35.23 -2.24 1.3660001 12
35.388 -2.2 1.318 3
0 0 0 0
0 0 0 0
0 0 0 0
0 0 0 0
0 0 0 0
0 0 0 0
0 0 0 5
34.971001 -1.7690001 0.88 32
34.938 -1.716 0.82700002 34
34.987999 -1.6670001 0.77600002 14
0 0 0 4
38.792 -1.733 0.745 4
38.687 -1.67 0.68599999 4
38.723999 -1.614 0.63 4
38.701 -1.5549999 0.57300001 4
38.626999 -1.493 0.514 4
38.617001 -1.4349999 0.458 4
0 0 0 0
0 0 0 0
0 0 0 0
0 0 0 2
15.484 -0.456 0.071000002 6
15.259 -0.426 0.048 53
15.09 -0.398 0.026000001 51
15.056 -0.373 0.0040000002 4
15.173 -0.35299999 -0.016000001 52
15.131 -0.32800001 -0.037999999 52
15.138 -0.30399999 -0.059 37
15.175 -0.28099999 -0.081 43
15.212 -0.25799999 -0.103 44
15.27 -0.234 -0.124 53
15.399 -0.212 -0.147 39
15.497 -0.18799999 -0.17 19
15.395 -0.163 -0.19 4
15.545 -0.139 -0.213 23
15.6 -0.114 -0.235 55
0 0 0 0
0 0 0 67
17.167 -0.043000001 -0.329 67
17.158001 -0.015 -0.352 65
17.173 0.012 -0.37599999 55
17.173 0.039999999 -0.39899999 52
17.186001 0.068000004 -0.42199999 53
17.184 0.096000001 -0.44499999 48
17.194 0.125 -0.46799999 46
17.198999 0.153 -0.491 44
17.223 0.182 -0.514 41
17.237 0.211 -0.53799999 38
17.259001 0.23999999 -0.56099999 36
17.292 0.26899999 -0.58499998 34
17.298 0.29800001 -0.60699999 31
17.333 0.32699999 -0.63 30
17.391001 0.35699999 -0.65499997 24
17.436001 0.38699999 -0.67900002 20
17.513 0.419 -0.704 12
0 0 0 8
33.755001 0.92000002 -1.442 2
0 0 0 0
0 0 0 1
0 0 0 1
0 0 0 1
19.542999 0.69800001 -0.95599997 2
0 0 0 0
0 0 0 6
0 0 0 0
0 0 0 0
0 0 0 2
15.674 0.72000003 -0.87900001 3
15.101 0.71899998 -0.86500001 3
14.691 0.72500002 -0.85900003 3
14.274 0.72899997 -0.85100001 3
13.829 0.73000002 -0.83999997 3
13.39 0.73000002 -0.829 3
12.988 0.73000002 -0.81900001 3
12.59 0.72899997 -0.80800003 3
12.201 0.72799999 -0.79699999 2
11.879 0.72899997 -0.78899997 2
11.571 0.73000002 -0.78200001 3
11.324 0.73400003 -0.778 8
11.183 0.74400002 -0.77999997 9
11.004 0.75099999 -0.77999997 7
10.721 0.75 -0.77100003 3
10.433 0.74800003 -0.76200002 3
10.198 0.74900001 -0.75599998 3
9.9840002 0.75 -0.75 3
9.7550001 0.75 -0.74299997 3
9.5649996 0.75199997 -0.73900002 4
9.3929996 0.75400001 -0.736 4
9.2360001 0.75800002 -0.73299998 4
9.0749998 0.75999999 -0.72899997 4
8.9189997 0.76300001 -0.72600001 4
8.7659998 0.76499999 -0.722 3
8.5970001 0.76499999 -0.71700001 3
8.4540005 0.76700002 -0.71399999 3
8.3129997 0.76800001 -0.70999998 3
8.1540003 0.76800001 -0.70499998 3
8.0249996 0.76899999 -0.70099998 3
7.8860002 0.76999998 -0.69700003 5
7.7490001 0.76999998 -0.69199997 9
7.6339998 0.77100003 -0.68900001 13
7.526 0.773 -0.68599999 13
7.4460001 0.778 -0.68599999 12
7.3460002 0.77999997 -0.68400002 13
7.2969999 0.78799999 -0.68599999 12
7.2509999 0.79500002 -0.68800002 11
7.1389999 0.79500002 -0.68400002 5
6.9629998 0.787 -0.67299998 4
6.8899999 0.79100001 -0.67199999 4
6.8099999 0.79299998 -0.671 3
6.73 0.79500002 -0.66900003 3
6.645 0.79699999 -0.66600001 3
6.5770001 0.80000001 -0.66500002 3
6.4910002 0.80000001 -0.662 3
6.4180002 0.80199999 -0.66000003 3
6.342 0.80299997 -0.65700001 3
6.257 0.80299997 -0.65399998 3
6.1880002 0.80500001 -0.65200001 3
6.1100001 0.80500001 -0.648 4
6.0710001 0.81 -0.64899999 4
6.0110002 0.81199998 -0.64700001 3
5.9569998 0.815 -0.64600003 3
5.882 0.815 -0.64300001 2
5.8070002 0.81400001 -0.639 4
5.7680001 0.81800002 -0.639 3
5.704 0.81800002 -0.63599998 3
5.6560001 0.82099998 -0.63499999 2
5.6300001 0.82700002 -0.63599998 3
5.5619998 0.82599998 -0.63300002 3
5.52 0.829 -0.63200003 3
5.467 0.82999998 -0.63 3
5.4219999 0.83200002 -0.62900001 3
5.3909998 0.83600003 -0.62900001 3
5.342 0.83700001 -0.62699997 3
5.2810001 0.83600003 -0.62300003 5
5.25 0.83999997 -0.62300003 3
5.2140002 0.84200001 -0.62300003 3
5.1659999 0.84299999 -0.62 5
5.1240001 0.84399998 -0.61799997 3
5.0830002 0.84600002 -0.61699998 2
5.0510001 0.84899998 -0.616 2
5.026 0.852 -0.616 3
4.9850001 0.85299999 -0.61400002 2
4.9489999 0.85500002 -0.61299998 2
4.914 0.85699999 -0.61199999 2
4.8720002 0.85699999 -0.60900003 2
4.8280001 0.85699999 -0.60699999 5
4.8070002 0.861 -0.60699999 3
4.776 0.86299998 -0.60600001 3
4.763 0.86799997 -0.60699999 3
4.7309999 0.86900002 -0.60500002 3
4.697 0.87 -0.60399997 3
4.658 0.87 -0.60100001 5
4.6440001 0.875 -0.602 3
4.6300001 0.87900001 -0.602 3
4.6059999 0.88200003 -0.602 3
4.5760002 0.88300002 -0.60000002 2
4.5500002 0.88499999 -0.59899998 2
4.5300002 0.88800001 -0.59899998 4
4.5139999 0.89200002 -0.59899998 2
4.487 0.89300001 -0.597 2
4.4660001 0.89499998 -0.597 2
4.4460001 0.898 -0.59600002 2
4.4390001 0.903 -0.597 3
4.4050002 0.903 -0.59500003 3
4.3860002 0.90499997 -0.59399998 3
4.3709998 0.90799999 -0.59399998 3
4.342 0.90899998 -0.59200001 3
4.3200002 0.91000003 -0.59100002 3
4.3150001 0.91600001 -0.59200001 3
4.302 0.91900003 -0.59100002 3
4.2779999 0.92000002 -0.58999997 2
4.2950001 0.93000001 -0.59399998 3
4.2690001 0.93000001 -0.59200001 3
4.3070002 0.94400001 -0.59899998 3
4.2649999 0.94099998 -0.59500003 3
4.217 0.93599999 -0.58899999 2
4.2540002 0.94999999 -0.59600002 3
4.171 0.93800002 -0.58600003 3
4.1570001 0.94 -0.58499998 3
4.1750002 0.94999999 -0.58899999 3
4.158 0.95099998 -0.588 3
4.132 0.95099998 -0.58600003 3
4.092 0.94700003 -0.58099997 3
4.1100001 0.95700002 -0.58499998 3
4.2090001 0.98500001 -0.60000002 3
4.072 0.95899999 -0.58200002 3
4.1900001 0.99199998 -0.60000002 3
4.0510001 0.96399999 -0.58099997 3
4.02 0.96200001 -0.57800001 4
4.0120001 0.96499997 -0.57800001 4
4.0019999 0.96799999 -0.57700002 4
4.0029998 0.97299999 -0.57800001 4
4.0349998 0.986 -0.58399999 3
4.0190001 0.98699999 -0.58200002 3
4.0440001 0.99800003 -0.58700001 3
4.0349998 1 -0.58600003 3
3.984 0.99199998 -0.57999998 2
3.9679999 0.99299997 -0.57800001 2
4.0050001 1.007 -0.58399999 2
3.9909999 1.008 -0.583 2
3.974 1.0089999 -0.58099997 3
3.9990001 1.02 -0.58600003 3
3.937 1.008 -0.57700002 2
3.9590001 1.018 -0.58099997 2
4.0409999 1.044 -0.59299999 4
4.04 1.048 -0.59399998 3
3.95 1.029 -0.58099997 3
3.9530001 1.034 -0.58200002 2
3.948 1.0369999 -0.58200002 3
4.0050001 1.057 -0.59100002 3
3.882 1.028 -0.57300001 2
3.957 1.052 -0.58399999 2
3.898 1.041 -0.57599998 2
3.8889999 1.0420001 -0.57499999 2
3.901 1.049 -0.57700002 2
3.925 1.0599999 -0.58099997 2
3.9549999 1.072 -0.58499998 2
3.9430001 1.072 -0.58399999 2
3.9230001 1.071 -0.58099997 2
3.9760001 1.089 -0.58899999 2
3.9749999 1.0930001 -0.58899999 3
3.931 1.084 -0.58200002 2
3.881 1.074 -0.57499999 2
3.918 1.0880001 -0.57999998 2
3.888 1.0829999 -0.57599998 2
3.9449999 1.102 -0.58399999 3
3.934 1.103 -0.583 3
3.9130001 1.1 -0.579 3
3.8740001 1.0930001 -0.57300001 2
3.9430001 1.1160001 -0.583 3
3.9579999 1.123 -0.58499998 2
3.9100001 1.113 -0.57800001 3
3.967 1.132 -0.58700001 3
3.9289999 1.124 -0.58099997 3
3.957 1.136 -0.58399999 2
3.9389999 1.133 -0.58099997 3
3.938 1.136 -0.58099997 3
3.9089999 1.13 -0.57599998 2
3.918 1.136 -0.57700002 2
3.9200001 1.14 -0.57700002 3
3.8889999 1.133 -0.57200003 2
3.9619999 1.1569999 -0.58200002 3
3.967 1.1619999 -0.583 3
3.9630001 1.163 -0.58200002 3
3.948 1.161 -0.579 3
3.9000001 1.15 -0.57099998 2
3.9619999 1.17 -0.579 2
3.8989999 1.155 -0.56999999 2
3.937 1.168 -0.57499999 3
4.013 1.193 -0.58499998 3
3.9779999 1.1849999 -0.579 3
3.9779999 1.187 -0.579 3
3.974 1.188 -0.57700002 3
3.9849999 1.194 -0.57800001 2
3.951 1.186 -0.57200003 2
4.0799999 1.227 -0.58999997 3
4.0190001 1.21 -0.57999998 2
4.0110002 1.21 -0.57800001 2
4.0170002 1.214 -0.57800001 2
4.0929999 1.239 -0.588 2
4.0110002 1.216 -0.57499999 2
4.0370002 1.225 -0.57800001 2
4.02 1.222 -0.57499999 2
4.0819998 1.243 -0.583 4
4.0809999 1.244 -0.58099997 3
4.0570002 1.238 -0.57700002 2
4.0830002 1.248 -0.579 2
4.0349998 1.235 -0.57099998 2
4.0760002 1.248 -0.57599998 2
4.1139998 1.262 -0.57999998 2
4.1220002 1.265 -0.57999998 2
4.1420002 1.273 -0.58200002 4
4.1609998 1.28 -0.583 3
4.1170001 1.268 -0.57599998 2
4.1370001 1.275 -0.57700002 4
4.1630001 1.284 -0.579 2
4.1599998 1.284 -0.57800001 3
4.171 1.289 -0.57800001 3
4.1939998 1.2970001 -0.579 3
4.2059999 1.301 -0.57999998 3
4.224 1.308 -0.57999998 2
4.2160001 1.306 -0.57800001 3
4.2420001 1.3150001 -0.57999998 3
4.2540002 1.319 -0.57999998 3
4.2800002 1.3279999 -0.58200002 3
4.2940001 1.3329999 -0.58200002 3
4.3239999 1.3430001 -0.58499998 2
4.3189998 1.342 -0.58200002 4
4.3429999 1.349 -0.58399999 4
4.3530002 1.353 -0.583 4
4.3709998 1.358 -0.58399999 2
4.3779998 1.3609999 -0.583 4
4.395 1.3660001 -0.58399999 2
4.4089999 1.3710001 -0.58399999 4
4.4180002 1.374 -0.583 4
4.4219999 1.375 -0.58099997 4
4.4390001 1.38 -0.58200002 5
4.4559999 1.385 -0.58200002 3
4.4879999 1.395 -0.58399999 3
4.5110002 1.402 -0.58499998 3
4.527 1.406 -0.58499998 4
4.5599999 1.416 -0.58700001 4
4.5869999 1.424 -0.588 2
4.6069999 1.4299999 -0.58899999 2
4.6399999 1.4400001 -0.59100002 2
4.6680002 1.448 -0.59200001 2
4.6880002 1.4529999 -0.59200001 2
4.7119999 1.459 -0.59299999 4
4.7340002 1.465 -0.59399998 3
4.7639999 1.474 -0.59500003 4
4.7849998 1.479 -0.59500003 4
4.8179998 1.488 -0.597 2
4.8429999 1.495 -0.59799999 2
4.8670001 1.501 -0.59799999 4
4.8930001 1.508 -0.59899998 3
4.9250002 1.516 -0.60000002 2
4.9629998 1.526 -0.602 2
4.987 1.5319999 -0.602 2
5.0120001 1.538 -0.60299999 4
5.0510001 1.549 -0.60399997 3
5.0799999 1.556 -0.60500002 4
5.112 1.564 -0.60600001 3
5.1430001 1.571 -0.60699999 3
5.1630001 1.575 -0.60699999 3
5.197 1.584 -0.60799998 2
5.2129998 1.586 -0.60699999 4
5.2519999 1.596 -0.60799998 3
5.2950001 1.607 -0.61000001 3
5.3200002 1.612 -0.61000001 3
5.3569999 1.6210001 -0.611 3
5.3870001 1.627 -0.611 2
5.4349999 1.6390001 -0.61400002 3
5.474 1.648 -0.61500001 3
5.4990001 1.652 -0.61400002 3
5.5479999 1.664 -0.61699998 3
5.5739999 1.669 -0.616 2
5.6079998 1.676 -0.61699998 3
5.6680002 1.691 -0.62 2
5.711 1.7 -0.62099999 3
5.7290001 1.702 -0.61900002 2
5.777 1.712 -0.62099999 4
5.8119998 1.719 -0.62099999 4
5.8670001 1.732 -0.62400001 2
5.9159999 1.742 -0.625 3
5.967 1.753 -0.62699997 3
5.9959998 1.757 -0.62599999 3
6.0450001 1.768 -0.62699997 3
6.1030002 1.78 -0.63 3
6.158 1.7920001 -0.63099998 3
6.23 1.808 -0.63499999 3
6.2800002 1.818 -0.63599998 3
6.3319998 1.8279999 -0.63700002 3
6.3920002 1.841 -0.639 3
6.4569998 1.854 -0.64099997 3
6.5079999 1.864 -0.64200002 3
6.5580001 1.873 -0.64300001 3
6.6430001 1.891 -0.64700001 3
6.6729999 1.8940001 -0.64600003 3
6.744 1.909 -0.648 3
6.796 1.918 -0.64899999 3
6.8740001 1.933 -0.65100002 3
6.9369998 1.9450001 -0.653 3
7.006 1.9579999 -0.65499997 3
7.0840001 1.973 -0.65799999 3
7.198 1.998 -0.66299999 3
7.2880001 2.017 -0.667 5
7.3590002 2.029 -0.66799998 5
7.3699999 2.0250001 -0.66500002 4
7.428 2.0339999 -0.66500002 4
7.5040002 2.0469999 -0.66600001 4
7.586 2.062 -0.66900003 4
7.651 2.072 -0.66900003 4
7.7319999 2.086 -0.671 4
7.8260002 2.1029999 -0.67400002 5
7.888 2.1110001 -0.67400002 5
7.967 2.1240001 -0.676 4
8.0200005 2.1300001 -0.67500001 4
8.1309996 2.1500001 -0.67799997 4
8.1969995 2.1589999 -0.67799997 4
8.2969999 2.1760001 -0.68099999 4
8.3909998 2.191 -0.68300003 4
8.5120001 2.2130001 -0.68699998 3
8.6120005 2.2290001 -0.68900001 4
8.6809998 2.237 -0.68900001 4
8.7860003 2.253 -0.69099998 3
8.8970003 2.2709999 -0.69400001 3
8.9919996 2.2850001 -0.69499999 3
9.125 2.3080001 -0.69999999 3
9.2419996 2.326 -0.70200002 3
9.3430004 2.3399999 -0.704 2
9.4659996 2.359 -0.70700002 3
9.5930004 2.3789999 -0.70899999 3
9.7189999 2.398 -0.71200001 2
9.8330002 2.414 -0.71399999 3
9.9469995 2.4289999 -0.71499997 3
10.078 2.448 -0.71799999 3
10.21 2.467 -0.72100002 3
10.342 2.4849999 -0.72299999 3
10.484 2.5050001 -0.72600001 2
10.645 2.529 -0.73000002 3
10.808 2.553 -0.73400003 2
10.916 2.5639999 -0.73400003 3
11.09 2.5899999 -0.73799998 3
11.196 2.599 -0.73799998 3
11.343 2.618 -0.74000001 2
11.533 2.645 -0.745 2
11.715 2.6700001 -0.74900001 3
11.913 2.6989999 -0.75300002 3
12.09 2.7219999 -0.75599998 3
12.396 2.7720001 -0.76800001 3
12.615 2.803 -0.773 3
12.675 2.7980001 -0.76800001 2
12.887 2.826 -0.773 2
13.128 2.859 -0.778 3
13.341 2.885 -0.78200001 2
13.61 2.9230001 -0.79000002 3
13.813 2.9460001 -0.792 2
14.154 2.997 -0.80299997 4
14.359 3.0190001 -0.80500001 2
14.609 3.0480001 -0.81 2
14.812 3.0680001 -0.81099999 2
15.107 3.105 -0.81800002 2
15.383 3.138 -0.82300001 2
15.74 3.1860001 -0.83200002 2
16.089001 3.2309999 -0.83999997 2
16.384001 3.2639999 -0.84600002 2
16.694 3.299 -0.85100001 2
17.049999 3.342 -0.85900003 1
0 0 0 0
0 0 0 1
17.311001 3.3080001 -0.83999997 1
