# .PCD v0.7 - Point Cloud Data file format
VERSION 0.7
FIELDS x y z intensity
SIZE 4 4 4 4
TYPE F F F F
COUNT 1 1 1 1
WIDTH 1624
HEIGHT 1
VIEWPOINT 0 0 0 1 0 0 0
POINTS 1624
DATA ascii
114.628 28.851999 7.6950002 53
114.714 28.716999 7.6989999 45
114.681 28.551001 7.6939998 48
114.784 28.417999 7.698 49
114.847 28.273001 7.698 45
114.905 28.129 7.6950002 52
114.918 27.969 7.691 52
115.007 27.83 7.6890001 50
115.079 27.683001 7.6869998 63
115.139 27.528 7.6849999 59
115.186 27.372 7.6799998 53
115.163 27.201 7.6680002 48
115.254 27.052999 7.665 44
115.242 26.879999 7.6539998 36
115.352 26.733999 7.6500001 27
0 0 0 14
0 0 0 58
69.719002 15.843 4.6009998 47
68.082001 15.367 4.4840002 59
66.709 14.957 4.3850002 52
65.388 14.56 4.289 55
64.084999 14.172 4.1939998 57
62.797001 13.789 4.0999999 61
61.488998 13.406 4.0050001 53
60.210999 13.033 3.9119999 56
58.943001 12.665 3.8199999 75
57.860001 12.34 3.74 56
57.023998 12.071 3.6760001 41
56.181 11.802 3.6110001 55
54.999001 11.465 3.5239999 67
53.717999 11.111 3.4319999 62
52.785999 10.834 3.3610001 46
52.381001 10.665 3.3239999 59
51.132999 10.327 3.233 54
49.891998 9.9940004 3.1429999 29
49.800999 9.8950005 3.125 8
0 0 0 0
0 0 0 0
0 0 0 0
0 0 0 0
0 0 0 70
0 0 0 16
40.414001 7.553 2.4630001 50
40.380001 7.4780002 2.4489999 30
40.193001 7.3740001 2.4260001 13
39.305 7.1430001 2.359 6
38.514999 6.9330001 2.3 32
37.967999 6.7690001 2.2550001 24
37.445999 6.6100001 2.2119999 16
37.077 6.4809999 2.178 5
36.807999 6.3699999 2.1489999 5
36.790001 6.3010001 2.1359999 5
36.832001 6.243 2.125 5
36.972 6.2020001 2.1199999 4
36.914001 6.1279998 2.1029999 4
36.898998 6.059 2.0880001 3
38.311001 6.223 2.154 3
0 0 0 0
0 0 0 6
36.858002 5.7880001 2.0280001 6
36.424 5.6560001 1.989 8
36.057999 5.533 1.954 14
35.886002 5.441 1.929 18
35.888 5.3759999 1.913 17
35.807999 5.2989998 1.893 16
34.313 5.0149999 1.799 6
32.992001 4.7620001 1.716 17
32.938 4.6939998 1.698 12
32.963001 4.6370001 1.683 8
32.672001 4.5349998 1.653 11
32.568001 4.461 1.632 96
32.591 4.4050002 1.617 101
32.612 4.3470001 1.602 96
32.619999 4.2870002 1.586 99
32.632999 4.2280002 1.569 96
32.647999 4.1690001 1.553 96
32.673 4.1110001 1.536 108
32.678001 4.052 1.52 100
32.700001 3.993 1.503 94
32.724998 3.934 1.485 94
32.736 3.8740001 1.4680001 92
32.764999 3.8150001 1.45 100
32.773998 3.7550001 1.432 99
32.797001 3.697 1.415 102
32.817001 3.6359999 1.395 98
32.823002 3.5739999 1.376 97
32.846001 3.5139999 1.357 95
32.862999 3.454 1.3380001 97
32.889 3.395 1.319 97
32.929001 3.336 1.3 88
32.938 3.2739999 1.279 73
33.233002 3.24 1.2690001 3
0 0 0 0
0 0 0 0
0 0 0 0
0 0 0 1
25.219 2.2179999 0.87900001 1
0 0 0 0
0 0 0 0
0 0 0 0
0 0 0 0
0 0 0 0
0 0 0 0
0 0 0 1
0 0 0 0
0 0 0 0
0 0 0 0
0 0 0 0
0 0 0 0
0 0 0 0
0 0 0 0
0 0 0 0
0 0 0 0
0 0 0 0
0 0 0 1
18.349001 0.94499999 0.37799999 1
18.396999 0.912 0.36399999 1
18.327999 0.87400001 0.347 1
0 0 0 0
0 0 0 1
0 0 0 3
33.841999 1.354 0.52700001 6
0 0 0 1
0 0 0 0
0 0 0 0
0 0 0 0
0 0 0 0
0 0 0 0
0 0 0 0
0 0 0 9
33.877998 0.76999998 0.25400001 33
33.727001 0.70300001 0.221 50
33.706001 0.63800001 0.189 86
33.710999 0.574 0.15800001 109
33.721001 0.50999999 0.126 105
33.762001 0.447 0.093000002 113
33.771 0.38299999 0.061000001 111
33.799 0.31999999 0.028000001 82
33.806 0.25600001 -0.003 109
33.818001 0.192 -0.035999998 107
33.851002 0.12899999 -0.07 76
33.883999 0.064999998 -0.104 63
0 0 0 16
17.489 -0.032000002 -0.089000002 21
17.413 -0.064999998 -0.106 27
17.386 -0.097000003 -0.124 31
17.361 -0.13 -0.142 35
17.334 -0.162 -0.15899999 38
17.309999 -0.19400001 -0.177 45
17.290001 -0.226 -0.19499999 32
17.266001 -0.25799999 -0.213 48
17.246 -0.289 -0.23100001 51
17.247999 -0.322 -0.249 35
17.229 -0.35299999 -0.26800001 67
17.229 -0.38499999 -0.28600001 39
17.216999 -0.41600001 -0.30500001 67
17.226999 -0.44800001 -0.32300001 44
17.191999 -0.479 -0.34200001 47
17.215 -0.51099998 -0.361 61
0 0 0 12
15.926 -0.53100002 -0.36899999 5
15.551 -0.546 -0.37799999 8
15.478 -0.57200003 -0.39300001 9
15.38 -0.59600002 -0.40799999 8
15.283 -0.62 -0.42300001 10
15.205 -0.64399999 -0.43799999 11
15.116 -0.66799998 -0.45300001 13
15.037 -0.69099998 -0.46799999 13
14.977 -0.71499997 -0.48300001 7
14.887 -0.73699999 -0.49700001 7
14.814 -0.75999999 -0.51200002 36
14.826 -0.787 -0.52999997 36
14.836 -0.81400001 -0.54799998 30
14.847 -0.84100002 -0.56599998 29
14.855 -0.86799997 -0.58399999 36
14.857 -0.89399999 -0.602 33
14.854 -0.91900003 -0.61900002 34
14.881 -0.94700003 -0.63800001 36
14.878 -0.97299999 -0.65600002 37
14.878 -0.99800003 -0.67400002 35
14.893 -1.025 -0.69300002 36
14.907 -1.052 -0.71200001 40
14.918 -1.0779999 -0.73000002 41
14.913 -1.103 -0.74800003 42
14.916 -1.1289999 -0.76700002 49
0 0 0 0
0 0 0 0
0 0 0 1
16.795 -1.385 -0.94700003 1
16.021999 -1.348 -0.92299998 1
15.498 -1.33 -0.91299999 2
14.928 -1.306 -0.898 2
15.158 -1.351 -0.93099999 3
14.612 -1.327 -0.91600001 3
0 0 0 3
13.094 -1.232 -0.85399997 10
12.962 -1.2410001 -0.86199999 8
12.802 -1.2460001 -0.86699998 12
12.487 -1.2359999 -0.86199999 6
12.173 -1.225 -0.85600001 3
11.774 -1.204 -0.84299999 3
11.406 -1.184 -0.83200002 2
11.043 -1.164 -0.81900001 2
10.73 -1.148 -0.81 2
10.44 -1.1339999 -0.80199999 3
10.188 -1.122 -0.796 3
9.941 -1.1109999 -0.78899997 3
9.6870003 -1.097 -0.78200001 3
9.4759998 -1.0880001 -0.77700001 3
9.2539997 -1.077 -0.77100003 4
9.0620003 -1.069 -0.76700002 5
8.8579998 -1.058 -0.76200002 4
8.6379995 -1.045 -0.75400001 3
8.4320002 -1.033 -0.74699998 4
8.2480001 -1.023 -0.74199998 4
8.0790005 -1.0140001 -0.73699999 4
7.8889999 -1.002 -0.73100001 4
7.7540002 -0.99599999 -0.72799999 5
7.619 -0.991 -0.72600001 4
7.4910002 -0.98500001 -0.72399998 5
7.3330002 -0.97500002 -0.71799999 5
7.2210002 -0.97000003 -0.71700001 5
7.059 -0.95899999 -0.70999998 7
6.9060001 -0.94800001 -0.704 10
6.7870002 -0.94099998 -0.70099998 10
6.6830001 -0.93599999 -0.699 10
6.5650001 -0.92900002 -0.69499999 10
6.4949999 -0.92799997 -0.69599998 9
6.402 -0.92400002 -0.69499999 9
6.2989998 -0.91799998 -0.69300002 7
6.1859999 -0.91000003 -0.68800002 5
6.0869999 -0.90399998 -0.685 4
5.98 -0.89600003 -0.68099999 4
5.8829999 -0.88999999 -0.67799997 4
5.809 -0.88599998 -0.67699999 4
5.7030001 -0.87800002 -0.67299998 3
5.6269999 -0.87400001 -0.671 4
5.5409999 -0.86799997 -0.66900003 4
5.4629998 -0.86299998 -0.66600001 4
5.362 -0.85399997 -0.66100001 3
5.2979999 -0.85100001 -0.66100001 3
5.2160001 -0.84399998 -0.65700001 3
5.1459999 -0.83899999 -0.65499997 4
5.0650001 -0.83200002 -0.65200001 3
5.007 -0.829 -0.65100002 3
4.9380002 -0.824 -0.64899999 3
4.8889999 -0.82200003 -0.648 3
4.8200002 -0.81599998 -0.64600003 3
4.7719998 -0.81400001 -0.64600003 2
4.7189999 -0.81099999 -0.64499998 1
4.6529999 -0.80500001 -0.64200002 1
4.6129999 -0.80400002 -0.64300001 1
4.5760002 -0.80299997 -0.64399999 1
4.4850001 -0.792 -0.63700002 1
4.434 -0.78899997 -0.63599998 1
4.368 -0.78200001 -0.63200003 1
4.454 -0.80199999 -0.64999998 2
4.3769999 -0.79400003 -0.64499998 2
4.2319999 -0.77200001 -0.62900001 2
4.1139998 -0.755 -0.61699998 2
4.0879998 -0.755 -0.61900002 2
4.0229998 -0.74800003 -0.61400002 2
3.984 -0.745 -0.61299998 2
3.974 -0.74699998 -0.61699998 2
3.9189999 -0.741 -0.61299998 2
3.9000001 -0.74199998 -0.616 2
3.869 -0.74000001 -0.616 2
3.842 -0.73900002 -0.616 2
3.7780001 -0.73100001 -0.611 2
3.7379999 -0.727 -0.60900003 2
3.7460001 -0.73199999 -0.616 2
3.6819999 -0.72299999 -0.61000001 2
3.661 -0.72299999 -0.611 2
3.6359999 -0.722 -0.61199999 2
3.6159999 -0.722 -0.61299998 2
3.54 -0.70999998 -0.60399997 2
3.5090001 -0.70700002 -0.60399997 2
3.487 -0.70599997 -0.60399997 2
3.4419999 -0.69999999 -0.60100001 2
3.4130001 -0.69700003 -0.60000002 2
3.4319999 -0.70499998 -0.60799998 2
3.4330001 -0.708 -0.61199999 2
3.3770001 -0.699 -0.60600001 2
3.358 -0.699 -0.60699999 2
3.3410001 -0.69800001 -0.60799998 2
3.395 -0.71200001 -0.62199998 2
0 0 0 1
3.233 -0.68400002 -0.60000002 2
3.375 -0.71700001 -0.63099998 2
3.2579999 -0.69499999 -0.61299998 2
3.2360001 -0.69300002 -0.61299998 2
3.2060001 -0.68900001 -0.611 2
3.142 -0.67799997 -0.60299999 2
3.1500001 -0.68199998 -0.60799998 1
3.165 -0.68800002 -0.61500001 2
3.0999999 -0.676 -0.60600001 2
2.9809999 -0.653 -0.58600003 1
3.056 -0.671 -0.60399997 1
3.0179999 -0.66500002 -0.60000002 1
2.937 -0.64899999 -0.58700001 1
2.9300001 -0.64999998 -0.58899999 1
2.858 -0.63599998 -0.57800001 1
2.862 -0.639 -0.58200002 1
2.882 -0.64600003 -0.58999997 1
2.836 -0.63700002 -0.58399999 1
2.8210001 -0.63599998 -0.58399999 1
2.7820001 -0.62900001 -0.579 1
2.809 -0.63700002 -0.58700001 1
2.802 -0.63700002 -0.58899999 1
2.7320001 -0.62300003 -0.57700002 1
2.7490001 -0.62900001 -0.58399999 1
2.707 -0.62099999 -0.57800001 1
2.6730001 -0.61500001 -0.574 1
2.681 -0.61799997 -0.57800001 1
2.675 -0.61799997 -0.57999998 1
2.6719999 -0.61900002 -0.58200002 1
2.6719999 -0.62099999 -0.58499998 1
2.6340001 -0.61299998 -0.57999998 1
2.654 -0.61900002 -0.58600003 1
2.6040001 -0.60900003 -0.57800001 1
2.5999999 -0.61000001 -0.57999998 1
2.5239999 -0.59299999 -0.56599998 1
2.517 -0.59299999 -0.56699997 1
2.562 -0.60500002 -0.579 1
2.5280001 -0.59799999 -0.574 1
2.473 -0.58600003 -0.56400001 1
2.5409999 -0.60299999 -0.58200002 1
2.487 -0.59200001 -0.57200003 1
2.438 -0.58099997 -0.56300002 1
2.425 -0.579 -0.56300002 1
2.4159999 -0.57800001 -0.56300002 1
2.4100001 -0.57700002 -0.56400001 1
2.3870001 -0.57300001 -0.56099999 1
2.3800001 -0.57200003 -0.56099999 1
2.3710001 -0.57099998 -0.56099999 1
2.3610001 -0.56900001 -0.56099999 1
2.3529999 -0.56800002 -0.56099999 1
2.3399999 -0.56599998 -0.56 1
2.3280001 -0.56400001 -0.56 1
2.3139999 -0.56099999 -0.55800003 1
2.3039999 -0.56 -0.55800003 1
2.296 -0.55900002 -0.55800003 1
2.2920001 -0.55800003 -0.55900002 1
2.2809999 -0.55599999 -0.55800003 1
2.279 -0.55599999 -0.55900002 1
2.2639999 -0.55299997 -0.55800003 1
2.2509999 -0.551 -0.55599999 1
2.2390001 -0.54799998 -0.55500001 1
2.2320001 -0.54699999 -0.55500001 1
2.227 -0.546 -0.55599999 1
2.221 -0.54500002 -0.55599999 1
2.21 -0.54299998 -0.55500001 1
2.2030001 -0.542 -0.55500001 1
2.188 -0.53799999 -0.55299997 1
2.191 -0.53899997 -0.55500001 1
2.175 -0.53600001 -0.55299997 1
2.1730001 -0.53600001 -0.55400002 1
2.154 -0.53100002 -0.55000001 1
2.161 -0.53299999 -0.55299997 1
2.142 -0.52899998 -0.55000001 1
2.141 -0.52899998 -0.551 1
2.141 -0.52899998 -0.55299997 1
2.1340001 -0.52700001 -0.55199999 1
2.131 -0.52700001 -0.55299997 1
2.1199999 -0.52399999 -0.55199999 1
2.1210001 -0.52499998 -0.55299997 1
2.1140001 -0.523 -0.55299997 2
2.1199999 -0.52499998 -0.55500001 1
2.105 -0.52100003 -0.55299997 2
2.1059999 -0.52100003 -0.55400002 2
2.0969999 -0.51899999 -0.55299997 2
2.0940001 -0.51800001 -0.55400002 2
2.0840001 -0.51599997 -0.55199999 2
2.0869999 -0.51700002 -0.55400002 2
2.079 -0.514 -0.55299997 2
2.073 -0.51300001 -0.55299997 2
2.069 -0.51200002 -0.55299997 2
2.066 -0.51099998 -0.55299997 2
2.059 -0.509 -0.55199999 2
2.0539999 -0.50700003 -0.55199999 2
2.0539999 -0.50700003 -0.55299997 2
2.052 -0.50599998 -0.55299997 2
2.0439999 -0.50400001 -0.55199999 2
2.0409999 -0.50300002 -0.55199999 2
2.039 -0.50300002 -0.55199999 2
2.0320001 -0.50099999 -0.551 1
2.03 -0.5 -0.55199999 2
2.036 -0.50099999 -0.55400002 1
2.026 -0.498 -0.55199999 1
2.0220001 -0.49700001 -0.55199999 1
2.0220001 -0.49599999 -0.55299997 1
2.01 -0.493 -0.55000001 1
2.0020001 -0.49000001 -0.54900002 1
1.999 -0.48899999 -0.54900002 1
1.999 -0.48899999 -0.54900002 1
1.995 -0.48699999 -0.54799998 1
1.995 -0.48699999 -0.54900002 1
1.995 -0.486 -0.55000001 1
1.9809999 -0.48199999 -0.54699999 1
1.9809999 -0.48199999 -0.54699999 1
1.9809999 -0.48100001 -0.54799998 1
1.9680001 -0.477 -0.54400003 1
1.9809999 -0.47999999 -0.54799998 1
1.972 -0.477 -0.546 1
1.976 -0.477 -0.54799998 1
1.975 -0.47600001 -0.54799998 1
1.976 -0.47600001 -0.54900002 1
1.972 -0.47400001 -0.54799998 1
1.971 -0.47299999 -0.54799998 1
1.974 -0.47299999 -0.54900002 1
1.9630001 -0.47 -0.546 1
1.967 -0.47 -0.54799998 1
1.969 -0.46900001 -0.54900002 1
1.969 -0.46900001 -0.54900002 1
1.962 -0.46599999 -0.54699999 1
1.964 -0.46599999 -0.54799998 1
1.9579999 -0.463 -0.546 1
1.9630001 -0.46399999 -0.54799998 1
1.956 -0.461 -0.546 1
1.9630001 -0.46200001 -0.54799998 1
1.957 -0.45899999 -0.546 1
1.956 -0.458 -0.546 1
1.965 -0.45899999 -0.54900002 1
1.959 -0.45699999 -0.54699999 1
1.954 -0.45500001 -0.54500002 1
1.957 -0.454 -0.546 1
1.96 -0.454 -0.54699999 1
1.955 -0.45199999 -0.54500002 1
1.9579999 -0.45100001 -0.546 1
1.961 -0.45100001 -0.54699999 1
1.957 -0.449 -0.54500002 1
1.966 -0.44999999 -0.54799998 1
1.965 -0.44800001 -0.54699999 1
1.9630001 -0.447 -0.54699999 1
1.967 -0.44600001 -0.54699999 1
1.965 -0.44499999 -0.546 1
1.9680001 -0.44400001 -0.54699999 1
1.974 -0.44400001 -0.54799998 1
1.971 -0.442 -0.54699999 1
1.974 -0.442 -0.54799998 1
1.972 -0.44 -0.54699999 1
1.973 -0.43900001 -0.54699999 1
1.977 -0.43799999 -0.54699999 1
1.983 -0.43799999 -0.54799998 1
1.984 -0.43700001 -0.54799998 1
1.9910001 -0.43700001 -0.55000001 1
1.9859999 -0.435 -0.54799998 1
1.988 -0.43399999 -0.54799998 1
1.99 -0.433 -0.54799998 1
1.9960001 -0.43200001 -0.54799998 1
1.989 -0.42899999 -0.546 1
1.995 -0.42899999 -0.54699999 1
1.997 -0.428 -0.54699999 1
2.0009999 -0.428 -0.54699999 1
2.0050001 -0.42699999 -0.54699999 1
2.0090001 -0.426 -0.54799998 1
2.016 -0.426 -0.54900002 1
2.0120001 -0.42300001 -0.54699999 1
2.013 -0.42199999 -0.54699999 1
2.0190001 -0.42199999 -0.54699999 1
2.027 -0.42199999 -0.54900002 1
2.026 -0.41999999 -0.54699999 1
2.029 -0.419 -0.54699999 1
2.0350001 -0.41800001 -0.54799998 1
2.0350001 -0.417 -0.54699999 1
2.0450001 -0.417 -0.54900002 1
2.049 -0.41600001 -0.54900002 1
2.063 -0.417 -0.551 1
2.0669999 -0.41600001 -0.551 1
2.069 -0.414 -0.55000001 1
2.0710001 -0.41299999 -0.55000001 1
2.073 -0.412 -0.54900002 1
2.0810001 -0.41100001 -0.55000001 1
2.0880001 -0.41100001 -0.551 1
2.0910001 -0.40900001 -0.55000001 1
2.099 -0.40900001 -0.551 1
2.1010001 -0.40799999 -0.551 1
2.1040001 -0.40599999 -0.55000001 1
2.119 -0.40700001 -0.55199999 1
2.122 -0.40599999 -0.55199999 1
2.132 -0.40599999 -0.55299997 1
2.141 -0.405 -0.55400002 1
2.142 -0.403 -0.55299997 1
2.1530001 -0.403 -0.55400002 1
2.1589999 -0.40200001 -0.55400002 1
2.1570001 -0.40000001 -0.55199999 1
2.1700001 -0.40000001 -0.55400002 1
2.174 -0.39899999 -0.55299997 1
2.181 -0.398 -0.55299997 1
2.197 -0.39899999 -0.55599999 1
2.2019999 -0.39700001 -0.55500001 1
2.22 -0.398 -0.55800003 1
2.2249999 -0.39700001 -0.55699998 1
2.233 -0.396 -0.55699998 1
2.2390001 -0.39500001 -0.55699998 1
2.247 -0.39399999 -0.55699998 1
2.2620001 -0.39399999 -0.55900002 1
2.2650001 -0.39300001 -0.55800003 1
2.2709999 -0.391 -0.55699998 1
2.2820001 -0.391 -0.55800003 1
2.299 -0.391 -0.56 1
2.3080001 -0.38999999 -0.56 1
2.312 -0.389 -0.55900002 1
2.323 -0.38800001 -0.55900002 1
2.3380001 -0.38800001 -0.56099999 1
2.342 -0.38600001 -0.56 1
2.359 -0.38600001 -0.56099999 1
2.362 -0.384 -0.56 1
2.378 -0.384 -0.56099999 1
2.3870001 -0.38299999 -0.56099999 1
2.3970001 -0.382 -0.56099999 1
2.4089999 -0.38100001 -0.56099999 1
2.427 -0.382 -0.56300002 1
2.441 -0.38100001 -0.56400001 1
2.4460001 -0.37900001 -0.56199998 1
2.4660001 -0.38 -0.56400001 1
2.474 -0.37799999 -0.56400001 1
2.4920001 -0.37799999 -0.565 1
2.507 -0.37799999 -0.56599998 1
2.517 -0.37599999 -0.565 1
2.53 -0.375 -0.565 1
2.5469999 -0.375 -0.56599998 1
2.5669999 -0.375 -0.56800002 1
2.5769999 -0.37400001 -0.56699997 1
2.5880001 -0.373 -0.56699997 1
2.599 -0.37099999 -0.56599998 1
2.615 -0.37099999 -0.56599998 1
2.6400001 -0.37099999 -0.56900001 1
2.6530001 -0.37 -0.56900001 1
2.675 -0.37 -0.56999999 1
2.6919999 -0.36899999 -0.56999999 1
2.7030001 -0.368 -0.56900001 1
2.727 -0.368 -0.57099998 1
2.7460001 -0.36700001 -0.57200003 1
2.763 -0.366 -0.57200003 1
2.7820001 -0.366 -0.57200003 1
2.8 -0.36500001 -0.57300001 2
2.8269999 -0.36500001 -0.574 2
2.8540001 -0.36500001 -0.57599998 2
2.9590001 -0.37599999 -0.59399998 1
3.0339999 -0.382 -0.60500002 2
3.01 -0.375 -0.59600002 2
3.0639999 -0.37799999 -0.60299999 2
3.006 -0.368 -0.58700001 2
3.076 -0.373 -0.597 2
3.095 -0.37099999 -0.59600002 2
3.2409999 -0.38499999 -0.62 2
3.0799999 -0.36300001 -0.58499998 1
3.1059999 -0.36199999 -0.58600003 2
3.1329999 -0.36199999 -0.58700001 2
3.1670001 -0.36199999 -0.588 2
3.1860001 -0.36000001 -0.58700001 2
3.2119999 -0.36000001 -0.588 2
3.253 -0.36000001 -0.59100002 2
3.277 -0.359 -0.58999997 3
3.313 -0.359 -0.59200001 3
3.3380001 -0.35800001 -0.59200001 3
3.3789999 -0.359 -0.59399998 2
3.4449999 -0.36199999 -0.60100001 2
3.4890001 -0.36199999 -0.60299999 2
3.5090001 -0.361 -0.60100001 2
3.529 -0.35800001 -0.60000002 2
3.589 -0.36000001 -0.60399997 2
3.6259999 -0.36000001 -0.60500002 2
3.7409999 -0.36700001 -0.61900002 3
3.7260001 -0.36199999 -0.611 2
3.813 -0.366 -0.61900002 3
3.7980001 -0.36000001 -0.611 3
3.9089999 -0.366 -0.62199998 2
3.973 -0.36700001 -0.62599999 2
4.04 -0.36899999 -0.63099998 3
3.9960001 -0.36000001 -0.61699998 3
3.9960001 -0.35600001 -0.611 4
4.072 -0.35800001 -0.616 2
4.1030002 -0.35600001 -0.61500001 2
4.2069998 -0.36000001 -0.62400001 2
4.276 -0.36199999 -0.62699997 2
4.3200002 -0.36000001 -0.62599999 4
4.3969998 -0.36199999 -0.63 2
4.4250002 -0.359 -0.62699997 2
4.4959998 -0.36000001 -0.63 2
4.5669999 -0.361 -0.63200003 4
4.6339998 -0.361 -0.634 3
4.7059999 -0.361 -0.63599998 3
4.7870002 -0.36199999 -0.639 4
4.8639998 -0.36199999 -0.64099997 4
4.9489999 -0.36300001 -0.64300001 4
5.0240002 -0.36300001 -0.64499998 5
5.1230001 -0.36500001 -0.64899999 4
5.2309999 -0.36700001 -0.65399998 4
5.322 -0.36700001 -0.65600002 4
5.4099998 -0.368 -0.65700001 4
5.5489998 -0.37099999 -0.66500002 4
5.6539998 -0.37200001 -0.667 4
5.7579999 -0.373 -0.66900003 3
5.8959999 -0.375 -0.67500001 3
6.0170002 -0.377 -0.67900002 3
6.165 -0.37900001 -0.68400002 3
6.303 -0.38100001 -0.68900001 4
6.4679999 -0.384 -0.69499999 4
6.6020002 -0.38499999 -0.69800001 5
6.73 -0.38600001 -0.69999999 5
6.8930001 -0.38800001 -0.704 4
7.039 -0.389 -0.70599997 3
7.2379999 -0.39199999 -0.713 3
7.4510002 -0.396 -0.72100002 3
7.7449999 -0.40400001 -0.73500001 5
7.9439998 -0.40599999 -0.74000001 12
8.1079998 -0.40599999 -0.74000001 15
8.2860003 -0.40700001 -0.74199998 15
8.5530005 -0.41100001 -0.75 12
8.8620005 -0.417 -0.75999999 7
9.1339998 -0.421 -0.76700002 7
9.4680004 -0.42699999 -0.778 5
9.7799997 -0.43200001 -0.78500003 5
10.082 -0.435 -0.79100001 4
10.455 -0.44100001 -0.80000001 4
10.899 -0.449 -0.81400001 3
11.318 -0.45500001 -0.824 3
11.759 -0.46200001 -0.83399999 2
12.272 -0.47 -0.847 2
12.861 -0.47999999 -0.86299998 3
13.555 -0.493 -0.884 3
0 0 0 3
15.091 -0.52100003 -0.92699999 8
15.427 -0.51899999 -0.91900003 11
15.582 -0.509 -0.898 10
15.649 -0.49700001 -0.87199998 10
15.694 -0.484 -0.84500003 8
15.847 -0.47400001 -0.82200003 25
0 0 0 53
17.194 -0.484 -0.82499999 67
17.181999 -0.46799999 -0.79100001 64
17.193001 -0.45300001 -0.75800002 67
17.194 -0.43799999 -0.72600001 67
17.188 -0.42300001 -0.69199997 67
17.201 -0.40799999 -0.65899998 43
17.212 -0.39399999 -0.62599999 67
17.209 -0.37900001 -0.59200001 41
17.212 -0.36399999 -0.55900002 67
17.228001 -0.34999999 -0.52499998 41
17.222 -0.336 -0.491 66
17.219 -0.32100001 -0.45699999 67
17.219 -0.30700001 -0.42300001 59
17.236 -0.29300001 -0.389 56
17.254999 -0.27900001 -0.35499999 38
17.242001 -0.26499999 -0.31999999 64
17.247999 -0.25099999 -0.287 58
17.267 -0.23800001 -0.25299999 57
17.280001 -0.22499999 -0.219 35
17.268999 -0.211 -0.184 53
17.302999 -0.198 -0.15000001 48
17.316999 -0.185 -0.116 49
17.312 -0.17200001 -0.081 48
17.323999 -0.15899999 -0.046999998 46
17.348 -0.146 -0.012 48
17.351999 -0.133 0.022 46
17.361 -0.121 0.056000002 38
17.382 -0.108 0.092 41
17.396 -0.094999999 0.12800001 40
17.403 -0.082999997 0.163 37
17.419001 -0.071000002 0.198 35
17.445999 -0.057999998 0.234 32
17.464001 -0.046 0.26899999 30
17.479 -0.034000002 0.30500001 27
17.535999 -0.023 0.34099999 18
17.559 -0.011 0.377 22
17.594999 0 0.41299999 15
17.643999 0.011 0.449 7
17.566 0.023 0.48300001 1
0 0 0 106
33.893002 0.088 1.071 105
33.889 0.109 1.1390001 103
33.867001 0.13 1.206 147
33.875 0.15099999 1.274 147
33.868999 0.171 1.342 145
33.868999 0.192 1.4119999 142
33.848999 0.212 1.478 137
33.858002 0.23199999 1.5470001 138
33.853001 0.25099999 1.6160001 147
33.849998 0.27000001 1.683 101
33.838001 0.289 1.751 150
33.827999 0.308 1.8200001 142
33.832001 0.32699999 1.888 140
33.835999 0.34599999 1.957 124
33.849998 0.36399999 2.027 83
33.849998 0.382 2.096 64
33.849998 0.40000001 2.164 65
33.848999 0.417 2.2309999 70
33.84 0.43399999 2.299 74
33.825001 0.45100001 2.365 71
33.827999 0.46700001 2.434 64
33.834999 0.484 2.503 63
33.824001 0.5 2.5710001 65
33.823002 0.51700002 2.6400001 68
33.806999 0.53200001 2.707 64
33.800999 0.54699999 2.7739999 63
33.806999 0.56300002 2.8429999 62
33.804001 0.57800001 2.9089999 64
33.799 0.59200001 2.977 61
33.793999 0.60699999 3.0439999 58
33.808998 0.62099999 3.1110001 61
33.838001 0.63599998 3.184 61
33.853001 0.64999998 3.2520001 49
33.84 0.66299999 3.3180001 27
33.863998 0.676 3.3870001 6
0 0 0 4
50.106998 1.039 5.2090001 4
50.139999 1.059 5.3109999 4
50.195999 1.0779999 5.4159999 4
0 0 0 0
0 0 0 0
0 0 0 0
0 0 0 0
0 0 0 0
0 0 0 0
0 0 0 0
0 0 0 0
0 0 0 0
0 0 0 0
0 0 0 0
0 0 0 0
0 0 0 2
33.966999 0.87699997 4.592 2
33.859001 0.88300002 4.6420002 1
34.013 0.89600003 4.7290001 1
0 0 0 0
0 0 0 0
0 0 0 1
33.964001 0.926 4.9809999 1
0 0 0 0
0 0 0 0
0 0 0 0
0 0 0 2
0 0 0 0
0 0 0 0
0 0 0 0
0 0 0 2
37.202 1.079 6.086 2
0 0 0 1
34.009998 0.99699998 5.6890001 2
33.764 0.995 5.7090001 2
33.987 1.006 5.809 2
33.912998 1.008 5.8590002 2
33.926998 1.013 5.9229999 2
34.046001 1.02 6.006 2
33.944 1.021 6.0479999 2
33.821999 1.021 6.0869999 2
0 0 0 0
0 0 0 0
0 0 0 0
0 0 0 0
0 0 0 2
34.259998 1.051 6.5300002 3
34.154999 1.05 6.5700002 3
33.915001 1.045 6.5830002 8
33.731998 1.041 6.6059999 14
33.537998 1.0369999 6.625 22
33.370998 1.0319999 6.6490002 24
33.144001 1.027 6.6620002 27
32.924 1.021 6.6739998 28
32.710999 1.015 6.6849999 26
32.490002 1.008 6.6950002 24
32.244999 1.001 6.6989999 26
32.006001 0.99299997 6.7030001 25
31.789 0.98699999 6.71 31
31.591999 0.98100001 6.7210002 27
31.382999 0.97399998 6.7290001 26
31.181999 0.96700001 6.737 26
30.969 0.95999998 6.7420001 26
30.771 0.95300001 6.7490001 31
30.587 0.94599998 6.7589998 25
30.385 0.93800002 6.763 25
30.208 0.93099999 6.7729998 26
29.986 0.92299998 6.7709999 30
29.813 0.91600001 6.7800002 25
29.622999 0.90799999 6.783 25
29.471001 0.90200001 6.7950001 25
29.274 0.89300001 6.7950001 30
29.086 0.88599998 6.796 30
28.941999 0.87900001 6.8070002 27
28.789 0.87199998 6.8150001 27
28.622 0.86400002 6.8189998 30
28.462999 0.85600001 6.8249998 26
28.311001 0.84899998 6.8309999 27
28.16 0.84100002 6.836 27
28.021999 0.833 6.8429999 25
27.874001 0.82599998 6.849 27
27.709999 0.81800002 6.849 26
27.540001 0.80900002 6.8470001 27
27.396999 0.801 6.8520002 23
27.264999 0.79400003 6.8579998 25
27.141001 0.78600001 6.8649998 29
27.018999 0.77899998 6.8720002 25
26.851999 0.76999998 6.8670001 26
26.732 0.76200002 6.8740001 25
26.604 0.75400001 6.8779998 26
26.49 0.74699998 6.8850002 25
26.358999 0.73799998 6.8870001 27
26.229 0.73000002 6.888 28
26.107 0.722 6.8909998 31
26.002001 0.71499997 6.8969998 30
25.889 0.70700002 6.902 23
25.76 0.699 6.901 27
25.636999 0.69 6.901 26
25.525 0.68199998 6.9039998 25
25.408001 0.67400002 6.9050002 24
25.315001 0.66600001 6.9109998 29
25.226 0.65799999 6.9190001 29
25.132 0.65100002 6.9239998 24
25.011999 0.64200002 6.9219999 27
24.910999 0.63300002 6.9239998 23
24.809999 0.625 6.9260001 30
24.719 0.61699998 6.9299998 26
24.625999 0.60900003 6.9330001 26
24.556 0.602 6.9419999 26
24.444 0.59299999 6.9380002 28
24.360001 0.58499998 6.9429998 24
24.253 0.57700002 6.9400001 24
24.176001 0.56800002 6.9450002 29
24.091999 0.56 6.948 26
24.018 0.55199999 6.9530001 27
23.936001 0.54400003 6.954 33
23.844999 0.53500003 6.954 32
23.757999 0.52700001 6.954 31
23.681999 0.51899999 6.9569998 29
23.604 0.51099998 6.9580002 29
23.531 0.50300002 6.96 26
23.455 0.495 6.961 26
23.382999 0.486 6.9629998 30
23.311001 0.47799999 6.9650002 31
23.253 0.47 6.9699998 27
23.184999 0.46200001 6.9720001 32
23.129999 0.454 6.9780002 28
23.062 0.44600001 6.9790001 30
22.993999 0.43700001 6.98 30
22.929001 0.42899999 6.9809999 29
22.865999 0.421 6.9819999 25
22.802999 0.412 6.9829998 26
22.747 0.405 6.9860001 31
22.68 0.396 6.9850001 30
22.622 0.38800001 6.9860001 32
22.563 0.37900001 6.987 26
22.51 0.37099999 6.9889998 26
22.451 0.36300001 6.9889998 27
22.396 0.354 6.9889998 27
22.329 0.34599999 6.9860001 33
22.273001 0.33700001 6.9860001 31
22.224001 0.329 6.987 32
22.181999 0.32100001 6.9899998 31
22.135 0.31299999 6.9910002 31
22.1 0.30500001 6.9959998 32
22.046 0.296 6.994 27
21.997999 0.28799999 6.994 33
21.98 0.28 7.0029998 28
21.927999 0.271 7.0009999 33
21.9 0.26300001 7.007 33
21.864 0.255 7.0089998 26
21.822001 0.24600001 7.0089998 26
21.777 0.23800001 7.0079999 31
21.746 0.23 7.0100002 26
21.709999 0.222 7.0120001 32
21.672001 0.213 7.0110002 31
21.636 0.205 7.0110002 32
21.601999 0.19599999 7.0120001 33
21.563999 0.18799999 7.0110002 26
21.541 0.18000001 7.0139999 33
21.509001 0.17200001 7.0139999 32
21.474001 0.163 7.0139999 34
21.459999 0.156 7.0190001 26
21.43 0.147 7.0180001 32
21.393999 0.139 7.0159998 30
21.377001 0.13 7.0190001 25
21.347 0.122 7.0180001 32
21.327999 0.113 7.02 33
21.302 0.105 7.02 30
21.287001 0.096000001 7.0219998 32
21.25 0.088 7.0180001 32
21.247 0.079999998 7.0240002 31
21.237 0.071999997 7.027 26
21.212999 0.063000001 7.026 25
21.195 0.055 7.026 26
21.177999 0.046 7.026 32
21.160999 0.037999999 7.026 31
21.136999 0.029999999 7.0229998 32
21.129 0.021 7.026 24
21.107 0.013 7.0229998 32
21.097 0.0049999999 7.0240002 26
21.077999 -0.003 7.0219998 25
21.068001 -0.012 7.0219998 30
21.056999 -0.02 7.0219998 30
21.046 -0.028000001 7.0209999 31
21.035 -0.037 7.02 30
21.034 -0.045000002 7.0229998 24
21.023001 -0.052999999 7.0209999 25
21.025999 -0.061999999 7.0240002 26
21.01 -0.071000002 7.02 25
21 -0.079000004 7.0180001 29
21.002001 -0.086999997 7.02 30
21.000999 -0.096000001 7.02 31
20.999001 -0.104 7.02 30
20.995001 -0.113 7.0190001 24
21.002001 -0.122 7.02 24
20.992001 -0.13 7.0170002 30
0 0 0 2
17.825001 -0.125 5.9559999 5
17.780001 -0.132 5.9400001 13
17.778 -0.139 5.9380002 18
17.749001 -0.146 5.9260001 18
17.738001 -0.154 5.921 18
17.716999 -0.16 5.9120002 16
17.687 -0.167 5.8990002 17
17.677999 -0.17399999 5.8930001 18
17.677999 -0.18099999 5.8899999 19
17.652 -0.18799999 5.8779998 20
17.632999 -0.19499999 5.868 21
17.621 -0.20200001 5.8610001 22
17.618999 -0.20900001 5.8559999 22
17.603001 -0.21600001 5.8460002 24
17.594999 -0.223 5.8390002 23
17.579 -0.23 5.829 25
17.579 -0.237 5.8239999 26
17.565001 -0.244 5.8140001 27
17.539 -0.25099999 5.7989998 27
17.540001 -0.25799999 5.7940001 29
17.518999 -0.264 5.7810001 28
17.527 -0.27200001 5.777 28
17.516001 -0.27900001 5.7670002 31
17.514999 -0.28600001 5.7600002 31
17.497 -0.292 5.7470002 32
17.509001 -0.30000001 5.744 32
17.502001 -0.30599999 5.7340002 31
17.481001 -0.31299999 5.7189999 30
17.475 -0.31900001 5.7090001 34
17.488001 -0.32699999 5.7049999 36
17.476 -0.333 5.6929998 35
17.475 -0.34 5.684 35
17.468 -0.347 5.6729999 38
17.469999 -0.354 5.664 34
17.459 -0.36000001 5.651 39
17.455 -0.36700001 5.6399999 39
17.443001 -0.373 5.6259999 41
17.450001 -0.38 5.618 39
17.451 -0.38600001 5.6079998 27
17.43 -0.39300001 5.5900002 41
17.434 -0.39899999 5.5809999 42
17.436001 -0.40599999 5.5700002 42
17.444 -0.41299999 5.5609999 28
17.429001 -0.419 5.5450001 40
17.426001 -0.426 5.533 41
17.412001 -0.43099999 5.5159998 40
17.42 -0.43799999 5.506 43
17.417 -0.44499999 5.493 27
17.421 -0.45199999 5.4809999 29
17.413 -0.45699999 5.4660001 40
17.408001 -0.46399999 5.4510002 42
17.409 -0.46900001 5.4369998 43
17.414 -0.47600001 5.4250002 44
17.408001 -0.48199999 5.4089999 43
17.412001 -0.48800001 5.3969998 30
17.400999 -0.49399999 5.3790002 45
17.407 -0.50099999 5.3660002 45
17.402 -0.50599998 5.3499999 43
17.399 -0.51200002 5.3340001 44
17.399 -0.51800001 5.3179998 41
17.396999 -0.52399999 5.302 45
17.396 -0.52999997 5.2859998 46
17.386 -0.53600001 5.2670002 47
17.391001 -0.54100001 5.2529998 46
17.378 -0.54699999 5.2329998 46
17.393 -0.55299997 5.2199998 48
17.405001 -0.55900002 5.2069998 32
17.386999 -0.56400001 5.1849999 46
17.402 -0.56999999 5.1719999 32
17.382999 -0.57499999 5.1479998 46
17.389999 -0.58099997 5.1329999 44
17.388 -0.58600003 5.1139998 46
17.392 -0.59200001 5.0970001 32
17.396 -0.597 5.0799999 32
17.389 -0.602 5.0599999 47
17.377001 -0.60699999 5.0370002 50
17.389999 -0.61299998 5.0219998 45
17.371 -0.61699998 4.9970002 46
17.386999 -0.62300003 4.9819999 46
17.382 -0.62699997 4.961 46
17.400999 -0.634 4.947 49
17.391001 -0.63800001 4.9239998 46
17.382999 -0.64300001 4.901 46
17.405001 -0.648 4.8870001 34
17.386 -0.65200001 4.8610001 45
17.396999 -0.65700001 4.8429999 31
17.388 -0.66100001 4.8189998 44
17.381001 -0.66600001 4.796 44
17.403999 -0.671 4.7810001 43
17.386999 -0.676 4.7550001 46
17.392 -0.68000001 4.7340002 41
17.4 -0.68400002 4.7140002 39
17.4 -0.68900001 4.6919999 41
17.402 -0.69300002 4.6700001 39
17.412001 -0.69700003 4.6500001 34
17.407 -0.70099998 4.6259999 35
17.403 -0.70499998 4.6020002 36
17.391001 -0.70899999 4.5749998 35
17.396999 -0.713 4.5539999 37
17.408001 -0.71700001 4.533 46
17.413 -0.72100002 4.5100002 31
17.392 -0.72399998 4.4809999 44
17.403999 -0.72799999 4.46 29
17.41 -0.73199999 4.4359999 43
17.409 -0.73500001 4.4109998 43
17.403 -0.73799998 4.3850002 43
17.392 -0.741 4.3569999 40
17.406 -0.745 4.336 39
17.400999 -0.74800003 4.309 40
17.403 -0.75099999 4.2839999 38
17.413 -0.755 4.2610002 41
17.410999 -0.75700003 4.2350001 42
17.414 -0.76099998 4.21 42
17.413 -0.76300001 4.1849999 42
17.416 -0.76599997 4.1589999 42
17.419001 -0.76899999 4.1339998 43
17.422001 -0.77200001 4.1079998 43
17.403 -0.773 4.0760002 39
17.419001 -0.77600002 4.053 41
17.408001 -0.778 4.0229998 41
17.423 -0.78100002 4 41
17.424999 -0.78299999 3.973 40
17.414 -0.78500003 3.9430001 40
17.415001 -0.787 3.915 37
17.426001 -0.78899997 3.8900001 42
17.426001 -0.79100001 3.862 37
17.431 -0.79299998 3.835 27
17.424 -0.79400003 3.8050001 36
17.43 -0.796 3.7780001 26
17.415001 -0.79699999 3.7460001 35
17.414 -0.79799998 3.7179999 34
17.424999 -0.79900002 3.691 34
17.42 -0.80000001 3.661 34
17.423 -0.80199999 3.632 34
17.424999 -0.80299997 3.6029999 33
17.417 -0.80299997 3.572 34
17.417999 -0.80400002 3.543 35
17.419001 -0.80500001 3.5139999 32
17.427999 -0.80599999 3.4860001 35
17.410999 -0.80599999 3.4519999 34
17.424999 -0.80699998 3.425 35
17.421 -0.80699998 3.3940001 33
17.427 -0.80699998 3.3640001 33
17.434999 -0.80800003 3.335 36
17.424 -0.80699998 3.303 33
17.417 -0.80699998 3.27 34
17.41 -0.80599999 3.2390001 35
17.426001 -0.80699998 3.211 37
17.417999 -0.80599999 3.178 35
17.424 -0.80599999 3.148 34
17.424999 -0.80500001 3.1170001 39
17.42 -0.80400002 3.086 34
17.431999 -0.80400002 3.056 28
17.431 -0.80299997 3.0239999 27
17.438999 -0.80199999 2.993 29
17.42 -0.801 2.9579999 41
17.422001 -0.79900002 2.927 38
17.417 -0.79799998 2.8940001 39
17.410999 -0.796 2.8599999 38
17.414 -0.79500002 2.829 38
17.409 -0.79299998 2.796 37
17.403 -0.79100001 2.763 38
17.409 -0.78899997 2.7309999 38
17.398001 -0.787 2.697 36
17.392 -0.78399998 2.664 39
17.407 -0.78299999 2.6329999 27
17.393999 -0.77999997 2.598 40
17.403999 -0.778 2.5669999 29
17.389999 -0.77499998 2.5309999 39
17.395 -0.77200001 2.4990001 28
17.386999 -0.76899999 2.464 44
17.384001 -0.76599997 2.431 41
17.379 -0.76300001 2.3970001 43
17.378 -0.75999999 2.3629999 41
17.393 -0.75700003 2.332 28
17.368999 -0.75300002 2.2950001 40
17.364 -0.74900001 2.26 48
17.358999 -0.74599999 2.2260001 52
17.362 -0.74199998 2.1919999 52
17.364 -0.73799998 2.1589999 31
17.367001 -0.73500001 2.1259999 31
17.355 -0.73000002 2.0910001 48
17.358 -0.72600001 2.0569999 45
17.356001 -0.722 2.0220001 31
17.351999 -0.71799999 1.989 45
17.35 -0.713 1.9529999 47
17.346001 -0.708 1.919 53
17.346001 -0.704 1.885 52
17.341 -0.699 1.85 33
17.347 -0.69400001 1.816 51
17.323999 -0.68800002 1.78 48
17.333 -0.68300003 1.7460001 51
17.327999 -0.67799997 1.711 52
17.320999 -0.67199999 1.676 53
17.313999 -0.66600001 1.641 51
17.323 -0.66100001 1.607 33
17.306999 -0.65399998 1.571 54
17.306999 -0.64899999 1.5369999 50
17.312 -0.64300001 1.502 48
17.306 -0.63700002 1.467 43
17.322001 -0.63099998 1.433 46
17.302 -0.62400001 1.397 45
17.291 -0.61699998 1.3609999 43
17.289 -0.61000001 1.326 46
17.292 -0.60399997 1.291 47
17.284 -0.597 1.256 50
17.275 -0.58899999 1.221 50
17.273001 -0.58200002 1.186 52
17.267 -0.57499999 1.15 54
17.268 -0.56800002 1.115 52
17.274 -0.56 1.08 56
17.264 -0.55299997 1.045 64
17.254 -0.54500002 1.0089999 61
17.256001 -0.537 0.97399998 64
17.259001 -0.52899998 0.93900001 63
17.25 -0.52100003 0.90399998 61
17.259001 -0.51300001 0.86900002 64
17.252001 -0.50400001 0.833 66
17.249001 -0.49599999 0.79799998 67
17.254999 -0.48699999 0.76300001 67
17.239 -0.47799999 0.727 64
17.25 -0.47 0.69199997 67
17.26 -0.461 0.65700001 41
17.243999 -0.45199999 0.62 39
17.242001 -0.44299999 0.58499998 67
17.238001 -0.433 0.55000001 67
17.226 -0.42399999 0.514 67
17.242001 -0.41499999 0.47999999 67
17.243999 -0.405 0.44499999 41
17.247999 -0.39500001 0.41 67
17.237 -0.38499999 0.375 64
17.243 -0.37599999 0.34 67
17.243999 -0.366 0.30500001 63
17.250999 -0.35600001 0.27000001 66
17.245001 -0.345 0.235 64
17.247999 -0.33500001 0.20100001 63
17.240999 -0.32499999 0.16599999 63
17.249001 -0.31400001 0.131 57
17.252001 -0.30399999 0.096000001 56
17.261999 -0.29300001 0.061000001 56
17.263 -0.28200001 0.026000001 37
17.264999 -0.271 -0.0080000004 53
17.271 -0.259 -0.044 33
17.268 -0.248 -0.078000002 51
17.280001 -0.237 -0.113 49
17.285 -0.22499999 -0.148 51
17.274 -0.214 -0.183 50
17.285999 -0.20200001 -0.21799999 51
17.280001 -0.19 -0.252 55
17.291 -0.178 -0.287 47
17.306 -0.16599999 -0.322 46
17.289 -0.154 -0.35699999 43
17.325001 -0.142 -0.39199999 43
17.319 -0.12899999 -0.426 42
17.330999 -0.117 -0.461 42
17.344 -0.104 -0.49599999 38
17.334999 -0.090999998 -0.52999997 34
17.358 -0.079000004 -0.56599998 36
17.362 -0.066 -0.60000002 33
17.377001 -0.052999999 -0.63499999 32
17.386999 -0.039000001 -0.67000002 32
17.403 -0.026000001 -0.70499998 30
17.424999 -0.012 -0.74000001 26
17.429001 0 -0.77499998 25
17.483999 0.014 -0.81199998 22
17.499001 0.028000001 -0.847 18
17.551001 0.041999999 -0.884 13
17.65 0.056000002 -0.92400002 6
17.194 0.068999998 -0.93300003 3
0 0 0 2
15.771 0.089000002 -0.917 3
14.834 0.096000001 -0.89200002 3
14.107 0.103 -0.875 3
13.417 0.109 -0.85799998 3
12.726 0.114 -0.838 3
12.138 0.119 -0.82300001 2
11.641 0.124 -0.81099999 3
11.18 0.12899999 -0.801 3
10.735 0.133 -0.78899997 4
10.359 0.13699999 -0.78100002 6
10.067 0.142 -0.778 9
9.7469997 0.146 -0.77200001 5
9.3409996 0.148 -0.75700003 4
9.0360003 0.15099999 -0.75 5
8.757 0.154 -0.74299997 4
8.4720001 0.15700001 -0.73400003 4
8.1879997 0.15899999 -0.72500002 4
7.9640002 0.162 -0.72000003 4
7.7220001 0.164 -0.713 4
7.52 0.16599999 -0.708 4
7.349 0.169 -0.70499998 4
7.1599998 0.17200001 -0.69999999 5
7.0149999 0.175 -0.699 5
6.77 0.175 -0.68699998 4
6.619 0.177 -0.68400002 4
6.4549999 0.17900001 -0.67799997 4
6.2940001 0.18000001 -0.67299998 4
6.1560001 0.182 -0.66900003 3
6.0110002 0.184 -0.66399997 2
5.8769999 0.185 -0.66000003 2
5.7459998 0.18700001 -0.65499997 3
5.6240001 0.18799999 -0.65200001 3
5.506 0.189 -0.648 3
5.402 0.191 -0.64499998 3
5.296 0.193 -0.64200002 3
5.1830001 0.19400001 -0.63700002 3
5.0780001 0.19499999 -0.63300002 3
4.9790001 0.19599999 -0.63 3
4.8979998 0.197 -0.62800002 3
4.809 0.199 -0.625 3
4.7319999 0.2 -0.62300003 3
4.6570001 0.20200001 -0.62099999 3
4.5739999 0.20299999 -0.61799997 4
4.5040002 0.204 -0.616 3
4.4390001 0.206 -0.61500001 2
4.3720002 0.207 -0.61299998 2
4.2789998 0.207 -0.60699999 2
4.1900001 0.207 -0.60100001 2
4.1680002 0.20999999 -0.60500002 2
4.165 0.214 -0.611 3
4.0710001 0.213 -0.60399997 2
3.997 0.214 -0.60000002 2
3.9760001 0.21699999 -0.60299999 3
3.928 0.21799999 -0.60299999 2
3.8429999 0.21699999 -0.59600002 3
3.7639999 0.21699999 -0.58999997 3
3.7539999 0.22 -0.59399998 2
3.7119999 0.221 -0.59299999 3
3.6589999 0.222 -0.59100002 2
3.6199999 0.22400001 -0.58999997 3
3.575 0.22499999 -0.588 3
3.5369999 0.226 -0.588 2
3.4449999 0.22400001 -0.57800001 2
3.4519999 0.228 -0.58399999 1
3.4949999 0.234 -0.597 1
3.4779999 0.237 -0.59899998 2
3.378 0.233 -0.58700001 2
3.2780001 0.23 -0.57499999 1
3.3829999 0.241 -0.59799999 2
3.2980001 0.23800001 -0.588 1
3.25 0.23800001 -0.58399999 2
3.2379999 0.241 -0.58700001 1
3.2550001 0.24600001 -0.59500003 2
3.148 0.241 -0.57999998 1
3.125 0.242 -0.57999998 1
3.0739999 0.242 -0.57499999 1
3.0439999 0.243 -0.574 1
3.076 0.249 -0.58499998 2
3.079 0.252 -0.58999997 2
3.0320001 0.25099999 -0.58499998 1
2.921 0.245 -0.56699997 1
2.9549999 0.25099999 -0.57800001 1
2.881 0.248 -0.56800002 1
2.859 0.249 -0.56699997 1
2.8659999 0.25299999 -0.57300001 1
2.8239999 0.252 -0.56800002 1
2.8110001 0.25400001 -0.56900001 1
2.8139999 0.257 -0.574 1
2.7190001 0.252 -0.55800003 1
2.7030001 0.25299999 -0.55800003 1
2.8110001 0.266 -0.58399999 1
2.7190001 0.25999999 -0.56900001 1
2.6860001 0.25999999 -0.565 1
2.6860001 0.26300001 -0.56900001 1
2.6789999 0.26499999 -0.57099998 1
2.596 0.25999999 -0.55599999 1
2.622 0.26499999 -0.565 1
2.5780001 0.26300001 -0.55900002 1
2.596 0.26800001 -0.56599998 1
2.5480001 0.266 -0.55900002 1
2.536 0.26699999 -0.55900002 1
2.4920001 0.26499999 -0.55199999 1
2.5320001 0.27200001 -0.56400001 1
2.4560001 0.266 -0.55000001 1
2.4419999 0.26699999 -0.55000001 1
2.4260001 0.26800001 -0.54900002 1
2.4100001 0.26899999 -0.54799998 1
2.4000001 0.27000001 -0.54900002 1
2.3929999 0.27200001 -0.55000001 1
2.3659999 0.271 -0.546 1
2.3540001 0.273 -0.546 1
2.3369999 0.273 -0.54500002 1
2.3429999 0.27599999 -0.54900002 1
2.319 0.27599999 -0.546 1
2.3069999 0.27700001 -0.54500002 1
2.3 0.278 -0.546 1
2.277 0.278 -0.54299998 1
2.2690001 0.27900001 -0.54299998 1
2.2650001 0.28099999 -0.54500002 1
2.2449999 0.28099999 -0.542 1
2.244 0.28299999 -0.54400003 1
2.227 0.28299999 -0.542 1
2.2079999 0.28299999 -0.54000002 1
2.2019999 0.28400001 -0.54100001 1
2.1960001 0.285 -0.54100001 1
2.184 0.28600001 -0.54000002 1
2.178 0.287 -0.54100001 1
2.168 0.28799999 -0.54100001 1
2.158 0.289 -0.54000002 1
2.1440001 0.289 -0.53799999 1
2.1389999 0.29100001 -0.53899997 1
2.1389999 0.29300001 -0.54100001 1
2.1240001 0.29300001 -0.53899997 1
2.1140001 0.29300001 -0.53799999 1
2.1029999 0.294 -0.537 1
2.0999999 0.296 -0.53799999 1
2.095 0.29699999 -0.53899997 1
2.0780001 0.296 -0.53600001 1
2.0829999 0.29899999 -0.53899997 1
2.0710001 0.29899999 -0.53799999 1
2.0680001 0.301 -0.53899997 1
2.056 0.301 -0.537 1
2.05 0.30199999 -0.537 1
2.0409999 0.303 -0.53600001 1
2.026 0.30199999 -0.53399998 1
2.023 0.30399999 -0.53399998 1
2.0150001 0.30399999 -0.53399998 1
2.0139999 0.30599999 -0.53500003 1
2.0120001 0.30700001 -0.53600001 1
2.0050001 0.308 -0.53500003 1
1.999 0.30899999 -0.53500003 1
1.988 0.30899999 -0.53299999 1
1.984 0.31 -0.53399998 1
1.98 0.31099999 -0.53399998 1
1.978 0.31299999 -0.53500003 1
1.972 0.31400001 -0.53399998 1
1.9680001 0.315 -0.53399998 1
1.961 0.315 -0.53299999 1
1.955 0.31600001 -0.53299999 1
1.9450001 0.31600001 -0.53200001 1
1.943 0.317 -0.53200001 1
1.936 0.31799999 -0.53100002 1
1.9349999 0.31900001 -0.53200001 1
1.921 0.31799999 -0.52899998 1
1.921 0.31999999 -0.52999997 1
1.9220001 0.32100001 -0.53100002 1
1.915 0.322 -0.52999997 1
1.92 0.324 -0.53200001 1
1.914 0.32499999 -0.53200001 1
1.91 0.32600001 -0.53200001 1
1.897 0.32499999 -0.52899998 1
1.905 0.32800001 -0.53200001 1
1.893 0.32699999 -0.52899998 1
1.901 0.33000001 -0.53200001 1
1.89 0.329 -0.52999997 1
1.892 0.331 -0.53100002 1
1.89 0.33199999 -0.53100002 1
1.887 0.333 -0.53100002 1
1.877 0.333 -0.52899998 1
1.8710001 0.333 -0.528 1
1.874 0.33500001 -0.52899998 1
1.8710001 0.33500001 -0.52899998 1
1.8660001 0.336 -0.528 1
1.867 0.33700001 -0.52899998 1
1.867 0.33899999 -0.52999997 1
1.853 0.33700001 -0.52600002 1
1.858 0.33899999 -0.528 1
1.8559999 0.34 -0.528 1
1.858 0.34200001 -0.52899998 1
1.855 0.34200001 -0.528 1
1.86 0.34400001 -0.52999997 1
1.858 0.345 -0.52999997 1
1.8559999 0.34599999 -0.52999997 1
1.855 0.347 -0.52999997 1
1.85 0.347 -0.52899998 1
1.855 0.34900001 -0.52999997 1
1.853 0.34999999 -0.52999997 1
1.85 0.35100001 -0.52899998 1
1.85 0.352 -0.52899998 1
1.848 0.352 -0.52899998 1
1.844 0.35299999 -0.528 1
1.844 0.35299999 -0.528 1
1.849 0.35600001 -0.52999997 1
1.847 0.35600001 -0.52899998 1
1.846 0.35699999 -0.52899998 1
1.8430001 0.35699999 -0.528 1
1.846 0.359 -0.52899998 1
1.841 0.359 -0.52700001 1
1.837 0.359 -0.52600002 1
1.841 0.36000001 -0.52700001 1
1.841 0.361 -0.52700001 1
1.845 0.36300001 -0.528 1
1.841 0.36300001 -0.52700001 1
1.849 0.36500001 -0.52899998 1
1.849 0.366 -0.52899998 1
1.847 0.36700001 -0.528 1
1.846 0.36700001 -0.528 1
1.85 0.36899999 -0.52899998 1
1.847 0.36899999 -0.528 1
1.853 0.37099999 -0.52899998 1
1.846 0.37 -0.52700001 1
1.848 0.37099999 -0.52700001 1
1.857 0.37400001 -0.52999997 1
1.852 0.373 -0.528 1
1.854 0.37400001 -0.528 1
1.8559999 0.37599999 -0.528 1
1.857 0.37599999 -0.528 1
1.8660001 0.37900001 -0.52999997 1
1.857 0.37799999 -0.52700001 1
1.865 0.38 -0.52899998 1
1.8660001 0.38 -0.528 1
1.873 0.382 -0.52999997 1
1.87 0.382 -0.528 1
1.874 0.384 -0.52899998 1
1.8710001 0.38299999 -0.528 1
1.883 0.38600001 -0.52999997 1
1.881 0.38699999 -0.52899998 1
1.8839999 0.38800001 -0.52899998 1
1.89 0.389 -0.52999997 1
1.891 0.38999999 -0.52999997 1
1.892 0.38999999 -0.52999997 1
1.895 0.391 -0.52999997 1
1.899 0.39300001 -0.52999997 1
1.897 0.39199999 -0.52899998 1
1.91 0.39500001 -0.53100002 1
1.916 0.39700001 -0.53200001 1
1.913 0.39700001 -0.52999997 1
1.919 0.398 -0.53100002 1
1.918 0.398 -0.52999997 1
1.923 0.39899999 -0.52999997 1
1.9299999 0.40099999 -0.53100002 1
1.9299999 0.40099999 -0.52999997 1
1.941 0.40400001 -0.53299999 1
1.9400001 0.40400001 -0.53100002 1
1.9400001 0.40400001 -0.52999997 1
1.949 0.40599999 -0.53100002 1
1.955 0.40700001 -0.53200001 1
1.952 0.40700001 -0.52999997 1
1.956 0.40799999 -0.52999997 1
1.97 0.41 -0.53299999 1
1.97 0.41100001 -0.53100002 1
1.974 0.41100001 -0.53100002 1
1.976 0.412 -0.53100002 1
1.982 0.41299999 -0.53100002 1
1.992 0.41499999 -0.53200001 1
2 0.417 -0.53299999 1
2 0.417 -0.53200001 1
2.007 0.41800001 -0.53200001 1
2.0139999 0.419 -0.53299999 1
2.0220001 0.421 -0.53299999 1
2.0179999 0.41999999 -0.53100002 1
2.0280001 0.421 -0.53200001 1
2.039 0.42399999 -0.53399998 1
2.046 0.42500001 -0.53399998 1
2.05 0.42500001 -0.53299999 1
2.0580001 0.42699999 -0.53399998 1
2.062 0.42699999 -0.53299999 1
2.0680001 0.428 -0.53299999 1
2.075 0.42899999 -0.53399998 1
2.0810001 0.43000001 -0.53299999 1
2.0869999 0.43099999 -0.53299999 1
2.1070001 0.435 -0.537 1
2.108 0.43399999 -0.53500003 1
2.1129999 0.435 -0.53500003 1
2.1229999 0.43700001 -0.53500003 1
2.1359999 0.43900001 -0.537 1
2.1329999 0.43799999 -0.53399998 1
2.1489999 0.44 -0.53600001 1
2.154 0.44100001 -0.53600001 1
2.1630001 0.442 -0.53600001 1
2.168 0.442 -0.53500003 1
2.178 0.44400001 -0.53600001 1
2.1960001 0.447 -0.53799999 1
2.197 0.44600001 -0.53600001 1
2.2160001 0.449 -0.53899997 1
2.2190001 0.449 -0.53799999 1
2.2260001 0.44999999 -0.537 1
2.247 0.45300001 -0.54000002 1
2.2520001 0.454 -0.53899997 1
2.257 0.454 -0.53799999 1
2.273 0.456 -0.54000002 1
2.28 0.45699999 -0.53899997 1
2.299 0.45899999 -0.54100001 2
2.3180001 0.46200001 -0.54299998 2
2.3369999 0.465 -0.54500002 3
2.3510001 0.46700001 -0.546 4
2.3559999 0.46700001 -0.54500002 5
2.362 0.46700001 -0.54400003 6
2.378 0.46900001 -0.54500002 6
2.3870001 0.47 -0.54500002 7
2.401 0.47099999 -0.54500002 8
2.414 0.472 -0.546 7
2.4260001 0.47400001 -0.546 11
2.441 0.47499999 -0.54699999 8
2.4519999 0.47600001 -0.546 11
2.4649999 0.477 -0.546 8
2.4860001 0.47999999 -0.54799998 8
2.493 0.47999999 -0.54699999 8
2.5050001 0.48100001 -0.54699999 8
2.529 0.484 -0.55000001 8
2.54 0.484 -0.54900002 8
2.5539999 0.486 -0.54900002 8
2.5710001 0.48699999 -0.55000001 8
2.5910001 0.48899999 -0.551 8
2.6129999 0.49200001 -0.55299997 9
2.6240001 0.49200001 -0.55199999 9
2.641 0.49399999 -0.55199999 8
2.661 0.49599999 -0.55299997 8
2.6760001 0.49700001 -0.55299997 8
2.697 0.49900001 -0.55500001 8
2.7119999 0.5 -0.55400002 8
2.734 0.50199997 -0.55599999 8
2.753 0.50400001 -0.55599999 9
2.78 0.50599998 -0.55800003 9
2.793 0.50700003 -0.55699998 9
2.8150001 0.509 -0.55800003 9
2.8299999 0.509 -0.55800003 9
2.855 0.51200002 -0.55900002 8
2.8770001 0.51300001 -0.56 9
2.895 0.514 -0.56 8
2.9189999 0.51599997 -0.56099999 8
2.944 0.51800001 -0.56199998 9
2.973 0.52100003 -0.56400001 8
2.997 0.523 -0.56400001 8
3.0109999 0.523 -0.56300002 7
3.039 0.52499998 -0.565 6
3.066 0.52700001 -0.56599998 4
3.079 0.52700001 -0.56400001 3
3.1129999 0.52999997 -0.56599998 2
3.1389999 0.53100002 -0.56699997 2
3.161 0.53200001 -0.56699997 2
3.2820001 0.55000001 -0.58399999 2
3.279 0.546 -0.579 2
3.2980001 0.546 -0.57800001 2
3.381 0.55699998 -0.588 2
3.323 0.54400003 -0.574 2
3.3870001 0.55199999 -0.58099997 2
3.4920001 0.565 -0.59399998 2
3.391 0.546 -0.57200003 1
3.46 0.55299997 -0.579 2
3.5009999 0.55699998 -0.58099997 2
3.4979999 0.55299997 -0.57599998 1
3.5369999 0.55500001 -0.57800001 1
3.6240001 0.565 -0.58700001 2
3.6029999 0.55800003 -0.579 2
3.661 0.56300002 -0.583 3
3.6760001 0.56199998 -0.58099997 2
3.7920001 0.57599998 -0.59399998 2
3.8380001 0.579 -0.59600002 3
3.928 0.588 -0.60500002 3
3.918 0.58200002 -0.59799999 2
3.954 0.583 -0.59799999 2
3.934 0.57599998 -0.58899999 4
3.973 0.57700002 -0.58999997 4
4.0219998 0.57999998 -0.59200001 3
4.073 0.583 -0.59399998 4
4.1139998 0.58399999 -0.59399998 4
4.197 0.59100002 -0.60000002 3
4.2470002 0.59299999 -0.60100001 3
4.3039999 0.59600002 -0.60299999 3
4.3319998 0.59500003 -0.60100001 3
4.4200001 0.602 -0.60799998 3
4.4850001 0.60600001 -0.61000001 3
4.5320001 0.60699999 -0.61000001 3
4.5879998 0.60900003 -0.611 2
4.6490002 0.611 -0.61299998 5
4.7199998 0.61500001 -0.616 3
4.7820001 0.61699998 -0.61699998 3
4.8449998 0.61900002 -0.61900002 5
4.9109998 0.62099999 -0.62 3
5 0.62599999 -0.625 3
5.0780001 0.63 -0.62699997 3
5.177 0.63499999 -0.63200003 3
5.2529998 0.63800001 -0.634 3
5.3629999 0.64399999 -0.63999999 3
5.4349999 0.64600003 -0.64099997 3
5.5320001 0.64999998 -0.64499998 4
5.6149998 0.653 -0.64700001 4
5.704 0.65600002 -0.64899999 3
5.8150001 0.66000003 -0.653 3
5.9260001 0.66500002 -0.65799999 4
6.0430002 0.67000002 -0.662 4
6.1300001 0.671 -0.66299999 4
6.2140002 0.67199999 -0.66399997 3
6.349 0.67799997 -0.66900003 4
6.4990001 0.685 -0.676 4
6.625 0.68900001 -0.68000001 4
6.7490001 0.69300002 -0.68300003 4
6.868 0.69499999 -0.68599999 4
7.0089998 0.69999999 -0.69 5
7.1430001 0.70300001 -0.69400001 4
7.2969999 0.708 -0.69800001 5
7.5250001 0.71899998 -0.70999998 13
7.6290002 0.71799999 -0.70899999 13
7.7399998 0.71700001 -0.70899999 13
7.8959999 0.72100002 -0.71200001 14
8.0869999 0.72600001 -0.71899998 14
8.2770004 0.73100001 -0.72399998 13
8.4460001 0.73400003 -0.727 10
8.6230001 0.736 -0.73100001 6
8.8690004 0.74400002 -0.73900002 4
9.073 0.74699998 -0.74400002 4
9.3079996 0.75300002 -0.75099999 4
9.5369997 0.75700003 -0.75599998 3
9.776 0.76099998 -0.76200002 3
10.037 0.76599997 -0.76899999 3
10.312 0.77100003 -0.77600002 3
10.571 0.77399999 -0.78100002 3
10.856 0.778 -0.787 3
11.207 0.78500003 -0.79699999 3
11.593 0.79400003 -0.80900002 4
11.935 0.79900002 -0.81699997 9
12.187 0.796 -0.81800002 5
12.349 0.787 -0.81199998 3
12.894 0.801 -0.83099997 3
13.485 0.81599998 -0.85100001 3
14.009 0.82599998 -0.866 4
14.491 0.83099997 -0.87599999 3
14.973 0.83399999 -0.88499999 3
15.596 0.84299999 -0.90200001 2
15.255 0.80000001 -0.86199999 2
15.951 0.81 -0.88 5
0 0 0 2
0 0 0 0
0 0 0 4
0 0 0 4
17.437 0.741 -0.84899998 4
17.434999 0.71100003 -0.82599998 4
17.406 0.68000001 -0.80299997 4
