# .PCD v0.7 - Point Cloud Data file format
VERSION 0.7
FIELDS x y z intensity
SIZE 4 4 4 4
TYPE F F F F
COUNT 1 1 1 1
WIDTH 1751
HEIGHT 1
VIEWPOINT 0 0 0 1 0 0 0
POINTS 1751
DATA ascii
8.0050001 -2.7539999 -0.16 4
8.0019999 -2.7460001 -0.162 3
8.0059996 -2.7420001 -0.16599999 2
8.0159998 -2.7390001 -0.169 1
8.0349998 -2.7390001 -0.17200001 1
8.0530005 -2.7390001 -0.175 1
0 0 0 2
13.583 -4.598 -0.30599999 18
13.64 -4.6059999 -0.31200001 32
13.648 -4.5970001 -0.317 47
13.606 -4.5710001 -0.32100001 46
13.583 -4.5510001 -0.32499999 57
13.601 -4.5450001 -0.331 55
13.612 -4.5359998 -0.336 43
13.636 -4.5320001 -0.34099999 47
13.669 -4.5300002 -0.34599999 47
13.646 -4.5100002 -0.34999999 47
13.64 -4.494 -0.354 46
13.682 -4.4949999 -0.36000001 47
13.703 -4.4879999 -0.36500001 47
13.707 -4.4759998 -0.37 47
13.66 -4.4460001 -0.37400001 34
13.712 -4.4489999 -0.37900001 24
13.729 -4.441 -0.384 21
13.727 -4.4260001 -0.38800001 20
13.797 -4.4330001 -0.39500001 16
13.768 -4.4089999 -0.39899999 16
13.797 -4.4029999 -0.40400001 12
13.808 -4.3920002 -0.40799999 13
13.845 -4.388 -0.414 12
13.903 -4.3909998 -0.41999999 8
13.89 -4.3709998 -0.42300001 11
13.844 -4.3400002 -0.426 20
13.904 -4.3429999 -0.43200001 14
14.052 -4.3730001 -0.44100001 9
14.093 -4.369 -0.447 12
14.153 -4.3709998 -0.45199999 12
14.185 -4.3639998 -0.45699999 11
14.24 -4.3629999 -0.463 8
14.302 -4.3639998 -0.46900001 9
14.341 -4.3579998 -0.47499999 8
14.403 -4.3590002 -0.47999999 8
14.454 -4.3559999 -0.486 3
0 0 0 11
30.728001 -9.1820002 -1.05 9
30.733 -9.1440001 -1.058 7
30.743999 -9.1070004 -1.067 6
30.829 -9.0909996 -1.077 6
0 0 0 0
0 0 0 0
0 0 0 2
0 0 0 32
16.17 -4.658 -0.58399999 43
16.172001 -4.6370001 -0.588 31
16.172001 -4.6139998 -0.59200001 31
16.153999 -4.586 -0.59500003 45
16.157 -4.5630002 -0.59799999 37
16.16 -4.5409999 -0.602 39
16.164 -4.5190001 -0.60600001 35
16.162001 -4.4949999 -0.60900003 28
16.155001 -4.4699998 -0.61199999 42
16.15 -4.4450002 -0.61500001 40
16.166 -4.4250002 -0.61799997 24
16.146 -4.3959999 -0.62099999 27
16.148001 -4.3720002 -0.62400001 25
16.156 -4.3499999 -0.62699997 26
16.153999 -4.3249998 -0.63 26
16.15 -4.2989998 -0.63200003 26
16.141001 -4.2709999 -0.63499999 36
16.222 -4.2680001 -0.63999999 7
16.302999 -4.2639999 -0.64600003 7
16.371 -4.257 -0.65200001 10
16.459999 -4.2540002 -0.65799999 10
16.534 -4.2459998 -0.66299999 9
16.627001 -4.244 -0.66900003 8
16.714001 -4.2389998 -0.67500001 11
16.780001 -4.2280002 -0.68000001 6
16.889999 -4.2290001 -0.68699998 7
16.993999 -4.2270002 -0.69300002 9
17.103001 -4.2259998 -0.699 4
0 0 0 41
18.533001 -4.5180001 -0.76200002 71
18.545 -4.4899998 -0.764 59
18.566 -4.4640002 -0.76700002 37
18.572001 -4.434 -0.76899999 36
18.591 -4.408 -0.77200001 36
18.604 -4.3779998 -0.77399999 36
18.620001 -4.3509998 -0.77600002 44
18.646 -4.3249998 -0.778 31
18.673 -4.2989998 -0.78100002 31
18.691 -4.2709999 -0.78299999 27
18.718 -4.2449999 -0.78500003 34
18.753 -4.2199998 -0.787 31
18.827999 -4.2030001 -0.79100001 26
18.868999 -4.1799998 -0.79400003 22
18.938999 -4.1620002 -0.79699999 17
19.048 -4.152 -0.80199999 2
0 0 0 8
34.714001 -7.4429998 -1.464 35
34.794998 -7.3979998 -1.4680001 43
34.492001 -7.27 -1.455 38
34.576 -7.2249999 -1.459 24
0 0 0 5
21.135 -4.3400002 -0.89099997 54
21.127001 -4.3000002 -0.89099997 66
21.138 -4.2620001 -0.88999999 58
21.098 -4.2150002 -0.88800001 38
21.110001 -4.1789999 -0.88800001 46
0 0 0 1
18.708 -3.6329999 -0.78600001 2
18.674999 -3.592 -0.78299999 2
18.622999 -3.5469999 -0.77999997 2
18.607 -3.5090001 -0.778 2
18.608 -3.474 -0.77700001 2
18.556999 -3.4289999 -0.77399999 2
18.497 -3.3829999 -0.76999998 2
18.49 -3.346 -0.76800001 2
18.499001 -3.312 -0.76599997 2
18.476999 -3.273 -0.76300001 2
18.459 -3.234 -0.76099998 2
18.465 -3.1989999 -0.759 3
18.462 -3.1630001 -0.75700003 2
18.533001 -3.1389999 -0.75700003 5
18.528 -3.1029999 -0.75400001 5
18.52 -3.066 -0.75199997 4
18.507 -3.027 -0.74900001 4
18.493999 -2.9890001 -0.745 4
18.444 -2.944 -0.74000001 3
18.4 -2.902 -0.736 2
18.391001 -2.8640001 -0.73199999 3
18.386999 -2.8269999 -0.72799999 3
18.393 -2.7920001 -0.72500002 2
18.523001 -2.7750001 -0.727 5
18.504999 -2.7349999 -0.72299999 5
18.511 -2.6989999 -0.71899998 7
18.507999 -2.6630001 -0.71499997 8
18.507999 -2.6259999 -0.71100003 9
18.496 -2.5869999 -0.70700002 9
18.479 -2.5480001 -0.70200002 5
18.354 -2.494 -0.69300002 3
18.372 -2.46 -0.68900001 3
18.346001 -2.4189999 -0.68300003 3
18.386999 -2.3870001 -0.68000001 3
18.378 -2.349 -0.67500001 3
18.374001 -2.312 -0.67000002 3
18.416 -2.28 -0.667 2
18.441 -2.2460001 -0.662 2
18.451 -2.21 -0.65700001 1
18.448999 -2.1730001 -0.65200001 1
18.502001 -2.141 -0.648 1
18.514 -2.105 -0.64300001 1
18.528999 -2.069 -0.63700002 1
18.542 -2.033 -0.63200003 1
0 0 0 25
0 0 0 25
0 0 0 3
18.934999 -1.921 -0.62 3
18.959999 -1.886 -0.61400002 3
18.992001 -1.85 -0.60799998 2
19.893999 -1.898 -0.62900001 1
20.153 -1.881 -0.63 1
20.431999 -1.865 -0.63099998 1
20.792 -1.855 -0.634 1
21.118 -1.84 -0.63499999 1
21.437 -1.824 -0.63599998 1
21.927 -1.821 -0.64099997 5
22.214001 -1.8 -0.64099997 5
0 0 0 83
38.68 -2.974 -1.0829999 8
39.404999 -2.9489999 -1.086 8
0 0 0 11
26.336 -1.862 -0.70200002 152
26.347 -1.808 -0.69 155
26.371 -1.755 -0.67799997 47
0 0 0 0
0 0 0 31
0 0 0 0
0 0 0 4
38.771999 -2.184 -0.903 15
38.710999 -2.1010001 -0.88099998 12
38.153999 -1.992 -0.84899998 23
0 0 0 6
0 0 0 11
40.174 -1.848 -0.82999998 16
0 0 0 38
43.366001 -1.819 -0.84899998 39
43.652 -1.7410001 -0.82999998 38
44.185001 -1.6720001 -0.815 40
44.046001 -1.577 -0.78799999 23
44.088001 -1.488 -0.76300001 16
44.117001 -1.399 -0.73799998 15
44.125 -1.308 -0.71200001 4
0 0 0 123
66.740997 -1.71 -0.99800003 52
66.768997 -1.572 -0.95700002 77
66.737999 -1.4349999 -0.91600001 69
0 0 0 0
0 0 0 15
72.694 -1.118 -0.86000001 48
0 0 0 0
0 0 0 0
0 0 0 0
0 0 0 33
133.64799 -0.69999999 -1.143 121
0 0 0 0
0 0 0 33
133.592 0.109 -0.87 39
133.60001 0.37 -0.77899998 45
133.52499 0.63800001 -0.685 64
133.521 0.90700001 -0.59100002 89
133.465 1.17 -0.49700001 90
133.452 1.437 -0.40099999 96
133.44 1.704 -0.30399999 90
133.399 1.969 -0.207 84
133.37 2.2349999 -0.108 69
133.455 2.4979999 -0.011 53
133.369 2.7609999 0.088 39
0 0 0 0
0 0 0 0
0 0 0 0
0 0 0 29
0 0 0 0
0 0 0 22
87.973999 3.0320001 0.53200001 12
88.045998 3.2060001 0.60299999 14
88.181 3.381 0.67299998 14
88.393997 3.5610001 0.74599999 17
91.299004 3.855 0.84500003 12
89.023003 3.9260001 0.89399999 19
89.039001 4.099 0.96799999 16
0 0 0 0
0 0 0 0
0 0 0 14
87.699997 4.711 1.245 18
87.842003 4.8860002 1.322 17
87.861 5.0539999 1.397 18
87.723 5.2129998 1.47 16
0 0 0 0
0 0 0 0
0 0 0 17
89.042999 5.96 1.801 24
89.323997 6.1409998 1.8839999 14
90.084 6.3639998 1.98 19
90.037003 6.5279999 2.059 24
90.327003 6.7160001 2.1470001 15
0 0 0 0
0 0 0 0
0 0 0 0
0 0 0 0
0 0 0 25
0 0 0 112
0 0 0 0
0 0 0 18
76.085999 6.9060001 2.4360001 33
75.269997 6.967 2.4809999 38
75.049004 7.0809999 2.5450001 35
74.571999 7.1659999 2.599 34
72.880997 7.131 2.608 23
72.866997 7.2589998 2.677 39
0 0 0 8
0 0 0 0
0 0 0 24
46.456001 4.9530001 1.886 23
46.490002 5.0370002 1.932 27
46.599998 5.1279998 1.9809999 35
46.568001 5.204 2.0250001 45
46.747002 5.3039999 2.079 44
46.924 5.4039998 2.132 27
47.084999 5.5029998 2.187 38
47.050999 5.5780001 2.2320001 46
46.985001 5.6490002 2.2750001 38
47.035999 5.7329998 2.3239999 46
46.943001 5.802 2.3659999 46
46.772999 5.8569999 2.405 27
46.558998 5.9070001 2.441 26
46.382 5.961 2.4779999 44
46.474998 6.0500002 2.53 35
46.466 6.1240001 2.575 34
0 0 0 9
43.466999 5.869 2.4979999 10
43.548 5.9499998 2.5469999 8
43.525002 6.0159998 2.5899999 7
43.610001 6.0970001 2.6389999 4
0 0 0 35
46.105999 6.5900002 2.8840001 26
46.103001 6.6620002 2.931 37
45.993999 6.7179999 2.9719999 34
45.806999 6.7610002 3.007 28
0 0 0 4
42.782001 6.4450002 2.8959999 20
42.785 6.5110002 2.9400001 36
42.712002 6.5640001 2.98 41
0 0 0 0
0 0 0 0
0 0 0 19
33.957001 5.421 2.5109999 22
33.674 5.4250002 2.5250001 23
33.438 5.4359999 2.5420001 30
32.951 5.4039998 2.5380001 22
32.631001 5.3990002 2.5480001 30
32.631001 5.4450002 2.5810001 24
30.669001 5.1609998 2.4579999 2
30.698999 5.21 2.493 8
30.639999 5.243 2.52 26
30.601 5.2789998 2.549 19
30.554001 5.3130002 2.5769999 23
30.632 5.368 2.6159999 28
30.556999 5.3969998 2.642 32
30.568001 5.4400001 2.674 22
30.541 5.4770002 2.7030001 15
30.496 5.5089998 2.7309999 15
30.504 5.5510001 2.7639999 12
30.462999 5.5840001 2.7920001 7
30.357 5.6040001 2.8139999 3
30.379999 5.6479998 2.848 3
30.464001 5.7030001 2.8870001 4
30.399 5.73 2.9130001 2
0 0 0 33
33.057999 6.3150001 3.237 23
32.792999 6.3060002 3.2449999 26
32.735001 6.335 3.273 24
32.573002 6.3439999 3.29 35
32.556999 6.381 3.3239999 21
32.939999 6.4949999 3.3959999 18
32.662998 6.48 3.401 7
0 0 0 0
0 0 0 1
0 0 0 33
34.983002 7.1020002 3.786 26
34.394001 7.0229998 3.7579999 24
34.402 7.0640001 3.7939999 25
32.367001 6.6820002 3.6029999 9
32.237 6.691 3.6210001 13
32.191002 6.7179999 3.648 17
32.125999 6.7389998 3.674 17
32.104 6.77 3.704 12
32.384998 6.8639998 3.7690001 19
32.113998 6.8400002 3.77 16
32.118 6.875 3.803 11
32.255001 6.9380002 3.8510001 22
32.092999 6.9359999 3.8640001 22
32.583 7.0760002 3.9560001 22
32.381001 7.0650001 3.964 22
32.139999 7.0440001 3.967 21
32.088001 7.0640001 3.9909999 21
32.058998 7.0890002 4.02 21
31.806999 7.0650001 4.02 21
31.694 7.0700002 4.0359998 30
31.627001 7.085 4.0580001 21
31.205999 7.02 4.0349998 20
30.92 6.9840002 4.0279999 20
30.474001 6.9109998 4 19
30.358999 6.9120002 4.013 19
30.273001 6.9200001 4.0310001 26
30.225 6.9349999 4.0539999 19
30.216999 6.96 4.0809999 19
29.989 6.9330001 4.079 19
29.959999 6.9520001 4.1030002 25
29.985001 6.9819999 4.1350002 28
30.047001 7.0219998 4.1719999 41
30.127001 7.0650001 4.2129998 39
30.229 7.1139998 4.2550001 42
30.344999 7.165 4.2989998 38
30.367001 7.1929998 4.3309999 32
0 0 0 0
0 0 0 12
26.000999 6.2189999 3.78 25
26.049999 6.2490001 3.8110001 29
26.025 6.2620001 3.8310001 43
25.839001 6.2360001 3.8269999 44
25.662001 6.2119999 3.823 46
24.954 6.0570002 3.74 35
24.818001 6.0409999 3.7420001 27
24.761999 6.0440001 3.7550001 26
24.714001 6.0489998 3.7690001 42
24.774 6.079 3.799 36
24.740999 6.086 3.816 45
24.705 6.092 3.8310001 40
24.778 6.125 3.8629999 30
25.669001 6.3610001 4.0240002 39
25.636999 6.368 4.04 38
25.58 6.368 4.053 33
25.406 6.3390002 4.046 42
25.263 6.3179998 4.0440001 32
25.174 6.309 4.0500002 24
25.093 6.302 4.0580001 19
24.945 6.277 4.0539999 15
24.833 6.2610002 4.0560002 14
24.84 6.2750001 4.0760002 13
24.787001 6.2740002 4.0869999 13
24.714001 6.2670002 4.0949998 13
24.65 6.2620001 4.1030002 16
24.604 6.2610002 4.1149998 24
24.634001 6.2789998 4.138 30
24.698 6.3060002 4.1680002 31
24.688999 6.3140001 4.1849999 40
24.68 6.3210001 4.2020001 52
24.664 6.3270001 4.217 42
24.625999 6.3260002 4.2280002 46
24.589001 6.3249998 4.2399998 44
24.502001 6.3119998 4.243 46
24.445999 6.3049998 4.2509999 44
24.414 6.3049998 4.2620001 43
24.437 6.3189998 4.283 28
24.268 6.2820001 4.27 16
24.252001 6.2849998 4.2839999 22
24.365 6.3210001 4.3210001 14
24.301001 6.3109999 4.3260002 18
24.351999 6.3299999 4.3509998 22
24.382 6.3439999 4.3720002 15
24.379 6.349 4.388 16
24.365 6.3499999 4.401 34
24.382 6.3600001 4.4200001 37
24.391001 6.3670001 4.4369998 28
24.514 6.4029999 4.474 13
24.344 6.3629999 4.4580002 12
24.433001 6.3899999 4.4889998 13
24.514999 6.415 4.5190001 13
24.503 6.4159999 4.5310001 13
24.462 6.408 4.5380001 13
24.521999 6.4260001 4.5630002 13
24.687 6.4720001 4.6079998 13
24.726 6.4840002 4.6300001 13
24.948999 6.5440001 4.6849999 13
25.761 6.7589998 4.8509998 14
25.719999 6.75 4.8569999 14
25.667999 6.737 4.8610001 14
25.620001 6.7249999 4.8649998 14
25.558001 6.71 4.8660002 16
25.511999 6.698 4.8699999 26
25.478001 6.6880002 4.8759999 33
25.462999 6.684 4.8860002 35
25.443001 6.678 4.895 34
25.433001 6.6739998 4.9050002 33
25.409 6.6659999 4.9120002 38
25.406 6.6630001 4.9229999 38
25.395 6.658 4.9320002 39
25.386999 6.6539998 4.9419999 39
25.375999 6.6479998 4.9510002 33
25.378 6.6459999 4.9619999 40
25.378 6.6430001 4.973 35
25.389999 6.6430001 4.9850001 37
25.416 6.6459999 5 42
25.393 6.6350002 5.006 43
25.43 6.6409998 5.0229998 46
25.466 6.6459999 5.039 49
25.518 6.6539998 5.059 51
25.563999 6.6609998 5.0770001 50
25.601999 6.6659999 5.0929999 48
25.596001 6.658 5.1009998 47
25.639 6.6630001 5.1170001 43
25.665001 6.6630001 5.1300001 51
25.681 6.6609998 5.1409998 37
25.695999 6.658 5.152 40
25.709999 6.6529999 5.1630001 36
25.721001 6.6490002 5.1719999 32
25.725 6.6420002 5.1799998 31
25.718 6.631 5.1859999 28
25.716 6.6220002 5.1919999 28
25.726999 6.6170001 5.1999998 24
25.743999 6.612 5.21 22
25.749001 6.6040001 5.217 19
25.756001 6.5960002 5.224 18
25.764999 6.5879998 5.2309999 17
25.771 6.579 5.237 18
25.768 6.5679998 5.2410002 20
25.775 6.559 5.2470002 18
25.774 6.5469999 5.2519999 12
25.764999 6.5339999 5.2540002 15
25.773001 6.5240002 5.2600002 17
25.773001 6.5120001 5.2639999 14
25.783001 6.5019999 5.27 9
25.785999 6.4899998 5.2729998 8
25.798 6.48 5.2789998 7
25.799 6.467 5.2820001 6
25.750999 6.4419999 5.2740002 4
25.767 6.4330001 5.2789998 1
0 0 0 33
33.487999 8.3240004 6.8670001 33
33.485001 8.3039999 6.869 29
33.473999 8.2819996 6.868 32
33.386002 8.2410002 6.8520002 34
33.321999 8.2049999 6.8390002 37
33.324001 8.1850004 6.8400002 37
33.280998 8.1549997 6.8319998 35
33.261002 8.1289997 6.8280001 42
33.273998 8.1099997 6.8299999 39
33.335999 8.1040001 6.842 32
33.388 8.0950003 6.8520002 27
33.356998 8.066 6.8439999 23
33.348 8.0410004 6.8410001 22
33.471001 8.0469999 6.8639998 22
33.463001 8.0229998 6.8600001 20
33.321999 7.9650002 6.829 20
33.265999 7.9289999 6.8140001 19
33.256001 7.902 6.8099999 14
33.25 7.8769999 6.8039999 9
33.32 7.868 6.8150001 7
33.277 7.8330002 6.802 3
0 0 0 22
43.167 10.094 8.8120003 24
42.988998 10.019 8.7690001 27
42.93 9.9720001 8.75 29
42.826 9.9119997 8.7209997 24
42.793999 9.8710003 8.7069998 24
42.769001 9.8299999 8.6940002 24
42.702999 9.7790003 8.6719999 24
42.502998 9.6990004 8.6219997 23
42.383999 9.6350002 8.5880003 23
42.472 9.6190004 8.5959997 24
42.292999 9.5410004 8.5500002 34
42.159 9.474 8.5120001 32
42.347 9.4790001 8.5389996 23
42.466999 9.4689999 8.552 23
42.785 9.5010004 8.6040001 32
42.740002 9.4519997 8.5819998 33
42.793999 9.4239998 8.5799999 31
42.824001 9.3909998 8.573 32
42.790001 9.3439999 8.5530005 33
42.799999 9.3059998 8.54 34
42.787998 9.2629995 8.5229998 39
42.803001 9.2250004 8.5109997 36
42.779999 9.1780005 8.4910002 40
42.818001 9.1459999 8.4829998 33
42.821999 9.1040001 8.467 32
42.551998 9.0039997 8.3970003 34
42.429001 8.9370003 8.3559999 40
42.595001 8.9289999 8.3710003 33
42.765999 8.9209995 8.3870001 29
42.761002 8.8760004 8.3669996 28
42.706001 8.8219995 8.3369999 33
42.832001 8.802 8.3430004 32
42.884998 8.7679996 8.3339996 34
42.862 8.7180004 8.3079996 33
42.856998 8.6709995 8.2860003 33
42.882 8.6300001 8.2700005 35
42.854 8.5790005 8.2440004 35
42.817001 8.526 8.2139997 34
42.848 8.4849997 8.198 34
42.844002 8.4379997 8.1739998 34
43.036999 8.4289999 8.1879997 41
43.182999 8.4090004 8.1929998 41
43.297001 8.3830004 8.191 40
43.301998 8.3360004 8.1669998 48
43.324001 8.2910004 8.1459999 48
43.339001 8.2440004 8.1239996 47
43.337002 8.1940002 8.0970001 43
43.362999 8.1490002 8.0760002 42
43.386002 8.1029997 8.0530005 51
43.412998 8.0579996 8.0310001 52
43.456001 8.0150003 8.0109997 41
43.577 7.987 8.0050001 35
43.679001 7.954 7.994 24
0 0 0 0
0 0 0 0
0 0 0 62
0 0 0 5
57.187 10.07 10.27 6
57.167 9.9989996 10.225 5
0 0 0 0
0 0 0 15
57.407001 9.8290005 10.142 15
57.488998 9.7720003 10.113 28
57.523998 9.7080002 10.075 30
57.591 9.6470003 10.042 32
57.634998 9.5839996 10.004 30
57.747002 9.5299997 9.9779997 32
57.951 9.4919996 9.9689999 30
57.985001 9.4219999 9.9259996 30
57.964001 9.3450003 9.8739996 29
58.077 9.2889996 9.8450003 29
58.432999 9.2709999 9.8559999 28
58.605999 9.224 9.8360004 23
0 0 0 0
0 0 0 0
0 0 0 50
116.581 17.747999 19.158001 56
116.562 17.593 19.049999 47
116.563 17.440001 18.944 50
116.551 17.285 18.834999 54
116.604 17.139999 18.736 61
116.58 16.985001 18.625999 58
116.751 16.856001 18.540001 38
116.899 16.722 18.451 24
116.727 16.541 18.312 27
116.872 16.41 18.224001 24
116.896 16.256001 18.110001 26
116.825 16.09 17.983 25
116.886 15.938 17.875 27
116.937 15.791 17.764 26
116.915 15.63 17.642 28
116.67 15.439 17.483999 34
116.74 15.29 17.374001 40
116.726 15.13 17.249001 49
116.723 14.974 17.125999 55
116.78 14.823 17.01 75
116.74 14.658 16.878 65
116.766 14.502 16.754999 73
116.781 14.344 16.625999 67
116.78 14.184 16.497 60
116.817 14.028 16.372999 56
116.803 13.869 16.24 49
116.897 13.719 16.121 45
117.019 13.573 16.004999 32
117.177 13.429 15.892 27
117.278 13.283 15.774 26
0 0 0 0
0 0 0 22
117.376 12.807 15.37 28
0 0 0 0
0 0 0 0
0 0 0 0
0 0 0 0
0 0 0 0
0 0 0 0
0 0 0 0
0 0 0 0
0 0 0 0
0 0 0 0
0 0 0 0
0 0 0 0
0 0 0 0
0 0 0 34
117.056 10.347 13.142 49
117.044 10.183 12.983 68
117.026 10.019 12.825 73
117.058 9.8590002 12.673 77
117.06 9.6990004 12.517 76
117.04 9.5349998 12.357 67
117.063 9.375 12.2 71
117.085 9.2180004 12.047 90
117.068 9.0539999 11.884 124
117.101 8.8979998 11.727 98
117.132 8.7379999 11.567 67
0 0 0 0
0 0 0 0
0 0 0 0
0 0 0 27
0 0 0 0
0 0 0 0
0 0 0 0
0 0 0 0
0 0 0 0
0 0 0 28
117.435 6.9860001 9.7379999 23
117.45 6.8260002 9.5649996 33
117.505 6.6719999 9.3959999 34
117.544 6.5139999 9.224 26
0 0 0 15
0 0 0 0
0 0 0 0
0 0 0 25
0 0 0 18
89.320999 4.2270002 6.1939998 31
89.503998 4.1149998 6.0689998 40
89.570999 3.9979999 5.934 34
89.818001 3.8889999 5.8099999 20
90.281998 3.7909999 5.6999998 13
90.674004 3.687 5.5819998 15
0 0 0 24
120.011 4.5609999 7.0079999 35
0 0 0 22
0 0 0 0
0 0 0 0
0 0 0 33
90.405998 2.8429999 4.5549998 25
91.021004 2.7420001 4.4349999 19
92.117996 2.655 4.3379998 16
92.588997 2.552 4.2129998 26
92.709 2.4349999 4.066 19
92.761002 2.3169999 3.9159999 15
0 0 0 0
0 0 0 0
0 0 0 0
0 0 0 17
87.138 1.618 2.9489999 25
0 0 0 0
0 0 0 36
85.140999 1.26 2.4519999 18
0 0 0 0
0 0 0 15
86.393997 0.95499998 2.0450001 21
86.249001 0.84600002 1.8940001 16
0 0 0 0
0 0 0 0
0 0 0 14
0 0 0 0
0 0 0 36
85.889 0.214 0.99299997 31
85.931999 0.111 0.84299999 27
85.813004 0.0080000004 0.69099998 32
85.875999 -0.092 0.542 22
0 0 0 0
0 0 0 0
0 0 0 0
0 0 0 26
73.066002 -0.51099998 -0.18799999 43
73.100998 -0.59600002 -0.31900001 22
0 0 0 56
0 0 0 0
0 0 0 0
0 0 0 11
73.210999 -1.0140001 -0.97500002 36
72.211998 -1.082 -1.092 108
72.132004 -1.1619999 -1.222 39
69.932999 -1.205 -1.312 75
70.014999 -1.284 -1.441 10
66.752998 -1.298 -1.4960001 11
66.726997 -1.3710001 -1.618 52
66.731003 -1.443 -1.738 58
0 0 0 5
57.644001 -1.372 -1.7130001 7
0 0 0 0
0 0 0 0
0 0 0 30
44.124001 -1.239 -1.6390001 38
43.862 -1.278 -1.71 40
43.852001 -1.323 -1.791 23
43.667999 -1.363 -1.865 4
0 0 0 1
0 0 0 0
0 0 0 1
25.386999 -0.89600003 -1.273 1
0 0 0 0
0 0 0 1
18.021999 -0.69 -1.005 3
17.360001 -0.68099999 -1 2
0 0 0 4
15.544 -0.63999999 -0.954 2
14.79 -0.62400001 -0.93599999 2
14.108 -0.60900003 -0.91900003 2
13.41 -0.59100002 -0.89899999 2
12.801 -0.57599998 -0.88200003 2
12.339 -0.56699997 -0.87300003 3
11.86 -0.55599999 -0.86199999 2
11.378 -0.54400003 -0.84799999 2
10.921 -0.53200001 -0.83499998 2
10.498 -0.52100003 -0.82200003 4
10.177 -0.514 -0.81599998 3
9.7629995 -0.50199997 -0.80199999 3
9.4020004 -0.49200001 -0.79000002 4
9.1140003 -0.48500001 -0.78299999 4
8.8369999 -0.47799999 -0.77600002 4
8.5480003 -0.47 -0.76700002 3
8.2329998 -0.45899999 -0.75400001 4
7.974 -0.45199999 -0.745 4
7.7350001 -0.44499999 -0.73699999 3
7.5040002 -0.43799999 -0.72899997 3
7.2670002 -0.43000001 -0.72000003 3
7.0770001 -0.42500001 -0.71499997 4
6.8850002 -0.419 -0.708 4
6.7059999 -0.41299999 -0.70200002 4
6.5279999 -0.40700001 -0.69599998 3
6.3309999 -0.40000001 -0.68699998 4
6.1880002 -0.396 -0.68300003 5
6.0229998 -0.38999999 -0.676 5
5.914 -0.38800001 -0.67500001 4
5.8140001 -0.38600001 -0.67500001 3
5.6659999 -0.38 -0.66799998 2
5.5370002 -0.37599999 -0.66299999 2
5.421 -0.37200001 -0.66000003 2
5.2989998 -0.36700001 -0.65499997 4
5.1919999 -0.36399999 -0.65100002 2
5.1030002 -0.361 -0.64999998 2
4.9970002 -0.35699999 -0.64600003 3
4.9109998 -0.354 -0.64399999 3
4.8270001 -0.352 -0.64200002 2
4.711 -0.347 -0.63499999 4
4.6370001 -0.34400001 -0.634 3
4.5689998 -0.34200001 -0.63300002 2
4.474 -0.338 -0.62800002 2
4.3930001 -0.33500001 -0.625 2
4.3119998 -0.33199999 -0.62199998 2
4.2090001 -0.32699999 -0.61500001 1
4.1680002 -0.32600001 -0.616 3
4.1059999 -0.324 -0.61500001 3
4.0599999 -0.32300001 -0.61500001 3
3.983 -0.31900001 -0.611 2
3.9419999 -0.31799999 -0.61199999 2
3.902 -0.317 -0.61299998 3
3.832 -0.31400001 -0.60900003 1
3.809 -0.31400001 -0.61199999 3
3.711 -0.308 -0.60299999 1
3.6530001 -0.30599999 -0.60100001 1
3.622 -0.30500001 -0.602 3
3.5369999 -0.30000001 -0.59500003 1
3.5309999 -0.301 -0.60000002 2
3.484 -0.29899999 -0.59799999 2
3.3989999 -0.294 -0.58999997 1
3.401 -0.296 -0.59600002 2
3.3410001 -0.292 -0.59200001 1
3.2909999 -0.28999999 -0.58899999 1
3.381 -0.29899999 -0.611 2
3.3329999 -0.29699999 -0.60799998 2
3.2520001 -0.29100001 -0.59899998 1
3.194 -0.28799999 -0.59399998 1
3.1600001 -0.28600001 -0.59399998 1
3.158 -0.287 -0.59899998 1
3.1400001 -0.287 -0.60100001 1
3.0469999 -0.28 -0.58899999 2
2.954 -0.273 -0.57599998 2
2.9319999 -0.27200001 -0.57599998 2
2.895 -0.27000001 -0.574 2
2.872 -0.26899999 -0.57499999 2
2.832 -0.266 -0.57200003 1
2.8039999 -0.26499999 -0.57099998 2
2.776 -0.264 -0.56999999 1
2.756 -0.26300001 -0.56999999 2
2.734 -0.26199999 -0.57099998 2
2.7019999 -0.25999999 -0.56900001 2
2.6800001 -0.259 -0.56800002 1
2.6500001 -0.257 -0.56699997 1
2.628 -0.25600001 -0.56599998 1
2.605 -0.25400001 -0.56599998 1
2.579 -0.25299999 -0.565 1
2.5650001 -0.252 -0.56599998 1
2.543 -0.25099999 -0.565 1
2.529 -0.25 -0.56599998 2
2.51 -0.249 -0.56599998 1
2.484 -0.248 -0.56400001 1
2.4630001 -0.24600001 -0.56300002 1
2.441 -0.245 -0.56300002 1
2.4189999 -0.243 -0.56099999 1
2.401 -0.242 -0.56099999 1
2.382 -0.241 -0.56 1
2.365 -0.23999999 -0.56 1
2.349 -0.23899999 -0.56 1
2.326 -0.237 -0.55800003 1
2.309 -0.236 -0.55800003 1
2.289 -0.234 -0.55699998 1
2.2780001 -0.234 -0.55699998 1
2.2650001 -0.233 -0.55800003 1
2.256 -0.233 -0.55900002 1
2.2360001 -0.23100001 -0.55800003 1
2.2190001 -0.23 -0.55699998 1
2.2079999 -0.229 -0.55699998 1
2.1900001 -0.228 -0.55599999 1
2.1789999 -0.227 -0.55599999 1
2.1630001 -0.226 -0.55599999 1
2.152 -0.22499999 -0.55599999 1
2.132 -0.223 -0.55400002 1
2.112 -0.222 -0.55199999 1
2.1029999 -0.221 -0.55199999 1
2.0899999 -0.22 -0.55199999 1
2.075 -0.219 -0.551 1
2.063 -0.21799999 -0.551 1
2.0480001 -0.21600001 -0.55000001 1
2.033 -0.215 -0.54900002 1
2.026 -0.215 -0.55000001 1
2.017 -0.214 -0.55000001 1
2.0050001 -0.213 -0.55000001 1
1.9960001 -0.212 -0.55000001 1
1.982 -0.211 -0.54900002 1
1.971 -0.20999999 -0.54799998 1
1.964 -0.20900001 -0.54900002 1
1.956 -0.20900001 -0.54900002 1
1.941 -0.207 -0.54799998 1
1.9299999 -0.206 -0.54699999 1
1.9220001 -0.205 -0.54799998 1
1.911 -0.204 -0.54699999 1
1.909 -0.204 -0.54900002 1
1.886 -0.20200001 -0.54400003 1
1.8789999 -0.20100001 -0.54500002 1
1.862 -0.199 -0.542 1
1.854 -0.199 -0.542 1
1.84 -0.197 -0.54100001 1
1.835 -0.197 -0.54100001 1
1.8329999 -0.19599999 -0.54299998 1
1.826 -0.19599999 -0.54299998 1
1.809 -0.19400001 -0.54000002 1
1.808 -0.19400001 -0.542 1
1.796 -0.192 -0.54000002 1
1.783 -0.191 -0.53899997 1
1.776 -0.19 -0.53799999 1
1.775 -0.19 -0.54000002 1
1.7640001 -0.189 -0.53899997 1
1.758 -0.18799999 -0.53899997 1
1.747 -0.18700001 -0.537 1
1.743 -0.186 -0.53799999 1
1.732 -0.185 -0.537 1
1.726 -0.184 -0.537 1
1.717 -0.183 -0.53600001 1
1.711 -0.183 -0.53600001 1
1.711 -0.182 -0.537 1
1.706 -0.182 -0.537 1
1.696 -0.18000001 -0.53600001 1
1.687 -0.17900001 -0.53500003 1
1.689 -0.17900001 -0.537 1
1.684 -0.17900001 -0.537 1
1.668 -0.177 -0.53399998 1
1.655 -0.175 -0.53100002 1
1.653 -0.175 -0.53200001 1
1.649 -0.17399999 -0.53200001 1
1.645 -0.17399999 -0.53200001 1
1.641 -0.17299999 -0.53299999 1
1.638 -0.17200001 -0.53299999 1
1.6289999 -0.171 -0.53200001 1
1.6210001 -0.17 -0.52999997 1
1.617 -0.169 -0.52999997 1
1.615 -0.169 -0.53100002 1
1.608 -0.168 -0.52999997 1
1.605 -0.167 -0.52999997 1
1.604 -0.167 -0.53100002 1
1.596 -0.16599999 -0.52999997 1
1.592 -0.16500001 -0.52999997 1
1.5880001 -0.164 -0.52999997 1
1.595 -0.16500001 -0.53299999 1
1.582 -0.163 -0.52999997 1
1.579 -0.162 -0.52999997 1
1.572 -0.161 -0.52899998 1
1.576 -0.162 -0.53100002 1
1.571 -0.161 -0.53100002 1
1.563 -0.15899999 -0.52899998 1
1.558 -0.15899999 -0.528 1
1.5549999 -0.15800001 -0.528 1
1.545 -0.156 -0.52600002 1
1.545 -0.156 -0.52600002 1
1.5420001 -0.155 -0.52600002 1
1.525 -0.153 -0.52200001 1
1.531 -0.154 -0.52399999 1
1.527 -0.153 -0.52399999 1
1.528 -0.152 -0.52499998 1
1.536 -0.153 -0.52899998 1
1.526 -0.15099999 -0.52600002 1
1.522 -0.15099999 -0.52499998 1
1.535 -0.15099999 -0.53100002 1
1.54 -0.15099999 -0.53299999 1
1.522 -0.149 -0.52700001 1
1.525 -0.149 -0.52899998 1
1.5190001 -0.148 -0.528 1
1.516 -0.147 -0.52700001 1
1.523 -0.147 -0.52999997 1
1.513 -0.146 -0.528 1
1.539 -0.148 -0.537 1
1.522 -0.146 -0.53100002 1
1.5190001 -0.145 -0.53100002 1
1.521 -0.145 -0.53200001 1
1.502 -0.14300001 -0.52600002 1
1.505 -0.142 -0.528 1
1.502 -0.142 -0.52700001 1
1.511 -0.142 -0.52999997 1
1.4960001 -0.14 -0.52600002 1
1.499 -0.14 -0.52700001 1
1.4960001 -0.139 -0.52600002 1
1.502 -0.139 -0.52899998 1
1.499 -0.138 -0.528 1
1.502 -0.138 -0.52899998 1
1.493 -0.13600001 -0.52600002 1
1.502 -0.13699999 -0.52999997 1
1.505 -0.13600001 -0.53100002 1
1.505 -0.13600001 -0.53100002 1
1.5089999 -0.13600001 -0.53299999 1
1.502 -0.134 -0.52999997 1
1.507 -0.134 -0.53200001 1
1.502 -0.133 -0.52999997 1
1.508 -0.133 -0.53299999 1
1.507 -0.132 -0.53200001 1
1.511 -0.132 -0.53399998 1
1.5089999 -0.131 -0.53299999 1
1.511 -0.131 -0.53399998 1
1.511 -0.13 -0.53399998 1
1.51 -0.13 -0.53299999 1
1.5039999 -0.12800001 -0.53100002 1
1.502 -0.12800001 -0.52999997 1
1.502 -0.127 -0.52999997 1
1.507 -0.127 -0.53200001 1
1.507 -0.126 -0.53200001 1
1.5 -0.125 -0.52899998 1
1.51 -0.125 -0.53200001 1
1.506 -0.124 -0.53100002 1
1.497 -0.123 -0.52700001 1
1.498 -0.122 -0.52700001 1
1.5089999 -0.122 -0.53100002 1
1.501 -0.121 -0.528 1
1.511 -0.121 -0.53100002 1
1.5089999 -0.12 -0.52999997 1
1.5039999 -0.119 -0.528 1
1.51 -0.119 -0.52899998 1
1.515 -0.119 -0.53100002 1
1.513 -0.118 -0.52999997 1
1.502 -0.116 -0.52499998 1
1.513 -0.116 -0.52899998 1
1.5140001 -0.116 -0.528 1
1.527 -0.116 -0.53200001 1
1.527 -0.115 -0.53200001 1
1.536 -0.115 -0.53399998 1
1.526 -0.114 -0.52999997 1
1.517 -0.112 -0.52600002 1
1.526 -0.112 -0.52899998 1
1.529 -0.112 -0.52899998 1
1.538 -0.112 -0.53200001 1
1.546 -0.112 -0.53399998 1
1.5470001 -0.111 -0.53299999 1
1.544 -0.11 -0.53100002 1
1.544 -0.109 -0.53100002 1
1.54 -0.108 -0.528 1
1.527 -0.106 -0.523 1
1.529 -0.106 -0.523 1
1.5319999 -0.105 -0.523 1
1.548 -0.106 -0.528 1
1.549 -0.105 -0.52700001 1
1.543 -0.104 -0.52399999 1
1.551 -0.103 -0.52600002 1
1.557 -0.103 -0.52700001 1
1.577 -0.104 -0.53200001 1
1.569 -0.102 -0.52899998 1
1.572 -0.102 -0.52899998 1
1.5779999 -0.101 -0.52999997 1
1.5779999 -0.1 -0.52899998 1
1.5880001 -0.1 -0.53100002 1
1.594 -0.1 -0.53200001 1
1.6 -0.098999999 -0.53200001 1
1.598 -0.097999997 -0.52999997 1
1.61 -0.097999997 -0.53299999 1
1.609 -0.097000003 -0.53100002 1
1.609 -0.097000003 -0.52999997 1
1.622 -0.097000003 -0.53299999 1
1.6210001 -0.096000001 -0.53100002 1
1.6210001 -0.094999999 -0.52999997 1
1.63 -0.094999999 -0.53200001 1
1.635 -0.093999997 -0.53200001 1
1.6390001 -0.093000002 -0.53200001 1
1.642 -0.093000002 -0.53100002 1
1.651 -0.092 -0.53299999 1
1.656 -0.092 -0.53299999 1
1.661 -0.090999998 -0.53200001 1
1.661 -0.090000004 -0.53100002 1
1.684 -0.090999998 -0.537 1
1.686 -0.090000004 -0.53600001 1
1.697 -0.090000004 -0.53799999 1
1.698 -0.089000002 -0.53600001 1
1.707 -0.088 -0.537 1
1.7079999 -0.088 -0.53600001 1
1.72 -0.086999997 -0.53799999 1
1.725 -0.086999997 -0.537 1
1.729 -0.086000003 -0.537 1
1.738 -0.085000001 -0.53799999 1
1.7410001 -0.085000001 -0.537 1
1.7539999 -0.083999999 -0.53899997 1
1.757 -0.083999999 -0.53799999 1
1.767 -0.082999997 -0.53899997 1
1.774 -0.082999997 -0.53899997 1
1.786 -0.082000002 -0.54000002 1
1.786 -0.081 -0.53799999 1
1.795 -0.081 -0.53899997 1
1.809 -0.081 -0.54100001 1
1.816 -0.079999998 -0.54100001 1
1.822 -0.079000004 -0.54100001 1
1.831 -0.079000004 -0.54100001 1
1.841 -0.078000002 -0.542 1
1.849 -0.078000002 -0.542 1
1.8609999 -0.077 -0.54299998 1
1.867 -0.077 -0.542 1
1.89 -0.077 -0.546 1
1.906 -0.075999998 -0.54799998 1
1.913 -0.075999998 -0.54799998 1
1.9170001 -0.075000003 -0.546 1
1.9119999 -0.074000001 -0.54299998 1
1.936 -0.074000001 -0.54699999 1
1.938 -0.072999999 -0.54500002 1
1.954 -0.072999999 -0.54699999 1
1.9630001 -0.071999997 -0.54699999 1
1.97 -0.071000002 -0.546 1
1.9809999 -0.071000002 -0.546 1
1.997 -0.07 -0.54799998 1
2.0090001 -0.07 -0.54799998 1
2.0250001 -0.068999998 -0.54900002 1
2.0320001 -0.068999998 -0.54799998 1
2.0510001 -0.068000004 -0.55000001 1
2.0580001 -0.068000004 -0.54900002 1
2.0699999 -0.067000002 -0.54900002 1
2.0810001 -0.066 -0.54900002 1
2.0969999 -0.066 -0.551 1
2.108 -0.064999998 -0.55000001 1
2.1240001 -0.064999998 -0.551 1
2.1370001 -0.064000003 -0.551 1
2.154 -0.064000003 -0.55199999 1
2.174 -0.063000001 -0.55400002 1
2.1860001 -0.063000001 -0.55400002 1
2.2 -0.061999999 -0.55400002 1
2.207 -0.061999999 -0.55199999 1
2.221 -0.061000001 -0.55199999 1
2.2490001 -0.061000001 -0.55500001 1
2.2639999 -0.059999999 -0.55599999 1
2.283 -0.059999999 -0.55599999 1
2.2969999 -0.059 -0.55599999 1
2.313 -0.059 -0.55599999 1
2.3269999 -0.057999998 -0.55599999 1
2.3499999 -0.057999998 -0.55800003 1
2.3729999 -0.057 -0.55900002 1
2.3870001 -0.057 -0.55800003 1
2.4100001 -0.056000002 -0.55900002 1
2.4349999 -0.056000002 -0.56099999 1
2.45 -0.055 -0.56 1
2.4760001 -0.055 -0.56199998 1
2.497 -0.054000001 -0.56300002 1
2.523 -0.054000001 -0.56400001 1
2.543 -0.052999999 -0.56400001 1
2.563 -0.052999999 -0.56400001 1
2.5880001 -0.052000001 -0.565 2
2.615 -0.052000001 -0.56599998 2
2.631 -0.050999999 -0.565 2
2.6559999 -0.050999999 -0.56599998 2
2.684 -0.050000001 -0.56699997 2
2.7090001 -0.050000001 -0.56800002 2
2.7390001 -0.050000001 -0.56900001 2
2.7620001 -0.048999999 -0.56900001 2
2.7909999 -0.048999999 -0.56999999 2
2.832 -0.048 -0.57300001 2
2.8529999 -0.048 -0.57200003 2
2.882 -0.046999998 -0.57200003 1
2.987 -0.048 -0.588 2
3.0780001 -0.048999999 -0.60000002 1
3.05 -0.046999998 -0.58899999 1
3.102 -0.046999998 -0.59299999 1
3.132 -0.046999998 -0.59299999 1
3.174 -0.046 -0.59500003 2
3.2149999 -0.046 -0.597 1
3.257 -0.046 -0.59799999 1
3.302 -0.046 -0.60100001 2
3.3369999 -0.045000002 -0.60000002 2
3.3499999 -0.044 -0.597 2
3.474 -0.045000002 -0.61199999 2
3.4130001 -0.043000001 -0.59500003 2
3.4549999 -0.043000001 -0.59500003 2
3.494 -0.043000001 -0.59500003 2
3.5309999 -0.041999999 -0.59500003 2
3.556 -0.041999999 -0.59200001 2
3.6400001 -0.041999999 -0.59899998 2
3.7049999 -0.041999999 -0.602 2
3.8210001 -0.041999999 -0.61400002 2
3.8559999 -0.041999999 -0.61199999 2
3.947 -0.041999999 -0.61900002 3
4.0250001 -0.041999999 -0.62300003 3
3.9860001 -0.041000001 -0.60900003 2
4.1220002 -0.041999999 -0.62099999 3
4.119 -0.041000001 -0.61299998 2
4.2280002 -0.041000001 -0.62099999 2
4.3049998 -0.041000001 -0.62300003 2
4.3499999 -0.041000001 -0.62099999 4
4.4320002 -0.041000001 -0.62400001 2
4.5289998 -0.041000001 -0.62800002 2
4.6110001 -0.041000001 -0.63 4
4.6820002 -0.041000001 -0.63 4
4.7940001 -0.041999999 -0.63599998 3
4.8940001 -0.041999999 -0.639 3
4.9889998 -0.041999999 -0.64099997 3
5.125 -0.043000001 -0.648 3
5.2340002 -0.043000001 -0.65100002 4
5.3379998 -0.043000001 -0.653 4
5.4759998 -0.044 -0.65899998 5
5.5869999 -0.044 -0.66100001 4
5.73 -0.045000002 -0.66600001 5
5.862 -0.046 -0.66900003 5
6.0180001 -0.046 -0.67400002 6
6.1900001 -0.046999998 -0.68099999 5
6.3759999 -0.048 -0.68800002 5
6.566 -0.050000001 -0.69499999 5
6.8140001 -0.050999999 -0.70700002 10
7.0440001 -0.052999999 -0.71600002 11
7.2189999 -0.054000001 -0.71799999 13
7.4320002 -0.055 -0.72399998 13
7.6440001 -0.057 -0.72899997 13
7.8850002 -0.057999998 -0.736 14
8.2320004 -0.061000001 -0.75099999 7
8.592 -0.064000003 -0.76599997 4
8.9289999 -0.066 -0.77700001 4
9.2589998 -0.068999998 -0.78600001 3
9.6789999 -0.071999997 -0.801 5
10.07 -0.075000003 -0.81300002 4
10.447 -0.078000002 -0.82099998 4
10.868 -0.082000002 -0.83200002 4
11.37 -0.086999997 -0.84600002 4
11.914 -0.090999998 -0.861 3
12.477 -0.096000001 -0.875 3
13.136 -0.103 -0.89399999 3
13.706 -0.108 -0.90399998 3
14.462 -0.115 -0.92299998 3
0 0 0 2
16.247 -0.132 -0.96799999 2
0 0 0 2
0 0 0 1
0 0 0 0
0 0 0 1
0 0 0 3
0 0 0 1
0 0 0 0
0 0 0 0
0 0 0 4
0 0 0 8
0 0 0 0
0 0 0 102
46.056999 -0.46399999 -1.47 101
0 0 0 0
0 0 0 20
0 0 0 5
0 0 0 0
0 0 0 0
0 0 0 0
0 0 0 0
0 0 0 51
133.92599 -1.618 -1.7079999 81
133.90601 -1.652 -1.4220001 65
133.881 -1.687 -1.141 58
133.73801 -1.721 -0.85399997 44
0 0 0 37
73.092003 -0.98100001 -0.15800001 75
73.125999 -1.003 -0.0020000001 87
73.144997 -1.025 0.152 84
73.130997 -1.0470001 0.30500001 43
0 0 0 0
0 0 0 0
0 0 0 0
0 0 0 0
0 0 0 0
0 0 0 32
64.181 -1.067 1.212 56
63.948002 -1.087 1.342 48
63.278 -1.098 1.461 24
62.134998 -1.102 1.566 41
61.931 -1.1210001 1.689 41
61.761002 -1.142 1.814 38
61.455002 -1.161 1.934 12
0 0 0 0
0 0 0 22
64.810997 -1.303 2.4460001 50
64.218002 -1.317 2.5550001 50
63.662998 -1.3329999 2.6659999 84
63.485001 -1.3559999 2.7880001 68
63.486 -1.3839999 2.9200001 72
63.144001 -1.405 3.0350001 65
62.466 -1.418 3.132 76
62.162998 -1.439 3.243 77
62.141998 -1.467 3.3699999 88
61.957001 -1.492 3.4879999 80
61.254002 -1.5039999 3.5739999 59
60.842999 -1.523 3.675 66
60.816002 -1.552 3.7969999 64
60.699001 -1.579 3.914 76
60.026001 -1.591 3.9909999 44
59.509998 -1.608 4.0780001 59
59.470001 -1.637 4.1960001 56
59.421001 -1.6670001 4.3130002 73
58.687 -1.677 4.381 42
58.192001 -1.694 4.4619999 69
58.154999 -1.724 4.5760002 67
58.129002 -1.755 4.6900001 70
57.432999 -1.765 4.7470002 40
56.831001 -1.778 4.8109999 59
56.812 -1.8099999 4.9239998 68
56.786999 -1.84 5.033 67
56.029999 -1.847 5.0770001 38
55.466 -1.8609999 5.1360002 53
55.472 -1.893 5.2470002 50
55.438 -1.924 5.3530002 55
54.776001 -1.934 5.3959999 36
54.159 -1.944 5.441 56
54.119999 -1.976 5.5430002 51
54.119999 -2.007 5.6469998 48
53.558998 -2.0190001 5.6919999 35
52.827999 -2.0239999 5.7160001 56
52.771 -2.0550001 5.8119998 47
52.773998 -2.0880001 5.915 43
52.361 -2.105 5.967 33
51.5 -2.102 5.9660001 55
51.432999 -2.1329999 6.0560002 37
51.284 -2.1600001 6.1360002 39
50.672001 -2.1659999 6.1570001 31
50.166 -2.177 6.1900001 50
50.103001 -2.2079999 6.276 51
50.098 -2.2409999 6.369 41
49.910999 -2.2650001 6.4369998 42
48.945 -2.2539999 6.4029999 47
48.736 -2.277 6.4660001 52
48.720001 -2.3099999 6.5539999 41
48.046001 -2.3110001 6.5510001 12
47.433998 -2.3139999 6.5539999 9
47.103001 -2.3299999 6.5929999 9
46.803001 -2.3469999 6.6360002 11
46.544998 -2.3670001 6.684 9
46.303001 -2.388 6.7319999 11
45.939999 -2.401 6.7620001 9
45.693001 -2.421 6.8080001 9
45.396 -2.438 6.8449998 9
45.160999 -2.457 6.888 9
44.832001 -2.4719999 6.9159999 8
44.557999 -2.4879999 6.9510002 10
44.317001 -2.507 6.9899998 11
44.110001 -2.527 7.0339999 12
44.098 -2.559 7.1090002 10
43.834 -2.576 7.1420002 11
43.318001 -2.5780001 7.1329999 23
43.249001 -2.605 7.1950002 37
43.326 -2.6429999 7.2820001 48
43.401001 -2.6800001 7.3670001 46
42.903999 -2.6819999 7.3530002 30
42.078999 -2.6619999 7.283 39
42.046001 -2.6919999 7.348 46
42.049999 -2.724 7.4180002 44
42.061001 -2.757 7.4889998 45
41.740002 -2.767 7.5 30
40.801998 -2.7360001 7.3979998 34
40.702 -2.7609999 7.4450002 44
40.701 -2.7920001 7.5100002 46
40.716 -2.8239999 7.5780001 46
40.717999 -2.8559999 7.6430001 43
40.004002 -2.8380001 7.573 20
39.347 -2.822 7.5100002 32
39.339001 -2.8510001 7.5700002 35
39.351002 -2.8840001 7.6339998 35
39.345001 -2.914 7.6929998 34
39.313999 -2.9430001 7.7470002 33
38.361 -2.902 7.618 26
38.016998 -2.9059999 7.6069999 38
38.013 -2.9349999 7.6630001 39
38.009998 -2.9649999 7.7199998 40
38.014999 -2.9960001 7.7779999 38
37.984001 -3.0239999 7.8270001 34
37.110001 -2.984 7.7020001 23
36.674 -2.977 7.664 31
36.647999 -3.0050001 7.7119999 35
36.667 -3.0369999 7.77 33
36.674999 -3.066 7.823 34
36.662998 -3.095 7.8730001 35
36.195999 -3.0840001 7.823 22
35.360001 -3.0420001 7.6919999 26
35.293999 -3.0650001 7.7270002 35
35.312 -3.0929999 7.7800002 35
35.308998 -3.122 7.8270001 36
35.317001 -3.151 7.8759999 35
35.306999 -3.178 7.921 36
34.973 -3.177 7.8930001 26
34.053001 -3.1210001 7.7309999 24
33.966 -3.1389999 7.7550001 37
33.963001 -3.1670001 7.7989998 36
33.957001 -3.194 7.8410001 36
33.959999 -3.221 7.8860002 36
33.978001 -3.2509999 7.9330001 37
33.958 -3.2750001 7.9710002 35
33.240002 -3.233 7.8439999 20
32.643002 -3.201 7.744 31
32.611 -3.224 7.776 37
32.624001 -3.2509999 7.8189998 35
32.625 -3.2780001 7.8579998 34
32.634998 -3.3050001 7.9000001 33
32.625 -3.3310001 7.9359999 34
32.618999 -3.355 7.9720001 32
31.91 -3.3080001 7.836 19
31.306 -3.2709999 7.724 25
31.247 -3.289 7.7449999 33
31.267 -3.3169999 7.7849998 32
31.257999 -3.3399999 7.8189998 34
31.257999 -3.365 7.8530002 33
31.268 -3.391 7.8899999 34
31.267 -3.415 7.9229999 33
31.261999 -3.4389999 7.9549999 29
30.737 -3.4059999 7.8540001 18
29.988001 -3.3469999 7.6939998 19
29.905001 -3.3610001 7.704 30
29.912001 -3.3859999 7.7360001 30
29.916 -3.4089999 7.7680001 29
29.916 -3.4330001 7.7969999 28
29.906 -3.4549999 7.8239999 28
29.919001 -3.4790001 7.8569999 29
29.926001 -3.503 7.8870001 28
29.910999 -3.5250001 7.9120002 26
29.288 -3.474 7.7750001 16
28.627001 -3.4170001 7.625 21
28.544001 -3.4289999 7.6300001 25
28.525 -3.4489999 7.6500001 25
28.503 -3.467 7.6690001 23
28.459 -3.483 7.6830001 21
28.436001 -3.5020001 7.7010002 18
28.344 -3.5109999 7.6999998 18
28.211 -3.516 7.6880002 14
28.094999 -3.523 7.6799998 10
27.940001 -3.5239999 7.6599998 10
27.646999 -3.507 7.6020002 12
27.223 -3.473 7.506 13
27.086 -3.477 7.4899998 10
26.959 -3.48 7.4759998 11
26.868999 -3.4879999 7.4710002 10
26.712999 -3.487 7.447 10
26.643 -3.497 7.447 9
26.551001 -3.503 7.4400001 9
26.443001 -3.5079999 7.428 10
26.341999 -3.5139999 7.4180002 9
26.246 -3.5190001 7.4089999 10
26.156 -3.5250001 7.401 10
26.045 -3.529 7.3860002 10
25.969999 -3.5369999 7.382 12
25.864 -3.54 7.368 10
25.766001 -3.5450001 7.355 9
25.662001 -3.5480001 7.3410001 9
25.58 -3.5539999 7.3330002 9
25.504 -3.5610001 7.3260002 9
25.403 -3.563 7.3109999 9
25.297001 -3.566 7.2940001 8
25.218 -3.5710001 7.2849998 9
25.143 -3.5769999 7.276 9
25.040001 -3.579 7.2600002 9
24.952 -3.582 7.2459998 9
24.875 -3.5869999 7.2360001 9
24.795 -3.592 7.224 9
24.701 -3.5940001 7.2080002 9
24.631001 -3.5999999 7.198 10
24.535999 -3.6010001 7.1810002 10
24.476999 -3.6070001 7.1739998 10
24.403999 -3.612 7.1630001 10
24.316 -3.6140001 7.1459999 10
24.249001 -3.618 7.1360002 9
24.183001 -3.6229999 7.125 9
24.099001 -3.6240001 7.1100001 9
24.027 -3.628 7.0960002 10
23.966 -3.6329999 7.086 9
23.896999 -3.6359999 7.073 9
23.827999 -3.6400001 7.0599999 9
23.766001 -3.6440001 7.0479999 9
23.695 -3.6470001 7.0339999 10
23.639 -3.652 7.0229998 9
23.572001 -3.654 7.0089998 9
23.514999 -3.658 6.9970002 9
23.450001 -3.661 6.9829998 10
23.416 -3.668 6.9780002 10
23.333 -3.6670001 6.9580002 9
23.267 -3.6689999 6.9419999 9
23.216 -3.6730001 6.9310002 9
23.155001 -3.6760001 6.9159999 9
23.122999 -3.6819999 6.9099998 12
23.063999 -3.6849999 6.895 13
23.040001 -3.6919999 6.8899999 13
22.992001 -3.6960001 6.8779998 15
23.000999 -3.7090001 6.8829999 17
22.982 -3.717 6.8790002 20
22.989 -3.7290001 6.8829999 22
22.978001 -3.7379999 6.8800001 25
22.969999 -3.747 6.8790002 27
22.962 -3.757 6.8769999 28
22.944 -3.7639999 6.8720002 30
22.937 -3.773 6.869 33
22.951 -3.7850001 6.8730001 32
22.950001 -3.7950001 6.8720002 28
22.950001 -3.8050001 6.8709998 32
22.951 -3.8150001 6.8699999 35
22.959 -3.826 6.8709998 26
22.964001 -3.836 6.8699999 34
22.966 -3.846 6.868 32
22.969999 -3.855 6.8670001 32
22.987 -3.8670001 6.869 27
22.996 -3.8770001 6.869 27
22.983999 -3.8829999 6.862 32
23.01 -3.8959999 6.8660002 32
23.018999 -3.9059999 6.8649998 31
23.032 -3.9170001 6.8639998 26
23.054001 -3.9289999 6.8660002 26
23.069 -3.9389999 6.8660002 28
23.073 -3.947 6.862 31
23.094 -3.9590001 6.862 26
23.114 -3.9690001 6.862 33
23.143 -3.9820001 6.8639998 27
23.159 -3.9909999 6.8629999 27
23.169001 -4 6.8590002 31
23.205 -4.013 6.8629999 29
23.209 -4.0209999 6.8559999 34
23.238001 -4.0320001 6.8569999 32
23.259001 -4.0419998 6.855 32
23.281 -4.052 6.8530002 33
23.306 -4.0630002 6.8520002 32
23.333 -4.073 6.8509998 31
23.365 -4.085 6.8509998 27
23.388 -4.0929999 6.849 27
23.408001 -4.1020002 6.8439999 31
23.440001 -4.1129999 6.8439999 31
23.465 -4.1220002 6.8410001 31
23.514999 -4.1360002 6.8449998 27
23.532 -4.1440001 6.8379998 32
23.577 -4.1560001 6.8400002 33
23.608999 -4.1669998 6.8379998 31
23.636 -4.1760001 6.8330002 32
23.686001 -4.1890001 6.835 26
23.725 -4.1999998 6.8340001 31
23.766001 -4.211 6.8330002 31
23.804001 -4.2199998 6.8309999 30
23.854 -4.2329998 6.8309999 31
23.900999 -4.244 6.8309999 27
23.931 -4.2519999 6.8260002 30
23.982 -4.2639999 6.8260002 31
24.028999 -4.2750001 6.8239999 27
24.066999 -4.2849998 6.8200002 32
24.115999 -4.296 6.8179998 30
24.167999 -4.3070002 6.8169999 29
24.233999 -4.3200002 6.8189998 25
24.268999 -4.329 6.8130002 28
24.341 -4.3429999 6.816 31
24.396999 -4.355 6.8150001 33
24.438999 -4.3629999 6.809 32
24.509001 -4.3759999 6.8109999 31
24.563 -4.3870001 6.8080001 32
24.621 -4.3979998 6.8049998 31
24.664 -4.4060001 6.7979999 31
24.723 -4.4169998 6.796 28
24.780001 -4.427 6.7919998 30
24.830999 -4.4359999 6.7870002 31
24.913 -4.4510002 6.789 25
24.99 -4.4629998 6.79 27
25.062 -4.4759998 6.7880001 32
25.142 -4.4889998 6.789 27
25.221001 -4.5019999 6.789 30
25.278999 -4.5110002 6.7820001 26
25.346001 -4.5209999 6.7789998 25
25.438999 -4.5359998 6.7810001 26
25.489 -4.5419998 6.7719998 25
25.556 -4.552 6.7670002 29
25.638 -4.5650001 6.7649999 28
25.726 -4.5780001 6.7639999 28
25.809999 -4.5900002 6.7620001 29
25.900999 -4.6030002 6.7620001 26
25.983 -4.6139998 6.7579999 30
26.083 -4.6279998 6.7600002 28
26.156 -4.6370001 6.7529998 25
26.243 -4.6490002 6.7490001 25
26.327999 -4.6599998 6.7449999 26
26.414 -4.671 6.7399998 28
26.525999 -4.6849999 6.7420001 29
26.622 -4.698 6.7389998 27
26.707001 -4.7080002 6.7329998 30
26.797001 -4.7179999 6.7280002 27
26.870001 -4.7249999 6.7179999 25
26.936001 -4.7309999 6.7049999 26
26.969999 -4.7309999 6.6849999 26
26.979 -4.7259998 6.658 27
26.981001 -4.7199998 6.6290002 29
26.969 -4.711 6.5960002 28
26.959999 -4.7030001 6.5640001 28
26.952999 -4.6939998 6.533 29
26.955999 -4.6859999 6.5029998 30
26.940001 -4.6760001 6.4679999 31
26.927999 -4.6659999 6.434 31
26.937 -4.6589999 6.4050002 33
26.91 -4.6469998 6.368 33
26.922001 -4.6399999 6.3400002 36
26.906 -4.6290002 6.3039999 35
26.916 -4.6220002 6.2740002 36
26.903999 -4.6100001 6.2389998 36
26.884001 -4.5970001 6.2020001 36
26.882 -4.5869999 6.1690001 37
26.885 -4.579 6.1370001 37
26.868 -4.5650001 6.0999999 39
26.875999 -4.5570002 6.0679998 38
26.853001 -4.5419998 6.0289998 39
26.857 -4.5310001 5.9959998 41
26.856001 -4.52 5.9619999 43
26.848 -4.5079999 5.9260001 43
26.844999 -4.4949999 5.8909998 41
26.844999 -4.4840002 5.8559999 42
26.841 -4.4710002 5.8210001 44
26.820999 -4.4559999 5.7820001 46
26.820999 -4.4429998 5.7470002 46
26.823 -4.4310002 5.7119999 45
26.829 -4.4190001 5.677 46
26.825001 -4.4060001 5.6399999 43
26.839001 -4.395 5.6069999 35
26.813999 -4.3769999 5.566 43
26.812 -4.3629999 5.5289998 40
26.813 -4.349 5.4920001 53
26.823 -4.3369999 5.4580002 53
26.811001 -4.3200002 5.4190001 53
26.818001 -4.3070002 5.3829999 52
26.816999 -4.2919998 5.3460002 52
26.808001 -4.2750001 5.3070002 51
26.812 -4.2610002 5.27 50
26.812 -4.2449999 5.2319999 49
26.820999 -4.2309999 5.1950002 51
26.819 -4.2140002 5.1570001 47
26.834 -4.1999998 5.1220002 46
26.83 -4.1830001 5.0830002 43
26.834 -4.1669998 5.0450001 44
26.844 -4.152 5.0079999 44
26.853001 -4.1360002 4.9699998 44
26.855 -4.119 4.9310002 43
26.875999 -4.1040001 4.8959999 43
26.868999 -4.085 4.855 41
26.881001 -4.0689998 4.8169999 40
26.893999 -4.053 4.7810001 39
26.900999 -4.0349998 4.7420001 37
26.915001 -4.0190001 4.7049999 36
26.938 -4.0029998 4.6690001 37
26.951 -3.9860001 4.6300001 34
26.968 -3.9690001 4.5929999 31
26.985001 -3.9519999 4.5549998 30
27.007999 -3.9349999 4.5190001 28
27.035 -3.9189999 4.4819999 27
27.072001 -3.904 4.447 24
27.098 -3.8870001 4.4099998 21
27.153999 -3.8740001 4.3779998 17
27.218 -3.862 4.3460002 12
27.252001 -3.845 4.3099999 4
0 0 0 0
0 0 0 0
0 0 0 0
0 0 0 0
0 0 0 0
0 0 0 0
0 0 0 0
0 0 0 0
0 0 0 0
0 0 0 0
0 0 0 0
0 0 0 0
0 0 0 2
0 0 0 0
0 0 0 0
0 0 0 0
0 0 0 0
0 0 0 0
0 0 0 0
0 0 0 0
0 0 0 0
0 0 0 0
0 0 0 2
34.992001 -4.1869998 4.211 2
35.042 -4.158 4.1609998 2
35.035999 -4.1220002 4.1040001 2
34.880001 -4.0689998 4.0300002 3
34.779999 -4.0219998 3.9630001 25
34.789001 -3.9879999 3.908 53
34.776001 -3.95 3.849 56
34.773998 -3.914 3.7939999 51
34.763 -3.875 3.7360001 52
34.764999 -3.839 3.6800001 51
34.757999 -3.8010001 3.6229999 52
34.748001 -3.763 3.566 52
34.757 -3.7260001 3.5109999 56
34.743999 -3.687 3.4530001 52
34.747002 -3.648 3.3959999 54
34.730999 -3.608 3.3380001 52
34.729 -3.569 3.2820001 54
34.721001 -3.53 3.224 56
34.731998 -3.4920001 3.1700001 57
34.716 -3.45 3.1110001 71
34.700001 -3.4089999 3.053 73
34.675999 -3.3670001 2.994 79
34.698002 -3.329 2.9400001 64
34.685001 -3.2869999 2.8829999 71
34.685001 -3.2460001 2.8269999 79
34.668999 -3.204 2.7690001 82
34.672001 -3.1630001 2.7130001 77
34.660999 -3.1210001 2.6570001 82
34.658001 -3.079 2.5999999 72
34.633999 -3.0350001 2.5420001 78
34.643002 -2.994 2.4879999 82
34.627998 -2.95 2.4300001 74
34.646 -2.9100001 2.3770001 47
34.639999 -2.8659999 2.3199999 42
34.644001 -2.8239999 2.266 44
34.637001 -2.78 2.2090001 44
34.643002 -2.737 2.1530001 46
34.631001 -2.6919999 2.098 41
34.636002 -2.648 2.0420001 31
34.872002 -2.622 2 9
34.898998 -2.579 1.9450001 7
34.874001 -2.5320001 1.888 2
36.717999 -2.618 1.929 8
37.504002 -2.6240001 1.909 7
38.237999 -2.625 1.885 7
38.846001 -2.615 1.853 6
39.366001 -2.599 1.817 4
40.895 -2.6459999 1.822 3
0 0 0 0
0 0 0 8
43.07 -2.612 1.715 4
45.273998 -2.6849999 1.732 23
43.487999 -2.5190001 1.594 27
43.473999 -2.4579999 1.525 150
43.473999 -2.3989999 1.457 138
43.466999 -2.3380001 1.388 150
43.477001 -2.2780001 1.3200001 150
43.495998 -2.2179999 1.253 66
43.514 -2.158 1.1849999 46
43.516998 -2.0969999 1.118 42
43.509998 -2.0350001 1.05 33
43.529999 -1.974 0.98299998 24
43.501999 -1.911 0.91600001 15
0 0 0 0
0 0 0 29
51.332001 -2.036 0.847 17
0 0 0 0
0 0 0 9
58.763 -2.0739999 0.699 44
58.744999 -1.987 0.60900003 86
58.771999 -1.901 0.51999998 97
59.105999 -1.825 0.435 20
59.348 -1.744 0.347 9
59.342999 -1.6569999 0.25799999 11
0 0 0 113
66.761002 -1.664 0.090000004 150
66.778 -1.563 -0.0089999996 72
66.780998 -1.462 -0.108 74
66.913002 -1.364 -0.208 67
66.987999 -1.263 -0.30700001 27
0 0 0 0
0 0 0 117
73.237 -1.046 -0.65799999 27
75.556999 -0.96200001 -0.79000002 9
0 0 0 0
0 0 0 0
0 0 0 0
0 0 0 0
0 0 0 28
117.077 -0.39399999 -2.2420001 35
117.086 -0.20999999 -2.4089999 27
0 0 0 0
0 0 0 0
0 0 0 34
60.855 0.27399999 -1.595 153
0 0 0 25
0 0 0 163
65.569 0.60799998 -1.9910001 157
0 0 0 2
39.303001 0.491 -1.302 8
39.243999 0.55199999 -1.353 5
0 0 0 0
0 0 0 0
0 0 0 0
0 0 0 0
0 0 0 0
0 0 0 1
31.355 0.796 -1.375 3
0 0 0 2
27.403999 0.78500003 -1.274 1
0 0 0 1
0 0 0 2
21.106001 0.70899999 -1.064 5
0 0 0 0
0 0 0 0
0 0 0 3
0 0 0 0
0 0 0 2
16.231001 0.70700002 -0.94300002 3
15.642 0.708 -0.92799997 3
15.086 0.708 -0.91399997 2
14.616 0.70999998 -0.903 2
14.375 0.722 -0.90600002 4
13.69 0.71100003 -0.88 3
13.264 0.70999998 -0.86900002 3
12.891 0.71200001 -0.86000001 3
12.621 0.71899998 -0.85699999 3
12.328 0.722 -0.852 3
11.958 0.72100002 -0.84100002 2
11.637 0.72100002 -0.83200002 2
11.356 0.72299999 -0.82499999 2
