# .PCD v0.7 - Point Cloud Data file format
VERSION 0.7
FIELDS x y z intensity
SIZE 4 4 4 4
TYPE F F F F
COUNT 1 1 1 1
WIDTH 1802
HEIGHT 1
VIEWPOINT 0 0 0 1 0 0 0
POINTS 1802
DATA ascii
0 0 0 0
0 0 0 0
0 0 0 0
0 0 0 0
0 0 0 0
0 0 0 0
0 0 0 24
0 0 0 32
130.33099 4.8709998 13.691 29
0 0 0 28
0 0 0 0
0 0 0 31
121.773 4.0879998 11.937 51
121.745 3.9719999 11.714 72
121.709 3.8559999 11.493 74
121.717 3.7420001 11.276 84
121.672 3.6259999 11.053 72
121.718 3.517 10.844 99
121.683 3.4059999 10.624 76
121.771 3.296 10.41 49
127.738 3.3399999 10.688 30
127.659 3.224 10.451 43
0 0 0 0
0 0 0 33
0 0 0 0
0 0 0 0
0 0 0 0
0 0 0 30
121.819 2.3139999 8.3970003 37
121.809 2.207 8.1680002 45
121.961 2.102 7.9450002 33
121.934 1.9960001 7.7140002 32
121.913 1.891 7.4860001 34
121.93 1.788 7.2589998 34
121.938 1.684 7.027 36
121.888 1.58 6.7919998 34
121.893 1.477 6.5560002 33
121.976 1.376 6.3270001 33
121.849 1.273 6.0869999 47
121.78 1.171 5.849 54
121.722 1.073 5.618 81
121.709 0.97299999 5.382 68
0 0 0 0
0 0 0 29
85.486 0.47600001 3.279 36
85.384003 0.40799999 3.109 21
0 0 0 21
87.280998 0.28099999 2.8380001 18
87.355003 0.213 2.6689999 21
0 0 0 0
0 0 0 0
0 0 0 0
0 0 0 35
85.068001 -0.114 1.761 29
85.334 -0.178 1.597 19
87.815002 -0.249 1.466 19
87.903 -0.31299999 1.2920001 14
0 0 0 11
0 0 0 25
0 0 0 26
74.210999 -0.477 0.49700001 63
73.613998 -0.52499998 0.345 28
72.557999 -0.56699997 0.19400001 12
0 0 0 0
0 0 0 0
0 0 0 23
74.625 -0.78500003 -0.398 55
74.628998 -0.83399999 -0.54900002 82
74.599998 -0.88300002 -0.69999999 73
74.679001 -0.93199998 -0.85299999 52
74.787003 -0.98199999 -1.006 34
74.564003 -1.026 -1.153 32
73.736 -1.061 -1.29 102
73.683998 -1.1059999 -1.4400001 85
73.689003 -1.151 -1.5880001 12
71.463997 -1.161 -1.688 80
71.453003 -1.2029999 -1.832 81
71.431999 -1.2460001 -1.977 13
0 0 0 25
0 0 0 17
68.239998 -1.309 -2.3069999 63
68.240997 -1.348 -2.447 48
0 0 0 0
0 0 0 6
0 0 0 0
0 0 0 0
0 0 0 0
0 0 0 0
0 0 0 0
0 0 0 0
0 0 0 0
0 0 0 0
0 0 0 1
0 0 0 1
0 0 0 1
0 0 0 2
16.308001 -0.44800001 -1.086 2
15.388 -0.43000001 -1.056 2
14.635 -0.41499999 -1.035 3
13.918 -0.40099999 -1.012 3
13.169 -0.38600001 -0.98500001 3
12.574 -0.37400001 -0.96600002 3
12.006 -0.36199999 -0.94800001 2
11.493 -0.35100001 -0.93099999 2
10.959 -0.33899999 -0.91000003 2
10.496 -0.329 -0.89300001 2
9.9809999 -0.317 -0.86900002 2
9.5749998 -0.308 -0.85299999 2
9.217 -0.30000001 -0.83999997 3
8.8299999 -0.29100001 -0.82300001 3
8.5039997 -0.28299999 -0.81 3
8.1730003 -0.27500001 -0.79500002 4
7.8779998 -0.26800001 -0.78200001 5
7.6399999 -0.26199999 -0.77399999 6
7.3909998 -0.25600001 -0.764 3
7.151 -0.25 -0.75400001 4
6.8969998 -0.244 -0.741 9
6.7030001 -0.23899999 -0.73400003 10
6.533 -0.235 -0.72799999 11
6.3530002 -0.23100001 -0.72100002 12
6.1890001 -0.227 -0.71499997 13
6.0580001 -0.22400001 -0.71200001 12
5.9359999 -0.221 -0.70999998 9
5.8280001 -0.21799999 -0.70899999 6
5.6560001 -0.214 -0.699 3
5.5029998 -0.20900001 -0.69199997 3
5.382 -0.206 -0.68699998 3
5.2620001 -0.20299999 -0.68199998 3
5.1339998 -0.199 -0.676 3
5.0219998 -0.19599999 -0.671 4
4.915 -0.193 -0.667 2
4.8340001 -0.191 -0.66600001 2
4.7309999 -0.18799999 -0.66100001 2
4.6469998 -0.186 -0.65799999 4
4.553 -0.183 -0.65399998 4
4.474 -0.18000001 -0.65100002 4
4.3870001 -0.178 -0.64700001 4
4.2979999 -0.175 -0.64300001 2
4.1880002 -0.171 -0.63499999 2
4.1729999 -0.171 -0.63999999 2
4.0830002 -0.168 -0.63499999 2
4.0159998 -0.16599999 -0.63200003 2
3.947 -0.164 -0.62900001 2
3.967 -0.16500001 -0.63999999 2
3.829 -0.16 -0.625 2
3.8399999 -0.161 -0.634 3
3.7809999 -0.15899999 -0.63200003 3
3.7079999 -0.15700001 -0.62699997 3
3.6849999 -0.156 -0.63 2
3.573 -0.152 -0.61799997 1
3.5420001 -0.15099999 -0.61900002 2
3.4660001 -0.148 -0.61199999 3
3.418 -0.146 -0.61000001 3
3.3870001 -0.145 -0.611 2
3.3889999 -0.146 -0.61799997 2
3.395 -0.146 -0.62599999 2
3.3540001 -0.145 -0.62400001 2
3.326 -0.14399999 -0.625 2
3.142 -0.13600001 -0.597 2
3.1099999 -0.13500001 -0.59600002 4
3.0940001 -0.134 -0.59899998 5
3.0699999 -0.133 -0.60000002 5
3.036 -0.132 -0.59899998 3
2.9809999 -0.12899999 -0.59399998 2
2.9449999 -0.12800001 -0.59200001 2
2.9070001 -0.126 -0.58999997 2
2.8740001 -0.125 -0.588 2
2.8499999 -0.124 -0.58899999 2
2.8110001 -0.122 -0.58600003 2
2.777 -0.121 -0.58399999 2
2.75 -0.119 -0.583 2
2.72 -0.118 -0.58099997 2
2.697 -0.117 -0.58099997 2
2.6730001 -0.116 -0.58099997 2
2.6459999 -0.115 -0.57999998 2
2.622 -0.113 -0.579 2
2.6010001 -0.113 -0.579 2
2.5769999 -0.111 -0.57800001 2
2.546 -0.11 -0.57499999 2
2.53 -0.109 -0.57599998 2
2.51 -0.108 -0.57599998 2
2.4719999 -0.106 -0.57200003 2
2.467 -0.106 -0.57499999 2
2.444 -0.105 -0.57300001 2
2.428 -0.104 -0.574 2
2.3970001 -0.102 -0.57099998 1
2.3840001 -0.101 -0.57099998 1
2.359 -0.1 -0.56900001 1
2.335 -0.098999999 -0.56699997 1
2.322 -0.097999997 -0.56800002 1
2.3 -0.097000003 -0.56599998 1
2.286 -0.096000001 -0.56699997 1
2.2679999 -0.094999999 -0.56599998 1
2.25 -0.093999997 -0.565 1
2.2290001 -0.093000002 -0.56400001 1
2.2179999 -0.092 -0.56400001 1
2.2060001 -0.090999998 -0.565 1
2.1819999 -0.090000004 -0.56199998 1
2.1700001 -0.089000002 -0.56199998 1
2.158 -0.088 -0.56300002 1
2.145 -0.086999997 -0.56300002 1
2.132 -0.086000003 -0.56199998 1
2.1129999 -0.085000001 -0.56099999 1
2.098 -0.083999999 -0.56 1
2.0910001 -0.082999997 -0.56099999 1
2.073 -0.082000002 -0.55900002 1
2.063 -0.082000002 -0.56 1
2.0420001 -0.079999998 -0.55699998 1
2.0409999 -0.079999998 -0.56 1
2.0179999 -0.079000004 -0.55599999 1
1.999 -0.078000002 -0.55400002 1
1.99 -0.077 -0.55500001 1
1.973 -0.075999998 -0.55299997 1
1.964 -0.075000003 -0.55299997 1
1.956 -0.074000001 -0.55400002 1
1.937 -0.072999999 -0.551 1
1.936 -0.071999997 -0.55299997 1
1.927 -0.071999997 -0.55299997 1
1.908 -0.071000002 -0.551 1
1.903 -0.07 -0.55199999 1
1.887 -0.068999998 -0.54900002 1
1.882 -0.068000004 -0.551 1
1.877 -0.068000004 -0.55199999 1
1.862 -0.066 -0.55000001 1
1.852 -0.066 -0.54900002 1
1.85 -0.064999998 -0.551 1
1.8380001 -0.064000003 -0.55000001 1
1.825 -0.063000001 -0.54799998 1
1.811 -0.061999999 -0.546 1
1.809 -0.061999999 -0.54799998 1
1.806 -0.061000001 -0.54900002 1
1.795 -0.059999999 -0.54799998 1
1.7869999 -0.059 -0.54799998 1
1.776 -0.059 -0.54699999 1
1.761 -0.057999998 -0.54400003 1
1.755 -0.057 -0.54400003 1
1.745 -0.056000002 -0.54299998 1
1.745 -0.056000002 -0.54500002 1
1.7410001 -0.055 -0.546 1
1.733 -0.054000001 -0.54500002 1
1.723 -0.052999999 -0.54400003 1
1.7180001 -0.052999999 -0.54400003 1
1.696 -0.050999999 -0.53899997 1
1.694 -0.050999999 -0.54000002 1
1.689 -0.050000001 -0.54100001 1
1.683 -0.048999999 -0.54000002 1
1.679 -0.048999999 -0.54100001 1
1.6720001 -0.048 -0.54000002 1
1.664 -0.046999998 -0.54000002 1
1.664 -0.046999998 -0.54100001 1
1.656 -0.046 -0.54000002 1
1.65 -0.045000002 -0.54000002 1
1.643 -0.044 -0.53899997 1
1.6390001 -0.044 -0.53899997 1
1.632 -0.043000001 -0.53899997 1
1.627 -0.041999999 -0.53799999 1
1.623 -0.041999999 -0.53799999 1
1.6109999 -0.041000001 -0.53600001 1
1.6109999 -0.039999999 -0.537 1
1.598 -0.039000001 -0.53399998 1
1.594 -0.039000001 -0.53399998 1
1.581 -0.037999999 -0.53100002 1
1.581 -0.037 -0.53299999 1
1.572 -0.035999998 -0.53100002 1
1.586 -0.035999998 -0.537 1
1.577 -0.035 -0.53500003 1
1.569 -0.035 -0.53399998 1
1.568 -0.034000002 -0.53500003 1
1.557 -0.033 -0.53200001 1
1.563 -0.033 -0.53500003 1
1.563 -0.032000002 -0.53600001 1
1.554 -0.030999999 -0.53399998 1
1.544 -0.030999999 -0.53200001 1
1.5470001 -0.029999999 -0.53399998 1
1.543 -0.028999999 -0.53399998 1
1.5369999 -0.028999999 -0.53299999 1
1.539 -0.028000001 -0.53399998 1
1.533 -0.028000001 -0.53299999 1
1.528 -0.027000001 -0.53200001 1
1.528 -0.026000001 -0.53299999 1
1.518 -0.026000001 -0.53100002 1
1.507 -0.025 -0.52700001 1
1.518 -0.024 -0.53200001 1
1.5140001 -0.024 -0.53200001 1
1.516 -0.023 -0.53299999 1
1.506 -0.022 -0.52999997 1
1.506 -0.022 -0.53100002 1
1.507 -0.021 -0.53200001 1
1.497 -0.021 -0.52999997 1
1.503 -0.02 -0.53200001 1
1.494 -0.018999999 -0.52999997 1
1.497 -0.018999999 -0.53100002 1
1.502 -0.017999999 -0.53399998 1
1.503 -0.017999999 -0.53500003 1
1.488 -0.017000001 -0.52999997 1
1.489 -0.016000001 -0.53100002 1
1.488 -0.016000001 -0.53100002 1
1.485 -0.015 -0.53100002 1
1.485 -0.015 -0.53100002 1
1.488 -0.014 -0.53200001 1
1.485 -0.013 -0.53200001 1
1.4809999 -0.013 -0.53100002 1
1.482 -0.012 -0.53200001 1
1.476 -0.011 -0.52999997 1
1.475 -0.011 -0.52999997 1
1.476 -0.0099999998 -0.52999997 1
1.476 -0.0099999998 -0.53100002 1
1.467 -0.0089999996 -0.528 1
1.466 -0.0080000004 -0.528 1
1.483 -0.0080000004 -0.53399998 1
1.466 -0.0070000002 -0.528 1
1.48 -0.0070000002 -0.53299999 1
1.466 -0.0060000001 -0.528 1
1.459 -0.0049999999 -0.52600002 1
1.467 -0.0049999999 -0.52899998 1
1.465 -0.0040000002 -0.528 1
1.472 -0.0040000002 -0.53100002 1
1.465 -0.003 -0.52899998 1
1.466 -0.003 -0.52899998 1
1.464 -0.0020000001 -0.528 1
1.472 -0.001 -0.53100002 1
1.4630001 -0.001 -0.528 1
1.464 0 -0.528 1
1.46 0 -0.52700001 1
1.466 0 -0.52899998 1
1.466 0 -0.52899998 1
1.474 0.001 -0.53100002 1
1.466 0.0020000001 -0.528 1
1.475 0.0020000001 -0.53100002 1
1.482 0.003 -0.53399998 1
1.474 0.003 -0.53100002 1
1.466 0.0040000002 -0.528 1
1.4809999 0.0049999999 -0.53200001 1
1.479 0.0049999999 -0.53200001 1
1.467 0.0060000001 -0.52700001 1
1.484 0.0060000001 -0.53299999 1
1.483 0.0070000002 -0.53200001 1
1.484 0.0070000002 -0.53200001 1
1.467 0.0080000004 -0.52600002 1
1.476 0.0089999996 -0.528 1
1.487 0.0089999996 -0.53200001 1
1.484 0.0099999998 -0.52999997 1
1.487 0.0099999998 -0.53100002 1
1.49 0.011 -0.53200001 1
1.488 0.011 -0.52999997 1
1.493 0.012 -0.53100002 1
1.494 0.013 -0.53100002 1
1.494 0.013 -0.53100002 1
1.497 0.014 -0.53100002 1
1.505 0.014 -0.53299999 1
1.505 0.015 -0.53200001 1
1.505 0.015 -0.53200001 1
1.506 0.016000001 -0.53200001 1
1.5039999 0.017000001 -0.52999997 1
1.513 0.017000001 -0.53299999 1
1.5140001 0.017999999 -0.53200001 1
1.525 0.018999999 -0.53500003 1
1.526 0.018999999 -0.53500003 1
1.525 0.02 -0.53299999 1
1.527 0.02 -0.53299999 1
1.534 0.021 -0.53500003 1
1.534 0.021 -0.53399998 1
1.538 0.022 -0.53399998 1
1.5369999 0.022 -0.53299999 1
1.545 0.023 -0.53500003 1
1.551 0.024 -0.53600001 1
1.546 0.024 -0.53299999 1
1.553 0.025 -0.53399998 1
1.552 0.025 -0.53299999 1
1.556 0.026000001 -0.53299999 1
1.558 0.026000001 -0.53299999 1
1.569 0.027000001 -0.53500003 1
1.5700001 0.028000001 -0.53399998 1
1.569 0.028000001 -0.53299999 1
1.5779999 0.028999999 -0.53500003 1
1.587 0.029999999 -0.53600001 1
1.587 0.029999999 -0.53500003 1
1.589 0.030999999 -0.53399998 1
1.5880001 0.030999999 -0.53299999 1
1.596 0.032000002 -0.53399998 1
1.6 0.032000002 -0.53399998 1
1.609 0.033 -0.53600001 1
1.6160001 0.034000002 -0.537 1
1.622 0.034000002 -0.537 1
1.632 0.035 -0.53899997 1
1.635 0.035 -0.53799999 1
1.6390001 0.035999998 -0.53799999 1
1.6440001 0.035999998 -0.53799999 1
1.647 0.037 -0.53799999 1
1.6569999 0.037999999 -0.53899997 1
1.6619999 0.037999999 -0.53899997 1
1.663 0.039000001 -0.53799999 1
1.6720001 0.039000001 -0.53899997 1
1.676 0.039999999 -0.53799999 1
1.694 0.041000001 -0.54299998 1
1.697 0.041000001 -0.542 1
1.7079999 0.041999999 -0.54299998 1
1.714 0.043000001 -0.54299998 1
1.719 0.043000001 -0.54299998 1
1.725 0.044 -0.54299998 1
1.73 0.044 -0.54299998 1
1.7359999 0.045000002 -0.54299998 1
1.747 0.046 -0.54400003 1
1.751 0.046 -0.54400003 1
1.757 0.046999998 -0.54299998 1
1.768 0.046999998 -0.54400003 1
1.775 0.048 -0.54500002 1
1.789 0.048999999 -0.54699999 1
1.798 0.048999999 -0.54699999 1
1.8 0.050000001 -0.546 1
1.814 0.050999999 -0.54799998 1
1.821 0.050999999 -0.54699999 1
1.831 0.052000001 -0.54799998 1
1.841 0.052999999 -0.54900002 1
1.846 0.052999999 -0.54799998 1
1.857 0.054000001 -0.54900002 1
1.8660001 0.054000001 -0.54900002 1
1.877 0.055 -0.55000001 1
1.887 0.056000002 -0.55000001 1
1.892 0.056000002 -0.54900002 1
1.905 0.057 -0.55000001 1
1.9220001 0.057999998 -0.55199999 1
1.925 0.057999998 -0.551 1
1.932 0.057999998 -0.55000001 1
1.943 0.059 -0.551 1
1.956 0.059999999 -0.55199999 1
1.97 0.061000001 -0.55299997 1
1.988 0.061000001 -0.55500001 1
2.007 0.061999999 -0.55699998 1
2.017 0.063000001 -0.55699998 1
2.027 0.063000001 -0.55699998 1
2.039 0.064000003 -0.55699998 1
2.05 0.064000003 -0.55699998 1
2.0599999 0.064999998 -0.55699998 1
2.0739999 0.066 -0.55699998 1
2.0840001 0.066 -0.55699998 1
2.099 0.067000002 -0.55800003 1
2.1129999 0.067000002 -0.55800003 1
2.1259999 0.068000004 -0.55800003 1
2.142 0.068999998 -0.55900002 1
2.1600001 0.068999998 -0.56099999 1
2.1719999 0.07 -0.56 1
2.1919999 0.071000002 -0.56199998 1
2.2090001 0.071999997 -0.56300002 1
2.224 0.071999997 -0.56300002 1
2.2309999 0.071999997 -0.56099999 1
2.247 0.072999999 -0.56199998 1
2.263 0.074000001 -0.56199998 1
2.283 0.074000001 -0.56300002 1
2.3039999 0.075000003 -0.565 1
2.3199999 0.075999998 -0.565 1
2.3399999 0.075999998 -0.56599998 1
2.3670001 0.077 -0.56800002 1
2.3740001 0.077 -0.56599998 1
2.395 0.078000002 -0.56699997 1
2.427 0.079000004 -0.56999999 2
2.4430001 0.079999998 -0.56999999 2
2.471 0.081 -0.57200003 2
2.4920001 0.081 -0.57300001 2
2.513 0.082000002 -0.574 2
2.539 0.082999997 -0.57499999 2
2.553 0.082999997 -0.574 2
2.582 0.083999999 -0.57599998 2
2.609 0.083999999 -0.57700002 2
2.6370001 0.085000001 -0.579 2
2.6600001 0.086000003 -0.579 2
2.687 0.086000003 -0.57999998 2
2.7130001 0.086999997 -0.58099997 2
2.7360001 0.088 -0.58099997 2
2.7679999 0.088 -0.583 2
2.7969999 0.089000002 -0.58399999 2
2.8269999 0.090000004 -0.58499998 2
2.859 0.090000004 -0.58700001 2
2.895 0.090999998 -0.58899999 2
2.9260001 0.092 -0.58999997 2
2.9560001 0.092 -0.58999997 2
2.9860001 0.093000002 -0.59100002 2
3.017 0.093000002 -0.59100002 2
3.1389999 0.097000003 -0.61000001 2
3.188 0.097999997 -0.61299998 1
3.2349999 0.098999999 -0.616 1
3.234 0.097999997 -0.61000001 1
3.266 0.098999999 -0.61000001 2
3.3499999 0.101 -0.61900002 2
3.296 0.097999997 -0.60299999 2
3.3740001 0.1 -0.611 1
3.4089999 0.1 -0.611 1
3.4979999 0.102 -0.62 2
3.4920001 0.101 -0.61199999 2
3.598 0.104 -0.62400001 2
3.5829999 0.102 -0.61500001 2
3.654 0.104 -0.62 2
3.7279999 0.105 -0.625 2
3.757 0.105 -0.62300003 2
3.846 0.106 -0.63 2
3.878 0.106 -0.62800002 3
3.961 0.107 -0.634 2
4.0219998 0.108 -0.63599998 2
4.053 0.108 -0.63300002 2
4.1960001 0.11 -0.64700001 3
4.1739998 0.108 -0.63499999 2
4.2659998 0.109 -0.64099997 2
4.3299999 0.11 -0.64200002 2
4.4060001 0.11 -0.64499998 4
4.4949999 0.111 -0.64899999 2
4.5799999 0.112 -0.65200001 2
4.6630001 0.112 -0.65499997 4
4.7550001 0.113 -0.65799999 3
4.855 0.114 -0.66299999 3
4.9510002 0.114 -0.66600001 3
5.0549998 0.115 -0.67000002 3
5.1539998 0.115 -0.67299998 4
5.2859998 0.116 -0.67900002 4
5.4099998 0.116 -0.685 4
5.5359998 0.117 -0.68900001 4
5.6719999 0.118 -0.69499999 4
5.8169999 0.118 -0.70099998 3
5.9580002 0.119 -0.70599997 3
6.112 0.119 -0.71200001 3
6.2810001 0.12 -0.71899998 4
6.4569998 0.12 -0.72600001 4
6.6389999 0.121 -0.73299998 4
6.8600001 0.122 -0.74400002 5
7.039 0.122 -0.74900001 7
7.2529998 0.122 -0.75700003 6
7.4809999 0.122 -0.76499999 7
7.723 0.123 -0.77399999 7
7.9980001 0.123 -0.78600001 6
8.2840004 0.123 -0.79699999 5
8.6300001 0.124 -0.81300002 3
8.9849997 0.125 -0.82800001 3
9.3629999 0.125 -0.84399998 3
9.8059998 0.126 -0.86400002 4
10.24 0.126 -0.88200003 3
10.728 0.127 -0.90200001 2
0 0 0 7
11.754 0.126 -0.94 10
12.158 0.123 -0.94800001 4
12.781 0.122 -0.97000003 3
0 0 0 3
14.221 0.12 -1.022 4
14.883 0.117 -1.039 3
15.761 0.114 -1.069 3
16.693001 0.111 -1.098 2
0 0 0 2
0 0 0 2
0 0 0 1
0 0 0 1
0 0 0 1
0 0 0 0
0 0 0 2
0 0 0 0
0 0 0 0
0 0 0 14
94.475998 -0.034000002 -4.1110001 58
0 0 0 0
0 0 0 33
53.549999 -0.13 -2.0039999 150
53.551998 -0.168 -1.896 159
53.515999 -0.206 -1.788 153
0 0 0 0
0 0 0 47
94.500999 -0.56999999 -2.5840001 79
0 0 0 25
0 0 0 0
0 0 0 0
0 0 0 15
94.549004 -0.926 -1.637 15
0 0 0 45
0 0 0 21
74.608002 -0.90600002 -0.84100002 55
74.660004 -0.96399999 -0.69700003 99
74.672997 -1.024 -0.54799998 84
74.152 -1.077 -0.396 67
73.717003 -1.13 -0.24699999 40
0 0 0 26
69.166 -1.175 0.044 19
69.817001 -1.244 0.182 25
69.794998 -1.302 0.31999999 19
68.372002 -1.3329999 0.447 49
68.334 -1.3890001 0.579 8
0 0 0 0
0 0 0 0
0 0 0 7
58.159 -1.383 0.94800001 19
57.723 -1.423 1.052 33
57.450001 -1.467 1.159 68
56.873001 -1.503 1.258 37
55.987999 -1.529 1.345 26
55.377998 -1.562 1.438 40
54.889 -1.599 1.531 35
54.132 -1.625 1.613 25
53.618999 -1.659 1.701 24
53.118999 -1.693 1.7869999 14
52.605999 -1.726 1.87 7
0 0 0 0
0 0 0 5
54.247002 -1.932 2.237 21
54.248001 -1.983 2.339 33
53.001999 -1.988 2.385 47
52.895 -2.0350001 2.48 68
52.386002 -2.0669999 2.5550001 44
51.556 -2.0840001 2.6110001 67
51.576 -2.1359999 2.7090001 66
50.606998 -2.1440001 2.7509999 53
50.216999 -2.178 2.823 71
49.481998 -2.194 2.872 15
48.685001 -2.207 2.915 16
48.487999 -2.2460001 2.9909999 48
48.499001 -2.2939999 3.0799999 69
48.519001 -2.345 3.1700001 72
48.506001 -2.3929999 3.2579999 71
48.525002 -2.444 3.348 68
48.526001 -2.494 3.4360001 69
48.542 -2.5450001 3.5250001 64
0 0 0 9
44.902 -2.447 3.4230001 11
44.490002 -2.471 3.4719999 40
44.486 -2.5179999 3.5510001 57
44.345001 -2.556 3.6170001 53
43.523998 -2.5550001 3.628 58
43.527 -2.6010001 3.704 63
43.521999 -2.6470001 3.7809999 60
42.570999 -2.6340001 3.773 36
42.195 -2.6559999 3.813 58
42.192001 -2.7019999 3.8859999 50
42.169998 -2.7460001 3.957 50
40.887001 -2.7060001 3.9070001 34
40.830002 -2.747 3.9719999 50
40.825001 -2.79 4.0409999 50
40.708 -2.8269999 4.098 42
39.537998 -2.789 4.0489998 49
39.494999 -2.829 4.1110001 59
39.487 -2.872 4.177 58
39.449001 -2.9130001 4.2389998 50
38.217999 -2.8640001 4.1700001 30
38.139 -2.8989999 4.223 57
38.141998 -2.941 4.2849998 56
38.034 -2.9749999 4.336 35
36.847 -2.924 4.2610002 10
36.484001 -2.9360001 4.2789998 11
36.319 -2.9630001 4.3179998 50
36.330002 -3.0050001 4.3779998 57
36.327999 -3.0450001 4.4359999 60
36.337002 -3.0869999 4.4949999 59
36.335999 -3.1270001 4.552 58
36.333 -3.168 4.6100001 59
36.344002 -3.211 4.6680002 56
36.358002 -3.253 4.7270002 58
36.365002 -3.2939999 4.783 56
36.372002 -3.3369999 4.8410001 60
36.372002 -3.378 4.8979998 60
36.382999 -3.421 4.9549999 59
36.370998 -3.4619999 5.0089998 60
36.389 -3.5050001 5.0669999 60
36.394001 -3.5480001 5.1230001 60
36.388 -3.589 5.177 65
36.387001 -3.631 5.2309999 60
36.397999 -3.674 5.2870002 59
36.400002 -3.7149999 5.3400002 62
36.408001 -3.7579999 5.395 56
36.424 -3.802 5.4510002 59
36.415001 -3.8429999 5.5029998 53
36.426998 -3.8870001 5.5570002 47
36.432999 -3.9300001 5.6100001 52
36.422001 -3.971 5.6609998 52
36.435001 -4.013 5.7140002 52
36.431 -4.0549998 5.7639999 52
36.459 -4.0999999 5.8179998 20
36.514999 -4.1479998 5.8779998 5
36.646999 -4.2059999 5.9499998 4
36.695999 -4.2540002 6.0089998 4
36.949001 -4.3260002 6.0999999 3
36.665001 -4.335 6.1020002 5
36.460999 -4.3530002 6.1170001 14
36.272999 -4.3730001 6.1339998 19
36.162998 -4.4000001 6.1630001 23
35.987 -4.421 6.1799998 28
35.799999 -4.4390001 6.1950002 27
35.605999 -4.4549999 6.2069998 27
35.384998 -4.4689999 6.2140002 27
35.182999 -4.4840002 6.224 25
34.933998 -4.4920001 6.224 26
34.743 -4.507 6.2329998 26
34.555 -4.5219998 6.243 26
34.369999 -4.5380001 6.2519999 25
34.141998 -4.5469999 6.2519999 24
33.980999 -4.5640001 6.2639999 25
0 0 0 11
28.742001 -3.9260001 5.3670001 20
28.677 -3.9489999 5.3889999 25
28.635 -3.9760001 5.415 29
28.599001 -4.0040002 5.4419999 34
28.556 -4.0300002 5.4650002 36
28.527 -4.0580001 5.493 40
28.514 -4.0890002 5.5229998 41
28.490999 -4.1170001 5.5500002 43
28.469999 -4.1459999 5.5780001 46
28.469 -4.177 5.6090002 48
28.459999 -4.2080002 5.6389999 51
28.445 -4.2379999 5.6669998 52
28.443001 -4.2690001 5.698 53
28.419001 -4.2969999 5.723 55
28.419001 -4.329 5.7519999 55
28.424 -4.3610001 5.7839999 43
28.434999 -4.395 5.816 50
28.427 -4.4250002 5.8429999 44
28.437 -4.4580002 5.8740001 46
28.431999 -4.487 5.902 45
28.448999 -4.5209999 5.934 38
28.461 -4.5539999 5.9640002 41
28.469999 -4.5869999 5.994 41
28.502001 -4.6220002 6.0279999 36
28.525999 -4.6570001 6.0599999 34
28.528999 -4.6880002 6.0869999 29
28.569 -4.7259998 6.1230001 27
28.615 -4.7639999 6.1589999 24
28.681999 -4.8060002 6.1989999 20
29.128 -4.9109998 6.322 18
29.479 -5.0009999 6.4239998 24
29.388 -5.0159998 6.4299998 26
29.292 -5.0310001 6.434 24
29.195999 -5.0450001 6.4380002 26
29.105 -5.0580001 6.4429998 26
29.004999 -5.0710001 6.4450002 28
28.926001 -5.0879998 6.4499998 24
28.809 -5.0960002 6.448 25
28.719999 -5.1100001 6.4499998 23
28.627001 -5.1220002 6.4520001 22
28.534 -5.1350002 6.454 24
28.447001 -5.1479998 6.4559999 24
28.368 -5.1609998 6.4590001 27
28.284 -5.1739998 6.461 24
28.218 -5.1900001 6.467 27
28.146999 -5.204 6.4710002 25
28.066 -5.217 6.4720001 27
27.983999 -5.2290001 6.473 27
27.898001 -5.2399998 6.4720001 26
27.837 -5.256 6.4770002 24
27.77 -5.2690001 6.48 28
27.702999 -5.283 6.4819999 27
27.636999 -5.2969999 6.4850001 24
27.58 -5.3119998 6.4889998 28
27.517 -5.3260002 6.4910002 27
27.444 -5.3369999 6.4910002 28
27.384001 -5.3499999 6.494 27
27.337 -5.3660002 6.4980001 24
27.254999 -5.3740001 6.494 28
27.197001 -5.388 6.4959998 28
27.145 -5.4029999 6.4990001 29
27.082001 -5.414 6.4990001 28
27.044001 -5.4299998 6.5040002 29
26.989 -5.4419999 6.5040002 25
26.961 -5.46 6.5110002 26
26.892 -5.4699998 6.507 30
26.847 -5.4829998 6.5100002 30
26.809999 -5.4990001 6.513 26
26.76 -5.5110002 6.5139999 25
26.705999 -5.5229998 6.513 30
0 0 0 2
20.759001 -4.3270001 5.0799999 10
20.719999 -4.336 5.079 17
20.66 -4.3400002 5.073 21
20.625 -4.349 5.073 23
20.601 -4.3600001 5.0749998 24
20.579 -4.3720002 5.0770001 25
20.555 -4.3829999 5.0780001 28
20.539 -4.395 5.0809999 28
20.514999 -4.4060001 5.0819998 29
20.504999 -4.4190001 5.0869999 30
20.483999 -4.4299998 5.0879998 24
20.462 -4.4400001 5.0890002 32
20.454 -4.454 5.092 32
20.431 -4.4640002 5.0929999 34
20.434999 -4.4790001 5.099 35
20.410999 -4.4889998 5.098 35
20.4 -4.5009999 5.0999999 29
20.388 -4.5120001 5.1020002 39
20.363001 -4.5209999 5.0999999 37
20.368999 -4.5359998 5.1059999 39
20.353001 -4.546 5.1059999 40
20.347 -4.559 5.1079998 39
20.330999 -4.5679998 5.1079998 42
20.327999 -4.5799999 5.1110001 44
20.341 -4.5960002 5.1170001 44
20.323 -4.605 5.1149998 44
20.318001 -4.6160002 5.1160002 43
20.305 -4.6259999 5.1149998 43
20.316999 -4.6409998 5.1209998 46
20.318001 -4.6529999 5.1230001 46
20.306999 -4.6620002 5.1220002 43
20.299999 -4.6729999 5.1220002 45
20.306999 -4.6859999 5.125 51
20.306999 -4.698 5.1259999 50
20.299999 -4.7069998 5.125 51
20.305 -4.7199998 5.1259999 51
20.299 -4.7290001 5.125 54
20.294001 -4.7379999 5.1240001 53
20.298 -4.75 5.125 52
20.295 -4.7600002 5.1230001 51
20.287001 -4.7670002 5.1209998 46
20.282 -4.776 5.119 47
20.281 -4.7859998 5.1170001 47
20.285 -4.7969999 5.1170001 44
20.292999 -4.8080001 5.1170001 44
20.295 -4.8179998 5.1160002 42
20.298 -4.8280001 5.1149998 40
20.294001 -4.835 5.112 39
20.288 -4.842 5.1079998 39
20.287001 -4.8499999 5.105 41
20.275 -4.8559999 5.099 41
20.278 -4.8639998 5.0960002 41
20.294001 -4.8759999 5.0970001 42
20.291 -4.8829999 5.092 42
20.285999 -4.8889999 5.0879998 41
20.278999 -4.895 5.0819998 41
20.296 -4.9060001 5.0819998 42
20.299999 -4.914 5.0780001 43
20.305 -4.921 5.0749998 42
20.292999 -4.9250002 5.0669999 40
20.299999 -4.9330001 5.0640001 41
20.312 -4.9419999 5.0609999 30
20.302 -4.9460001 5.053 38
20.292999 -4.9489999 5.0450001 39
20.319 -4.961 5.0450001 29
20.292999 -4.96 5.033 39
20.295 -4.9650002 5.026 37
20.316999 -4.9759998 5.0250001 38
20.312 -4.9790001 5.0170002 38
20.302999 -4.9809999 5.0079999 38
20.316999 -4.9889998 5.0040002 42
20.313999 -4.9920001 4.9949999 37
20.315001 -4.9959998 4.987 37
20.334999 -5.0050001 4.9840002 36
20.320999 -5.0050001 4.973 36
20.334 -5.0110002 4.9679999 36
20.354 -5.0190001 4.9640002 27
20.339001 -5.0180001 4.9510002 34
20.346001 -5.0219998 4.9439998 35
20.35 -5.026 4.9359999 36
20.348 -5.0279999 4.9260001 33
20.347 -5.0300002 4.9159999 33
20.349001 -5.0320001 4.9060001 34
20.346001 -5.033 4.895 33
20.354 -5.0359998 4.8870001 34
20.354 -5.0370002 4.8759999 34
20.360001 -5.04 4.8670001 34
20.358999 -5.04 4.8559999 34
20.358 -5.0409999 4.8439999 34
20.344999 -5.0380001 4.829 33
20.363001 -5.0419998 4.822 33
20.351 -5.039 4.8080001 36
20.355 -5.04 4.7969999 33
20.35 -5.0380001 4.7839999 34
20.348 -5.0370002 4.7709999 34
20.341 -5.0339999 4.756 33
20.344 -5.0339999 4.744 32
20.341999 -5.0320001 4.7309999 34
20.351 -5.033 4.7199998 35
20.339001 -5.0279999 4.7030001 35
20.334999 -5.0250001 4.6890001 35
20.339001 -5.0240002 4.6760001 36
20.34 -5.0219998 4.6620002 36
20.337999 -5.0180001 4.6479998 33
20.334 -5.0149999 4.632 36
20.333 -5.0110002 4.618 36
20.320999 -5.0050001 4.6009998 34
20.327999 -5.0040002 4.5869999 35
20.323 -4.9980001 4.5710001 35
20.323 -4.9949999 4.5560002 35
20.296 -4.9840002 4.5339999 38
20.294001 -4.9790001 4.5180001 38
20.306 -4.9780002 4.5050001 29
20.280001 -4.9660001 4.4840002 38
20.280001 -4.961 4.467 38
20.292999 -4.9590001 4.4549999 38
20.285 -4.9520001 4.4359999 39
20.275999 -4.9439998 4.4169998 40
20.275999 -4.9380002 4.4000001 41
20.271999 -4.9310002 4.3829999 43
20.278999 -4.927 4.368 44
20.277 -4.9200001 4.3499999 44
20.275 -4.9130001 4.3319998 47
20.274 -4.9060001 4.3140001 44
20.256001 -4.8940001 4.2919998 42
20.274 -4.8920002 4.2779999 43
20.256001 -4.8800001 4.256 44
20.257 -4.8720002 4.2379999 46
20.271 -4.8670001 4.223 35
20.254999 -4.8559999 4.2010002 46
20.261999 -4.849 4.1830001 47
20.266001 -4.8410001 4.165 51
20.256001 -4.8299999 4.1440001 35
20.240999 -4.8169999 4.1220002 42
20.26 -4.8130002 4.1059999 45
20.257999 -4.803 4.086 43
20.257999 -4.7930002 4.066 47
20.245001 -4.7810001 4.0440001 49
20.257999 -4.7740002 4.026 52
20.240999 -4.7589998 4.0029998 50
20.247 -4.75 3.984 49
20.250999 -4.7399998 3.964 53
20.264 -4.7319999 3.9460001 39
20.243999 -4.7160001 3.9219999 54
20.253 -4.7069998 3.902 55
20.263 -4.698 3.8829999 55
20.235001 -4.6799998 3.8570001 50
20.252001 -4.6719999 3.839 55
20.257999 -4.6609998 3.819 53
20.263 -4.6490002 3.799 56
20.263 -4.6370001 3.777 54
20.261 -4.6240001 3.7550001 55
20.274 -4.6139998 3.7349999 39
20.268 -4.599 3.7119999 51
20.283001 -4.5890002 3.6930001 36
20.271999 -4.573 3.668 51
20.289 -4.5630002 3.6489999 49
20.284 -4.5479999 3.6259999 50
20.292 -4.5349998 3.605 46
20.292999 -4.5209999 3.582 46
20.297001 -4.5079999 3.5599999 43
20.308001 -4.4949999 3.539 30
20.311001 -4.4809999 3.517 40
20.313 -4.4660001 3.494 39
20.33 -4.454 3.473 40
20.330999 -4.4390001 3.451 39
20.361 -4.4289999 3.4319999 31
20.346001 -4.4099998 3.4059999 40
20.372 -4.3990002 3.3859999 40
20.402 -4.3889999 3.3670001 34
20.415001 -4.375 3.345 34
20.441999 -4.3639998 3.325 33
20.455999 -4.349 3.303 32
20.482 -4.3379998 3.2839999 32
20.497 -4.323 3.2609999 29
20.525999 -4.3109999 3.2409999 27
20.568001 -4.302 3.224 22
20.589001 -4.289 3.2019999 19
20.632 -4.2789998 3.1830001 17
20.67 -4.2680001 3.165 13
20.764 -4.2680001 3.1530001 1
0 0 0 0
0 0 0 2
0 0 0 0
0 0 0 2
36.889 -7.408 5.375 2
0 0 0 0
0 0 0 2
36.759998 -7.2729998 5.2189999 3
0 0 0 0
0 0 0 0
0 0 0 2
0 0 0 0
0 0 0 0
0 0 0 0
0 0 0 0
0 0 0 2
0 0 0 0
0 0 0 0
0 0 0 0
0 0 0 0
0 0 0 3
36.584 -6.6900001 4.5440001 14
36.566002 -6.645 4.4949999 20
36.584 -6.6059999 4.4499998 2
0 0 0 0
0 0 0 0
0 0 0 0
0 0 0 2
0 0 0 0
0 0 0 3
41.356998 -7.1269999 4.6560001 2
0 0 0 2
36.460999 -6.1919999 4.0089998 3
36.483002 -6.151 3.964 7
36.518002 -6.112 3.921 9
0 0 0 3
28.583 -4.7119999 2.994 14
28.483 -4.6599998 2.947 24
28.445 -4.6170001 2.905 30
28.416 -4.5760002 2.865 32
28.375 -4.533 2.825 36
28.358999 -4.493 2.786 39
28.344 -4.4530001 2.747 42
28.318001 -4.4120002 2.707 44
28.301001 -4.3699999 2.668 48
28.304001 -4.3330002 2.632 53
28.301001 -4.2950001 2.595 49
28.298 -4.256 2.5569999 58
28.302999 -4.2189999 2.5209999 61
28.292 -4.178 2.483 59
28.32 -4.1430001 2.448 56
28.334 -4.105 2.4119999 50
28.343 -4.0669999 2.3759999 44
28.361 -4.0289998 2.3399999 43
28.389 -3.993 2.3050001 40
28.416 -3.957 2.27 37
28.447001 -3.921 2.2360001 35
28.496 -3.8870001 2.2030001 30
28.549 -3.852 2.1700001 26
28.621 -3.8199999 2.138 18
28.738001 -3.7950001 2.1099999 6
0 0 0 52
36.356998 -4.6929998 2.575 52
36.345001 -4.6399999 2.5280001 62
36.321999 -4.5809999 2.4790001 64
36.320999 -4.526 2.431 79
36.306 -4.4699998 2.3840001 81
36.297001 -4.414 2.336 81
36.304001 -4.3600001 2.29 77
36.301998 -4.3039999 2.243 79
36.284 -4.2459998 2.1949999 96
36.276001 -4.1890001 2.148 96
36.264999 -4.132 2.102 89
36.27 -4.0760002 2.056 93
36.273998 -4.02 2.0090001 87
36.256001 -3.9619999 1.9630001 83
36.251999 -3.904 1.9170001 77
36.243 -3.846 1.87 66
36.251999 -3.789 1.825 70
36.257 -3.7320001 1.78 80
36.242001 -3.6719999 1.734 80
35.993999 -3.589 1.677 75
35.445999 -3.4779999 1.607 101
35.481998 -3.425 1.5650001 67
35.852001 -3.4030001 1.5369999 6
36.198002 -3.375 1.507 45
36.192001 -3.316 1.462 106
36.279999 -3.2639999 1.42 19
36.423 -3.217 1.381 6
36.334999 -3.148 1.3329999 12
36.306 -3.086 1.288 18
0 0 0 0
0 0 0 6
39.853001 -3.188 1.2690001 33
40.007999 -3.132 1.225 56
40.063999 -3.069 1.178 68
40.223999 -3.013 1.135 7
40.778999 -2.9849999 1.102 5
41.372002 -2.9579999 1.069 5
41.853001 -2.9200001 1.031 15
44.069 -2.997 1.033 105
44.124001 -2.925 0.98199999 104
44.134998 -2.849 0.93000001 102
44.162998 -2.776 0.88 23
44.902 -2.7420001 0.84100002 5
46.640999 -2.766 0.81900001 18
45.101002 -2.596 0.741 20
45.018002 -2.5120001 0.68699998 44
45.011002 -2.4330001 0.63599998 52
45.000999 -2.3529999 0.58399999 25
45.040001 -2.277 0.53500003 16
44.98 -2.194 0.48300001 7
0 0 0 38
0 0 0 40
52.566002 -2.28 0.38600001 16
52.958 -2.2019999 0.329 26
52.837002 -2.102 0.27000001 38
0 0 0 13
60.243 -2.181 0.176 28
60.276001 -2.0739999 0.111 121
60.278999 -1.965 0.046 109
60.299 -1.855 -0.018999999 77
60.971001 -1.766 -0.083999999 17
60.925999 -1.653 -0.149 28
0 0 0 79
68.331001 -1.602 -0.31299999 128
68.331001 -1.476 -0.38499999 74
68.375999 -1.349 -0.45899999 23
68.827003 -1.2309999 -0.53399998 15
0 0 0 57
74.629997 -1.059 -0.73199999 54
74.601997 -0.92199999 -0.80800003 45
74.622002 -0.78299999 -0.884 29
0 0 0 0
0 0 0 51
135.131 -0.667 -2.0079999 85
0 0 0 18
94.787003 -0.112 -1.597 49
94.681999 0.066 -1.688 40
94.535004 0.24600001 -1.78 24
94.542999 0.42500001 -1.872 15
0 0 0 0
0 0 0 16
94.422997 0.95999998 -2.142 23
94.490997 1.14 -2.233 40
94.417 1.316 -2.319 23
94.412003 1.493 -2.405 153
94.462997 1.676 -2.4960001 150
94.457001 1.8559999 -2.5829999 105
94.460999 2.033 -2.668 43
94.429001 2.21 -2.7520001 152
94.416 2.3929999 -2.8380001 127
94.417 2.573 -2.9230001 53
0 0 0 12
87.599998 2.727 -2.869 27
0 0 0 74
91.316002 3.1930001 -3.1500001 44
94.415001 3.483 -3.3380001 95
94.413002 3.661 -3.418 28
91.096001 3.707 -3.375 33
0 0 0 0
0 0 0 0
0 0 0 36
90.948997 4.3979998 -3.6700001 41
90.870003 4.572 -3.7420001 29
90.874001 4.7470002 -3.8150001 20
91.077003 4.9299998 -3.8959999 14
0 0 0 0
0 0 0 0
0 0 0 0
0 0 0 0
0 0 0 0
0 0 0 0
0 0 0 0
0 0 0 25
0 0 0 0
0 0 0 25
0 0 0 25
0 0 0 1
0 0 0 25
0 0 0 2
0 0 0 25
0 0 0 2
22.044001 1.9119999 -1.2180001 1
21.323999 1.89 -1.192 1
20.283001 1.837 -1.148 1
20.406 1.887 -1.168 2
19.898001 1.878 -1.152 1
19.292999 1.857 -1.1289999 2
18.886 1.854 -1.117 2
18.674 1.868 -1.1160001 2
18.504 1.887 -1.118 3
17.886 1.858 -1.091 2
17.583 1.86 -1.0829999 2
17.215 1.852 -1.071 2
16.907 1.851 -1.061 2
16.497999 1.837 -1.045 3
16.171 1.832 -1.034 3
15.959 1.837 -1.029 3
15.71 1.8380001 -1.022 3
15.44 1.836 -1.013 2
15.238 1.84 -1.008 3
15.047 1.845 -1.0039999 3
14.924 1.858 -1.003 3
14.645 1.851 -0.99299997 3
14.403 1.847 -0.98299998 3
14.148 1.841 -0.97299999 3
13.933 1.839 -0.96600002 4
13.855 1.854 -0.96700001 3
13.71 1.86 -0.96399999 3
13.596 1.87 -0.96200001 3
13.357 1.862 -0.95200002 3
13.228 1.868 -0.949 3
13.085 1.872 -0.94400001 3
12.913 1.8710001 -0.93800002 3
12.789 1.876 -0.93400002 3
12.658 1.88 -0.93000001 3
12.486 1.877 -0.92299998 3
12.359 1.88 -0.91900003 3
12.266 1.888 -0.917 3
12.141 1.891 -0.91299999 3
12.028 1.895 -0.90899998 2
11.91 1.898 -0.90499997 2
11.776 1.898 -0.89899999 3
11.726 1.91 -0.89999998 3
11.612 1.9119999 -0.89600003 3
11.525 1.919 -0.89300001 3
11.431 1.923 -0.88999999 3
11.336 1.927 -0.88700002 3
11.247 1.932 -0.884 3
11.145 1.934 -0.87900001 3
11.089 1.943 -0.87900001 3
10.996 1.946 -0.875 3
10.892 1.946 -0.87 3
10.807 1.95 -0.86699998 3
10.684 1.946 -0.86000001 3
10.669 1.962 -0.86199999 3
10.582 1.964 -0.85799998 3
10.537 1.974 -0.85699999 3
10.449 1.975 -0.85299999 4
10.363 1.976 -0.84899998 3
10.31 1.984 -0.847 3
10.244 1.988 -0.84500003 3
10.205 1.997 -0.84399998 3
10.119 1.997 -0.83899999 3
10.021 1.995 -0.83399999 3
9.9510002 1.997 -0.82999998 2
9.9099998 2.0050001 -0.829 2
9.8640003 2.0120001 -0.82700002 2
9.8050003 2.016 -0.824 2
9.7370005 2.0179999 -0.82099998 2
9.7220001 2.03 -0.82099998 2
9.7089996 2.043 -0.82200003 4
9.592 2.0339999 -0.81400001 3
9.5459995 2.039 -0.81199998 3
9.5050001 2.046 -0.81 2
9.4820004 2.056 -0.80900002 2
9.4350004 2.0599999 -0.80699998 2
9.3979998 2.0669999 -0.80500001 3
9.3409996 2.069 -0.80199999 3
9.309 2.076 -0.80000001 3
9.2679996 2.0810001 -0.79799998 3
9.2799997 2.098 -0.80000001 3
9.2889996 2.1140001 -0.80199999 4
9.224 2.1129999 -0.79799998 3
9.1780005 2.1170001 -0.79500002 2
9.1929998 2.1340001 -0.79699999 2
9.1669998 2.141 -0.796 3
9.1590004 2.1530001 -0.796 3
9.1370001 2.161 -0.79500002 4
9.1379995 2.175 -0.796 5
9.1149998 2.1830001 -0.79400003 4
9.1020002 2.1919999 -0.79400003 6
9.0740004 2.1989999 -0.792 5
9.0690002 2.21 -0.792 7
9.0690002 2.223 -0.792 5
9.0600004 2.233 -0.792 8
9.0469999 2.243 -0.79100001 7
9.0489998 2.256 -0.792 6
9.04 2.266 -0.79100001 6
9.0279999 2.2750001 -0.79000002 8
9.0220003 2.286 -0.79000002 8
9.0150003 2.296 -0.78899997 6
9.0010004 2.3039999 -0.78799999 7
8.9569998 2.3050001 -0.78399998 8
8.9700003 2.3199999 -0.78500003 6
8.9429998 2.325 -0.78299999 6
8.8940001 2.3239999 -0.778 5
8.8999996 2.3369999 -0.77899998 4
8.8920002 2.346 -0.778 4
8.8979998 2.359 -0.778 3
8.9040003 2.3710001 -0.778 3
8.8970003 2.381 -0.77700001 4
8.8929996 2.391 -0.77600002 4
8.8909998 2.401 -0.77600002 4
8.9799995 2.4360001 -0.78299999 6
8.9960003 2.451 -0.78399998 7
8.9289999 2.444 -0.77700001 4
8.9239998 2.4530001 -0.77600002 4
8.9169998 2.461 -0.77499998 4
8.9420004 2.4779999 -0.77600002 4
8.9680004 2.4960001 -0.778 4
8.9750004 2.5079999 -0.778 4
8.9870005 2.5209999 -0.77700001 4
9.0109997 2.5380001 -0.77899998 4
9.0509996 2.559 -0.78100002 3
9.0600004 2.5710001 -0.78100002 3
9.085 2.5880001 -0.78200001 3
9.1110001 2.605 -0.78299999 5
9.1829996 2.6359999 -0.78799999 4
9.2510004 2.664 -0.79299998 4
9.2720003 2.6800001 -0.79299998 4
9.2969999 2.697 -0.79400003 5
9.3210001 2.7130001 -0.79400003 6
9.3050003 2.7179999 -0.792 10
9.3280001 2.733 -0.792 8
9.349 2.7490001 -0.792 8
9.3699999 2.7639999 -0.79299998 11
9.3760004 2.7750001 -0.792 10
9.3859997 2.786 -0.79100001 8
9.4099998 2.802 -0.79100001 9
9.4219999 2.8139999 -0.79000002 6
9.4420004 2.8280001 -0.79000002 6
9.4829998 2.849 -0.792 5
9.5179996 2.868 -0.79299998 4
9.5459995 2.8840001 -0.79299998 4
9.5740004 2.901 -0.79299998 4
9.6110001 2.9200001 -0.79400003 5
9.6590004 2.9430001 -0.796 5
9.6920004 2.961 -0.79699999 5
9.7539997 2.987 -0.80000001 4
9.7980003 3.0079999 -0.801 5
9.8599997 3.0350001 -0.80400002 4
9.9049997 3.056 -0.80500001 5
9.9519997 3.0780001 -0.80699998 5
9.9949999 3.099 -0.80800003 5
10.083 3.1329999 -0.81199998 5
10.152 3.1619999 -0.815 4
10.248 3.1989999 -0.81999999 3
10.313 3.2260001 -0.82300001 5
10.398 3.2590001 -0.82700002 5
10.455 3.2839999 -0.82800001 5
10.541 3.3180001 -0.83200002 5
10.61 3.346 -0.83499998 6
10.677 3.3740001 -0.83700001 5
10.738 3.3989999 -0.83899999 5
10.8 3.425 -0.83999997 6
10.85 3.447 -0.84100002 6
10.887 3.4649999 -0.84100002 5
10.94 3.4879999 -0.84100002 5
11.007 3.5150001 -0.84299999 5
11.074 3.5420001 -0.84500003 4
11.144 3.5699999 -0.847 4
11.183 3.5880001 -0.84600002 4
11.255 3.6159999 -0.84799999 6
11.303 3.6370001 -0.84899998 6
11.373 3.664 -0.85000002 7
11.413 3.6819999 -0.84899998 7
11.465 3.704 -0.84899998 7
11.5 3.7190001 -0.84799999 7
11.565 3.7449999 -0.84899998 7
11.594 3.7590001 -0.847 7
11.627 3.773 -0.84600002 6
11.639 3.7820001 -0.84299999 6
11.643 3.7869999 -0.83899999 6
11.6 3.776 -0.83200002 5
11.477 3.74 -0.81900001 5
0 0 0 4
10.298 3.3610001 -0.727 1
10.559 3.4489999 -0.74199998 2
10.232 3.345 -0.71499997 2
10.755 3.5179999 -0.74800003 2
10.522 3.444 -0.72799999 2
10.327 3.3829999 -0.70999998 2
10.232 3.3529999 -0.69999999 2
10.195 3.3429999 -0.69300002 3
10.169 3.336 -0.68699998 3
10.173 3.339 -0.68400002 3
10.163 3.3369999 -0.67900002 3
10.169 3.3399999 -0.676 3
10.159 3.3380001 -0.671 3
10.168 3.342 -0.66799998 3
10.156 3.339 -0.66299999 3
10.15 3.3369999 -0.65799999 3
10.15 3.3380001 -0.65399998 3
10.166 3.3429999 -0.65100002 3
10.154 3.339 -0.64600003 3
10.149 3.3380001 -0.64200002 2
10.162 3.342 -0.639 2
10.146 3.3369999 -0.63300002 2
10.145 3.336 -0.62900001 2
10.148 3.336 -0.625 2
10.165 3.3410001 -0.62199998 2
10.151 3.335 -0.61699998 2
10.144 3.332 -0.61199999 2
10.154 3.3340001 -0.60799998 2
10.149 3.3310001 -0.60299999 2
10.16 3.3340001 -0.60000002 3
10.152 3.329 -0.59500003 3
10.16 3.3299999 -0.59100002 2
10.158 3.3280001 -0.58700001 2
10.16 3.326 -0.58200002 2
10.161 3.3239999 -0.57800001 2
10.16 3.322 -0.57300001 2
10.156 3.3180001 -0.56900001 2
10.164 3.3180001 -0.565 3
10.166 3.316 -0.56 3
10.158 3.3110001 -0.55500001 3
10.172 3.312 -0.55199999 3
10.163 3.306 -0.54699999 3
10.163 3.303 -0.542 3
10.163 3.299 -0.537 3
10.165 3.296 -0.53299999 3
10.157 3.29 -0.528 3
10.166 3.289 -0.52399999 3
10.174 3.2869999 -0.51899999 3
10.165 3.28 -0.514 3
10.18 3.2809999 -0.51099998 3
10.182 3.277 -0.50599998 3
10.186 3.2739999 -0.50199997 3
10.194 3.2709999 -0.49700001 2
10.198 3.2679999 -0.493 2
10.204 3.2639999 -0.48800001 2
10.218 3.2639999 -0.48500001 3
10.24 3.2650001 -0.48100001 3
10.253 3.2639999 -0.47600001 3
10.369 3.2950001 -0.477 4
10.485 3.326 -0.47799999 7
10.508 3.3269999 -0.47400001 11
10.498 3.3180001 -0.46799999 14
10.349 3.2639999 -0.45699999 26
10.232 3.221 -0.447 35
10.168 3.194 -0.44 49
10.161 3.1849999 -0.43399999 59
10.152 3.1760001 -0.42899999 62
10.164 3.1730001 -0.42500001 66
10.163 3.1659999 -0.41999999 70
10.156 3.1559999 -0.41499999 76
10.175 3.155 -0.41100001 100
10.177 3.148 -0.40700001 125
10.184 3.1429999 -0.40200001 136
10.183 3.135 -0.398 136
10.185 3.1270001 -0.39300001 140
10.201 3.125 -0.389 142
10.188 3.112 -0.384 143
10.201 3.108 -0.37900001 143
10.2 3.099 -0.375 143
10.206 3.0929999 -0.37 149
10.197 3.0810001 -0.36500001 148
10.211 3.0769999 -0.361 150
10.214 3.069 -0.35600001 150
10.213 3.059 -0.352 150
10.226 3.0539999 -0.347 150
10.219 3.0420001 -0.34299999 150
10.214 3.0309999 -0.338 150
10.221 3.0239999 -0.333 150
10.225 3.0150001 -0.329 141
10.223 3.0050001 -0.324 131
10.234 2.9979999 -0.31900001 122
10.221 2.984 -0.31400001 105
10.221 2.974 -0.31 87
10.227 2.9649999 -0.30500001 70
10.232 2.9560001 -0.301 53
10.242 2.948 -0.296 39
10.229 2.934 -0.292 30
10.237 2.925 -0.287 24
10.251 2.918 -0.28299999 20
10.274 2.9130001 -0.27900001 16
10.293 2.9070001 -0.27500001 14
10.289 2.895 -0.271 10
10.313 2.8900001 -0.26699999 8
10.32 2.8800001 -0.26199999 6
10.34 2.8740001 -0.25799999 5
10.347 2.8640001 -0.25400001 5
10.356 2.8540001 -0.249 4
10.375 2.8469999 -0.24600001 4
10.371 2.8329999 -0.241 3
10.403 2.829 -0.237 3
10.41 2.8180001 -0.233 3
10.416 2.8069999 -0.229 3
10.439 2.8 -0.22499999 2
10.456 2.7920001 -0.221 2
10.462 2.78 -0.21699999 2
10.468 2.7679999 -0.213 2
10.504 2.7639999 -0.20900001 2
10.521 2.7550001 -0.205 1
10.558 2.7509999 -0.20100001 1
10.577 2.7409999 -0.197 2
10.599 2.733 -0.193 3
10.609 2.721 -0.189 5
10.629 2.7119999 -0.185 1
10.643 2.701 -0.18099999 1
10.667 2.6919999 -0.178 1
10.716 2.6889999 -0.17399999 1
10.775 2.6889999 -0.171 1
10.837 2.6889999 -0.168 1
10.865 2.681 -0.164 4
10.923 2.6789999 -0.161 6
10.955 2.671 -0.15800001 21
11.033 2.674 -0.155 75
11.084 2.6700001 -0.15099999 60
11.138 2.6670001 -0.148 11
0 0 0 3
12.944 3.0599999 -0.163 2
12.955 3.0439999 -0.15800001 1
12.966 3.027 -0.154 1
13.001 3.016 -0.15000001 1
13.09 3.016 -0.146 1
13.177 3.0150001 -0.14300001 1
13.252 3.0120001 -0.139 1
13.277 2.997 -0.13500001 1
13.368 2.997 -0.132 1
13.417 2.9860001 -0.12800001 1
0 0 0 0
0 0 0 0
0 0 0 8
55.323002 11.961 -0.45899999 8
0 0 0 9
0 0 0 0
0 0 0 8
0 0 0 37
0 0 0 0
0 0 0 0
0 0 0 26
60.069 12.188 -0.35800001 13
0 0 0 0
0 0 0 16
82.310997 16.280001 -0.426 21
0 0 0 27
64.206001 12.477 -0.29899999 42
0 0 0 0
0 0 0 0
0 0 0 22
0 0 0 14
0 0 0 0
0 0 0 12
0 0 0 12
84.829002 15.284 -0.23800001 12
0 0 0 0
0 0 0 5
0 0 0 11
0 0 0 66
44.370998 7.5929999 -0.081 6
0 0 0 23
67.670998 11.329 -0.1 17
67.829002 11.229 -0.089000002 39
0 0 0 18
0 0 0 59
67.849998 10.852 -0.055 45
0 0 0 15
87.168999 13.616 -0.046999998 17
0 0 0 20
77.508003 11.813 -0.02 23
77.665001 11.689 -0.0099999998 51
77.675003 11.544 -0.001 53
77.629997 11.388 0.0070000002 56
0 0 0 0
0 0 0 0
0 0 0 0
0 0 0 0
0 0 0 152
0 0 0 0
0 0 0 12
85.482002 11.213 0.068000004 14
0 0 0 21
0 0 0 19
0 0 0 0
0 0 0 37
118.043 14.314 0.123 28
118.418 14.123 0.127 23
0 0 0 24
0 0 0 0
0 0 0 0
0 0 0 0
0 0 0 0
0 0 0 0
0 0 0 0
0 0 0 0
0 0 0 0
0 0 0 0
0 0 0 0
0 0 0 0
0 0 0 0
0 0 0 0
0 0 0 0
0 0 0 0
0 0 0 0
0 0 0 0
0 0 0 0
0 0 0 0
0 0 0 0
0 0 0 0
0 0 0 12
90.311996 6.3639998 -0.016000001 15
0 0 0 0
0 0 0 14
0 0 0 0
0 0 0 0
0 0 0 0
0 0 0 15
88.600998 4.9569998 -0.113 29
88.919998 4.789 -0.13 19
88.938004 4.6030002 -0.147 20
0 0 0 0
0 0 0 14
88.921997 4.0450001 -0.20200001 23
89.087997 3.865 -0.222 17
89.121002 3.6789999 -0.242 23
89.292999 3.503 -0.26300001 15
0 0 0 0
0 0 0 17
0 0 0 0
0 0 0 17
0 0 0 0
0 0 0 0
0 0 0 0
0 0 0 0
0 0 0 0
0 0 0 0
0 0 0 0
0 0 0 0
0 0 0 0
0 0 0 0
0 0 0 0
0 0 0 0
0 0 0 0
0 0 0 0
0 0 0 37
135.202 -0.398 -1.2309999 38
0 0 0 40
74.57 -0.53399998 -0.73699999 62
74.598999 -0.68900001 -0.76599997 72
74.610001 -0.84399998 -0.796 63
74.661003 -1.002 -0.82700002 56
73.796997 -1.145 -0.84799999 20
0 0 0 32
68.296997 -1.345 -0.84200001 69
68.306 -1.489 -0.87199998 68
68.278999 -1.632 -0.90200001 147
0 0 0 14
60.541 -1.7 -0.85500002 39
60.263 -1.821 -0.87900001 108
60.263 -1.943 -0.90700001 120
59.352001 -2.0380001 -0.92199999 73
0 0 0 7
0 0 0 8
0 0 0 15
45.535999 -1.942 -0.79699999 32
45.452999 -2.0309999 -0.81800002 30
45.082001 -2.108 -0.83399999 13
45.710999 -2.233 -0.87 19
45.064999 -2.2939999 -0.88200003 32
44.254002 -2.345 -0.889 40
43.859001 -2.414 -0.90499997 48
43.744999 -2.497 -0.92699999 38
43.910999 -2.598 -0.95499998 33
43.984001 -2.694 -0.98100001 38
44.030998 -2.786 -1.007 84
44.051998 -2.878 -1.033 105
44.061001 -2.967 -1.058 97
0 0 0 0
0 0 0 5
40.054001 -2.9419999 -1.033 3
0 0 0 7
0 0 0 0
0 0 0 0
0 0 0 0
0 0 0 0
0 0 0 0
0 0 0 1
21.070999 -1.885 -0.648 3
20.792999 -1.902 -0.653 4
20.599001 -1.925 -0.66000003 3
0 0 0 0
0 0 0 25
0 0 0 1
20.23 -2.052 -0.70200002 79
20.224001 -2.0899999 -0.71600002 78
20.181999 -2.125 -0.72799999 3
0 0 0 25
0 0 0 25
0 0 0 25
0 0 0 1
19.823999 -2.2809999 -0.78500003 1
19.875 -2.325 -0.801 1
19.93 -2.3699999 -0.81800002 1
19.898001 -2.405 -0.83099997 2
19.872999 -2.4400001 -0.84399998 3
19.871 -2.477 -0.85900003 3
19.945999 -2.5250001 -0.87699997 4
20.025999 -2.572 -0.89499998 8
20.030001 -2.6110001 -0.91000003 8
20.032 -2.648 -0.92500001 8
20.02 -2.6849999 -0.94 6
20.033001 -2.724 -0.95599997 5
20.030001 -2.7609999 -0.97100002 4
19.981001 -2.7909999 -0.98400003 2
20.041 -2.8369999 -1.003 2
20.094 -2.881 -1.021 2
20.396 -2.9619999 -1.052 2
20.323999 -2.9890001 -1.064 2
0 0 0 0
0 0 0 0
0 0 0 0
0 0 0 1
20.768 -3.243 -1.171 1
20.798 -3.2839999 -1.189 1
0 0 0 33
25.448999 -4.1110001 -1.497 34
25.399 -4.1479998 -1.515 25
0 0 0 6
0 0 0 4
20.635 -3.4779999 -1.2819999 4
20.617001 -3.5109999 -1.298 4
20.548 -3.5350001 -1.311 5
20.405001 -3.5450001 -1.318 4
20.011999 -3.5109999 -1.3099999 3
0 0 0 1
17.523001 -3.135 -1.177 2
17.91 -3.2349999 -1.2180001 2
17.563999 -3.2019999 -1.21 2
17.267 -3.177 -1.204 2
16.766001 -3.1129999 -1.184 2
16.292 -3.053 -1.164 2
15.793 -2.9849999 -1.142 2
15.427 -2.9419999 -1.1289999 3
15.063 -2.8970001 -1.115 2
14.754 -2.8610001 -1.105 2
14.423 -2.8199999 -1.0930001 3
14.149 -2.79 -1.085 3
13.739 -2.7309999 -1.0650001 3
13.494 -2.704 -1.058 3
13.212 -2.668 -1.048 3
12.93 -2.632 -1.0369999 3
12.605 -2.585 -1.022 3
12.355 -2.553 -1.012 3
12.086 -2.517 -1.001 3
11.858 -2.487 -0.99299997 2
11.627 -2.457 -0.98400003 4
11.476 -2.4430001 -0.98100001 3
11.308 -2.424 -0.977 6
11.123 -2.401 -0.97100002 7
10.958 -2.382 -0.96600002 7
10.792 -2.362 -0.96100003 6
10.609 -2.3380001 -0.954 5
10.419 -2.3110001 -0.94700003 3
10.12 -2.26 -0.92900002 2
9.8710003 -2.2179999 -0.91399997 3
9.7089996 -2.1960001 -0.90799999 2
9.54 -2.171 -0.90100002 3
9.3850002 -2.1489999 -0.89499998 4
9.2379999 -2.1289999 -0.889 3
9.0939999 -2.109 -0.88300002 3
8.9180002 -2.0799999 -0.87400001 4
8.7749996 -2.059 -0.86799997 4
8.6429996 -2.04 -0.86299998 4
8.5190001 -2.0220001 -0.85799998 4
8.3889999 -2.003 -0.85299999 4
8.2580004 -1.983 -0.847 4
8.1459999 -1.967 -0.84299999 4
8.0080004 -1.944 -0.83600003 4
7.888 -1.925 -0.82999998 4
7.77 -1.9069999 -0.82499999 4
7.6560001 -1.888 -0.81900001 4
7.5570002 -1.874 -0.81599998 4
7.4489999 -1.8559999 -0.81099999 4
7.3330002 -1.836 -0.80500001 4
7.2649999 -1.8279999 -0.80400002 4
7.1680002 -1.813 -0.79900002 4
7.0869999 -1.801 -0.79699999 3
6.9749999 -1.7819999 -0.79000002 4
6.9120002 -1.774 -0.78899997 4
6.8169999 -1.758 -0.78500003 4
6.7220001 -1.7410001 -0.77899998 4
6.6589999 -1.732 -0.778 4
6.5619998 -1.715 -0.773 4
6.4879999 -1.7029999 -0.76899999 4
6.4029999 -1.688 -0.76499999 4
6.3299999 -1.676 -0.76200002 4
6.27 -1.6670001 -0.75999999 4
6.198 -1.655 -0.75700003 4
6.1339998 -1.6440001 -0.755 3
6.052 -1.6289999 -0.75 3
5.9809999 -1.6160001 -0.74599999 3
5.9229999 -1.607 -0.74400002 3
5.8590002 -1.596 -0.741 2
5.796 -1.585 -0.73799998 2
5.7420001 -1.576 -0.736 2
5.6669998 -1.561 -0.73100001 2
5.631 -1.557 -0.73199999 3
5.5809999 -1.548 -0.73000002 3
5.5219998 -1.5369999 -0.727 3
5.4569998 -1.525 -0.72299999 5
5.415 -1.518 -0.722 3
5.3759999 -1.512 -0.72100002 4
5.3270001 -1.503 -0.71899998 4
5.2729998 -1.493 -0.71600002 3
5.2340002 -1.487 -0.71499997 3
5.1750002 -1.475 -0.71100003 3
5.1399999 -1.469 -0.71100003 3
5.099 -1.462 -0.70899999 3
5.0510001 -1.4529999 -0.70700002 3
5.0040002 -1.443 -0.704 3
4.9590001 -1.434 -0.70200002 3
4.9120002 -1.425 -0.699 5
4.8839998 -1.421 -0.699 3
4.849 -1.415 -0.69800001 3
4.8280001 -1.4119999 -0.699 3
4.7779999 -1.401 -0.69599998 2
4.737 -1.393 -0.69300002 3
4.6960001 -1.3839999 -0.69099998 3
4.6680002 -1.38 -0.69099998 3
4.625 -1.37 -0.68800002 3
4.598 -1.365 -0.68699998 3
4.559 -1.357 -0.685 3
4.5359998 -1.354 -0.685 3
4.5019999 -1.346 -0.68300003 3
4.4759998 -1.342 -0.68300003 3
4.4520001 -1.337 -0.68199998 2
4.4070001 -1.327 -0.67900002 2
4.3790002 -1.321 -0.67799997 2
4.3439999 -1.313 -0.676 3
4.3169999 -1.308 -0.67500001 3
4.289 -1.301 -0.67299998 3
4.277 -1.3 -0.67500001 3
4.2449999 -1.293 -0.67299998 3
4.2189999 -1.2869999 -0.67199999 2
4.2280002 -1.2920001 -0.676 2
4.1859999 -1.2819999 -0.67199999 2
4.1960001 -1.2869999 -0.67699999 4
4.138 -1.271 -0.67000002 4
4.0770001 -1.255 -0.66299999 2
4.0549998 -1.25 -0.662 2
4.059 -1.253 -0.66600001 2
3.993 -1.234 -0.65799999 2
3.9909999 -1.235 -0.66000003 2
4.0139999 -1.244 -0.66600001 2
3.9660001 -1.2309999 -0.66100001 2
3.921 -1.2180001 -0.65600002 2
3.937 -1.225 -0.66100001 2
3.9070001 -1.217 -0.65899998 2
3.8959999 -1.215 -0.65899998 3
3.868 -1.2079999 -0.65700001 2
3.806 -1.1900001 -0.64899999 2
3.812 -1.193 -0.65200001 2
3.8340001 -1.201 -0.65799999 3
3.8050001 -1.193 -0.65600002 3
3.7820001 -1.186 -0.65399998 3
3.8299999 -1.2029999 -0.66399997 3
3.7320001 -1.173 -0.64999998 2
3.744 -1.177 -0.65399998 2
3.73 -1.174 -0.653 2
3.71 -1.168 -0.65200001 2
3.6719999 -1.1569999 -0.648 1
3.655 -1.152 -0.64600003 3
3.654 -1.153 -0.648 1
3.6440001 -1.15 -0.64899999 2
3.6700001 -1.159 -0.65499997 3
3.654 -1.154 -0.65399998 3
3.589 -1.1339999 -0.64399999 3
3.625 -1.146 -0.653 3
