# .PCD v0.7 - Point Cloud Data file format
VERSION 0.7
FIELDS x y z intensity
SIZE 4 4 4 4
TYPE F F F F
COUNT 1 1 1 1
WIDTH 1742
HEIGHT 1
VIEWPOINT 0 0 0 1 0 0 0
POINTS 1742
DATA ascii
117.167 10.645 18.997 31
117.175 10.511 18.84 32
117.223 10.384 18.690001 29
117.146 10.246 18.521999 29
117.184 10.115 18.367001 34
117.254 9.9899998 18.216999 28
117.191 9.8470001 18.042 25
117.16 9.71 17.870001 23
117.36 9.592 17.735001 24
117.028 9.434 17.52 24
117.048 9.302 17.358999 41
117.07 9.1700001 17.191 56
117.1 9.0380001 17.025999 67
117.072 8.9060001 16.857 73
117.116 8.7749996 16.691 72
117.081 8.6420002 16.516001 74
117.052 8.507 16.339001 79
117.162 8.382 16.179001 66
117.235 8.2539997 16.014 50
117.457 8.1389999 15.869 29
117.386 8.0039997 15.687 24
117.542 7.881 15.526 22
0 0 0 0
0 0 0 28
0 0 0 0
0 0 0 0
0 0 0 0
0 0 0 0
0 0 0 24
117.308 6.8099999 14.033 29
117.481 6.6919999 13.869 28
117.404 6.5570002 13.672 26
117.436 6.4310002 13.488 29
117.285 6.2930002 13.282 45
117.201 6.1560001 13.08 59
117.252 6.0289998 12.894 78
117.216 5.901 12.7 84
117.23 5.7729998 12.509 73
117.222 5.6440001 12.314 71
117.238 5.52 12.123 76
117.246 5.3920002 11.929 84
119.734 5.3769999 11.981 68
119.766 5.2480001 11.783 86
119.75 5.118 11.579 63
119.851 4.9959998 11.385 31
125.788 5.1090002 11.738 33
125.711 4.9710002 11.516 28
0 0 0 0
0 0 0 0
0 0 0 0
0 0 0 0
0 0 0 0
0 0 0 29
119.883 3.859 9.5310001 45
119.959 3.7390001 9.3280001 39
119.944 3.6110001 9.1120005 42
120.022 3.49 8.9049997 35
120.026 3.3659999 8.6920004 35
120.024 3.2420001 8.474 29
120.015 3.122 8.2609997 32
120.001 3 8.0469999 35
120.002 2.878 7.8280001 36
120.097 2.7620001 7.6230001 33
120.169 2.642 7.4050002 33
119.919 2.517 7.1719999 32
119.945 2.398 6.954 53
119.913 2.279 6.7329998 79
119.955 2.161 6.5149999 64
0 0 0 14
0 0 0 0
0 0 0 13
0 0 0 97
120.258 1.5829999 5.4169998 62
120.752 1.476 5.2160001 32
0 0 0 0
0 0 0 0
0 0 0 0
0 0 0 0
0 0 0 18
82.504997 0.54500002 2.632 45
82.746002 0.472 2.4849999 35
83.029999 0.39700001 2.335 16
86.310997 0.33500001 2.2620001 23
86.615997 0.257 2.105 29
84.197998 0.175 1.8839999 14
83.864998 0.1 1.7180001 38
84.079002 0.026000001 1.5599999 30
85.059998 -0.048 1.414 18
85.778999 -0.123 1.26 22
0 0 0 12
74.135002 -0.235 0.801 26
0 0 0 25
0 0 0 0
0 0 0 42
72.907997 -0.47799999 0.221 66
72.887001 -0.537 0.079999998 77
72.885002 -0.59799999 -0.061999999 67
72.874001 -0.65700001 -0.204 29
0 0 0 62
0 0 0 23
73.017998 -0.83499998 -0.634 32
72.264 -0.884 -0.77100003 63
71.968002 -0.93699998 -0.91000003 138
72.000999 -0.99400002 -1.053 20
69.759003 -1.016 -1.155 78
69.724998 -1.0700001 -1.295 50
0 0 0 0
0 0 0 9
66.546997 -1.174 -1.636 61
66.529999 -1.222 -1.767 62
66.569 -1.272 -1.901 27
0 0 0 6
57.573002 -1.1849999 -1.876 5
0 0 0 8
66.514999 -1.4630001 -2.431 12
0 0 0 0
0 0 0 0
0 0 0 2
29.478001 -0.73000002 -1.313 1
0 0 0 1
24.288 -0.634 -1.179 3
0 0 0 1
19.754 -0.542 -1.039 1
0 0 0 1
0 0 0 1
0 0 0 2
15.274 -0.458 -0.926 2
14.423 -0.442 -0.90399998 3
13.686 -0.428 -0.88499999 3
13.132 -0.41800001 -0.875 3
12.561 -0.40799999 -0.86299998 3
12.012 -0.39700001 -0.84899998 3
11.453 -0.38499999 -0.833 2
10.965 -0.375 -0.81999999 2
10.544 -0.36700001 -0.80900002 3
10.152 -0.359 -0.80000001 3
9.8459997 -0.35299999 -0.79500002 4
9.4390001 -0.34400001 -0.78100002 3
9.0790005 -0.336 -0.76899999 5
8.8500004 -0.33199999 -0.76800001 5
8.4779997 -0.32300001 -0.75300002 3
8.1590004 -0.315 -0.741 3
7.8870001 -0.30899999 -0.73199999 4
7.6479998 -0.303 -0.72500002 4
7.3779998 -0.296 -0.71399999 3
7.1459999 -0.28999999 -0.70599997 4
6.9629998 -0.28600001 -0.70200002 4
6.7480001 -0.28099999 -0.69400001 4
6.5669999 -0.27599999 -0.68800002 4
6.3850002 -0.27200001 -0.68199998 4
6.2090001 -0.26699999 -0.676 5
6.0430002 -0.26300001 -0.67000002 5
5.8829999 -0.259 -0.66399997 5
5.756 -0.255 -0.66100001 5
5.6560001 -0.25400001 -0.66100001 4
5.5149999 -0.25 -0.65499997 2
5.3889999 -0.24600001 -0.65100002 3
5.2160001 -0.23999999 -0.64099997 5
5.1170001 -0.23800001 -0.639 7
5.0079999 -0.235 -0.63499999 9
4.9299998 -0.233 -0.63499999 11
4.8280001 -0.23 -0.63099998 11
4.7309999 -0.227 -0.62800002 12
4.6339998 -0.22400001 -0.62400001 11
4.5650001 -0.223 -0.62400001 11
4.4699998 -0.22 -0.62 11
4.3930001 -0.21799999 -0.61799997 10
4.3109999 -0.215 -0.61500001 11
4.2410002 -0.213 -0.61299998 11
4.177 -0.211 -0.61199999 10
4.1240001 -0.20999999 -0.61199999 6
4.0799999 -0.20900001 -0.61400002 3
3.9760001 -0.205 -0.60600001 2
3.902 -0.20200001 -0.602 2
3.852 -0.20100001 -0.602 1
3.829 -0.20100001 -0.60600001 3
3.78 -0.199 -0.60500002 2
3.766 -0.2 -0.61000001 2
3.6960001 -0.197 -0.60600001 2
3.585 -0.192 -0.59500003 1
3.4960001 -0.18799999 -0.58700001 1
3.4460001 -0.186 -0.58499998 2
3.48 -0.189 -0.597 2
3.4449999 -0.18799999 -0.59799999 2
3.365 -0.184 -0.58999997 2
3.3150001 -0.182 -0.588 1
3.3010001 -0.182 -0.59200001 1
3.2409999 -0.17900001 -0.58700001 1
3.27 -0.182 -0.59799999 1
3.211 -0.17900001 -0.59299999 1
3.2690001 -0.183 -0.61000001 2
3.155 -0.177 -0.59500003 2
3.095 -0.17399999 -0.58899999 2
3.1099999 -0.176 -0.59799999 2
2.9979999 -0.17 -0.58200002 2
2.9289999 -0.167 -0.574 1
2.927 -0.167 -0.579 1
2.9300001 -0.168 -0.58499998 2
2.812 -0.161 -0.56599998 1
2.7880001 -0.16 -0.56599998 1
2.7520001 -0.15800001 -0.56400001 2
2.724 -0.15700001 -0.56300002 2
2.701 -0.156 -0.56300002 2
2.671 -0.155 -0.56199998 2
2.6489999 -0.154 -0.56199998 2
2.625 -0.153 -0.56199998 2
2.5940001 -0.15099999 -0.56 2
2.5780001 -0.15000001 -0.56099999 2
2.5550001 -0.149 -0.56 1
2.5350001 -0.148 -0.56 1
2.513 -0.147 -0.56 1
2.487 -0.146 -0.55800003 1
2.4679999 -0.145 -0.55800003 1
2.448 -0.14399999 -0.55800003 1
2.418 -0.142 -0.55500001 1
2.402 -0.141 -0.55599999 1
2.388 -0.141 -0.55699998 1
2.3659999 -0.139 -0.55500001 1
2.355 -0.139 -0.55699998 1
2.3269999 -0.13699999 -0.55400002 1
2.3 -0.13600001 -0.551 1
2.289 -0.13500001 -0.55199999 1
2.2750001 -0.134 -0.55299997 1
2.2550001 -0.133 -0.55199999 1
2.2379999 -0.132 -0.551 1
2.2290001 -0.131 -0.55299997 1
2.207 -0.13 -0.551 1
2.197 -0.12899999 -0.55199999 1
2.174 -0.12800001 -0.54900002 1
2.164 -0.127 -0.55000001 1
2.145 -0.126 -0.54900002 1
2.128 -0.125 -0.54799998 1
2.118 -0.124 -0.54900002 1
2.0999999 -0.123 -0.54699999 1
2.086 -0.122 -0.54699999 1
2.075 -0.122 -0.54699999 1
2.0569999 -0.12 -0.546 1
2.046 -0.12 -0.546 1
2.0350001 -0.119 -0.546 1
2.0239999 -0.118 -0.546 1
2.0120001 -0.117 -0.546 1
1.998 -0.116 -0.54500002 1
1.9859999 -0.115 -0.54500002 1
1.979 -0.114 -0.546 1
1.967 -0.114 -0.54500002 1
1.95 -0.112 -0.54299998 1
1.941 -0.112 -0.54299998 1
1.931 -0.111 -0.54299998 1
1.916 -0.11 -0.542 1
1.908 -0.109 -0.542 1
1.898 -0.108 -0.542 1
1.887 -0.107 -0.542 1
1.878 -0.107 -0.54100001 1
1.8710001 -0.106 -0.542 1
1.854 -0.105 -0.53899997 1
1.86 -0.105 -0.54400003 1
1.841 -0.103 -0.54100001 1
1.8380001 -0.103 -0.542 1
1.823 -0.102 -0.54000002 1
1.8099999 -0.101 -0.53899997 1
1.806 -0.1 -0.54000002 1
1.798 -0.098999999 -0.54000002 1
1.79 -0.098999999 -0.54000002 1
1.772 -0.097000003 -0.53600001 1
1.7690001 -0.097000003 -0.537 1
1.762 -0.096000001 -0.537 1
1.744 -0.094999999 -0.53399998 1
1.7410001 -0.093999997 -0.53500003 1
1.739 -0.093999997 -0.537 1
1.7309999 -0.093000002 -0.53600001 1
1.725 -0.092 -0.53600001 1
1.719 -0.090999998 -0.537 1
1.7079999 -0.090000004 -0.53500003 1
1.702 -0.090000004 -0.53500003 1
1.683 -0.088 -0.53100002 1
1.677 -0.088 -0.53100002 1
1.674 -0.086999997 -0.53200001 1
1.6619999 -0.086000003 -0.52999997 1
1.6569999 -0.085000001 -0.52999997 1
1.656 -0.085000001 -0.53100002 1
1.647 -0.083999999 -0.52999997 1
1.643 -0.082999997 -0.53100002 1
1.635 -0.082999997 -0.52999997 1
1.63 -0.082000002 -0.52999997 1
1.623 -0.081 -0.52899998 1
1.613 -0.079999998 -0.528 1
1.612 -0.079999998 -0.52899998 1
1.607 -0.079000004 -0.528 1
1.591 -0.078000002 -0.52499998 1
1.592 -0.077 -0.52600002 1
1.587 -0.077 -0.52600002 1
1.589 -0.075999998 -0.528 1
1.5779999 -0.075000003 -0.52600002 1
1.576 -0.075000003 -0.52700001 1
1.5700001 -0.074000001 -0.52600002 1
1.5650001 -0.072999999 -0.52600002 1
1.556 -0.071999997 -0.52399999 1
1.561 -0.071999997 -0.52700001 1
1.5549999 -0.071000002 -0.52600002 1
1.551 -0.071000002 -0.52600002 1
1.5470001 -0.07 -0.52600002 1
1.543 -0.068999998 -0.52600002 1
1.538 -0.068999998 -0.52499998 1
1.541 -0.068000004 -0.528 1
1.5369999 -0.068000004 -0.52700001 1
1.539 -0.067000002 -0.52899998 1
1.533 -0.066 -0.528 1
1.533 -0.066 -0.52899998 1
1.529 -0.064999998 -0.52899998 1
1.52 -0.064000003 -0.52700001 1
1.5140001 -0.064000003 -0.52600002 1
1.516 -0.063000001 -0.52700001 1
1.507 -0.061999999 -0.52499998 1
1.5 -0.061000001 -0.52399999 1
1.507 -0.061000001 -0.52700001 1
1.501 -0.061000001 -0.52499998 1
1.506 -0.059999999 -0.528 1
1.492 -0.059 -0.52399999 1
1.495 -0.059 -0.52600002 1
1.487 -0.057999998 -0.52399999 1
1.487 -0.057 -0.52399999 1
1.479 -0.056000002 -0.52200001 1
1.48 -0.056000002 -0.523 1
1.477 -0.055 -0.523 1
1.48 -0.055 -0.52499998 1
1.469 -0.054000001 -0.52100003 1
1.477 -0.054000001 -0.52499998 1
1.466 -0.052999999 -0.52200001 1
1.474 -0.052000001 -0.52499998 1
1.4680001 -0.052000001 -0.523 1
1.473 -0.050999999 -0.52600002 1
1.465 -0.050000001 -0.523 1
1.472 -0.050000001 -0.52600002 1
1.472 -0.050000001 -0.52700001 1
1.472 -0.048999999 -0.52700001 1
1.471 -0.048 -0.52700001 1
1.471 -0.048 -0.528 1
1.449 -0.046999998 -0.51999998 1
1.462 -0.046999998 -0.52499998 1
1.466 -0.046 -0.52700001 1
1.4529999 -0.045000002 -0.52200001 1
1.452 -0.044 -0.52200001 1
1.466 -0.044 -0.528 1
1.446 -0.043000001 -0.52100003 1
1.446 -0.043000001 -0.52100003 1
1.456 -0.041999999 -0.52499998 1
1.462 -0.041999999 -0.52700001 1
1.45 -0.041000001 -0.523 1
1.444 -0.039999999 -0.52100003 1
1.46 -0.039999999 -0.52700001 1
1.4579999 -0.039999999 -0.52600002 1
1.45 -0.039000001 -0.523 1
1.452 -0.037999999 -0.52399999 1
1.454 -0.037999999 -0.52499998 1
1.456 -0.037 -0.52600002 1
1.452 -0.037 -0.52399999 1
1.452 -0.035999998 -0.52399999 1
1.452 -0.035 -0.52399999 1
1.446 -0.035 -0.52200001 1
1.452 -0.034000002 -0.52399999 1
1.452 -0.034000002 -0.52399999 1
1.462 -0.033 -0.52700001 1
1.443 -0.032000002 -0.51999998 1
1.447 -0.032000002 -0.52100003 1
1.454 -0.030999999 -0.523 1
1.46 -0.030999999 -0.52600002 1
1.452 -0.029999999 -0.52200001 1
1.447 -0.028999999 -0.51999998 1
1.45 -0.028999999 -0.52100003 1
1.467 -0.028999999 -0.52700001 1
1.467 -0.028000001 -0.52700001 1
1.4630001 -0.027000001 -0.52499998 1
1.4630001 -0.027000001 -0.52399999 1
1.457 -0.026000001 -0.52200001 1
1.467 -0.026000001 -0.52499998 1
1.465 -0.025 -0.52399999 1
1.455 -0.024 -0.51999998 1
1.475 -0.024 -0.52600002 1
1.475 -0.023 -0.52600002 1
1.475 -0.023 -0.52499998 1
1.475 -0.022 -0.52499998 1
1.479 -0.022 -0.52499998 1
1.485 -0.021 -0.52700001 1
1.479 -0.021 -0.52399999 1
1.4809999 -0.02 -0.52399999 1
1.475 -0.018999999 -0.52100003 1
1.478 -0.018999999 -0.52200001 1
1.478 -0.017999999 -0.52100003 1
1.484 -0.017999999 -0.52200001 1
1.4910001 -0.017000001 -0.52399999 1
1.503 -0.017000001 -0.528 1
1.5089999 -0.016000001 -0.52899998 1
1.51 -0.016000001 -0.52899998 1
1.502 -0.015 -0.52499998 1
1.518 -0.014 -0.52899998 1
1.513 -0.014 -0.52700001 1
1.512 -0.013 -0.52499998 1
1.525 -0.013 -0.52899998 1
1.518 -0.012 -0.52600002 1
1.524 -0.012 -0.52700001 1
1.524 -0.011 -0.52600002 1
1.522 -0.0099999998 -0.52399999 1
1.522 -0.0099999998 -0.523 1
1.531 -0.0089999996 -0.52499998 1
1.528 -0.0089999996 -0.523 1
1.5319999 -0.0080000004 -0.523 1
1.546 -0.0080000004 -0.52700001 1
1.538 -0.0070000002 -0.523 1
1.553 -0.0060000001 -0.52600002 1
1.55 -0.0060000001 -0.52399999 1
1.572 -0.0049999999 -0.52999997 1
1.573 -0.0049999999 -0.52899998 1
1.554 -0.0040000002 -0.52200001 1
1.573 -0.0040000002 -0.52700001 1
1.581 -0.003 -0.528 1
1.58 -0.003 -0.52600002 1
1.6 -0.0020000001 -0.53200001 1
1.5829999 -0.001 -0.52399999 1
1.6 -0.001 -0.52899998 1
1.61 0 -0.53100002 1
1.613 0 -0.52999997 1
1.615 0 -0.52899998 1
1.618 0 -0.52899998 1
1.623 0.001 -0.528 1
1.625 0.0020000001 -0.52700001 1
1.645 0.0020000001 -0.53200001 1
1.654 0.003 -0.53399998 1
1.643 0.003 -0.528 1
1.649 0.0040000002 -0.528 1
1.671 0.0040000002 -0.53399998 1
1.677 0.0049999999 -0.53399998 1
1.686 0.0060000001 -0.53500003 1
1.688 0.0060000001 -0.53399998 1
1.6900001 0.0070000002 -0.53200001 1
1.7029999 0.0070000002 -0.53500003 1
1.706 0.0080000004 -0.53399998 1
1.712 0.0080000004 -0.53399998 1
1.723 0.0089999996 -0.53500003 1
1.734 0.0099999998 -0.53600001 1
1.737 0.0099999998 -0.53500003 1
1.748 0.011 -0.53600001 1
1.755 0.011 -0.537 1
1.762 0.012 -0.53600001 1
1.767 0.012 -0.53600001 1
1.784 0.013 -0.53899997 1
1.791 0.014 -0.53899997 1
1.7970001 0.014 -0.53799999 1
1.806 0.015 -0.53799999 1
1.816 0.015 -0.53899997 1
1.824 0.016000001 -0.53899997 1
1.839 0.017000001 -0.54100001 1
1.8430001 0.017000001 -0.54000002 1
1.849 0.017999999 -0.53899997 1
1.864 0.017999999 -0.54100001 1
1.8710001 0.018999999 -0.54000002 1
1.881 0.018999999 -0.54100001 1
1.8890001 0.02 -0.54100001 1
1.899 0.021 -0.54000002 1
1.908 0.021 -0.54000002 1
1.9220001 0.022 -0.542 1
1.939 0.022 -0.54400003 1
1.934 0.023 -0.54000002 1
1.956 0.024 -0.54299998 1
1.965 0.024 -0.542 1
1.982 0.025 -0.54400003 1
1.995 0.025 -0.54500002 1
2.006 0.026000001 -0.54500002 1
2.0109999 0.026000001 -0.54299998 1
2.0220001 0.027000001 -0.54299998 1
2.043 0.028000001 -0.546 1
2.056 0.028000001 -0.546 1
2.069 0.028999999 -0.546 1
2.0829999 0.028999999 -0.54699999 1
2.0969999 0.029999999 -0.54699999 1
2.108 0.029999999 -0.54699999 1
2.1159999 0.030999999 -0.546 1
2.1429999 0.032000002 -0.54900002 1
2.1570001 0.032000002 -0.54900002 1
2.165 0.033 -0.54799998 1
2.184 0.033 -0.54900002 1
2.201 0.034000002 -0.55000001 1
2.2130001 0.034000002 -0.54900002 1
2.2349999 0.035 -0.551 1
2.2550001 0.035999998 -0.55199999 1
2.267 0.035999998 -0.551 1
2.2820001 0.037 -0.551 1
2.3050001 0.037 -0.55299997 1
2.322 0.037999999 -0.55299997 1
2.3410001 0.039000001 -0.55400002 1
2.362 0.039000001 -0.55400002 1
2.3770001 0.039999999 -0.55400002 1
2.4030001 0.039999999 -0.55599999 1
2.4200001 0.041000001 -0.55599999 1
2.4389999 0.041000001 -0.55599999 1
2.4619999 0.041999999 -0.55699998 1
2.484 0.041999999 -0.55699998 1
2.513 0.043000001 -0.55900002 1
2.5369999 0.044 -0.56 1
2.5539999 0.044 -0.56 1
2.579 0.045000002 -0.56 1
2.6040001 0.045000002 -0.56099999 1
2.6289999 0.046 -0.56199998 1
2.6559999 0.046 -0.56300002 2
2.6719999 0.046999998 -0.56099999 2
2.6960001 0.046999998 -0.56199998 1
2.7309999 0.048 -0.56400001 1
2.8069999 0.048999999 -0.574 1
2.8099999 0.048999999 -0.56999999 1
2.8770001 0.050000001 -0.57800001 1
2.8889999 0.050999999 -0.57499999 1
3.0139999 0.052999999 -0.59399998 1
3.099 0.054000001 -0.60500002 1
2.993 0.052000001 -0.579 1
0 0 0 2
3.0999999 0.054000001 -0.588 2
3.1830001 0.055 -0.59799999 2
3.21 0.056000002 -0.597 2
3.224 0.056000002 -0.59299999 1
3.2390001 0.056000002 -0.58999997 2
3.2490001 0.056000002 -0.58600003 2
3.256 0.056000002 -0.58099997 1
3.3729999 0.057 -0.59500003 2
3.405 0.057999998 -0.59399998 2
3.3989999 0.057 -0.58700001 3
3.52 0.059 -0.60100001 2
3.46 0.057 -0.58399999 2
3.632 0.059999999 -0.60600001 2
3.625 0.059 -0.597 2
3.7119999 0.059999999 -0.60399997 3
3.7379999 0.059999999 -0.60100001 2
3.786 0.061000001 -0.602 2
3.8800001 0.061999999 -0.60900003 3
3.872 0.061000001 -0.60000002 2
3.9400001 0.061000001 -0.60299999 2
4.0349998 0.061999999 -0.60900003 2
4.0609999 0.061999999 -0.60500002 2
4.1599998 0.063000001 -0.61199999 2
4.2360001 0.063000001 -0.61400002 2
4.3460002 0.064000003 -0.62099999 2
4.3850002 0.063000001 -0.61799997 4
4.4699998 0.064000003 -0.62099999 2
4.5560002 0.064000003 -0.62400001 4
4.6469998 0.064000003 -0.62699997 4
4.7470002 0.064999998 -0.63099998 2
4.8410001 0.064999998 -0.634 3
4.9549999 0.064999998 -0.639 3
5.0549998 0.064999998 -0.64099997 3
5.1440001 0.064999998 -0.64200002 3
5.2600002 0.064999998 -0.64600003 4
5.4000001 0.064999998 -0.65200001 4
5.4980001 0.064999998 -0.653 4
5.6170001 0.064999998 -0.65600002 5
5.7579999 0.064999998 -0.66000003 5
5.908 0.064999998 -0.66600001 4
6.0819998 0.064999998 -0.67299998 5
6.257 0.064999998 -0.68000001 4
6.4310002 0.064999998 -0.685 5
6.6100001 0.064000003 -0.69099998 5
6.8109999 0.064000003 -0.69800001 5
7.0359998 0.064000003 -0.70599997 4
7.2620001 0.063000001 -0.71399999 4
7.5250001 0.063000001 -0.72399998 4
7.7849998 0.061999999 -0.73400003 7
7.9910002 0.061000001 -0.736 10
8.3299999 0.061000001 -0.75099999 5
8.6630001 0.059999999 -0.76300001 3
9.0640001 0.059 -0.77899998 4
9.5170002 0.057999998 -0.79900002 14
9.7449999 0.056000002 -0.79799998 15
10.034 0.052999999 -0.801 8
10.452 0.050999999 -0.81199998 4
10.902 0.048999999 -0.82499999 3
11.403 0.046 -0.83899999 2
11.955 0.043000001 -0.85500002 3
12.464 0.039999999 -0.86500001 3
13.068 0.035999998 -0.88 3
13.644 0.030999999 -0.88999999 3
14.379 0.026000001 -0.90899998 3
0 0 0 2
0 0 0 2
16.468 0.0060000001 -0.93900001 3
0 0 0 1
0 0 0 0
0 0 0 4
0 0 0 1
0 0 0 0
0 0 0 0
0 0 0 0
0 0 0 5
48.701 -0.208 -1.872 27
48.705002 -0.235 -1.772 153
48.777 -0.26300001 -1.674 170
0 0 0 5
45.826 -0.29899999 -1.385 8
45.894001 -0.32600001 -1.2920001 8
0 0 0 0
0 0 0 25
0 0 0 32
116.997 -1.114 -2.332 29
0 0 0 11
73.030998 -0.78600001 -1.155 29
73.042999 -0.833 -1.005 42
72.966003 -0.87800002 -0.85699999 47
72.098 -0.91399997 -0.699 108
71.989998 -0.95999998 -0.55000001 141
71.970001 -1.007 -0.403 73
69.933998 -1.025 -0.248 12
69.800003 -1.0700001 -0.106 60
67.169998 -1.075 0.032000002 16
0 0 0 0
0 0 0 22
66.749001 -1.206 0.43700001 39
66.639 -1.251 0.57200003 75
66.589996 -1.2970001 0.704 57
66.574997 -1.344 0.838 39
0 0 0 0
0 0 0 0
0 0 0 0
0 0 0 0
0 0 0 7
56.032001 -1.38 1.381 27
55.868 -1.418 1.488 36
55.529999 -1.452 1.59 21
54.457001 -1.466 1.666 21
53.512001 -1.482 1.743 21
52.820999 -1.5039999 1.825 30
52.202999 -1.528 1.9069999 32
51.681 -1.554 1.99 32
51.150002 -1.579 2.0699999 29
50.810001 -1.61 2.1559999 44
50.779999 -1.649 2.253 39
50.797001 -1.692 2.355 6
0 0 0 0
0 0 0 0
0 0 0 12
51.18 -1.875 2.7690001 25
51.183998 -1.918 2.8670001 39
50.881001 -1.95 2.948 54
49.841999 -1.9529999 2.9849999 55
49.825001 -1.995 3.079 66
49.723 -2.0350001 3.168 62
48.611 -2.0309999 3.1900001 47
48.470001 -2.0680001 3.273 70
47.912998 -2.0869999 3.326 17
47.062 -2.092 3.3559999 11
46.758999 -2.1199999 3.4219999 33
46.747002 -2.1600001 3.5079999 62
46.743999 -2.2030001 3.595 66
46.771999 -2.2449999 3.684 67
46.756001 -2.2880001 3.77 64
46.772999 -2.332 3.858 66
46.787998 -2.3759999 3.9460001 66
46.793999 -2.4189999 4.0320001 64
0 0 0 3
43.437 -2.326 3.902 11
43.049 -2.346 3.9460001 11
42.751999 -2.3699999 3.9960001 38
42.752998 -2.4100001 4.0739999 58
42.743999 -2.451 4.1500001 59
42.049999 -2.45 4.1570001 35
41.780998 -2.4749999 4.2059999 65
41.773998 -2.5139999 4.2789998 59
41.771999 -2.5550001 4.3540001 60
40.886002 -2.539 4.3330002 35
40.452999 -2.552 4.3579998 58
40.451 -2.5899999 4.427 57
40.452 -2.6300001 4.4980001 53
40.070999 -2.6440001 4.5250001 33
39.096001 -2.618 4.4829998 40
39.076 -2.6559999 4.5479999 48
39.083 -2.6949999 4.6160002 48
39.077 -2.734 4.6820002 45
38.112999 -2.704 4.632 29
37.750999 -2.717 4.6529999 55
37.747002 -2.753 4.7150002 56
37.748001 -2.7920001 4.7789998 56
37.688999 -2.825 4.8340001 51
36.523998 -2.7739999 4.7449999 26
36.387001 -2.8010001 4.7880001 55
36.395 -2.8380001 4.849 55
36.400002 -2.8759999 4.9089999 55
36.067001 -2.8859999 4.9219999 18
35.035999 -2.839 4.8390002 9
34.741001 -2.8510001 4.855 10
34.589001 -2.8740001 4.8889999 46
34.595001 -2.9100001 4.9460001 49
34.582001 -2.9449999 4.9990001 57
34.584999 -2.9809999 5.0549998 58
34.595001 -3.0179999 5.1110001 57
34.581001 -3.052 5.1630001 53
34.601002 -3.0899999 5.2199998 56
34.618999 -3.1270001 5.276 57
34.618999 -3.1630001 5.329 58
34.611 -3.1989999 5.381 57
34.630001 -3.237 5.4369998 53
34.618 -3.2720001 5.487 57
34.627998 -3.3099999 5.5409999 58
34.641998 -3.3469999 5.5949998 63
34.639 -3.3829999 5.6459999 60
34.646 -3.4200001 5.6989999 61
34.657001 -3.4579999 5.7519999 49
34.638 -3.4920001 5.7989998 57
34.643002 -3.529 5.8509998 55
34.652 -3.566 5.902 56
34.66 -3.6029999 5.9530001 57
34.661999 -3.6400001 6.0040002 57
34.672001 -3.678 6.0549998 58
34.68 -3.7149999 6.1040001 55
34.667 -3.75 6.1500001 56
34.674999 -3.7869999 6.1989999 55
34.674999 -3.825 6.2490001 55
34.683998 -3.8629999 6.2979999 56
34.688999 -3.9000001 6.3460002 54
34.674999 -3.9349999 6.3909998 52
34.691002 -3.974 6.441 49
34.639 -4.0040002 6.4770002 30
34.48 -4.0219998 6.493 22
34.355999 -4.0440001 6.5149999 25
34.195999 -4.0609999 6.5289998 25
34.021 -4.0749998 6.54 24
33.820999 -4.0869999 6.5450001 25
33.641998 -4.1009998 6.553 24
33.444 -4.112 6.5560002 24
33.230999 -4.1209998 6.5560002 24
33.069 -4.1350002 6.5650001 23
32.877998 -4.1459999 6.5689998 23
32.696999 -4.158 6.573 24
32.540001 -4.171 6.5809999 23
32.362 -4.1820002 6.5830002 29
32.201 -4.1950002 6.5869999 24
32.050999 -4.2080002 6.5960002 28
31.879999 -4.2189999 6.598 24
31.738001 -4.2329998 6.6059999 26
31.559999 -4.243 6.605 26
31.415001 -4.256 6.6110001 26
31.278999 -4.27 6.618 25
31.142 -4.283 6.6240001 27
31.014999 -4.2979999 6.632 26
30.864 -4.3080001 6.6339998 28
0 0 0 4
27.066999 -3.8329999 5.8759999 13
26.976 -3.848 5.8850002 19
26.927 -3.868 5.9029999 25
26.903999 -3.8929999 5.9260001 29
26.865999 -3.914 5.9460001 27
26.839001 -3.937 5.967 34
26.818001 -3.961 5.9899998 36
26.797001 -3.9849999 6.0120001 38
26.768 -4.007 6.0320001 38
26.76 -4.0320001 6.0570002 41
26.740999 -4.0560002 6.0780001 40
26.718 -4.079 6.099 43
26.709999 -4.1040001 6.1220002 44
26.698999 -4.1290002 6.145 46
26.690001 -4.1529999 6.1680002 47
26.687 -4.1789999 6.191 48
26.669001 -4.2020001 6.211 48
26.674 -4.2290001 6.2360001 50
26.671 -4.2540002 6.2589998 48
26.667999 -4.2789998 6.2820001 51
26.666 -4.3039999 6.3039999 49
26.686001 -4.3319998 6.3319998 44
26.676001 -4.3559999 6.3509998 43
26.676001 -4.381 6.3730001 47
26.688999 -4.4099998 6.3979998 46
26.687 -4.434 6.4190001 44
26.691999 -4.46 6.441 43
26.705 -4.487 6.4650002 44
26.725 -4.5149999 6.4899998 42
26.733 -4.5409999 6.5120001 37
26.757999 -4.5689998 6.5380001 36
26.76 -4.5939999 6.559 33
26.797001 -4.6240001 6.5879998 30
26.809999 -4.651 6.6100001 29
26.841999 -4.6799998 6.6360002 26
26.885 -4.7119999 6.6659999 22
26.913 -4.7410002 6.691 20
26.978001 -4.776 6.7249999 22
26.966 -4.7969999 6.7389998 24
26.900999 -4.809 6.7399998 27
26.823999 -4.8179998 6.7379999 26
26.766001 -4.8299999 6.7399998 25
26.714001 -4.8439999 6.7420001 25
26.627001 -4.8509998 6.7360001 29
26.589001 -4.8660002 6.7420001 25
26.537001 -4.8790002 6.7449999 31
26.486 -4.8909998 6.7459998 30
26.431 -4.9029999 6.7470002 29
26.379999 -4.915 6.7480001 25
26.337 -4.928 6.75 24
26.297001 -4.9419999 6.7540002 23
26.239 -4.9520001 6.7519999 27
26.177 -4.961 6.7490001 27
26.143999 -4.9749999 6.7519999 25
26.112 -4.9899998 6.756 29
26.056999 -5 6.7540002 25
26.02 -5.0120001 6.756 29
25.968 -5.0219998 6.7529998 30
25.933001 -5.0349998 6.7540002 29
25.908001 -5.0489998 6.7579999 30
25.868999 -5.0609999 6.7579999 30
25.844 -5.0749998 6.7610002 29
25.801001 -5.086 6.7589998 29
25.788 -5.1009998 6.7649999 30
25.747 -5.112 6.7639999 30
25.709 -5.1220002 6.7620001 25
25.687 -5.1360002 6.7639999 25
25.656 -5.1479998 6.7639999 29
25.632999 -5.1599998 6.7649999 28
25.593 -5.1700001 6.7620001 24
25.580999 -5.184 6.7659998 24
25.549999 -5.1950002 6.7639999 29
25.518 -5.2059999 6.7620001 28
25.503 -5.2189999 6.7639999 28
25.476999 -5.23 6.763 28
25.466 -5.244 6.7649999 25
25.441 -5.2550001 6.763 29
25.43 -5.2680001 6.7649999 26
25.415001 -5.2810001 6.7659998 24
25.375 -5.2880001 6.7589998 29
25.372 -5.302 6.7620001 30
25.358 -5.3140001 6.7610002 29
25.337999 -5.3239999 6.7600002 30
25.334999 -5.3379998 6.7620001 30
25.327999 -5.3520002 6.7620001 30
25.320999 -5.3639998 6.763 27
25.306999 -5.375 6.7610002 30
25.32 -5.3920002 6.7659998 31
25.316 -5.4050002 6.7659998 26
25.301001 -5.414 6.763 26
25.295 -5.4260001 6.7620001 30
25.296 -5.4390001 6.763 26
25.302 -5.4530001 6.7649999 29
25.298 -5.4650002 6.7639999 27
25.298 -5.4770002 6.763 31
25.298 -5.4899998 6.7620001 27
25.302999 -5.5029998 6.7620001 27
25.309 -5.5149999 6.763 30
25.302999 -5.5250001 6.7589998 29
25.290001 -5.5339999 6.7529998 30
25.323 -5.552 6.7600002 25
25.316 -5.5609999 6.756 29
25.334999 -5.5760002 6.7579999 25
25.336 -5.586 6.7550001 25
25.356001 -5.6009998 6.757 27
25.368 -5.6139998 6.756 32
25.372 -5.6240001 6.7529998 30
25.389 -5.6370001 6.7529998 29
25.403999 -5.6500001 6.7519999 30
25.419001 -5.6630001 6.7509999 29
0 0 0 2
19.032 -4.2529998 5.046 4
19.021999 -4.256 5.04 9
18.997 -4.257 5.0289998 13
18.976 -4.2579999 5.0180001 15
18.957001 -4.2589998 5.0079999 17
18.941999 -4.2620001 4.9980001 17
18.931999 -4.2649999 4.9910002 18
18.910999 -4.2649999 4.9790001 18
18.903999 -4.2690001 4.9710002 19
18.9 -4.2729998 4.9640002 20
18.882999 -4.2740002 4.9530001 21
18.871 -4.2750001 4.9439998 21
18.863001 -4.2779999 4.9349999 23
18.857 -4.2800002 4.927 19
18.857 -4.2849998 4.9190001 22
18.834 -4.283 4.9060001 24
18.83 -4.2859998 4.8969998 24
18.830999 -4.289 4.8899999 25
18.820999 -4.29 4.8790002 25
18.806 -4.29 4.8670001 24
18.813999 -4.2940001 4.8600001 25
18.809 -4.296 4.8499999 28
18.806999 -4.2979999 4.8410001 27
18.797001 -4.2979999 4.829 27
18.796 -4.3010001 4.8200002 22
18.782 -4.2989998 4.8070002 28
18.784 -4.302 4.7969999 28
18.781 -4.303 4.7870002 27
18.792 -4.3070002 4.7800002 28
18.775999 -4.3039999 4.7649999 28
18.782 -4.3070002 4.756 28
18.778 -4.3060002 4.7449999 29
18.771 -4.3060002 4.7319999 28
18.783001 -4.309 4.724 24
18.767 -4.3060002 4.7090001 29
18.771 -4.3070002 4.698 29
18.77 -4.3060002 4.6869998 29
18.766001 -4.3049998 4.6739998 28
18.764 -4.3039999 4.6609998 28
18.775 -4.3070002 4.652 27
18.757999 -4.302 4.6350002 24
18.756001 -4.3000002 4.6220002 28
18.771999 -4.303 4.6129999 29
18.774 -4.302 4.6009998 29
18.764999 -4.2979999 4.585 27
18.766001 -4.2969999 4.573 28
18.768999 -4.296 4.5599999 30
18.777 -4.296 4.5479999 27
18.778 -4.2940001 4.5339999 27
18.792999 -4.2950001 4.5240002 28
18.792999 -4.2930002 4.5089998 28
18.801001 -4.2909999 4.4970002 28
18.783001 -4.2839999 4.4780002 27
18.785 -4.2820001 4.4640002 28
18.781 -4.2779999 4.447 25
18.799 -4.2779999 4.4359999 26
18.809 -4.277 4.4229999 26
18.815001 -4.2750001 4.4089999 26
18.812 -4.27 4.3930001 23
18.82 -4.2670002 4.3790002 26
18.841 -4.2670002 4.3670001 21
18.837 -4.2620001 4.3499999 23
18.849001 -4.2600002 4.3369999 18
18.844999 -4.2540002 4.3189998 23
18.872999 -4.2550001 4.3080001 21
18.879 -4.2509999 4.2930002 22
18.891001 -4.2480001 4.2779999 20
18.893 -4.243 4.2610002 19
18.910999 -4.2410002 4.2470002 18
18.941999 -4.2420001 4.237 17
18.959999 -4.2389998 4.223 16
18.976999 -4.237 4.2080002 14
18.98 -4.23 4.191 10
19.004999 -4.2290001 4.178 5
19.045 -4.2309999 4.1680002 2
0 0 0 26
30.330999 -6.7140002 6.5780001 24
30.444 -6.7259998 6.5710001 27
30.583 -6.7459998 6.5700002 23
30.684 -6.7540002 6.5609999 26
30.823999 -6.7719998 6.559 26
30.955 -6.7859998 6.5539999 29
31.1 -6.8039999 6.553 27
31.23 -6.8179998 6.5479999 23
31.349001 -6.829 6.54 23
31.496 -6.8449998 6.5370002 22
31.645 -6.862 6.5339999 23
31.802999 -6.881 6.5310001 21
31.927 -6.8909998 6.5229998 23
32.067001 -6.9050002 6.5170002 23
32.220001 -6.921 6.5120001 22
32.381001 -6.9380002 6.5089998 22
32.533001 -6.9530001 6.5040002 22
32.683998 -6.967 6.4970002 22
32.849998 -6.9829998 6.493 23
32.994999 -6.9949999 6.4840002 24
33.198002 -7.0180001 6.4860001 24
33.359001 -7.0320001 6.4790001 25
33.494999 -7.0409999 6.4679999 25
33.693001 -7.0609999 6.4660001 25
33.866001 -7.0770001 6.46 25
34.048 -7.092 6.4549999 25
34.217999 -7.1059999 6.4460001 26
34.363998 -7.1129999 6.4330001 26
34.508999 -7.1209998 6.4200001 26
34.619999 -7.1199999 6.3990002 21
34.771999 -7.1269999 6.3850002 16
34.898998 -7.1290002 6.3660002 12
35.101002 -7.145 6.3600001 6
35.240002 -7.1479998 6.342 4
35.243999 -7.1230001 6.3000002 3
35.278999 -7.1040001 6.263 3
35.187 -7.0599999 6.2030001 2
35.037998 -7.0019999 6.1329999 2
0 0 0 0
0 0 0 2
34.992001 -6.9130001 5.994 2
34.971001 -6.881 5.947 2
0 0 0 0
0 0 0 2
35.007999 -6.802 5.8179998 2
35.009998 -6.7729998 5.7729998 2
0 0 0 0
0 0 0 2
34.931999 -6.6680002 5.625 3
34.868 -6.6259999 5.5689998 13
34.848 -6.5910001 5.52 20
34.853001 -6.5609999 5.4759998 21
34.894001 -6.539 5.4369998 10
34.912998 -6.5100002 5.3940001 6
34.886002 -6.473 5.3429999 4
34.91 -6.4450002 5.3000002 2
0 0 0 0
0 0 0 2
0 0 0 0
0 0 0 0
0 0 0 0
0 0 0 2
0 0 0 0
0 0 0 2
0 0 0 0
0 0 0 0
0 0 0 9
26.809999 -4.6329999 3.6389999 18
26.761 -4.5970001 3.596 23
26.724001 -4.5619998 3.5539999 27
26.694 -4.5279999 3.513 30
26.667 -4.4949999 3.474 31
26.657 -4.4660001 3.437 36
26.636 -4.4330001 3.3970001 39
26.607 -4.3979998 3.3559999 42
26.604 -4.368 3.319 44
26.589001 -4.336 3.28 48
26.582001 -4.3049998 3.243 50
26.568001 -4.2719998 3.204 52
26.570999 -4.2420001 3.1670001 50
26.563999 -4.211 3.1289999 55
26.575001 -4.1820002 3.0940001 58
26.580999 -4.151 3.0569999 58
26.573999 -4.118 3.0190001 58
26.59 -4.0890002 2.984 56
26.593 -4.0580001 2.947 50
26.610001 -4.0289998 2.9119999 53
26.632 -4 2.8770001 40
26.636 -3.9690001 2.8399999 52
26.652 -3.938 2.8050001 47
26.683001 -3.9100001 2.77 34
26.698999 -3.8789999 2.7349999 36
26.73 -3.849 2.7 37
26.764 -3.8199999 2.6670001 31
26.816 -3.7939999 2.6340001 29
26.868999 -3.767 2.6010001 22
26.945 -3.743 2.5710001 12
27.046 -3.7219999 2.543 2
0 0 0 14
34.679001 -4.6820002 3.1630001 33
34.672001 -4.6350002 3.1140001 47
34.639999 -4.586 3.0639999 50
34.604 -4.5339999 3.0109999 73
34.591 -4.487 2.9619999 81
34.578999 -4.4380002 2.9130001 80
34.577 -4.3920002 2.865 82
34.577999 -4.3460002 2.8180001 81
34.571999 -4.2979999 2.7690001 79
34.573002 -4.25 2.72 76
34.563 -4.2010002 2.671 94
34.549 -4.151 2.622 88
34.551998 -4.1030002 2.575 94
34.543999 -4.053 2.526 73
34.542999 -4.0040002 2.4779999 99
34.539001 -3.954 2.4289999 91
34.528 -3.904 2.3800001 91
34.528999 -3.8540001 2.332 89
34.521999 -3.8039999 2.2850001 83
34.521999 -3.753 2.237 68
34.511002 -3.7019999 2.188 73
34.507 -3.6500001 2.1400001 79
34.514 -3.6010001 2.0940001 87
34.437 -3.5409999 2.0409999 97
33.756001 -3.4200001 1.955 84
33.717999 -3.3670001 1.9069999 99
33.776001 -3.322 1.863 39
34.389 -3.3299999 1.85 13
34.473999 -3.286 1.808 51
34.470001 -3.233 1.761 102
34.507 -3.1849999 1.717 40
34.688 -3.148 1.679 5
34.683998 -3.0929999 1.631 13
34.561001 -3.029 1.579 45
34.773998 -2.994 1.5420001 19
36.374001 -3.075 1.564 6
38.231998 -3.1719999 1.592 40
38.355999 -3.1210001 1.546 64
38.362 -3.0610001 1.495 86
38.362999 -2.9990001 1.443 74
38.359001 -2.937 1.392 53
38.789001 -2.9089999 1.357 5
39.237 -2.8789999 1.321 5
39.900002 -2.8640001 1.29 6
40.034 -2.8080001 1.242 24
40.169998 -2.7520001 1.193 5
42.412998 -2.8380001 1.205 108
42.396 -2.767 1.149 98
42.396 -2.698 1.094 82
42.859001 -2.6559999 1.051 5
43.383999 -2.6170001 1.007 6
45.036999 -2.642 0.98799998 20
43.293999 -2.4679999 0.89399999 12
0 0 0 13
46.618 -2.5020001 0.84399998 31
46.678001 -2.427 0.78600001 76
46.951 -2.362 0.73100001 9
47.134998 -2.2920001 0.67500001 9
47.305 -2.22 0.61799997 3
0 0 0 101
50.458 -2.198 0.53399998 67
50.723999 -2.122 0.47299999 43
50.842999 -2.039 0.41100001 17
0 0 0 26
57.549 -2.1099999 0.324 68
58.194 -2.033 0.25600001 70
58.555 -1.944 0.186 125
58.562 -1.842 0.115 110
58.549 -1.7410001 0.045000002 106
58.735001 -1.6440001 -0.024 76
59.139 -1.551 -0.094999999 24
0 0 0 130
66.585999 -1.512 -0.266 150
66.612 -1.397 -0.34400001 71
66.599998 -1.279 -0.42199999 75
66.845001 -1.165 -0.50199997 48
67.166 -1.051 -0.583 7
0 0 0 96
73.027 -0.884 -0.80199999 30
0 0 0 42
0 0 0 0
0 0 0 0
0 0 0 0
0 0 0 0
0 0 0 34
116.85 0.048999999 -2.2060001 31
0 0 0 0
0 0 0 0
0 0 0 0
0 0 0 25
0 0 0 18
65.418999 0.736 -1.661 88
0 0 0 137
38.875999 0.57999998 -1.0700001 19
38.768002 0.648 -1.108 20
38.687 0.71799999 -1.146 22
38.640999 0.78600001 -1.184 25
38.596001 0.85600001 -1.223 23
38.602001 0.92799997 -1.263 18
38.976002 1.008 -1.3150001 9
39.467999 1.095 -1.373 11
39.672001 1.174 -1.42 6
39.694 1.248 -1.461 5
0 0 0 0
0 0 0 0
0 0 0 0
0 0 0 0
0 0 0 0
0 0 0 0
0 0 0 0
0 0 0 2
0 0 0 0
0 0 0 0
0 0 0 0
0 0 0 1
0 0 0 0
0 0 0 1
0 0 0 1
18.131001 1.107 -0.94099998 1
18.559 1.168 -0.98000002 2
17.91 1.16 -0.96200001 2
17.465 1.164 -0.95300001 6
17.014 1.166 -0.94300002 3
16.51 1.1619999 -0.92900002 2
15.892 1.149 -0.90899998 5
15.685 1.163 -0.91000003 4
15.314 1.164 -0.90100002 2
14.931 1.163 -0.89099997 2
14.626 1.166 -0.88499999 3
14.264 1.164 -0.875 3
13.996 1.168 -0.87 2
13.726 1.171 -0.86400002 3
13.419 1.17 -0.85500002 3
13.133 1.169 -0.847 2
12.926 1.175 -0.84399998 3
12.716 1.179 -0.83999997 3
12.544 1.186 -0.838 3
12.321 1.188 -0.833 3
12.124 1.192 -0.82800001 3
11.897 1.192 -0.82200003 2
11.701 1.193 -0.81699997 2
11.504 1.194 -0.81099999 3
11.332 1.198 -0.80699998 3
11.13 1.197 -0.801 3
10.979 1.201 -0.79799998 3
10.836 1.205 -0.79500002 3
10.677 1.207 -0.79100001 4
10.556 1.2130001 -0.78899997 3
10.414 1.216 -0.78500003 3
10.286 1.219 -0.78299999 3
10.188 1.227 -0.78200001 4
10.153 1.2410001 -0.78600001 5
10.069 1.249 -0.78600001 10
9.882 1.244 -0.778 22
9.7229996 1.2410001 -0.77200001 22
9.566 1.239 -0.76499999 21
9.4580002 1.242 -0.76200002 20
9.3249998 1.2410001 -0.75700003 20
9.2180004 1.244 -0.75400001 16
9.1120005 1.2460001 -0.75099999 16
8.9989996 1.247 -0.74699998 18
8.9350004 1.2539999 -0.74699998 15
8.8240004 1.2539999 -0.74199998 18
8.7460003 1.258 -0.741 17
8.6389999 1.258 -0.73699999 17
8.5579996 1.262 -0.73400003 16
8.4969997 1.268 -0.73400003 10
8.3710003 1.2640001 -0.727 14
8.3190002 1.271 -0.727 13
8.2559996 1.276 -0.72600001 6
8.1099997 1.267 -0.71700001 5
8.0190001 1.267 -0.713 4
7.9489999 1.27 -0.71100003 5
7.8850002 1.273 -0.70899999 5
7.7979999 1.273 -0.70499998 4
7.7069998 1.272 -0.70099998 4
7.6659999 1.278 -0.69999999 6
7.6030002 1.281 -0.69800001 5
7.5539999 1.285 -0.69700003 5
7.507 1.29 -0.69599998 5
7.4400001 1.2920001 -0.69300002 5
7.375 1.293 -0.69 5
7.335 1.298 -0.69 5
7.2909999 1.303 -0.68900001 5
7.2550001 1.309 -0.68800002 5
7.1950002 1.3099999 -0.68599999 5
7.152 1.314 -0.68400002 5
7.125 1.321 -0.68400002 5
7.0310001 1.3150001 -0.67799997 9
6.9650002 1.3150001 -0.67400002 11
6.9200001 1.318 -0.67299998 11
6.9039998 1.326 -0.67400002 11
6.8670001 1.33 -0.67199999 11
6.8390002 1.336 -0.67199999 8
6.7979999 1.339 -0.67000002 10
6.7160001 1.3329999 -0.66399997 10
6.7659998 1.354 -0.67199999 7
6.7249999 1.357 -0.67000002 6
6.7049999 1.364 -0.67000002 6
6.664 1.3660001 -0.66799998 5
6.6030002 1.364 -0.66399997 5
6.5780001 1.369 -0.66299999 4
6.5450001 1.372 -0.662 4
6.5019999 1.373 -0.65899998 4
6.4689999 1.376 -0.65700001 3
6.46 1.3839999 -0.65799999 3
6.4419999 1.39 -0.65799999 4
6.4089999 1.393 -0.65600002 3
6.3920002 1.399 -0.65600002 3
6.3520002 1.4 -0.653 3
6.3629999 1.4119999 -0.65600002 3
6.3169999 1.411 -0.653 3
6.296 1.416 -0.65200001 3
6.2550001 1.416 -0.64899999 6
6.1820002 1.409 -0.64300001 10
6.1719999 1.415 -0.64300001 9
6.2049999 1.432 -0.64700001 6
6.2020001 1.4400001 -0.648 3
6.1919999 1.447 -0.648 3
6.171 1.451 -0.64700001 3
6.1719999 1.46 -0.648 4
6.1539998 1.464 -0.64700001 4
6.1539998 1.473 -0.648 3
6.1230001 1.474 -0.64600003 3
6.1129999 1.48 -0.64600003 3
6.0869999 1.482 -0.64399999 3
6.0780001 1.488 -0.64300001 3
6.0799999 1.497 -0.64399999 3
6.0450001 1.497 -0.64099997 3
6.0489998 1.506 -0.64200002 3
6.0469999 1.513 -0.64300001 3
6.0289998 1.517 -0.64099997 3
6.02 1.522 -0.64099997 3
6.0040002 1.526 -0.63999999 4
6.0050001 1.534 -0.63999999 3
6.0029998 1.541 -0.63999999 3
5.987 1.545 -0.639 3
5.9860001 1.552 -0.639 3
5.9780002 1.557 -0.639 3
5.9840002 1.566 -0.63999999 3
5.9699998 1.5700001 -0.63800001 3
5.9720001 1.5779999 -0.639 3
5.98 1.587 -0.63999999 3
5.9530001 1.587 -0.63700002 3
5.9380002 1.591 -0.63499999 4
5.9390001 1.598 -0.63599998 4
5.9439998 1.6059999 -0.63599998 3
5.9619999 1.618 -0.63800001 3
5.9580002 1.623 -0.63800001 3
5.9429998 1.626 -0.63599998 3
5.9429998 1.633 -0.63599998 3
5.9580002 1.643 -0.63700002 3
5.9569998 1.65 -0.63700002 3
5.9530001 1.655 -0.63599998 3
5.9590001 1.663 -0.63700002 3
5.9629998 1.671 -0.63700002 3
5.9619999 1.677 -0.63599998 3
5.9520001 1.6799999 -0.63499999 3
5.9699998 1.691 -0.63599998 3
5.9710002 1.698 -0.63599998 3
5.974 1.705 -0.63599998 3
5.9790001 1.712 -0.63599998 3
5.987 1.72 -0.63599998 3
6.0009999 1.73 -0.63700002 4
6.0040002 1.737 -0.63700002 3
6.0009999 1.742 -0.63599998 3
6.0110002 1.75 -0.63599998 3
6.027 1.76 -0.63700002 3
6.026 1.766 -0.63599998 3
6.046 1.777 -0.63800001 4
6.039 1.78 -0.63599998 4
6.0539999 1.79 -0.63700002 3
6.0630002 1.798 -0.63700002 3
6.0710001 1.8049999 -0.63700002 3
6.0960002 1.818 -0.639 3
6.0840001 1.8200001 -0.63599998 4
6.0970001 1.829 -0.63700002 3
6.1230001 1.841 -0.63800001 3
6.1329999 1.849 -0.63800001 3
6.1370001 1.855 -0.63800001 4
6.151 1.864 -0.63800001 3
6.1789999 1.877 -0.63999999 3
6.1999998 1.888 -0.64099997 3
6.2049999 1.8940001 -0.63999999 3
6.223 1.904 -0.63999999 3
6.256 1.919 -0.64300001 3
6.2690001 1.927 -0.64300001 3
6.2779999 1.934 -0.64200002 3
6.3109999 1.948 -0.64399999 3
6.3210001 1.956 -0.64399999 3
6.348 1.9680001 -0.64499998 3
6.3579998 1.975 -0.64399999 3
6.375 1.984 -0.64499998 3
6.3959999 1.994 -0.64499998 3
6.4260001 2.0079999 -0.64600003 3
6.4369998 2.0150001 -0.64600003 4
6.4770002 2.0309999 -0.648 4
6.474 2.033 -0.64600003 4
6.5079999 2.0480001 -0.648 4
6.5149999 2.053 -0.64700001 3
6.527 2.0599999 -0.64600003 4
6.5669999 2.076 -0.648 4
6.585 2.085 -0.648 4
6.6329999 2.1029999 -0.65100002 4
6.6560001 2.1140001 -0.65100002 4
6.6659999 2.1199999 -0.64999998 3
6.6849999 2.128 -0.64999998 4
6.7179999 2.142 -0.65100002 3
6.7470002 2.154 -0.65200001 3
6.7940001 2.171 -0.65399998 3
6.8179998 2.181 -0.65399998 3
6.8439999 2.1919999 -0.65499997 3
6.8629999 2.2 -0.65399998 3
6.915 2.22 -0.65700001 3
6.941 2.23 -0.65700001 3
6.9650002 2.24 -0.65700001 3
7.0219998 2.26 -0.66000003 4
7.053 2.2720001 -0.66000003 4
7.0910001 2.286 -0.662 4
7.1550002 2.3080001 -0.66500002 5
7.2059999 2.326 -0.667 7
7.2529998 2.3429999 -0.66900003 7
7.2779999 2.3529999 -0.66799998 6
7.3070002 2.3629999 -0.66799998 8
7.3369999 2.3740001 -0.66799998 7
7.3720002 2.3870001 -0.66900003 8
7.4029999 2.398 -0.66900003 7
7.4310002 2.408 -0.66799998 8
7.4650002 2.4200001 -0.66799998 9
7.5019999 2.4319999 -0.66900003 10
7.5539999 2.45 -0.671 8
7.5879998 2.4619999 -0.671 8
7.619 2.4719999 -0.67000002 7
7.6869998 2.494 -0.67299998 5
7.7690001 2.5209999 -0.67699999 4
7.8439999 2.546 -0.68099999 3
7.8909998 2.5610001 -0.68099999 7
7.9860001 2.592 -0.68599999 3
8.0530005 2.6129999 -0.68900001 3
8.1199999 2.635 -0.69099998 4
8.191 2.6570001 -0.69300002 4
8.2659998 2.681 -0.69599998 4
8.3389997 2.704 -0.699 4
8.4320002 2.733 -0.70300001 4
8.4849997 2.75 -0.704 5
8.5640001 2.7739999 -0.70700002 5
8.6300001 2.7939999 -0.708 6
8.7010002 2.816 -0.70999998 6
8.7519999 2.8310001 -0.71100003 7
8.8120003 2.849 -0.71100003 7
8.8920002 2.8729999 -0.71399999 7
8.9440002 2.888 -0.71399999 8
9.0299997 2.9130001 -0.71600002 7
9.0930004 2.931 -0.71700001 6
9.165 2.9519999 -0.71899998 7
9.25 2.977 -0.72100002 6
9.3330002 3.0009999 -0.72299999 5
9.3900003 3.017 -0.72299999 5
9.474 3.0409999 -0.72500002 6
9.5430002 3.0599999 -0.72600001 5
9.6190004 3.0810001 -0.727 5
9.7259998 3.112 -0.73000002 5
9.8210001 3.1389999 -0.73299998 5
9.9469995 3.175 -0.73799998 7
10.031 3.198 -0.73900002 8
10.092 3.2130001 -0.73900002 9
10.157 3.23 -0.73799998 11
10.249 3.2539999 -0.74000001 8
10.325 3.2739999 -0.74000001 6
10.403 3.2939999 -0.741 6
10.467 3.309 -0.74000001 7
10.564 3.3340001 -0.74199998 5
10.655 3.358 -0.74299997 5
10.772 3.3889999 -0.74599999 4
10.88 3.4170001 -0.74800003 4
11.027 3.457 -0.75199997 5
11.13 3.483 -0.75300002 4
11.254 3.5150001 -0.75599998 4
11.382 3.549 -0.759 5
11.496 3.5769999 -0.76099998 4
11.596 3.6010001 -0.76200002 4
11.685 3.622 -0.76099998 5
11.809 3.652 -0.764 4
11.921 3.6789999 -0.76499999 6
12.009 3.698 -0.764 6
12.107 3.72 -0.764 7
12.211 3.743 -0.764 6
12.3 3.7620001 -0.764 5
12.332 3.7620001 -0.759 6
12.439 3.786 -0.759 5
12.523 3.802 -0.75800002 6
12.574 3.8080001 -0.755 7
12.617 3.8110001 -0.75099999 7
12.633 3.806 -0.745 7
12.651 3.8010001 -0.73900002 6
12.685 3.8010001 -0.73500001 3
0 0 0 1
0 0 0 3
13.05 3.8770001 -0.73500001 3
13.371 3.961 -0.74599999 5
13.547 4.0009999 -0.74900001 3
0 0 0 0
0 0 0 1
9.427 2.7579999 -0.50599998 1
9.4399996 2.753 -0.50199997 1
9.4619999 2.75 -0.498 2
9.4300003 2.7320001 -0.491 2
9.4700003 2.734 -0.48899999 1
0 0 0 0
0 0 0 1
0 0 0 0
0 0 0 1
0 0 0 0
0 0 0 3
11.54 3.2490001 -0.55299997 2
11.488 3.2219999 -0.54500002 2
11.466 3.2030001 -0.53799999 2
11.377 3.1659999 -0.528 2
11.31 3.1340001 -0.51899999 2
11.238 3.102 -0.50999999 3
11.21 3.0810001 -0.50300002 3
11.183 3.0610001 -0.49599999 3
11.183 3.0480001 -0.49000001 3
11.196 3.039 -0.48500001 3
11.204 3.027 -0.479 2
11.253 3.027 -0.47600001 2
11.322 3.0320001 -0.47299999 2
11.388 3.036 -0.47 3
11.474 3.0450001 -0.46799999 4
11.512 3.04 -0.463 3
11.559 3.0380001 -0.45899999 4
11.503 3.0090001 -0.45199999 5
11.513 2.997 -0.44600001 5
11.506 2.98 -0.44 9
11.49 2.961 -0.43399999 9
11.461 2.938 -0.42699999 74
11.521 2.938 -0.42300001 152
11.582 2.9389999 -0.41999999 152
11.595 2.927 -0.414 150
11.681 2.9330001 -0.412 150
11.749 2.934 -0.40900001 150
11.807 2.9319999 -0.405 150
11.886 2.9349999 -0.40200001 130
11.916 2.9260001 -0.39700001 2
0 0 0 9
31.26 7.5869999 -1.013 9
31.091999 7.5029998 -0.99400002 4
31.062 7.4510002 -0.97799999 7
31.052999 7.4029999 -0.963 7
31.059 7.3600001 -0.94999999 6
31.049 7.3109999 -0.93400002 5
31.128 7.2839999 -0.92299998 4
31.079 7.2259998 -0.90700001 5
31.042999 7.171 -0.89200002 5
31.042999 7.1240001 -0.87800002 5
31.086 7.086 -0.86500001 4
31.105 7.0430002 -0.852 5
31.096001 6.994 -0.838 5
31.103001 6.947 -0.82499999 5
31.086 6.895 -0.81099999 5
31.101 6.849 -0.79699999 5
31.075001 6.7950001 -0.78399998 6
31.111 6.7529998 -0.77100003 5
31.087 6.698 -0.75800002 5
31.096001 6.6500001 -0.745 6
31.084999 6.5970001 -0.73100001 6
31.068001 6.5430002 -0.71899998 6
31.094999 6.4990001 -0.70599997 7
31.083 6.4450002 -0.69400001 6
31.073999 6.3909998 -0.68099999 7
31.076 6.3400002 -0.66900003 8
31.104 6.2940001 -0.65700001 8
31.091 6.2389998 -0.64499998 7
31.099001 6.1890001 -0.63300002 7
31.103001 6.1370001 -0.62099999 7
31.098 6.0840001 -0.60900003 7
31.110001 6.033 -0.59799999 8
31.106001 5.9780002 -0.58600003 6
31.114 5.9260001 -0.57499999 7
31.099001 5.8699999 -0.56400001 6
31.124001 5.8200002 -0.55299997 5
31.124001 5.7649999 -0.542 4
31.158001 5.7160001 -0.53200001 5
31.173 5.664 -0.52100003 4
31.141001 5.6030002 -0.50999999 3
31.093 5.539 -0.49900001 3
31.148001 5.493 -0.49000001 2
31.156 5.4380002 -0.479 2
31.153 5.381 -0.46900001 2
31.171 5.3280001 -0.46000001 2
31.193001 5.2750001 -0.45100001 1
31.212 5.2220001 -0.442 1
31.157 5.1550002 -0.43200001 1
0 0 0 0
0 0 0 0
0 0 0 1
31.202 4.9299998 -0.396 1
0 0 0 0
0 0 0 0
0 0 0 0
0 0 0 3
48.629002 7.2249999 -0.55299997 29
48.658001 7.1370001 -0.54100001 24
48.683998 7.0469999 -0.52999997 9
48.640999 6.948 -0.51800001 9
48.658001 6.8559999 -0.50599998 6
48.637001 6.7589998 -0.495 4
0 0 0 0
0 0 0 0
0 0 0 3
0 0 0 0
0 0 0 0
0 0 0 0
0 0 0 0
0 0 0 0
0 0 0 0
0 0 0 0
0 0 0 0
0 0 0 0
0 0 0 79
0 0 0 0
0 0 0 12
85.210999 9.1490002 -0.62599999 14
85.183998 8.974 -0.61500001 29
85.260002 8.809 -0.60500002 29
85.223 8.6350002 -0.59600002 35
85.25 8.4639997 -0.58700001 51
85.134003 8.2790003 -0.57700002 19
85.302002 8.1210003 -0.56999999 35
85.313004 7.948 -0.56300002 20
85.341003 7.7779999 -0.55599999 22
85.337997 7.6020002 -0.55000001 23
85.438004 7.4349999 -0.54500002 17
85.348 7.2519999 -0.53899997 17
0 0 0 3
39.563999 3.1989999 -0.245 3
39.551998 3.1159999 -0.244 3
39.488998 3.03 -0.242 3
39.529999 2.951 -0.241 2
39.438999 2.862 -0.23999999 3
39.363998 2.776 -0.23899999 3
39.262001 2.687 -0.23800001 3
39.173 2.5999999 -0.237 3
39.193001 2.5179999 -0.237 4
39.185001 2.438 -0.237 4
39.036999 2.3469999 -0.237 4
39.005001 2.2620001 -0.23800001 6
38.91 2.1760001 -0.23899999 8
38.868 2.092 -0.23999999 13
38.791 2.006 -0.241 19
38.714001 1.92 -0.243 21
38.740002 1.84 -0.245 12
39.016998 1.77 -0.25 7
39.215 1.697 -0.25400001 10
0 0 0 0
0 0 0 0
0 0 0 0
0 0 0 0
0 0 0 15
0 0 0 0
0 0 0 2
0 0 0 0
0 0 0 0
0 0 0 0
0 0 0 39
0 0 0 0
0 0 0 0
0 0 0 0
0 0 0 36
0 0 0 0
0 0 0 0
0 0 0 44
0 0 0 0
0 0 0 0
0 0 0 111
133.588 -0.458 -1.3150001 88
0 0 0 0
0 0 0 0
0 0 0 31
0 0 0 39
69.859001 -0.98199999 -0.773 17
0 0 0 0
0 0 0 73
66.573997 -1.357 -0.79100001 73
66.542 -1.497 -0.81 77
66.598 -1.64 -0.83099997 95
0 0 0 0
0 0 0 116
58.529999 -1.814 -0.78399998 135
0 0 0 18
44.289001 -1.5599999 -0.62199998 44
43.827999 -1.636 -0.63 39
43.528 -1.716 -0.64099997 39
43.325001 -1.8 -0.653 37
43.546001 -1.901 -0.67199999 39
43.241001 -1.979 -0.68300003 38
42.926998 -2.0550001 -0.69400001 46
42.916 -2.1440001 -0.70999998 34
42.716999 -2.224 -0.72299999 31
42.478001 -2.3 -0.73500001 22
0 0 0 2
0 0 0 38
42.231998 -2.55 -0.78100002 20
42.341999 -2.6459999 -0.801 103
0 0 0 1
26.218 -1.747 -0.51800001 2
0 0 0 5
39.398998 -2.789 -0.81300002 5
38.187 -2.7820001 -0.80500001 4
38.278999 -2.868 -0.82499999 24
0 0 0 3
21.961 -1.7359999 -0.493 7
21.353001 -1.732 -0.49000001 1
20.964001 -1.743 -0.491 1
0 0 0 0
0 0 0 1
20.032 -1.789 -0.498 1
19.825001 -1.811 -0.50300002 1
19.438 -1.8150001 -0.50300002 2
18.882 -1.802 -0.498 3
18.830999 -1.835 -0.50700003 3
18.802999 -1.87 -0.51599997 3
18.631001 -1.89 -0.52100003 1
0 0 0 25
0 0 0 1
18.436001 -1.982 -0.54500002 1
18.35 -2.0090001 -0.55299997 1
18.424 -2.0539999 -0.56599998 1
18.313 -2.0780001 -0.57200003 1
18.261 -2.108 -0.58099997 1
18.253 -2.1429999 -0.59100002 1
18.249001 -2.1789999 -0.602 1
18.212 -2.211 -0.611 1
18.18 -2.243 -0.62099999 2
18.164 -2.276 -0.63099998 2
18.188 -2.3150001 -0.64300001 3
18.186001 -2.3499999 -0.65399998 3
18.174 -2.3840001 -0.66399997 3
18.193001 -2.4219999 -0.676 3
18.228001 -2.4619999 -0.68900001 4
18.308001 -2.5079999 -0.704 8
18.306999 -2.543 -0.71499997 5
18.275999 -2.573 -0.72500002 5
18.302 -2.612 -0.73799998 4
18.332001 -2.651 -0.75099999 3
18.337999 -2.687 -0.764 3
18.357 -2.724 -0.77600002 2
18.421 -2.7690001 -0.79100001 2
18.471001 -2.8110001 -0.80500001 2
18.708 -2.882 -0.82800001 2
18.948999 -2.954 -0.85100001 2
18.905001 -2.9820001 -0.86199999 1
18.799999 -3.0009999 -0.87 1
18.854 -3.0439999 -0.88499999 1
18.957001 -3.096 -0.903 1
19.106001 -3.155 -0.92299998 1
19.122 -3.1919999 -0.93699998 1
19.083 -3.22 -0.949 1
0 0 0 41
23.743999 -4.0939999 -1.215 35
0 0 0 2
21.700001 -3.819 -1.141 6
0 0 0 1
18.926001 -3.398 -1.022 4
18.923 -3.431 -1.036 4
18.906 -3.461 -1.048 4
18.862 -3.4860001 -1.0599999 5
18.832001 -3.5139999 -1.072 5
18.694 -3.52 -1.0779999 4
18.5 -3.516 -1.08 3
0 0 0 1
16.479 -3.188 -0.98699999 1
16.280001 -3.178 -0.98699999 2
16.584999 -3.2650001 -1.018 3
16.304001 -3.2379999 -1.013 3
15.982 -3.2 -1.005 3
15.721 -3.174 -1 3
15.42 -3.1389999 -0.99299997 3
15.073 -3.0940001 -0.98199999 2
14.747 -3.05 -0.972 2
14.43 -3.0079999 -0.963 2
14.106 -2.964 -0.95200002 2
13.832 -2.9289999 -0.94400001 3
13.56 -2.8929999 -0.93599999 3
13.295 -2.858 -0.92799997 3
13.059 -2.8280001 -0.921 3
12.885 -2.8099999 -0.91900003 3
12.661 -2.7820001 -0.91299999 3
12.431 -2.7509999 -0.90600002 3
12.17 -2.7119999 -0.89700001 3
11.972 -2.6860001 -0.89200002 3
11.796 -2.665 -0.88800001 3
11.594 -2.6370001 -0.88200003 2
11.397 -2.609 -0.87599999 2
11.209 -2.5829999 -0.87 2
11.027 -2.5580001 -0.86500001 2
10.851 -2.5339999 -0.86000001 3
10.669 -2.507 -0.85399997 3
10.498 -2.4820001 -0.84899998 3
10.328 -2.457 -0.84299999 4
10.158 -2.431 -0.838 5
10.027 -2.414 -0.83499998 5
9.8900003 -2.3959999 -0.83099997 6
9.7530003 -2.3759999 -0.82800001 8
9.6440001 -2.3640001 -0.82599998 9
9.5439997 -2.3529999 -0.82499999 12
9.4440002 -2.3410001 -0.824 10
9.302 -2.319 -0.81900001 12
9.1870003 -2.303 -0.81699997 9
9.0679998 -2.2850001 -0.81300002 7
8.934 -2.263 -0.80800003 5
8.7469997 -2.2279999 -0.79799998 3
8.6120005 -2.2049999 -0.79299998 3
8.46 -2.177 -0.78600001 3
8.349 -2.1589999 -0.78200001 3
8.224 -2.138 -0.77700001 4
