# .PCD v0.7 - Point Cloud Data file format
VERSION 0.7
FIELDS x y z intensity
SIZE 4 4 4 4
TYPE F F F F
COUNT 1 1 1 1
WIDTH 1721
HEIGHT 1
VIEWPOINT 0 0 0 1 0 0 0
POINTS 1721
DATA ascii
31.732 6.3590002 6.9580002 22
31.631001 6.349 6.9660001 22
31.544001 6.342 6.9749999 22
31.392 6.3210001 6.9699998 21
31.285 6.3080001 6.9749999 22
31.195999 6.2989998 6.9829998 21
31.073999 6.2820001 6.9829998 21
30.989 6.2729998 6.9910002 21
30.908001 6.2639999 7 19
30.827 6.256 7.007 16
30.757999 6.2490001 7.0180001 13
30.724001 6.2480001 7.0349998 10
30.709 6.2509999 7.0580001 9
30.740999 6.2639999 7.0910001 8
30.782 6.2789998 7.1240001 8
30.819 6.2919998 7.158 9
30.858 6.3049998 7.191 8
30.9 6.3189998 7.2249999 8
30.915001 6.3260002 7.2519999 9
30.938999 6.335 7.2810001 8
30.98 6.348 7.3140001 8
31.014999 6.3590002 7.3460002 8
31.049 6.369 7.3759999 8
31.061001 6.375 7.401 8
31.106001 6.3870001 7.434 8
31.101 6.388 7.4559999 8
31.129999 6.3969998 7.4829998 8
31.136999 6.3990002 7.507 8
31.139 6.402 7.5279999 8
31.153999 6.4060001 7.553 9
31.179001 6.4120002 7.579 8
31.17 6.4099998 7.5970001 9
31.215 6.421 7.6269999 8
31.198 6.4169998 7.6430001 8
31.228001 6.4229999 7.6700001 9
31.247 6.4260001 7.6929998 11
31.254 6.427 7.7140002 10
31.284 6.4320002 7.7389998 12
31.309 6.4349999 7.7639999 13
31.299 6.4310002 7.7789998 15
31.330999 6.4369998 7.8039999 17
31.320999 6.4320002 7.8179998 17
31.318001 6.428 7.8340001 18
31.306999 6.4239998 7.8470001 18
31.316999 6.4219999 7.8660002 18
31.288 6.4130001 7.8740001 21
31.296 6.4099998 7.8909998 23
31.285999 6.4050002 7.9029999 25
31.285999 6.4000001 7.9180002 27
31.299 6.3979998 7.9359999 28
31.313999 6.3959999 7.9530001 28
31.302 6.388 7.9640002 29
31.309 6.3850002 7.9790001 30
31.319 6.3800001 7.994 30
31.313999 6.3730001 8.0059996 30
31.309999 6.3660002 8.0170002 30
31.315001 6.3600001 8.0299997 31
31.305 6.3509998 8.0380001 31
31.311001 6.3460002 8.0509996 31
31.327999 6.3410001 8.066 30
31.316999 6.3309999 8.0740004 31
31.327999 6.3249998 8.0869999 30
31.312 6.3130002 8.0930004 28
31.329 6.3080001 8.1070004 28
31.323 6.2969999 8.1140003 27
31.305 6.2849998 8.118 27
31.288 6.2709999 8.1219997 25
31.292 6.2620001 8.132 23
31.201 6.2340002 8.1149998 22
30.895 6.1620002 8.0430002 16
30.591 6.092 7.9699998 12
30.159 5.9949999 7.8639998 16
30.038 5.96 7.8379998 15
29.952999 5.9320002 7.822 14
29.908001 5.9120002 7.8150001 15
29.857 5.8909998 7.8070002 15
29.781 5.8629999 7.7909999 13
29.676001 5.8309999 7.7680001 11
29.562 5.796 7.7420001 11
29.421 5.756 7.7090001 10
29.332001 5.7259998 7.6880002 9
29.249001 5.697 7.6690001 9
29.150999 5.6659999 7.6459999 9
29.079 5.638 7.6290002 8
28.999001 5.6090002 7.6100001 9
28.927 5.5819998 7.592 9
28.816999 5.546 7.5650001 9
28.768 5.5240002 7.552 9
28.691 5.4949999 7.5320001 8
28.593 5.461 7.507 9
28.490999 5.428 7.4790001 8
28.402 5.3959999 7.4549999 9
28.337 5.368 7.4369998 9
28.233 5.3330002 7.4089999 10
28.149 5.302 7.3839998 9
28.039 5.2659998 7.3540001 9
27.969 5.237 7.3330002 9
27.879 5.204 7.3070002 10
27.788 5.171 7.2800002 8
27.683001 5.1360002 7.25 8
27.605 5.105 7.2259998 9
27.503 5.0700002 7.1950002 8
27.402 5.0349998 7.165 8
27.313 5.0009999 7.1370001 8
27.233999 4.9699998 7.1110001 9
27.158001 4.9390001 7.086 10
27.146 4.9200001 7.0780001 12
27.121 4.8979998 7.066 16
27.118999 4.8800001 7.059 20
27.132999 4.8639998 7.0560002 25
27.143 4.848 7.052 26
27.152 4.8319998 7.0469999 27
27.187 4.8189998 7.0489998 27
27.194 4.802 7.0430002 26
27.237 4.7909999 7.046 26
27.266001 4.777 7.046 27
27.296 4.763 7.0440001 22
27.308001 4.7459998 7.039 24
27.355 4.7340002 7.0419998 22
27.381001 4.7189999 7.0380001 22
27.415001 4.7049999 7.0370002 25
27.448999 4.6900001 7.0349998 25
27.487 4.6760001 7.0339999 24
27.523001 4.6609998 7.033 24
27.566999 4.6479998 7.033 27
27.614 4.6350002 7.033 26
27.642 4.618 7.0279999 27
27.691999 4.605 7.0279999 22
27.729 4.5890002 7.0250001 22
27.767 4.573 7.0209999 22
27.815001 4.559 7.0190001 26
27.851999 4.5430002 7.0149999 22
27.916 4.5300002 7.0170002 25
27.952 4.513 7.0120001 27
28.004999 4.4990001 7.0100002 24
28.049999 4.4840002 7.006 27
28.117001 4.4710002 7.007 27
28.186001 4.4569998 7.0089998 23
28.25 4.4439998 7.0089998 22
28.309999 4.4299998 7.007 25
28.358999 4.4130001 7.0019999 25
28.431999 4.4000001 7.0029998 26
28.496 4.3850002 7 26
28.576 4.3730001 7.0019999 23
28.621 4.355 6.9949999 23
28.697001 4.3410001 6.994 27
28.780001 4.329 6.9949999 28
28.826 4.309 6.987 24
0 0 0 5
25.106001 3.7079999 6.0500002 13
25.066999 3.6800001 6.0219998 19
25.014 3.6489999 5.9920001 23
24.989 3.6229999 5.9679999 26
24.955 3.595 5.9400001 27
24.945 3.5699999 5.9190001 29
24.924999 3.5450001 5.895 33
24.898001 3.5179999 5.869 35
24.888 3.493 5.8470001 36
24.886999 3.4690001 5.8270001 39
24.886 3.4449999 5.8060002 34
24.862 3.4189999 5.7800002 43
24.853001 3.3940001 5.757 47
24.858 3.3699999 5.7379999 45
24.834999 3.3440001 5.71 47
24.837999 3.3210001 5.6890001 51
24.841999 3.2969999 5.6680002 53
24.827 3.2709999 5.6430001 51
24.844 3.2490001 5.6240001 54
24.846001 3.2249999 5.6020002 57
24.841 3.2 5.5780001 44
24.843 3.175 5.5549998 56
24.868 3.154 5.5370002 44
24.865 3.1289999 5.5120001 46
24.889999 3.1070001 5.494 46
24.893999 3.0829999 5.4699998 45
24.917999 3.0610001 5.4510002 37
24.924 3.0369999 5.427 42
24.948 3.0150001 5.4070001 39
24.971001 2.9920001 5.3870001 30
24.975 2.9679999 5.362 32
25.011999 2.9460001 5.3439999 29
25.040001 2.925 5.3239999 28
25.087 2.905 5.3060002 27
25.108 2.882 5.2839999 22
25.184999 2.8640001 5.2719998 18
25.263 2.8469999 5.2610002 10
0 0 0 22
33.118999 3.664 6.823 23
33.226002 3.642 6.8080001 24
33.308998 3.6170001 6.7870002 22
33.334999 3.585 6.7540002 25
33.377998 3.556 6.724 24
33.365002 3.52 6.6820002 26
33.390999 3.4879999 6.6479998 27
33.390999 3.4530001 6.6079998 27
33.400002 3.418 6.5700002 27
33.419998 3.3859999 6.5339999 20
33.398998 3.348 6.4879999 19
33.424999 3.3169999 6.4530001 14
33.389 3.277 6.4039998 2
0 0 0 2
35.706001 3.4300001 6.7589998 2
0 0 0 1
0 0 0 0
0 0 0 2
0 0 0 0
0 0 0 0
0 0 0 0
0 0 0 2
0 0 0 1
0 0 0 0
0 0 0 2
0 0 0 0
0 0 0 2
0 0 0 0
0 0 0 0
0 0 0 0
0 0 0 1
0 0 0 2
0 0 0 0
0 0 0 0
0 0 0 0
0 0 0 0
0 0 0 1
0 0 0 0
0 0 0 0
0 0 0 0
0 0 0 2
0 0 0 0
0 0 0 0
0 0 0 2
33.882 2.187 4.9850001 5
33.832001 2.1500001 4.9260001 16
33.827999 2.1140001 4.8740001 16
0 0 0 1
17.487 1.057 2.4649999 12
17.42 1.035 2.428 19
17.374001 1.0140001 2.3940001 23
17.334999 0.99400002 2.3610001 29
17.313999 0.97600001 2.3310001 36
17.289 0.95599997 2.299 33
17.261 0.93699998 2.2679999 36
17.254 0.92000002 2.24 42
17.239 0.90100002 2.2090001 28
17.218 0.88200003 2.1789999 41
17.212 0.86500001 2.1489999 45
17.188 0.84600002 2.118 46
17.174 0.82800001 2.0869999 49
17.172001 0.81099999 2.059 32
17.157 0.79299998 2.029 52
17.153999 0.77600002 1.999 55
17.145 0.759 1.97 60
17.149 0.74199998 1.941 38
17.127001 0.72399998 1.91 63
17.131001 0.70700002 1.881 60
17.118 0.69 1.85 65
17.113001 0.67299998 1.8200001 39
17.120001 0.65700001 1.791 67
17.112 0.63999999 1.76 67
17.110001 0.62300003 1.73 41
17.127001 0.60699999 1.702 45
17.115999 0.58999997 1.671 40
17.106001 0.574 1.64 67
17.115 0.55800003 1.61 67
17.115999 0.54100001 1.579 40
17.112 0.52399999 1.548 57
17.113001 0.509 1.518 48
17.129999 0.493 1.488 57
17.134001 0.477 1.4579999 48
17.136 0.461 1.427 45
17.141001 0.44499999 1.396 58
17.159 0.43000001 1.367 33
17.169001 0.41499999 1.336 32
17.166 0.39899999 1.304 51
17.169001 0.38299999 1.273 48
17.184 0.368 1.242 51
17.181999 0.35299999 1.21 56
17.212999 0.338 1.181 51
17.212999 0.32300001 1.149 47
17.23 0.308 1.118 45
17.240999 0.29300001 1.087 39
17.25 0.278 1.0549999 39
17.285999 0.264 1.025 42
17.299999 0.249 0.99299997 34
17.306 0.234 0.96100003 32
17.347 0.22 0.93000001 29
17.351 0.205 0.89700001 26
17.43 0.191 0.86699998 17
17.473 0.177 0.83600003 16
17.497999 0.162 0.80400002 6
0 0 0 0
0 0 0 1
0 0 0 0
0 0 0 0
0 0 0 0
0 0 0 2
38.566002 0.139 1.252 4
38.563 0.109 1.176 5
38.549 0.078000002 1.1 5
38.604 0.048 1.026 4
38.604 0.018999999 0.95099998 5
38.615002 -0.0099999998 0.875 5
38.632999 -0.039999999 0.79900002 5
38.641998 -0.068999998 0.72399998 4
38.636002 -0.097999997 0.64700001 4
38.689999 -0.127 0.57099998 5
38.681 -0.156 0.49399999 5
38.713001 -0.184 0.41800001 4
0 0 0 2
30.148001 -0.18700001 0.206 1
0 0 0 13
0 0 0 6
14.939 -0.124 0.013 36
14.963 -0.13500001 -0.017000001 46
14.961 -0.145 -0.046999998 50
14.911 -0.155 -0.077 49
14.903 -0.16500001 -0.107 43
14.865 -0.17399999 -0.13600001 39
14.868 -0.184 -0.16599999 43
14.867 -0.19400001 -0.19599999 32
14.874 -0.204 -0.226 18
14.866 -0.213 -0.25600001 7
0 0 0 5
30.127001 -0.472 -0.64300001 20
30.104 -0.49000001 -0.704 40
30.111 -0.509 -0.76499999 43
30.122999 -0.528 -0.82599998 40
30.111 -0.546 -0.88700002 33
30.105 -0.56300002 -0.94700003 15
29.871 -0.57700002 -1.001 12
29.313999 -0.583 -1.041 10
29.034 -0.59399998 -1.091 9
28.91 -0.60900003 -1.145 9
28.479 -0.616 -1.187 8
28.035 -0.62199998 -1.226 4
0 0 0 0
0 0 0 1
0 0 0 1
0 0 0 1
0 0 0 0
0 0 0 2
15.017 -0.389 -0.87199998 4
14.114 -0.373 -0.84799999 4
13.366 -0.36000001 -0.83099997 3
12.719 -0.34900001 -0.81699997 3
12.071 -0.33700001 -0.80000001 3
11.563 -0.32800001 -0.79000002 4
11.038 -0.31799999 -0.77700001 3
10.542 -0.30899999 -0.764 3
10.119 -0.301 -0.75400001 3
9.7399998 -0.294 -0.745 4
9.3719997 -0.287 -0.736 4
9.0629997 -0.28200001 -0.73100001 5
8.7679996 -0.27700001 -0.72500002 3
8.4200001 -0.26899999 -0.713 4
8.1350002 -0.26300001 -0.70599997 4
7.8800001 -0.25799999 -0.69999999 5
7.6100001 -0.25299999 -0.69099998 7
7.3530002 -0.24699999 -0.68300003 12
7.151 -0.243 -0.67900002 12
7.039 -0.242 -0.68300003 11
6.915 -0.23999999 -0.685 11
6.6490002 -0.233 -0.67199999 4
6.467 -0.229 -0.667 4
6.3119998 -0.226 -0.66399997 4
6.1599998 -0.223 -0.66000003 3
5.9970002 -0.219 -0.65499997 3
5.8499999 -0.21600001 -0.65100002 3
5.717 -0.212 -0.64700001 4
5.5749998 -0.20900001 -0.64200002 4
5.4510002 -0.206 -0.639 4
5.3379998 -0.20299999 -0.63700002 4
5.2189999 -0.2 -0.63300002 4
5.1079998 -0.198 -0.63 3
4.994 -0.19499999 -0.62599999 3
4.8860002 -0.192 -0.62199998 3
4.7859998 -0.189 -0.61900002 3
4.6989999 -0.18700001 -0.61699998 3
4.6100001 -0.185 -0.61500001 3
4.52 -0.182 -0.61199999 4
4.4369998 -0.18000001 -0.61000001 3
4.349 -0.177 -0.60600001 3
4.29 -0.176 -0.60600001 3
4.217 -0.17399999 -0.60500002 2
4.1350002 -0.17200001 -0.60100001 2
4.0669999 -0.17 -0.59899998 2
4.027 -0.169 -0.60100001 2
3.948 -0.16599999 -0.597 2
3.888 -0.164 -0.59600002 2
3.825 -0.163 -0.59299999 2
3.7980001 -0.162 -0.597 2
3.7360001 -0.16 -0.59399998 2
3.7190001 -0.16 -0.59899998 3
3.576 -0.154 -0.583 2
3.572 -0.155 -0.58899999 2
3.4990001 -0.152 -0.58399999 2
3.4560001 -0.15099999 -0.583 2
3.3970001 -0.149 -0.57999998 2
3.424 -0.15000001 -0.59100002 2
3.355 -0.148 -0.58600003 2
3.2539999 -0.14399999 -0.574 2
3.211 -0.142 -0.57200003 2
3.1719999 -0.141 -0.57200003 3
3.1400001 -0.139 -0.57200003 2
3.105 -0.138 -0.57099998 2
3.063 -0.13699999 -0.56900001 2
3.1010001 -0.139 -0.58200002 1
3.027 -0.13600001 -0.574 2
2.9949999 -0.134 -0.574 1
3.0039999 -0.13500001 -0.58099997 2
2.9979999 -0.13500001 -0.58499998 1
2.9000001 -0.13 -0.57099998 1
2.921 -0.132 -0.58099997 1
2.7920001 -0.126 -0.56 1
2.793 -0.126 -0.56599998 1
2.73 -0.123 -0.55800003 1
2.6989999 -0.122 -0.55699998 1
2.6730001 -0.121 -0.55599999 1
2.6440001 -0.119 -0.55500001 1
2.615 -0.118 -0.55299997 1
2.5929999 -0.117 -0.55299997 1
2.5710001 -0.116 -0.55299997 1
2.546 -0.115 -0.55199999 1
2.5239999 -0.114 -0.55199999 1
2.4979999 -0.113 -0.551 1
2.471 -0.111 -0.54900002 1
2.4519999 -0.11 -0.54900002 1
2.4260001 -0.109 -0.54799998 1
2.4100001 -0.108 -0.54799998 1
2.3889999 -0.107 -0.54799998 1
0 0 0 1
0 0 0 1
2.448 -0.11 -0.57300001 1
2.408 -0.108 -0.56800002 1
2.3559999 -0.105 -0.56 1
2.3239999 -0.103 -0.55599999 1
2.2709999 -0.101 -0.54699999 1
2.2820001 -0.101 -0.55400002 1
2.2119999 -0.097999997 -0.54100001 1
2.211 -0.097999997 -0.54400003 1
2.29 -0.101 -0.56699997 1
2.2090001 -0.097000003 -0.551 1
2.1949999 -0.096000001 -0.551 1
2.21 -0.096000001 -0.55800003 1
2.2 -0.096000001 -0.55900002 1
2.1530001 -0.093000002 -0.551 1
2.1440001 -0.093000002 -0.551 1
2.0899999 -0.090000004 -0.54100001 1
2.1400001 -0.092 -0.55699998 1
2.046 -0.088 -0.53600001 1
2.0309999 -0.086999997 -0.53500003 1
2.0239999 -0.086000003 -0.53600001 1
2.017 -0.085000001 -0.53799999 1
2.0009999 -0.083999999 -0.53600001 1
1.9859999 -0.082999997 -0.53500003 1
1.975 -0.082999997 -0.53500003 1
1.9680001 -0.082000002 -0.53600001 1
1.956 -0.081 -0.53600001 1
1.936 -0.079999998 -0.53299999 1
1.934 -0.079000004 -0.53600001 1
1.925 -0.079000004 -0.53600001 1
1.919 -0.078000002 -0.537 1
1.903 -0.077 -0.53500003 1
1.893 -0.075999998 -0.53500003 1
1.881 -0.075000003 -0.53399998 1
1.878 -0.075000003 -0.53600001 1
1.863 -0.074000001 -0.53399998 1
1.852 -0.072999999 -0.53399998 1
1.839 -0.071999997 -0.53200001 1
1.837 -0.071999997 -0.53399998 1
1.8200001 -0.07 -0.53200001 1
1.8099999 -0.07 -0.53100002 1
1.801 -0.068999998 -0.53100002 1
1.795 -0.068000004 -0.53200001 1
1.79 -0.068000004 -0.53200001 1
1.784 -0.067000002 -0.53299999 1
1.771 -0.066 -0.53100002 1
1.76 -0.064999998 -0.52999997 1
1.756 -0.064000003 -0.53100002 1
1.728 -0.063000001 -0.52499998 1
1.729 -0.063000001 -0.52700001 1
1.719 -0.061999999 -0.52700001 1
1.7079999 -0.061000001 -0.52499998 1
1.705 -0.059999999 -0.52600002 1
1.6950001 -0.059 -0.52499998 1
1.689 -0.059 -0.52499998 1
1.688 -0.057999998 -0.52700001 1
1.677 -0.057 -0.52499998 1
1.67 -0.057 -0.52499998 1
1.663 -0.056000002 -0.52499998 1
1.659 -0.055 -0.52499998 1
1.651 -0.054000001 -0.52499998 1
1.632 -0.052999999 -0.51999998 1
1.641 -0.052999999 -0.52499998 1
1.631 -0.052000001 -0.523 1
1.628 -0.052000001 -0.52399999 1
1.618 -0.050999999 -0.523 1
1.6160001 -0.050000001 -0.52399999 1
1.597 -0.048999999 -0.51899999 1
1.6 -0.048999999 -0.52200001 1
1.596 -0.048 -0.52200001 1
1.59 -0.046999998 -0.52200001 1
1.582 -0.046999998 -0.51999998 1
1.574 -0.046 -0.51899999 1
1.574 -0.045000002 -0.52100003 1
1.569 -0.045000002 -0.51999998 1
1.5549999 -0.044 -0.51700002 1
1.552 -0.043000001 -0.51700002 1
1.551 -0.043000001 -0.51899999 1
1.545 -0.041999999 -0.51800001 1
1.541 -0.041000001 -0.51800001 1
1.541 -0.041000001 -0.51899999 1
1.541 -0.039999999 -0.52100003 1
1.541 -0.039999999 -0.52200001 1
1.528 -0.039000001 -0.51899999 1
1.5319999 -0.037999999 -0.52100003 1
1.522 -0.037 -0.51899999 1
1.51 -0.037 -0.51599997 1
1.521 -0.035999998 -0.52100003 1
1.51 -0.035999998 -0.51800001 1
1.502 -0.035 -0.51599997 1
1.505 -0.034000002 -0.51800001 1
1.506 -0.034000002 -0.51999998 1
1.508 -0.033 -0.52200001 1
1.4910001 -0.032000002 -0.51700002 1
1.497 -0.032000002 -0.51999998 1
1.492 -0.030999999 -0.51899999 1
1.4859999 -0.030999999 -0.51800001 1
1.487 -0.029999999 -0.51899999 1
1.483 -0.028999999 -0.51800001 1
1.4859999 -0.028999999 -0.51999998 1
1.485 -0.028000001 -0.52100003 1
1.478 -0.028000001 -0.51899999 1
1.477 -0.027000001 -0.51999998 1
1.47 -0.026000001 -0.51800001 1
1.467 -0.026000001 -0.51700002 1
1.466 -0.025 -0.51800001 1
1.459 -0.024 -0.51599997 1
1.457 -0.024 -0.51599997 1
1.456 -0.023 -0.51599997 1
1.454 -0.023 -0.51599997 1
1.454 -0.022 -0.51700002 1
1.448 -0.021 -0.51499999 1
1.448 -0.021 -0.51599997 1
1.4400001 -0.02 -0.514 1
1.447 -0.02 -0.51599997 1
1.442 -0.018999999 -0.51499999 1
1.436 -0.017999999 -0.514 1
1.443 -0.017999999 -0.51599997 1
1.438 -0.017000001 -0.51499999 1
1.439 -0.017000001 -0.51599997 1
1.438 -0.016000001 -0.51599997 1
1.441 -0.016000001 -0.51700002 1
1.436 -0.015 -0.51599997 1
1.434 -0.014 -0.51499999 1
1.433 -0.014 -0.51499999 1
1.431 -0.013 -0.51499999 1
1.416 -0.013 -0.50999999 1
1.429 -0.012 -0.51499999 1
1.431 -0.012 -0.51599997 1
1.427 -0.011 -0.51499999 1
1.416 -0.0099999998 -0.51099998 1
1.425 -0.0099999998 -0.514 1
1.425 -0.0089999996 -0.514 1
1.416 -0.0089999996 -0.51099998 1
1.42 -0.0080000004 -0.51200002 1
1.42 -0.0070000002 -0.51200002 1
1.42 -0.0070000002 -0.51200002 1
1.42 -0.0060000001 -0.51200002 1
1.42 -0.0060000001 -0.51200002 1
1.416 -0.0049999999 -0.51099998 1
1.427 -0.0049999999 -0.51499999 1
1.437 -0.0040000002 -0.51800001 1
1.42 -0.003 -0.51200002 1
1.42 -0.003 -0.51200002 1
1.427 -0.0020000001 -0.51499999 1
1.4299999 -0.0020000001 -0.51599997 1
1.434 -0.001 -0.51700002 1
1.415 -0.001 -0.50999999 1
1.42 0 -0.51099998 1
1.431 0 -0.51499999 1
1.434 0 -0.51599997 1
1.433 0.001 -0.51499999 1
1.436 0.001 -0.51599997 1
1.4170001 0.0020000001 -0.509 1
1.432 0.0020000001 -0.514 1
1.438 0.003 -0.51599997 1
1.439 0.003 -0.51599997 1
1.443 0.0040000002 -0.51700002 1
1.442 0.0040000002 -0.51599997 1
1.4400001 0.0049999999 -0.51499999 1
1.448 0.0060000001 -0.51700002 1
1.443 0.0060000001 -0.51499999 1
1.446 0.0070000002 -0.51599997 1
1.4529999 0.0070000002 -0.51700002 1
1.446 0.0080000004 -0.514 1
1.454 0.0080000004 -0.51700002 1
1.449 0.0089999996 -0.514 1
1.457 0.0099999998 -0.51599997 1
1.457 0.0099999998 -0.51599997 1
1.457 0.011 -0.51499999 1
1.457 0.011 -0.514 1
1.456 0.012 -0.51300001 1
1.471 0.012 -0.51800001 1
1.467 0.013 -0.51599997 1
1.466 0.013 -0.514 1
1.472 0.014 -0.51599997 1
1.48 0.015 -0.51800001 1
1.471 0.015 -0.514 1
1.472 0.016000001 -0.51300001 1
1.488 0.016000001 -0.51800001 1
1.489 0.017000001 -0.51700002 1
1.493 0.017000001 -0.51800001 1
1.499 0.017999999 -0.51899999 1
1.5 0.017999999 -0.51800001 1
1.5089999 0.018999999 -0.51999998 1
1.5089999 0.02 -0.51999998 1
1.505 0.02 -0.51700002 1
1.52 0.021 -0.52100003 1
1.518 0.021 -0.51899999 1
1.5140001 0.022 -0.51700002 1
1.527 0.022 -0.51999998 1
1.5319999 0.023 -0.52100003 1
1.53 0.024 -0.51899999 1
1.529 0.024 -0.51700002 1
1.54 0.025 -0.51999998 1
1.539 0.025 -0.51800001 1
1.5470001 0.026000001 -0.51899999 1
1.558 0.026000001 -0.52200001 1
1.5599999 0.027000001 -0.52100003 1
1.561 0.027000001 -0.51999998 1
1.558 0.028000001 -0.51800001 1
1.573 0.028999999 -0.52100003 1
1.579 0.028999999 -0.52200001 1
1.59 0.029999999 -0.52399999 1
1.577 0.029999999 -0.51800001 1
1.591 0.030999999 -0.52100003 1
1.597 0.030999999 -0.52200001 1
1.601 0.032000002 -0.52100003 1
1.604 0.032000002 -0.52100003 1
1.6109999 0.033 -0.52100003 1
1.617 0.034000002 -0.52200001 1
1.622 0.034000002 -0.52200001 1
1.627 0.035 -0.52200001 1
1.6390001 0.035999998 -0.52399999 1
1.645 0.035999998 -0.52399999 1
1.655 0.037 -0.52499998 1
1.6569999 0.037 -0.52399999 1
1.663 0.037999999 -0.52399999 1
1.671 0.037999999 -0.52399999 1
1.675 0.039000001 -0.52399999 1
1.6849999 0.039999999 -0.52499998 1
1.687 0.039999999 -0.52399999 1
1.693 0.041000001 -0.52399999 1
1.697 0.041000001 -0.523 1
1.723 0.041999999 -0.52899998 1
1.733 0.043000001 -0.52999997 1
1.735 0.043000001 -0.528 1
1.738 0.044 -0.52700001 1
1.747 0.044 -0.528 1
1.757 0.045000002 -0.528 1
1.767 0.045000002 -0.52899998 1
1.775 0.046 -0.52899998 1
1.7819999 0.046999998 -0.52899998 1
1.793 0.046999998 -0.52999997 1
1.801 0.048 -0.52999997 1
1.817 0.048999999 -0.53200001 1
1.824 0.048999999 -0.53200001 1
1.832 0.050000001 -0.53200001 1
1.839 0.050000001 -0.53100002 1
1.848 0.050999999 -0.53100002 1
1.859 0.050999999 -0.53200001 1
1.867 0.052000001 -0.53200001 1
1.8839999 0.052999999 -0.53399998 1
1.888 0.052999999 -0.53200001 1
1.896 0.054000001 -0.53200001 1
1.9069999 0.054000001 -0.53200001 1
1.924 0.055 -0.53399998 1
1.936 0.056000002 -0.53500003 1
1.942 0.056000002 -0.53299999 1
1.957 0.057 -0.53500003 1
1.965 0.057 -0.53399998 1
1.978 0.057999998 -0.53500003 1
1.9809999 0.057999998 -0.53299999 1
2.0039999 0.059 -0.53600001 1
2.01 0.059 -0.53399998 1
0 0 0 1
2.0739999 0.061999999 -0.54500002 1
2.049 0.061000001 -0.53500003 1
2.069 0.061999999 -0.537 1
2.092 0.063000001 -0.54000002 1
2.0969999 0.063000001 -0.53799999 1
2.1140001 0.064000003 -0.53899997 1
2.125 0.064000003 -0.53799999 1
2.145 0.064999998 -0.54000002 1
2.1600001 0.066 -0.54000002 1
2.175 0.066 -0.54000002 1
2.1819999 0.066 -0.53799999 1
2.2030001 0.067000002 -0.54000002 1
2.2320001 0.068000004 -0.54299998 1
2.244 0.068999998 -0.54299998 1
2.2639999 0.068999998 -0.54400003 1
2.2809999 0.07 -0.54400003 1
2.299 0.07 -0.54400003 1
2.3169999 0.071000002 -0.54500002 1
2.3340001 0.071000002 -0.54500002 1
2.3510001 0.071999997 -0.54500002 1
2.381 0.072999999 -0.54799998 1
2.474 0.075999998 -0.565 1
2.4679999 0.075000003 -0.55900002 1
2.4660001 0.075000003 -0.55400002 1
2.4979999 0.075999998 -0.55699998 1
2.5109999 0.075999998 -0.55599999 1
2.54 0.077 -0.55800003 1
2.6129999 0.079000004 -0.56900001 1
2.612 0.079000004 -0.56400001 1
2.6259999 0.079000004 -0.56199998 1
2.6029999 0.078000002 -0.55299997 1
2.628 0.079000004 -0.55299997 1
2.6459999 0.079000004 -0.55299997 1
2.675 0.079999998 -0.55400002 1
2.701 0.081 -0.55400002 1
2.7509999 0.082000002 -0.55900002 1
2.7579999 0.082000002 -0.55599999 1
2.789 0.082000002 -0.55699998 2
2.8340001 0.082999997 -0.56099999 2
2.855 0.083999999 -0.56 2
2.891 0.083999999 -0.56199998 2
2.9219999 0.085000001 -0.56199998 2
2.957 0.085000001 -0.56300002 2
3.03 0.086999997 -0.57099998 2
3.184 0.090999998 -0.59500003 2
3.181 0.090000004 -0.588 1
3.253 0.092 -0.59500003 1
3.2639999 0.092 -0.59100002 1
3.3269999 0.093000002 -0.59600002 2
3.332 0.092 -0.59100002 1
3.273 0.090000004 -0.574 1
3.335 0.090999998 -0.57800001 1
3.447 0.093000002 -0.59100002 2
3.4119999 0.092 -0.579 1
3.4860001 0.093000002 -0.58499998 2
3.4779999 0.092 -0.57599998 2
3.5769999 0.093999997 -0.58600003 2
3.654 0.094999999 -0.59100002 2
3.6789999 0.093999997 -0.588 2
3.7720001 0.096000001 -0.59600002 2
3.776 0.094999999 -0.58899999 2
3.858 0.096000001 -0.59399998 2
3.9119999 0.096000001 -0.59500003 2
4.0229998 0.097999997 -0.60399997 2
4.0549998 0.097000003 -0.60100001 3
4.1100001 0.097999997 -0.60100001 3
4.2399998 0.098999999 -0.61199999 3
4.23 0.097999997 -0.602 2
4.276 0.097000003 -0.60000002 2
4.3709998 0.097999997 -0.60500002 2
4.4569998 0.098999999 -0.60799998 3
4.5440001 0.098999999 -0.61000001 3
4.6170001 0.098999999 -0.611 3
4.7069998 0.098999999 -0.61299998 3
4.7979999 0.1 -0.616 4
4.9000001 0.1 -0.61900002 4
5.0079999 0.1 -0.62300003 4
5.119 0.1 -0.62599999 3
5.25 0.101 -0.63200003 4
5.3610001 0.101 -0.634 3
5.5040002 0.101 -0.63999999 4
5.6290002 0.101 -0.64300001 3
5.7579999 0.101 -0.64600003 3
5.9039998 0.101 -0.65100002 3
6.0780001 0.102 -0.65799999 3
6.2470002 0.102 -0.66299999 4
6.3940001 0.101 -0.66600001 5
6.5640001 0.101 -0.67000002 4
6.7329998 0.101 -0.67400002 4
6.928 0.1 -0.67900002 4
7.119 0.1 -0.68400002 4
7.3629999 0.1 -0.69199997 4
7.6459999 0.1 -0.70300001 8
7.8410001 0.097999997 -0.70499998 14
8.0030003 0.096000001 -0.704 14
8.2480001 0.094999999 -0.708 13
8.5909996 0.094999999 -0.72000003 8
8.9189997 0.093000002 -0.73000002 6
9.2399998 0.092 -0.73699999 5
9.5790005 0.090000004 -0.745 5
9.9370003 0.088 -0.75199997 4
10.355 0.086000003 -0.76300001 4
10.817 0.083999999 -0.77399999 3
11.289 0.081 -0.78600001 4
11.725 0.077 -0.792 3
12.298 0.074000001 -0.80599999 3
12.992 0.071000002 -0.82499999 3
13.368 0.064999998 -0.82099998 3
0 0 0 45
14.707 0.052999999 -0.84299999 38
14.73 0.044 -0.81400001 34
14.732 0.035 -0.78500003 31
14.736 0.026000001 -0.755 30
14.745 0.016000001 -0.72500002 30
14.745 0.0070000002 -0.69499999 32
14.747 -0.0020000001 -0.66500002 30
14.755 -0.012 -0.63599998 29
14.755 -0.022 -0.60600001 48
14.765 -0.032000002 -0.57599998 24
14.762 -0.041999999 -0.546 40
14.777 -0.052000001 -0.51700002 26
14.777 -0.061999999 -0.48699999 41
14.784 -0.071999997 -0.458 38
14.781 -0.082999997 -0.428 41
14.787 -0.093000002 -0.39899999 42
14.798 -0.104 -0.36899999 30
14.787 -0.115 -0.33899999 46
14.806 -0.126 -0.31 29
14.821 -0.13699999 -0.28099999 50
14.872 -0.148 -0.252 45
14.897 -0.15899999 -0.223 43
14.864 -0.171 -0.192 43
14.855 -0.182 -0.162 59
14.878 -0.19400001 -0.133 55
14.915 -0.206 -0.103 40
14.951 -0.21799999 -0.072999999 27
14.98 -0.23 -0.044 13
15.027 -0.243 -0.014 1
0 0 0 0
0 0 0 0
0 0 0 0
0 0 0 2
35.157001 -0.71399999 0.31299999 6
35.143002 -0.74299997 0.382 10
0 0 0 1
30.431 -0.69400001 0.44999999 2
30.378 -0.71899998 0.509 2
0 0 0 18
34.852001 -0.88499999 0.71899998 17
34.800999 -0.91500002 0.787 17
34.792999 -0.94499999 0.85399997 87
34.807999 -0.97600001 0.92199999 94
34.819 -1.008 0.98900002 91
34.827 -1.039 1.057 91
34.848999 -1.071 1.125 87
34.870998 -1.104 1.193 68
34.875999 -1.136 1.26 87
34.895 -1.169 1.329 69
34.907001 -1.201 1.3940001 90
34.903999 -1.233 1.461 93
34.937 -1.267 1.529 96
34.944 -1.301 1.596 91
34.956001 -1.334 1.663 87
34.965 -1.367 1.728 93
34.985001 -1.402 1.796 90
35.005001 -1.437 1.863 88
35.013 -1.471 1.929 91
35.027 -1.506 1.9960001 87
35.027 -1.539 2.059 87
35.062 -1.576 2.1270001 93
35.07 -1.6109999 2.1930001 90
35.07 -1.645 2.256 81
35.006001 -1.677 2.316 66
34.592999 -1.692 2.352 25
33.800999 -1.687 2.3610001 18
33.287998 -1.694 2.3840001 19
32.960999 -1.711 2.421 18
32.827999 -1.738 2.471 17
32.745998 -1.767 2.523 17
32.678001 -1.796 2.576 17
32.609001 -1.826 2.6289999 18
32.521999 -1.855 2.681 17
32.442001 -1.8839999 2.7320001 17
32.366001 -1.914 2.783 17
32.308998 -1.944 2.836 21
32.23 -1.974 2.8859999 22
32.157001 -2.003 2.9349999 17
32.062 -2.0309999 2.983 21
31.987 -2.0610001 3.0309999 20
31.926001 -2.0910001 3.0810001 20
31.851999 -2.1199999 3.1300001 16
31.785999 -2.1500001 3.178 13
31.697001 -2.178 3.223 8
31.712999 -2.2130001 3.279 1
0 0 0 0
0 0 0 0
0 0 0 0
0 0 0 0
0 0 0 0
0 0 0 0
0 0 0 0
0 0 0 0
0 0 0 0
0 0 0 2
35.821999 -2.9319999 4.3579998 2
35.834999 -2.9719999 4.4159999 2
0 0 0 8
31.790001 -2.7079999 4.02 3
0 0 0 0
0 0 0 0
0 0 0 2
31.809 -2.852 4.224 3
31.829 -2.8889999 4.276 5
0 0 0 0
0 0 0 0
0 0 0 0
0 0 0 0
0 0 0 6
35.985001 -3.5109999 5.165 15
0 0 0 3
40.326 -4.026 5.9089999 3
0 0 0 0
0 0 0 4
36.076 -3.7249999 5.4450002 7
36.048 -3.763 5.494 6
36.078999 -3.8080001 5.5510001 3
38.230999 -4.079 5.9369998 2
0 0 0 0
0 0 0 0
0 0 0 2
36.888 -4.1040001 5.9369998 3
36.550999 -4.1079998 5.934 3
36.223 -4.1129999 5.9310002 6
36.041 -4.1339998 5.9510002 16
35.880001 -4.1550002 5.973 21
35.659 -4.171 5.9850001 27
35.455002 -4.1880002 5.9990001 27
35.237 -4.2010002 6.0089998 26
35.007999 -4.2140002 6.0170002 26
34.779999 -4.2270002 6.0240002 26
34.553001 -4.2389998 6.0300002 24
34.331001 -4.2509999 6.0359998 25
34.113998 -4.263 6.0419998 25
33.928001 -4.2779999 6.053 25
33.73 -4.2919998 6.0599999 24
33.493999 -4.3000002 6.0609999 24
33.303001 -4.3140001 6.0689998 23
33.125 -4.3280001 6.0760002 23
32.938 -4.3410001 6.0840001 23
32.733002 -4.3520002 6.086 23
32.525002 -4.3610001 6.0869999 23
32.359001 -4.375 6.0949998 21
0 0 0 13
27.971001 -3.845 5.335 22
27.907 -3.868 5.3559999 27
27.860001 -3.892 5.3790002 31
27.832001 -3.9189999 5.4060001 35
27.799999 -3.9460001 5.4310002 37
27.775 -3.973 5.4580002 41
27.757999 -4.0019999 5.4850001 42
27.728001 -4.0279999 5.5100002 43
27.716999 -4.0580001 5.539 48
27.702999 -4.0869999 5.566 48
27.695999 -4.1160002 5.5949998 51
27.677999 -4.1440001 5.6209998 51
27.672001 -4.1719999 5.6490002 52
27.662001 -4.2010002 5.6760001 52
27.666 -4.2319999 5.7059999 52
27.662001 -4.2610002 5.7329998 53
27.65 -4.29 5.7589998 53
27.66 -4.3210001 5.789 51
27.658001 -4.3509998 5.816 49
27.658001 -4.3800001 5.8439999 47
27.673 -4.4130001 5.8740001 44
27.679001 -4.4439998 5.902 43
27.694 -4.4759998 5.9330001 39
27.697001 -4.506 5.96 44
27.721001 -4.54 5.9910002 39
27.747999 -4.573 6.0219998 38
27.771999 -4.6059999 6.052 36
27.791 -4.638 6.0809999 32
27.832001 -4.6750002 6.1160002 30
27.879 -4.711 6.1500001 25
27.892 -4.743 6.178 18
0 0 0 5
9.974 -1.716 2.2260001 12
9.9280005 -1.7180001 2.224 15
9.9040003 -1.724 2.2260001 17
9.8889999 -1.732 2.2309999 13
9.8389997 -1.733 2.2279999 23
9.8210001 -1.739 2.2320001 17
9.8100004 -1.747 2.237 16
9.7889996 -1.7539999 2.24 17
9.7740002 -1.761 2.244 19
9.7550001 -1.767 2.247 19
9.7449999 -1.775 2.2520001 19
9.7329998 -1.7819999 2.256 25
9.7220001 -1.789 2.26 27
9.7189999 -1.798 2.266 27
9.7010002 -1.804 2.2690001 27
9.698 -1.813 2.2750001 28
9.6850004 -1.8200001 2.2780001 28
9.6759996 -1.827 2.283 28
9.6569996 -1.8329999 2.2850001 29
9.6599998 -1.842 2.2909999 29
9.6660004 -1.853 2.299 30
9.6479998 -1.858 2.3010001 30
9.6450005 -1.8660001 2.3050001 31
9.6269999 -1.872 2.3069999 31
9.632 -1.881 2.3139999 32
9.6230001 -1.888 2.3169999 31
9.6059999 -1.893 2.3180001 31
9.6160002 -1.904 2.326 31
9.6070004 -1.91 2.329 31
9.6029997 -1.918 2.3329999 31
9.5970001 -1.925 2.336 33
9.6029997 -1.934 2.3429999 34
9.5900002 -1.9400001 2.3440001 34
9.5799999 -1.946 2.346 35
9.573 -1.952 2.349 34
9.5769997 -1.961 2.355 34
9.5749998 -1.969 2.358 35
9.566 -1.975 2.3599999 36
9.5570002 -1.9809999 2.362 36
9.559 -1.989 2.3659999 38
9.5530005 -1.995 2.369 37
9.5480003 -2.0020001 2.3710001 36
9.5579996 -2.0109999 2.3770001 37
9.552 -2.017 2.3789999 38
9.5439997 -2.023 2.3800001 38
9.5419998 -2.03 2.3829999 39
9.5459995 -2.0380001 2.3870001 38
9.5299997 -2.0420001 2.3859999 39
9.5279999 -2.0480001 2.3889999 39
9.5319996 -2.056 2.392 39
9.5270004 -2.062 2.3940001 39
9.5349998 -2.0699999 2.398 39
9.5290003 -2.075 2.3989999 39
9.5249996 -2.0810001 2.401 38
9.5249996 -2.0880001 2.402 40
9.5340004 -2.096 2.4070001 39
9.5240002 -2.1010001 2.4059999 40
9.5150003 -2.105 2.4059999 38
9.5190001 -2.112 2.4089999 36
9.5220003 -2.119 2.411 38
9.5249996 -2.125 2.414 40
9.5279999 -2.132 2.4159999 40
9.5249996 -2.1370001 2.4159999 40
9.5200005 -2.142 2.4159999 38
9.5159998 -2.1470001 2.4170001 35
9.5190001 -2.154 2.418 35
9.5150003 -2.1589999 2.418 34
9.5129995 -2.1630001 2.418 36
9.5100002 -2.168 2.418 36
9.5120001 -2.174 2.4189999 38
9.5220003 -2.181 2.4219999 37
9.5190001 -2.1860001 2.4219999 36
9.5190001 -2.191 2.4219999 35
9.5220003 -2.197 2.4230001 35
9.5129995 -2.2 2.421 35
9.5129995 -2.2049999 2.421 37
9.5159998 -2.21 2.421 36
9.507 -2.2130001 2.4189999 35
9.5089998 -2.2179999 2.4189999 34
9.5220003 -2.2249999 2.4219999 33
9.5200005 -2.2290001 2.4200001 32
9.5179996 -2.233 2.4189999 31
9.5100002 -2.2360001 2.4159999 32
9.5270004 -2.244 2.4200001 32
9.5109997 -2.244 2.415 32
9.5109997 -2.2479999 2.4130001 33
9.5170002 -2.253 2.414 32
9.5139999 -2.257 2.4119999 33
9.5220003 -2.2620001 2.4119999 33
9.5170002 -2.2650001 2.4089999 32
9.5120001 -2.267 2.4059999 33
9.5279999 -2.2739999 2.408 32
9.5179996 -2.2750001 2.404 32
9.5249996 -2.28 2.404 31
9.5179996 -2.2820001 2.4000001 31
9.5220003 -2.286 2.3989999 31
9.5190001 -2.2880001 2.3959999 31
9.5270004 -2.293 2.395 31
9.5209999 -2.2939999 2.391 32
9.5229998 -2.2969999 2.3889999 32
9.5249996 -2.3010001 2.3859999 31
9.54 -2.3069999 2.3870001 32
9.5290003 -2.3069999 2.382 32
9.5249996 -2.3080001 2.3770001 31
9.5310001 -2.312 2.3759999 32
9.5290003 -2.313 2.372 31
9.5380001 -2.3180001 2.3710001 30
9.5319996 -2.3180001 2.3659999 31
9.5340004 -2.3210001 2.362 30
9.5220003 -2.3199999 2.3559999 30
9.5369997 -2.325 2.3559999 30
9.5290003 -2.3239999 2.3499999 29
9.533 -2.3269999 2.3469999 29
9.5349998 -2.329 2.3429999 29
9.5360003 -2.3310001 2.339 29
9.5389996 -2.3329999 2.336 29
9.5310001 -2.3310001 2.329 29
9.5360003 -2.3340001 2.326 29
9.54 -2.336 2.322 30
9.526 -2.3329999 2.3139999 30
9.5290003 -2.335 2.3099999 30
9.54 -2.3380001 2.3080001 30
9.5380001 -2.3380001 2.302 30
9.5299997 -2.3369999 2.2950001 30
9.5290003 -2.3369999 2.29 30
9.5290003 -2.3369999 2.2850001 30
9.5369997 -2.339 2.2809999 29
9.533 -2.3380001 2.2739999 29
9.54 -2.3399999 2.27 29
9.5360003 -2.3380001 2.2639999 30
9.5349998 -2.3380001 2.2579999 29
9.5290003 -2.336 2.2509999 29
9.5319996 -2.3369999 2.2449999 29
9.5340004 -2.336 2.24 29
9.5279999 -2.3340001 2.2320001 29
9.5410004 -2.3369999 2.2290001 29
9.5340004 -2.3340001 2.221 29
9.5419998 -2.335 2.2160001 30
9.5349998 -2.3329999 2.2079999 30
9.5249996 -2.329 2.1989999 29
9.5310001 -2.329 2.194 30
9.5319996 -2.3280001 2.187 30
9.5209999 -2.3239999 2.178 31
9.5270004 -2.3239999 2.1719999 32
9.5179996 -2.3199999 2.1630001 32
9.5240002 -2.3199999 2.158 33
9.5200005 -2.3169999 2.1489999 32
9.5270004 -2.3169999 2.1440001 32
9.5380001 -2.3169999 2.1389999 31
9.5299997 -2.313 2.1300001 31
9.5279999 -2.3110001 2.1210001 31
9.526 -2.3080001 2.1129999 30
9.5150003 -2.303 2.1029999 31
9.5159998 -2.3 2.096 31
9.5159998 -2.2980001 2.0880001 32
9.5129995 -2.2939999 2.079 33
9.5139999 -2.2920001 2.0710001 33
9.5109997 -2.2880001 2.063 33
9.5100002 -2.2850001 2.0539999 33
9.5209999 -2.2850001 2.0480001 33
9.5129995 -2.279 2.0380001 32
9.5120001 -2.276 2.029 34
9.5209999 -2.2739999 2.023 35
9.5139999 -2.2690001 2.013 35
9.5039997 -2.2639999 2.0020001 35
9.5170002 -2.2620001 1.9960001 35
9.5129995 -2.2579999 1.9859999 35
9.5080004 -2.253 1.977 35
9.5039997 -2.2479999 1.966 36
9.5059996 -2.244 1.9579999 35
9.493 -2.237 1.946 36
9.5089998 -2.2360001 1.9400001 35
9.5 -2.23 1.929 35
9.4969997 -2.224 1.919 37
9.5 -2.221 1.91 38
9.4899998 -2.214 1.899 38
9.4960003 -2.21 1.89 39
9.507 -2.2079999 1.883 38
9.4899998 -2.1989999 1.87 38
9.5019999 -2.197 1.863 39
9.4890003 -2.188 1.85 39
9.4960003 -2.184 1.842 38
9.5 -2.1800001 1.8329999 37
9.4940004 -2.1730001 1.821 36
9.493 -2.1670001 1.811 37
9.5019999 -2.164 1.803 36
9.4919996 -2.1559999 1.791 37
9.4949999 -2.151 1.781 36
9.4820004 -2.142 1.7690001 38
9.5030003 -2.1400001 1.762 39
9.5 -2.1340001 1.751 39
9.4860001 -2.1240001 1.738 38
9.4960003 -2.1199999 1.729 38
9.4879999 -2.112 1.717 39
9.4960003 -2.1070001 1.7079999 36
9.4969997 -2.0999999 1.698 36
9.4940004 -2.0929999 1.686 34
9.5039997 -2.089 1.677 34
9.4940004 -2.079 1.664 36
9.5030003 -2.0739999 1.655 40
9.5059996 -2.0680001 1.645 40
9.5039997 -2.0599999 1.633 39
9.5139999 -2.0550001 1.624 39
9.4960003 -2.0439999 1.61 39
9.5030003 -2.0380001 1.6 39
9.5080004 -2.0309999 1.59 41
9.5039997 -2.023 1.5779999 41
9.5129995 -2.017 1.568 39
9.5200005 -2.01 1.557 37
9.5209999 -2.0020001 1.546 37
9.5120001 -1.992 1.533 36
9.5129995 -1.984 1.522 37
9.5279999 -1.979 1.513 38
9.5279999 -1.971 1.501 37
9.5249996 -1.962 1.489 36
9.5270004 -1.9529999 1.477 38
9.5380001 -1.947 1.467 35
9.5369997 -1.938 1.455 35
9.5419998 -1.9299999 1.4450001 35
9.5480003 -1.923 1.433 34
9.5530005 -1.914 1.4220001 33
9.5480003 -1.904 1.41 33
9.5620003 -1.898 1.4 33
9.5609999 -1.888 1.387 33
9.5749998 -1.881 1.378 33
9.5790005 -1.873 1.3660001 33
9.5819998 -1.864 1.354 33
9.5880003 -1.855 1.3430001 32
9.5959997 -1.847 1.332 32
9.6040001 -1.839 1.321 31
9.6059999 -1.829 1.309 31
9.6120005 -1.8200001 1.2970001 29
9.6219997 -1.812 1.286 30
9.6269999 -1.802 1.274 30
9.6529999 -1.7970001 1.266 28
9.6549997 -1.786 1.253 27
9.6680002 -1.778 1.242 27
9.6689997 -1.767 1.23 26
9.6899996 -1.76 1.22 26
9.7019997 -1.752 1.209 25
9.7060003 -1.7410001 1.197 15
9.7130003 -1.732 1.1849999 15
9.7379999 -1.725 1.175 18
9.7539997 -1.716 1.165 16
9.776 -1.7079999 1.154 15
9.7980003 -1.701 1.1440001 16
9.8240004 -1.694 1.1339999 14
9.8520002 -1.687 1.125 13
9.9060001 -1.684 1.118 11
9.9429998 -1.678 1.109 11
9.9969997 -1.675 1.102 2
0 0 0 15
27.775999 -4.586 2.99 22
27.709 -4.5409999 2.9460001 27
27.698 -4.5040002 2.908 30
27.653999 -4.4619999 2.8670001 34
27.629999 -4.4229999 2.8280001 36
27.613001 -4.3839998 2.789 38
27.611 -4.3470001 2.7520001 38
27.59 -4.3080001 2.7130001 41
27.593 -4.2719998 2.677 45
27.569 -4.2319999 2.638 46
27.568001 -4.1950002 2.6010001 52
27.573999 -4.1589999 2.5650001 46
27.587999 -4.1240001 2.53 48
27.584999 -4.086 2.493 57
27.59 -4.0489998 2.457 55
27.605 -4.013 2.4219999 53
27.612 -3.9760001 2.3859999 51
27.632 -3.941 2.3510001 48
27.658001 -3.9059999 2.3169999 44
27.693001 -3.8729999 2.2839999 41
27.732 -3.839 2.25 32
27.757999 -3.802 2.2149999 35
27.791 -3.767 2.181 30
27.862 -3.737 2.1500001 23
27.952 -3.7090001 2.1199999 11
0 0 0 43
32.074001 -4.1620002 2.348 26
32.293999 -4.1440001 2.322 22
32.701 -4.1479998 2.309 13
33.215 -4.164 2.302 13
33.727001 -4.178 2.293 14
34.234001 -4.1890001 2.283 14
34.648998 -4.1869998 2.2639999 14
35.159 -4.1960001 2.253 14
35.744999 -4.2119999 2.244 15
0 0 0 1
31.499001 -3.615 1.895 1
31.473 -3.5639999 1.853 1
31.412001 -3.5090001 1.808 1
0 0 0 7
0 0 0 1
31.466999 -3.368 1.691 1
0 0 0 7
35.948002 -3.733 1.839 7
35.924999 -3.674 1.7920001 6
0 0 0 7
0 0 0 25
0 0 0 5
0 0 0 10
31.628 -2.9809999 1.377 13
31.615 -2.928 1.337 14
31.577 -2.8729999 1.296 14
31.57 -2.8210001 1.256 13
31.542 -2.766 1.215 14
31.535999 -2.7130001 1.175 13
31.507 -2.658 1.135 13
31.487 -2.6040001 1.095 12
31.474001 -2.5510001 1.056 12
31.444 -2.4949999 1.016 10
0 0 0 1
28.311001 -2.152 0.84600002 1
28.280001 -2.1010001 0.81 1
0 0 0 0
0 0 0 0
0 0 0 5
28.191999 -1.903 0.67199999 2
28.229 -1.857 0.639 1
28.162001 -1.803 0.60399997 1
28.032 -1.747 0.56699997 1
0 0 0 6
35.23 -2.073 0.63 6
35.226002 -2.0109999 0.588 7
35.215 -1.949 0.54699999 7
35.167 -1.8839999 0.505 9
35.147999 -1.8200001 0.463 9
35.112 -1.756 0.42199999 9
35.112999 -1.694 0.382 9
35.083 -1.63 0.34099999 9
35.047001 -1.566 0.30000001 8
35.035 -1.5039999 0.26100001 9
35.006001 -1.4400001 0.221 10
34.977001 -1.377 0.182 8
34.956001 -1.313 0.14300001 8
0 0 0 0
0 0 0 1
0 0 0 7
34.682999 -1.052 -0.011 23
34.513 -0.98400003 -0.048999999 89
34.426998 -0.92000002 -0.086000003 125
34.75 -0.86500001 -0.125 9
34.848 -0.80299997 -0.163 9
35.060001 -0.745 -0.20100001 32
35.115002 -0.68099999 -0.23899999 20
0 0 0 0
0 0 0 11
14.88 -0.206 -0.148 31
14.86 -0.178 -0.163 40
14.866 -0.15099999 -0.17900001 38
14.874 -0.124 -0.19400001 38
14.87 -0.096000001 -0.20900001 45
14.944 -0.068000004 -0.226 50
14.87 -0.039999999 -0.23999999 49
14.96 -0.013 -0.25600001 40
14.894 0.014 -0.27000001 50
14.842 0.041999999 -0.28400001 31
14.786 0.07 -0.29699999 23
14.732 0.097000003 -0.31099999 31
14.695 0.124 -0.324 34
14.699 0.152 -0.338 35
14.689 0.17900001 -0.352 40
14.682 0.207 -0.366 23
14.754 0.235 -0.382 6
14.822 0.26499999 -0.398 6
14.901 0.29499999 -0.414 9
14.968 0.324 -0.43000001 12
15.069 0.35499999 -0.447 11
15.155 0.38600001 -0.463 10
15.238 0.417 -0.47999999 13
15.31 0.44800001 -0.49599999 7
15.402 0.47999999 -0.51200002 10
15.494 0.51200002 -0.52899998 11
15.767 0.55199999 -0.55199999 14
0 0 0 31
17.045 0.66100001 -0.62699997 51
17.034 0.69400001 -0.64099997 54
17.035999 0.72600001 -0.65600002 60
17.037001 0.759 -0.671 48
17.041 0.792 -0.685 47
17.061001 0.82499999 -0.69999999 29
17.059 0.85799998 -0.71499997 40
17.063 0.89099997 -0.72899997 35
17.076 0.92400002 -0.74299997 37
17.108999 0.95899999 -0.759 25
17.108 0.991 -0.77200001 30
17.153999 1.027 -0.78799999 27
17.167999 1.061 -0.80199999 24
17.223 1.098 -0.81800002 21
17.275999 1.1339999 -0.83399999 18
17.358 1.1720001 -0.85100001 12
17.511999 1.216 -0.87199998 2
17.188999 1.227 -0.86900002 2
0 0 0 0
0 0 0 3
16.662001 1.285 -0.87900001 2
0 0 0 2
15.787 1.277 -0.85600001 3
15.349 1.271 -0.84299999 2
15.014 1.272 -0.83499998 3
14.762 1.279 -0.83099997 3
14.498 1.283 -0.82599998 3
14.247 1.288 -0.82200003 3
13.998 1.293 -0.81699997 3
13.72 1.293 -0.81 3
13.477 1.295 -0.80400002 3
13.224 1.296 -0.79799998 3
13.038 1.302 -0.79500002 3
12.797 1.303 -0.78799999 3
12.635 1.3099999 -0.78600001 3
12.366 1.306 -0.77700001 3
12.148 1.3049999 -0.77100003 2
11.902 1.301 -0.76200002 2
11.691 1.3 -0.75599998 3
11.585 1.3099999 -0.75599998 5
11.443 1.3150001 -0.75300002 6
11.381 1.33 -0.75599998 8
11.311 1.3430001 -0.75800002 10
11.191 1.349 -0.75599998 9
11.072 1.3559999 -0.75400001 5
10.911 1.3559999 -0.74900001 3
10.76 1.358 -0.74400002 3
10.609 1.359 -0.74000001 3
10.501 1.364 -0.73799998 3
10.354 1.364 -0.73299998 3
10.289 1.375 -0.73400003 3
10.18 1.3789999 -0.73100001 3
10.071 1.382 -0.72799999 3
9.974 1.388 -0.72600001 3
9.882 1.393 -0.72399998 3
9.7910004 1.398 -0.722 3
9.6999998 1.403 -0.72000003 3
9.6129999 1.408 -0.71799999 3
9.533 1.413 -0.71600002 3
9.4359999 1.416 -0.713 3
9.3559999 1.421 -0.71100003 3
9.2810001 1.426 -0.70999998 3
9.2150002 1.432 -0.70899999 3
9.1450005 1.438 -0.70700002 3
9.0699997 1.442 -0.70499998 3
9.007 1.448 -0.70300001 4
8.9320002 1.452 -0.70099998 4
8.842 1.4529999 -0.69800001 4
8.7860003 1.46 -0.69700003 4
8.691 1.459 -0.69199997 8
8.6400003 1.466 -0.69199997 9
8.5970001 1.474 -0.69099998 9
8.5539999 1.4809999 -0.69099998 8
8.5369997 1.493 -0.69199997 9
8.4849997 1.499 -0.69099998 10
8.4540005 1.508 -0.69199997 8
8.3920002 1.511 -0.68900001 10
8.3479996 1.518 -0.68800002 11
8.243 1.513 -0.68199998 16
8.1999998 1.5190001 -0.68099999 14
8.1759996 1.529 -0.68199998 12
8.1569996 1.539 -0.68199998 12
8.1160002 1.545 -0.68099999 12
8.1029997 1.556 -0.68300003 13
8.0939999 1.568 -0.68400002 15
8.0799999 1.579 -0.685 15
8.0629997 1.589 -0.68599999 15
8.0450001 1.599 -0.68599999 15
8.0139999 1.6059999 -0.68599999 10
7.8909998 1.594 -0.67699999 4
7.8369999 1.596 -0.67400002 3
7.816 1.605 -0.67400002 3
7.7810001 1.61 -0.67299998 3
7.7480001 1.6160001 -0.67199999 3
7.7290001 1.624 -0.671 3
7.6880002 1.628 -0.66900003 3
7.665 1.635 -0.66900003 3
7.6609998 1.646 -0.67000002 3
7.6269999 1.651 -0.66900003 3
7.5879998 1.655 -0.66600001 3
7.5640001 1.661 -0.66600001 3
7.5549998 1.671 -0.66600001 3
7.5339999 1.678 -0.66500002 3
7.5110002 1.684 -0.66399997 3
7.493 1.692 -0.66399997 3
7.4780002 1.7 -0.66399997 3
7.4520001 1.705 -0.662 3
7.4349999 1.712 -0.662 4
7.434 1.723 -0.662 3
7.4029999 1.727 -0.66100001 3
7.3990002 1.737 -0.66100001 3
7.3730001 1.742 -0.65899998 3
7.3769999 1.753 -0.66100001 3
7.3600001 1.76 -0.66000003 3
7.3579998 1.77 -0.66000003 3
7.329 1.774 -0.65799999 3
7.3330002 1.785 -0.65899998 3
7.3309999 1.795 -0.65899998 3
7.3179998 1.802 -0.65799999 3
7.3010001 1.808 -0.65700001 3
7.2979999 1.817 -0.65700001 3
7.2800002 1.823 -0.65600002 3
7.2909999 1.836 -0.65700001 2
7.276 1.842 -0.65600002 3
7.2820001 1.853 -0.65700001 3
7.243 1.853 -0.653 3
7.2150002 1.855 -0.65100002 4
7.2210002 1.8660001 -0.65100002 4
7.263 1.886 -0.65499997 3
7.2470002 1.892 -0.65399998 3
7.1739998 1.882 -0.64700001 6
7.1399999 1.882 -0.64399999 8
7.1719999 1.899 -0.64700001 6
7.2179999 1.921 -0.65100002 4
7.2620001 1.941 -0.65399998 3
7.2750001 1.954 -0.65499997 3
7.2620001 1.959 -0.65399998 3
7.2389998 1.962 -0.65100002 3
7.237 1.969 -0.65100002 4
7.237 1.978 -0.64999998 4
7.2880001 2 -0.65399998 3
7.2940001 2.0109999 -0.65399998 3
7.3210001 2.026 -0.65600002 3
7.3239999 2.036 -0.65600002 3
7.296 2.036 -0.653 3
7.3299999 2.0539999 -0.65499997 3
7.3400002 2.0650001 -0.65499997 3
7.3400002 2.073 -0.65499997 3
7.3600001 2.086 -0.65600002 3
7.355 2.0929999 -0.65399998 3
7.3759999 2.1070001 -0.65499997 3
7.3959999 2.1199999 -0.65600002 3
7.3790002 2.1229999 -0.65399998 3
7.3889999 2.1329999 -0.65399998 3
7.4239998 2.151 -0.65600002 3
7.434 2.161 -0.65499997 3
7.4359999 2.1689999 -0.65399998 4
7.434 2.1760001 -0.653 4
7.4450002 2.187 -0.653 4
7.4660001 2.2 -0.65399998 4
7.493 2.2149999 -0.65499997 4
7.4970002 2.223 -0.65399998 4
7.5250001 2.2379999 -0.65499997 4
7.5440001 2.25 -0.65499997 4
7.5599999 2.2620001 -0.65499997 4
7.5929999 2.2780001 -0.65700001 4
7.5939999 2.2850001 -0.65499997 4
7.6160002 2.2980001 -0.65600002 4
7.6399999 2.312 -0.65600002 4
7.6500001 2.3210001 -0.65499997 4
7.6830001 2.3380001 -0.65700001 4
7.6960001 2.348 -0.65600002 4
7.7119999 2.359 -0.65600002 4
7.7480001 2.3759999 -0.65700001 4
7.7620001 2.3859999 -0.65700001 4
7.7839999 2.3989999 -0.65700001 4
7.823 2.4170001 -0.65799999 4
7.8309999 2.425 -0.65700001 4
7.8590002 2.4389999 -0.65700001 4
7.9099998 2.46 -0.66000003 4
7.9289999 2.471 -0.65899998 4
7.9499998 2.483 -0.65899998 4
7.9650002 2.493 -0.65799999 5
8.0050001 2.5109999 -0.65899998 4
8.0200005 2.5209999 -0.65799999 4
8.052 2.536 -0.65899998 4
8.0970001 2.5550001 -0.66000003 4
8.1289997 2.5699999 -0.66100001 4
8.1540003 2.582 -0.66000003 4
8.1929998 2.599 -0.66100001 4
8.2419996 2.619 -0.66299999 3
8.2869997 2.638 -0.66399997 3
8.3319998 2.6570001 -0.66500002 4
8.3590002 2.6700001 -0.66500002 4
8.4099998 2.6900001 -0.66600001 4
8.4619999 2.711 -0.66799998 4
8.4530001 2.7119999 -0.66399997 4
8.5139999 2.7349999 -0.66600001 4
8.5690002 2.757 -0.66799998 4
8.6120005 2.7739999 -0.66900003 4
8.6379995 2.786 -0.66799998 5
8.6739998 2.8010001 -0.66799998 4
8.7299995 2.823 -0.66900003 4
8.7779999 2.8410001 -0.67000002 4
8.8210001 2.858 -0.67000002 4
8.8590002 2.8740001 -0.67000002 4
8.9390001 2.9030001 -0.67299998 3
8.9879999 2.9219999 -0.67299998 4
9.0489998 2.944 -0.67500001 3
9.0950003 2.961 -0.67500001 4
9.1389999 2.9779999 -0.67500001 3
9.2189999 3.007 -0.67699999 3
9.2790003 3.029 -0.67900002 3
9.3470001 3.053 -0.68000001 4
9.3979998 3.072 -0.68000001 4
9.4530001 3.092 -0.68099999 3
9.5010004 3.109 -0.68099999 4
9.5830002 3.1370001 -0.68300003 3
9.6330004 3.155 -0.68300003 3
9.6890001 3.175 -0.68300003 4
9.7600002 3.2 -0.68400002 4
9.8249998 3.2219999 -0.685 3
9.8839998 3.243 -0.68599999 4
9.9569998 3.2679999 -0.68699998 3
10.017 3.2880001 -0.68699998 3
10.088 3.312 -0.68800002 3
10.173 3.3399999 -0.68900001 3
10.258 3.368 -0.69099998 3
10.332 3.3929999 -0.69199997 3
10.398 3.415 -0.69199997 3
10.491 3.4449999 -0.69400001 3
10.573 3.4719999 -0.69499999 3
10.656 3.4979999 -0.69599998 3
10.722 3.5190001 -0.69599998 3
10.809 3.5469999 -0.69700003 3
10.88 3.569 -0.69700003 3
10.979 3.6010001 -0.69800001 2
11.059 3.6259999 -0.699 2
11.157 3.6559999 -0.69999999 2
11.265 3.6900001 -0.70200002 2
11.358 3.7190001 -0.70300001 2
11.463 3.7509999 -0.704 3
11.578 3.7869999 -0.70700002 3
11.689 3.8210001 -0.708 3
11.81 3.858 -0.70999998 3
11.912 3.888 -0.71100003 3
12.036 3.9260001 -0.713 3
12.18 3.97 -0.71600002 2
12.28 3.9990001 -0.71700001 2
12.397 4.0339999 -0.71799999 2
12.546 4.079 -0.72100002 2
12.679 4.118 -0.72299999 2
12.807 4.1550002 -0.72500002 2
12.988 4.2090001 -0.72899997 2
13.135 4.2519999 -0.73100001 2
13.27 4.2909999 -0.73299998 2
13.456 4.3460002 -0.73699999 2
13.573 4.3779998 -0.73699999 2
13.728 4.4229999 -0.73900002 2
13.886 4.4679999 -0.741 2
14.042 4.5120001 -0.74299997 2
14.238 4.5679998 -0.74699998 2
14.372 4.605 -0.74699998 2
14.572 4.6620002 -0.75099999 2
14.755 4.7129998 -0.75300002 2
15.003 4.7839999 -0.759 2
15.247 4.8540001 -0.764 2
15.413 4.8979998 -0.76499999 2
15.61 4.9520001 -0.76800001 2
15.703 4.973 -0.76499999 3
15.771 4.9850001 -0.76099998 3
15.416 4.8639998 -0.73699999 1
15.981 5.033 -0.75599998 1
0 0 0 0
0 0 0 0
0 0 0 3
17.782 5.5539999 -0.80800003 1
0 0 0 0
0 0 0 1
0 0 0 0
0 0 0 1
0 0 0 0
0 0 0 1
0 0 0 0
0 0 0 3
20.827999 6.368 -0.85799998 2
0 0 0 1
22.4 6.8130002 -0.90200001 1
22.502001 6.8249998 -0.89499998 1
22.941999 6.9390001 -0.90200001 1
22.778 6.869 -0.884 1
0 0 0 0
0 0 0 2
26.368999 7.8829999 -0.986 1
25.09 7.4780002 -0.92699999 2
0 0 0 1
26.655001 7.895 -0.95999998 1
26.941 7.954 -0.95700002 1
0 0 0 0
0 0 0 0
0 0 0 0
0 0 0 0
0 0 0 4
36.694 10.616 -1.201 2
0 0 0 0
0 0 0 0
0 0 0 0
0 0 0 0
0 0 0 3
40.305 11.404 -1.2079999 24
40.284 11.354 -1.1900001 34
40.301998 11.312 -1.1720001 37
40.300999 11.267 -1.155 49
40.222 11.199 -1.1339999 53
40.036999 11.101 -1.1109999 58
39.709999 10.964 -1.084 39
39.512001 10.862 -1.061 54
39.386002 10.781 -1.04 62
39.382 10.732 -1.022 43
39.201 10.634 -1.001 37
0 0 0 31
34.530998 9.2819996 -0.85100001 76
34.528999 9.2390003 -0.83700001 80
34.504002 9.1879997 -0.82099998 80
34.535 9.1520004 -0.80699998 74
0 0 0 4
27.997 7.348 -0.63 32
28.032 7.3210001 -0.62 173
28.009001 7.277 -0.60699999 209
27.99 7.2360001 -0.59600002 250
28.004 7.2010002 -0.58399999 250
28.041 7.1719999 -0.57300001 160
28.028999 7.132 -0.56099999 102
26.929001 6.8150001 -0.528 4
26.382 6.6399999 -0.50700003 1
0 0 0 8
35.999001 8.96 -0.66299999 11
35.908001 8.8859997 -0.64700001 3
36.997002 9.1029997 -0.65200001 19
0 0 0 1
0 0 0 0
0 0 0 1
23.787001 5.7140002 -0.38299999 29
23.695999 5.6570001 -0.37200001 64
23.698999 5.6230001 -0.36300001 153
23.684999 5.5840001 -0.354 76
23.701 5.552 -0.345 53
23.750999 5.5279999 -0.338 3
0 0 0 7
36.344002 8.3470001 -0.491 6
35.824001 8.1730003 -0.472 6
35.611 8.0679998 -0.45500001 82
35.633999 8.0170002 -0.44299999 62
0 0 0 4
19.767 4.3850002 -0.23199999 7
19.507 4.296 -0.223 2
0 0 0 0
0 0 0 1
18.657 4.0190001 -0.19499999 1
18.381001 3.9289999 -0.186 1
18.309 3.8829999 -0.18000001 1
18.103001 3.8099999 -0.17200001 1
17.879999 3.733 -0.164 1
0 0 0 0
0 0 0 1
17.231001 3.5109999 -0.14300001 2
17.232 3.4820001 -0.138 4
17.223 3.451 -0.133 5
17.018 3.3800001 -0.127 3
16.594999 3.2679999 -0.119 1
0 0 0 0
0 0 0 0
0 0 0 0
0 0 0 0
