# .PCD v0.7 - Point Cloud Data file format
VERSION 0.7
FIELDS x y z intensity
SIZE 4 4 4 4
TYPE F F F F
COUNT 1 1 1 1
WIDTH 1827
HEIGHT 1
VIEWPOINT 0 0 0 1 0 0 0
POINTS 1827
DATA ascii
0 0 0 0
0 0 0 0
0 0 0 0
0 0 0 0
0 0 0 0
0 0 0 0
0 0 0 0
0 0 0 0
0 0 0 0
0 0 0 0
0 0 0 0
0 0 0 0
0 0 0 0
0 0 0 0
0 0 0 0
0 0 0 0
0 0 0 0
0 0 0 0
0 0 0 0
0 0 0 0
0 0 0 0
0 0 0 0
0 0 0 0
0 0 0 0
0 0 0 0
0 0 0 0
0 0 0 0
0 0 0 0
0 0 0 0
0 0 0 0
0 0 0 0
0 0 0 0
0 0 0 0
0 0 0 0
0 0 0 0
0 0 0 0
0 0 0 0
0 0 0 0
0 0 0 0
0 0 0 0
0 0 0 0
0 0 0 0
0 0 0 0
0 0 0 0
0 0 0 0
0 0 0 0
0 0 0 0
0 0 0 0
0 0 0 0
0 0 0 0
0 0 0 0
0 0 0 0
0 0 0 0
0 0 0 0
0 0 0 0
0 0 0 0
0 0 0 0
0 0 0 0
0 0 0 0
0 0 0 0
0 0 0 0
0 0 0 0
0 0 0 0
0 0 0 0
0 0 0 0
0 0 0 0
0 0 0 0
0 0 0 0
0 0 0 0
0 0 0 0
0 0 0 0
0 0 0 0
0 0 0 28
121.113 -7.053 37.807999 35
121.084 -7.0830002 37.703999 49
121.107 -7.119 37.615002 53
121.21 -7.1609998 37.551998 66
121.137 -7.1869998 37.431999 70
121.162 -7.223 37.339001 76
121.143 -7.2550001 37.23 83
121.15 -7.2849998 37.130001 84
121.124 -7.316 37.016998 74
121.122 -7.348 36.909 74
121.134 -7.381 36.804001 80
121.122 -7.4120002 36.691002 77
121.158 -7.4450002 36.59 73
121.127 -7.4699998 36.466 70
121.152 -7.5050001 36.359001 65
121.134 -7.5300002 36.240002 60
121.155 -7.5609999 36.127998 71
121.134 -7.5879998 36.002998 62
121.159 -7.6149998 35.890999 64
121.138 -7.6409998 35.763 56
121.163 -7.6669998 35.647999 59
121.118 -7.691 35.509998 54
121.19 -7.7220001 35.403999 49
121.096 -7.7420001 35.248001 41
121.296 -7.7800002 35.176998 42
121.287 -7.802 35.044998 33
121.554 -7.8429999 34.988998 27
0 0 0 0
0 0 0 0
0 0 0 0
0 0 0 0
0 0 0 0
0 0 0 3
40.734001 -2.6789999 11.4 6
40.654999 -2.6800001 11.329 9
40.618999 -2.6849999 11.271 9
40.573002 -2.687 11.209 9
40.498001 -2.6889999 11.14 8
40.432999 -2.6900001 11.071 9
40.334 -2.6889999 10.994 8
40.32 -2.694 10.94 10
40.235001 -2.694 10.866 10
40.201 -2.697 10.805 10
40.151001 -2.698 10.741 12
40.141998 -2.7019999 10.686 15
40.143002 -2.707 10.634 18
40.134998 -2.71 10.58 23
40.127998 -2.714 10.525 25
40.102001 -2.7160001 10.464 24
40.103001 -2.72 10.41 26
40.104 -2.724 10.356 28
40.087002 -2.7260001 10.296 27
40.091999 -2.7290001 10.242 31
40.080002 -2.7309999 10.183 28
40.085999 -2.734 10.128 27
40.082001 -2.7360001 10.071 27
40.080002 -2.7379999 10.014 29
40.094002 -2.7420001 9.96 27
40.085999 -2.743 9.8999996 28
40.085999 -2.7449999 9.842 26
40.077999 -2.7460001 9.7810001 26
40.069 -2.7460001 9.7209997 28
40.070999 -2.7479999 9.6610003 30
40.091999 -2.7509999 9.6070004 29
40.09 -2.75 9.5450001 28
40.080002 -2.75 9.4829998 29
40.07 -2.75 9.4200001 27
40.068001 -2.7490001 9.3590002 28
40.063 -2.7490001 9.2959995 29
40.07 -2.7490001 9.2360001 28
40.058998 -2.7479999 9.1709995 28
40.066002 -2.747 9.1099997 28
40.058998 -2.7460001 9.0459995 28
40.055 -2.744 8.9829998 29
40.057999 -2.743 8.9200001 29
40.055 -2.7409999 8.8549995 27
40.060001 -2.7390001 8.7930002 29
40.037998 -2.7360001 8.724 33
40.049999 -2.733 8.6610003 34
40.043999 -2.73 8.5950003 33
40.056 -2.7279999 8.5319996 31
40.032001 -2.724 8.4610004 35
40.028 -2.72 8.3940001 35
40.034 -2.7160001 8.3299999 36
40.028 -2.7119999 8.2620001 37
40.027 -2.7079999 8.1949997 39
40.016998 -2.7030001 8.125 36
40.025002 -2.698 8.0600004 39
40.02 -2.6930001 7.9910002 38
40.028 -2.6889999 7.9250002 37
40.005001 -2.681 7.8530002 38
40.015999 -2.677 7.7870002 39
40.026001 -2.6719999 7.7189999 41
40.022999 -2.665 7.6490002 40
39.990002 -2.6570001 7.5739999 40
39.998001 -2.651 7.5050001 40
40.004002 -2.6440001 7.4380002 40
40.005001 -2.6370001 7.368 39
40.001999 -2.6300001 7.296 36
40.002998 -2.622 7.2270002 33
40.049999 -2.6170001 7.164 31
40.115002 -2.6129999 7.105 34
40.331001 -2.618 7.0710001 26
40.647999 -2.631 7.0560002 20
40.826 -2.6329999 7.0139999 26
41.053001 -2.6370001 6.9780002 36
41.27 -2.642 6.9400001 36
41.331001 -2.6359999 6.875 30
41.307999 -2.6240001 6.796 39
41.304001 -2.6129999 6.7199998 41
41.307999 -2.602 6.6459999 41
41.300999 -2.5910001 6.5689998 42
41.304001 -2.5799999 6.493 43
41.313 -2.5680001 6.4190001 44
41.298 -2.5550001 6.3400002 47
41.289001 -2.543 6.2620001 47
41.292 -2.53 6.1859999 44
41.306 -2.5179999 6.1110001 39
41.363998 -2.5090001 6.0419998 34
41.653999 -2.513 6.007 36
41.932999 -2.516 5.9689999 37
42.196999 -2.517 5.927 46
42.276001 -2.5079999 5.8579998 54
42.257999 -2.4920001 5.7750001 55
42.258999 -2.477 5.6950002 52
42.243 -2.46 5.6129999 50
42.238998 -2.444 5.5310001 47
42.249001 -2.428 5.4510002 38
42.278 -2.414 5.3740001 24
42.380001 -2.4030001 5.3070002 14
42.542 -2.395 5.2459998 9
42.695999 -2.3859999 5.1830001 9
42.842999 -2.3770001 5.118 9
42.973999 -2.3659999 5.0510001 8
43.02 -2.3499999 4.974 6
0 0 0 34
46.294998 -2.4879999 5.1750002 51
46.269001 -2.4660001 5.0809999 54
46.278 -2.4449999 4.993 53
46.278 -2.424 4.9029999 55
46.272999 -2.402 4.8140001 55
46.265999 -2.3800001 4.723 55
46.252998 -2.3570001 4.631 58
46.251999 -2.3340001 4.5409999 58
46.245998 -2.3099999 4.4510002 60
46.243 -2.2880001 4.3610001 61
46.226002 -2.263 4.27 61
46.229 -2.2390001 4.1789999 58
46.229 -2.2149999 4.0890002 60
46.234001 -2.191 3.9990001 55
46.227001 -2.165 3.908 49
46.237 -2.1400001 3.8169999 29
46.409 -2.1229999 3.7420001 12
46.695 -2.1099999 3.6719999 9
47.208 -2.1059999 3.6199999 11
47.877998 -2.108 3.5780001 45
47.933998 -2.0829999 3.487 62
47.981998 -2.0569999 3.3959999 50
48.696999 -2.0580001 3.3499999 33
49.289001 -2.053 3.293 54
49.292 -2.0239999 3.197 62
49.279999 -1.993 3.099 59
49.437 -1.9680001 3.0109999 51
50.273998 -1.969 2.9619999 52
50.613998 -1.95 2.882 65
50.625999 -1.918 2.7839999 43
50.671001 -1.887 2.6860001 30
51.884998 -1.898 2.6470001 12
0 0 0 0
0 0 0 0
0 0 0 4
50.244999 -1.702 2.165 27
50.235001 -1.6670001 2.0669999 70
50.264 -1.632 1.9680001 67
50.453999 -1.603 1.876 29
51.094002 -1.585 1.796 36
51.708 -1.567 1.716 24
52.355 -1.549 1.6339999 23
52.873001 -1.525 1.546 12
53.796001 -1.512 1.467 5
0 0 0 0
0 0 0 0
0 0 0 0
0 0 0 0
0 0 0 0
0 0 0 0
0 0 0 0
0 0 0 0
0 0 0 0
0 0 0 25
66.142998 -1.29 0.377 53
66.247002 -1.237 0.24600001 31
66.736 -1.1900001 0.115 22
0 0 0 0
0 0 0 9
69.297997 -1.062 -0.28099999 23
71.452003 -1.035 -0.42699999 82
71.439003 -0.97299999 -0.56599998 107
72.308998 -0.92199999 -0.713 32
72.503998 -0.86199999 -0.85299999 39
74.788002 -0.824 -1.025 14
0 0 0 77
0 0 0 0
0 0 0 0
0 0 0 32
116.278 -0.75999999 -2.711 25
0 0 0 25
0 0 0 11
51.313999 -0.19499999 -1.488 163
51.264 -0.147 -1.5829999 218
51.269001 -0.098999999 -1.681 218
51.238998 -0.050999999 -1.776 156
51.271999 -0.0020000001 -1.874 22
0 0 0 0
0 0 0 0
0 0 0 0
0 0 0 0
0 0 0 2
0 0 0 0
0 0 0 0
0 0 0 1
0 0 0 1
0 0 0 1
18.641001 0.2 -1.0650001 1
0 0 0 1
16.336 0.20900001 -0.99400002 2
15.526 0.214 -0.97299999 2
14.75 0.21799999 -0.95099998 2
14.075 0.223 -0.93300003 2
13.288 0.22400001 -0.90499997 3
12.681 0.227 -0.88700002 3
12.313 0.233 -0.88300002 11
12.003 0.23999999 -0.88300002 13
11.665 0.245 -0.87800002 7
11.163 0.24699999 -0.861 4
10.626 0.24600001 -0.838 4
10.291 0.249 -0.82999998 4
9.9390001 0.252 -0.81900001 4
9.6190004 0.25400001 -0.81 4
9.3290005 0.25600001 -0.80299997 4
9.0649996 0.259 -0.796 4
8.8199997 0.26100001 -0.79000002 4
8.4969997 0.26100001 -0.77600002 4
8.2440004 0.26199999 -0.76700002 4
8.0209999 0.264 -0.75999999 4
7.7979999 0.26499999 -0.75199997 4
7.5630002 0.266 -0.74299997 4
7.3870001 0.26800001 -0.73799998 3
7.1500001 0.26699999 -0.727 3
6.9749999 0.26800001 -0.72100002 3
6.8150001 0.27000001 -0.71499997 3
6.6370001 0.27000001 -0.708 4
6.4970002 0.27200001 -0.704 3
6.3439999 0.273 -0.69800001 3
6.21 0.27399999 -0.69400001 3
6.059 0.27399999 -0.68699998 3
5.921 0.27500001 -0.68099999 2
5.8109999 0.27599999 -0.67799997 3
5.7030001 0.278 -0.67500001 3
5.599 0.27900001 -0.67199999 3
5.474 0.27900001 -0.66600001 3
5.3540001 0.27900001 -0.66000003 3
5.2719998 0.28099999 -0.65799999 4
5.1500001 0.28 -0.65100002 4
5.0770001 0.28200001 -0.64999998 4
5.0029998 0.28400001 -0.64899999 5
4.928 0.285 -0.64700001 4
4.842 0.28600001 -0.64300001 3
4.7620001 0.287 -0.63999999 3
4.7010002 0.289 -0.639 3
4.6290002 0.28999999 -0.63700002 3
4.5549998 0.29100001 -0.634 3
4.4949999 0.292 -0.63200003 3
4.4390001 0.294 -0.63099998 3
4.4439998 0.29899999 -0.639 4
4.3249998 0.296 -0.62800002 3
4.3049998 0.30000001 -0.63200003 3
4.23 0.30000001 -0.62699997 3
4.165 0.30000001 -0.62400001 2
4.0960002 0.30000001 -0.61900002 2
3.983 0.29699999 -0.60799998 1
3.957 0.29899999 -0.61000001 2
3.9549999 0.30399999 -0.61500001 2
3.885 0.303 -0.61000001 2
3.9530001 0.31299999 -0.62699997 3
3.816 0.30700001 -0.61000001 3
3.79 0.30899999 -0.61199999 2
3.776 0.31299999 -0.61500001 2
3.7360001 0.31400001 -0.61400002 3
3.687 0.31400001 -0.611 3
3.6099999 0.31200001 -0.60299999 2
3.5369999 0.31 -0.59600002 2
3.5280001 0.31299999 -0.59899998 2
3.487 0.31400001 -0.597 1
3.473 0.317 -0.59899998 2
3.4430001 0.31799999 -0.59899998 2
3.4089999 0.31900001 -0.59799999 2
3.418 0.324 -0.60399997 2
3.3529999 0.322 -0.597 2
3.3940001 0.33000001 -0.60900003 2
3.3269999 0.32800001 -0.60100001 2
3.325 0.331 -0.60500002 2
3.257 0.32800001 -0.597 2
3.293 0.336 -0.60799998 2
3.3469999 0.345 -0.62199998 2
3.266 0.34099999 -0.611 2
3.0840001 0.32600001 -0.58099997 2
3.0639999 0.32699999 -0.58099997 2
3.043 0.329 -0.58099997 2
3.0139999 0.329 -0.579 2
2.9990001 0.331 -0.57999998 2
2.9719999 0.33199999 -0.57800001 2
2.9449999 0.33199999 -0.57599998 2
2.9319999 0.33399999 -0.57700002 2
2.918 0.336 -0.57800001 2
2.885 0.33500001 -0.57499999 2
2.8699999 0.33700001 -0.57499999 2
2.8440001 0.33700001 -0.57300001 2
2.8269999 0.33899999 -0.57300001 2
2.8039999 0.33899999 -0.57099998 2
2.7850001 0.34 -0.57099998 2
2.7650001 0.34099999 -0.56999999 2
2.7539999 0.34299999 -0.57099998 2
2.7320001 0.34299999 -0.56900001 2
2.7149999 0.34400001 -0.56900001 2
2.684 0.34400001 -0.565 2
2.6819999 0.347 -0.56699997 2
2.6630001 0.347 -0.56599998 2
2.648 0.34799999 -0.56599998 2
2.635 0.34900001 -0.56599998 2
2.615 0.34999999 -0.56400001 1
2.6029999 0.35100001 -0.56400001 1
2.586 0.352 -0.56300002 1
2.5780001 0.354 -0.56400001 1
2.5680001 0.35499999 -0.56400001 1
2.552 0.35600001 -0.56300002 1
2.543 0.35800001 -0.56400001 1
2.5320001 0.359 -0.56400001 1
2.516 0.36000001 -0.56300002 1
2.493 0.359 -0.56 1
2.483 0.36000001 -0.56 1
2.473 0.36199999 -0.56 1
2.4649999 0.36300001 -0.56 1
2.454 0.36399999 -0.56 1
2.4360001 0.36399999 -0.55800003 1
2.4289999 0.366 -0.55900002 1
2.4200001 0.36700001 -0.55900002 1
2.404 0.36700001 -0.55699998 1
2.398 0.36899999 -0.55800003 1
2.385 0.37 -0.55699998 1
2.368 0.37 -0.55500001 1
2.3629999 0.37099999 -0.55500001 1
2.3510001 0.37200001 -0.55500001 1
2.3469999 0.37400001 -0.55500001 1
2.332 0.37400001 -0.55400002 1
2.3280001 0.37599999 -0.55400002 1
2.3180001 0.37599999 -0.55400002 1
2.312 0.37799999 -0.55400002 1
2.306 0.37900001 -0.55500001 1
2.302 0.38100001 -0.55500001 1
2.289 0.38100001 -0.55400002 1
2.28 0.382 -0.55299997 1
2.27 0.38299999 -0.55199999 1
2.267 0.384 -0.55299997 1
2.2460001 0.38299999 -0.54900002 1
2.243 0.38499999 -0.55000001 1
2.2349999 0.38600001 -0.55000001 1
2.2290001 0.38699999 -0.55000001 1
2.224 0.38800001 -0.55000001 1
2.2160001 0.389 -0.54900002 1
2.207 0.389 -0.54799998 1
2.2049999 0.391 -0.54900002 1
2.197 0.39199999 -0.54900002 1
2.1860001 0.39199999 -0.54699999 1
2.184 0.39300001 -0.54799998 1
2.1760001 0.39399999 -0.54699999 1
2.1760001 0.396 -0.54799998 1
2.177 0.398 -0.55000001 1
2.1600001 0.39700001 -0.546 1
2.161 0.39899999 -0.54799998 1
2.1559999 0.40000001 -0.54799998 1
2.151 0.40099999 -0.54699999 1
2.151 0.403 -0.54799998 1
2.141 0.403 -0.54699999 1
2.1270001 0.40200001 -0.54400003 1
2.131 0.405 -0.546 1
2.1259999 0.40599999 -0.546 1
2.1259999 0.40799999 -0.54699999 1
2.1229999 0.40900001 -0.54699999 2
2.1159999 0.40900001 -0.546 2
2.118 0.412 -0.54699999 2
2.1099999 0.412 -0.546 2
2.109 0.41299999 -0.546 1
2.1059999 0.414 -0.546 1
2.1029999 0.41499999 -0.546 1
2.102 0.417 -0.54699999 1
2.095 0.417 -0.546 1
2.099 0.419 -0.54699999 1
2.086 0.419 -0.54500002 1
2.086 0.41999999 -0.54500002 1
2.0799999 0.41999999 -0.54400003 1
2.0810001 0.42199999 -0.54500002 1
2.0780001 0.42300001 -0.54500002 1
2.079 0.42500001 -0.546 1
2.0799999 0.42699999 -0.546 1
2.073 0.42699999 -0.54500002 1
2.072 0.428 -0.54500002 1
2.069 0.42899999 -0.54500002 1
2.069 0.43000001 -0.54500002 1
2.062 0.43000001 -0.54400003 1
2.0650001 0.43200001 -0.54500002 1
2.059 0.43200001 -0.54299998 1
2.056 0.433 -0.54299998 1
2.0610001 0.435 -0.54400003 1
2.062 0.43700001 -0.54500002 1
2.062 0.43799999 -0.54500002 1
2.0639999 0.44 -0.546 2
2.062 0.44100001 -0.546 2
2.0550001 0.44 -0.54400003 1
2.0569999 0.442 -0.54500002 1
2.0580001 0.44299999 -0.54500002 1
2.0580001 0.44499999 -0.54500002 1
2.056 0.44499999 -0.54500002 1
2.056 0.44600001 -0.54500002 1
2.0539999 0.447 -0.54400003 1
2.0539999 0.44800001 -0.54400003 1
2.056 0.44999999 -0.54500002 1
2.052 0.44999999 -0.54400003 1
2.056 0.45199999 -0.54400003 2
2.0569999 0.45300001 -0.54500002 2
2.0569999 0.454 -0.54400003 2
2.0539999 0.45500001 -0.54400003 2
2.059 0.45699999 -0.54500002 2
2.062 0.458 -0.54500002 2
2.0580001 0.458 -0.54400003 2
2.0669999 0.461 -0.546 2
2.0599999 0.46000001 -0.54400003 2
2.066 0.463 -0.54500002 2
2.0599999 0.46200001 -0.54400003 1
2.0569999 0.46200001 -0.54299998 1
2.0680001 0.465 -0.54500002 2
2.066 0.46599999 -0.54400003 2
2.062 0.46599999 -0.54299998 2
2.0669999 0.46799999 -0.54400003 2
2.072 0.47 -0.54400003 2
2.076 0.47099999 -0.54500002 2
2.073 0.47099999 -0.54400003 2
2.0769999 0.47299999 -0.54400003 2
2.0810001 0.47400001 -0.54500002 2
2.0810001 0.47499999 -0.54400003 2
2.0829999 0.47600001 -0.54400003 2
2.082 0.47600001 -0.54299998 2
2.086 0.47799999 -0.54400003 2
2.089 0.479 -0.54400003 2
2.0929999 0.47999999 -0.54400003 2
2.095 0.48100001 -0.54400003 2
2.1029999 0.484 -0.546 2
2.1010001 0.484 -0.54400003 2
2.109 0.486 -0.546 2
2.108 0.486 -0.54500002 2
2.109 0.48699999 -0.54400003 2
2.112 0.48800001 -0.54400003 2
2.1259999 0.491 -0.54699999 2
2.1259999 0.49200001 -0.546 2
2.132 0.493 -0.546 2
2.1340001 0.49399999 -0.546 2
2.141 0.49599999 -0.54699999 2
2.1370001 0.495 -0.54500002 2
2.1440001 0.49700001 -0.546 2
2.152 0.49900001 -0.54699999 2
2.151 0.49900001 -0.54500002 2
2.158 0.50099999 -0.546 2
2.158 0.50099999 -0.54500002 2
2.165 0.50300002 -0.546 2
2.1689999 0.50400001 -0.546 1
2.1719999 0.505 -0.54500002 1
2.181 0.50700003 -0.546 1
2.1849999 0.50800002 -0.546 1
2.188 0.509 -0.546 1
2.1900001 0.509 -0.54500002 1
2.2 0.51099998 -0.546 1
2.204 0.51200002 -0.546 1
2.21 0.51300001 -0.546 1
2.2160001 0.51499999 -0.546 1
2.2279999 0.51700002 -0.54799998 1
2.2309999 0.51800001 -0.54699999 1
2.2379999 0.51899999 -0.54699999 1
2.2409999 0.51999998 -0.546 1
2.2479999 0.52100003 -0.54699999 2
2.256 0.523 -0.54699999 1
2.267 0.52499998 -0.54799998 1
2.2739999 0.52600002 -0.54799998 2
2.2850001 0.52899998 -0.55000001 2
2.286 0.528 -0.54799998 2
2.2969999 0.52999997 -0.54900002 2
2.303 0.53100002 -0.54900002 2
2.3039999 0.53100002 -0.54799998 2
2.319 0.53399998 -0.54900002 1
2.329 0.53600001 -0.55000001 1
2.3369999 0.537 -0.55000001 2
2.352 0.54000002 -0.55199999 1
2.355 0.54000002 -0.551 1
2.375 0.54400003 -0.55299997 1
2.3729999 0.54299998 -0.551 1
2.3859999 0.546 -0.55199999 1
2.3900001 0.546 -0.551 1
2.4119999 0.55000001 -0.55400002 2
2.4130001 0.54900002 -0.55299997 1
2.4260001 0.551 -0.55400002 1
2.4400001 0.55400002 -0.55500001 2
2.4449999 0.55400002 -0.55400002 1
2.461 0.55699998 -0.55500001 2
2.4779999 0.56 -0.55699998 2
2.4809999 0.56 -0.55599999 2
2.4990001 0.56300002 -0.55699998 2
2.5039999 0.56300002 -0.55599999 2
2.5150001 0.56400001 -0.55699998 2
2.529 0.56599998 -0.55699998 2
2.5380001 0.56699997 -0.55699998 2
2.5469999 0.56800002 -0.55699998 1
2.5610001 0.56999999 -0.55699998 1
2.579 0.57300001 -0.55900002 1
2.586 0.57300001 -0.55800003 1
2.609 0.57700002 -0.56 2
2.6199999 0.57800001 -0.56 2
2.632 0.579 -0.56 2
2.6459999 0.58099997 -0.56099999 2
2.6630001 0.583 -0.56199998 2
2.6760001 0.58499998 -0.56199998 2
2.6949999 0.58700001 -0.56300002 2
2.7149999 0.58999997 -0.565 2
2.7290001 0.59200001 -0.565 2
2.7490001 0.59500003 -0.56599998 2
2.7620001 0.59600002 -0.56599998 2
2.777 0.597 -0.56599998 2
2.8 0.60000002 -0.56800002 2
2.819 0.60299999 -0.56900001 2
2.8329999 0.60399997 -0.56900001 2
2.8499999 0.60600001 -0.56900001 2
2.858 0.60500002 -0.56800002 2
2.8829999 0.60900003 -0.56999999 2
2.898 0.61000001 -0.56999999 2
2.927 0.61400002 -0.57300001 2
2.9389999 0.61400002 -0.57200003 2
2.9649999 0.61799997 -0.574 2
2.9860001 0.62 -0.574 2
2.9990001 0.62 -0.574 2
3.017 0.62199998 -0.574 2
3.046 0.62599999 -0.57599998 2
3.0699999 0.62800002 -0.57700002 2
3.0969999 0.63099998 -0.579 2
3.1170001 0.63300002 -0.579 2
3.1289999 0.63300002 -0.57800001 2
3.1589999 0.63599998 -0.57999998 2
3.177 0.63700002 -0.579 2
3.2 0.639 -0.57999998 2
3.2309999 0.64300001 -0.58200002 2
3.2520001 0.64399999 -0.58200002 2
3.2809999 0.64700001 -0.583 2
3.313 0.65100002 -0.58499998 2
3.4200001 0.66900003 -0.60000002 2
3.4059999 0.66299999 -0.59399998 2
3.418 0.662 -0.59200001 2
3.438 0.66299999 -0.59100002 2
3.448 0.662 -0.58899999 2
3.4949999 0.667 -0.59299999 2
3.546 0.67400002 -0.597 3
3.5569999 0.67199999 -0.59500003 3
3.6029999 0.67799997 -0.59799999 3
3.6170001 0.67699999 -0.59600002 1
3.6389999 0.67699999 -0.59600002 2
3.711 0.68699998 -0.60299999 2
3.75 0.69 -0.60500002 2
3.8610001 0.70700002 -0.61799997 3
3.7969999 0.69099998 -0.60299999 2
3.803 0.68800002 -0.59899998 2
3.8840001 0.699 -0.60699999 2
3.888 0.69599998 -0.60299999 2
3.9489999 0.70200002 -0.60799998 2
4.0110002 0.70899999 -0.61199999 2
4.0279999 0.708 -0.61000001 2
4.0819998 0.713 -0.61299998 2
4.1409998 0.71899998 -0.61699998 2
4.1630001 0.71799999 -0.61500001 2
4.257 0.72899997 -0.62400001 2
4.2480001 0.72299999 -0.61699998 2
4.3540001 0.736 -0.62699997 3
4.3709998 0.73299998 -0.62400001 3
4.4260001 0.73799998 -0.62699997 3
4.4590001 0.73799998 -0.62599999 3
4.4980001 0.73900002 -0.62599999 3
4.573 0.74599999 -0.63 2
4.625 0.74900001 -0.63200003 2
4.6820002 0.75199997 -0.634 2
4.7329998 0.755 -0.634 2
4.7719998 0.755 -0.634 4
4.8400002 0.75999999 -0.63700002 3
4.9029999 0.764 -0.639 2
4.9580002 0.76599997 -0.63999999 3
5.0380001 0.77200001 -0.64399999 3
5.1170001 0.778 -0.64700001 3
5.1820002 0.78100002 -0.64899999 3
5.237 0.78200001 -0.64899999 3
5.3340001 0.79000002 -0.65499997 3
5.4029999 0.79299998 -0.65600002 4
5.4910002 0.79900002 -0.66000003 5
5.566 0.80199999 -0.662 5
5.6459999 0.80599999 -0.66399997 5
5.7519999 0.81400001 -0.67000002 4
5.8390002 0.81800002 -0.67199999 4
5.9289999 0.82300001 -0.67500001 4
6.0289998 0.82800001 -0.67900002 4
6.1339998 0.83399999 -0.68300003 4
6.2639999 0.84299999 -0.69 4
6.3839998 0.85000002 -0.69499999 4
6.467 0.85299999 -0.69599998 4
6.586 0.85900003 -0.69999999 5
6.697 0.86400002 -0.704 6
6.8239999 0.87 -0.708 5
6.9569998 0.87800002 -0.713 5
7.1059999 0.88599998 -0.72000003 6
7.2740002 0.89600003 -0.72799999 6
7.4239998 0.90399998 -0.73299998 6
7.572 0.91100001 -0.73799998 6
7.7270002 0.91799998 -0.74400002 7
7.921 0.92900002 -0.75199997 6
8.085 0.93599999 -0.75800002 5
8.2620001 0.94400001 -0.764 6
8.4049997 0.94800001 -0.76700002 6
8.5790005 0.95499998 -0.77200001 6
8.7659998 0.96200001 -0.778 5
8.9259996 0.96600002 -0.78100002 4
9.1490002 0.97600001 -0.78899997 4
9.3520002 0.98299998 -0.79500002 3
9.5979996 0.99400002 -0.80400002 3
9.8050003 1 -0.81 3
10.01 1.005 -0.81400001 3
10.184 1.006 -0.81599998 3
10.457 1.017 -0.82499999 3
10.72 1.025 -0.83200002 2
11.008 1.035 -0.84100002 2
11.346 1.049 -0.85299999 2
11.672 1.0599999 -0.86400002 2
11.908 1.062 -0.86699998 2
12.185 1.067 -0.87199998 3
12.521 1.076 -0.88099998 3
12.883 1.085 -0.89099997 3
13.251 1.094 -0.89999998 3
13.663 1.1059999 -0.912 3
14.085 1.117 -0.92299998 3
14.582 1.132 -0.93800002 3
15.168 1.151 -0.958 11
15.49 1.15 -0.95999998 2
16.177 1.173 -0.98299998 2
16.636 1.178 -0.99199998 4
17.093 1.181 -0.99900001 5
17.174 1.1569999 -0.98299998 2
17.658001 1.16 -0.99000001 1
0 0 0 1
0 0 0 7
21.007999 1.271 -1.105 1
0 0 0 1
24.546 1.399 -1.235 1
25.018999 1.381 -1.23 1
0 0 0 0
0 0 0 1
0 0 0 0
0 0 0 3
0 0 0 0
0 0 0 0
0 0 0 0
0 0 0 5
38.106998 1.495 -1.4910001 5
37.737 1.4119999 -1.4349999 15
37.610001 1.339 -1.388 29
37.613998 1.27 -1.348 28
37.588001 1.199 -1.3049999 23
37.638 1.133 -1.267 34
37.678001 1.064 -1.227 36
37.740002 0.99599999 -1.189 36
37.814999 0.92900002 -1.152 31
37.901001 0.861 -1.114 33
37.998001 0.792 -1.077 34
38.132999 0.72500002 -1.0420001 39
38.284 0.65700001 -1.006 24
38.43 0.588 -0.97000003 18
38.636002 0.51999998 -0.93599999 3
0 0 0 0
0 0 0 25
0 0 0 0
0 0 0 0
0 0 0 0
0 0 0 0
0 0 0 0
0 0 0 125
133.069 -0.47299999 -2.0280001 83
0 0 0 0
0 0 0 0
0 0 0 46
0 0 0 36
71.434998 -0.94 -0.745 114
0 0 0 18
66.240997 -1.128 -0.56699997 84
66.022003 -1.251 -0.50400001 72
66.059998 -1.38 -0.44400001 74
66.025002 -1.507 -0.38299999 147
0 0 0 11
58.265999 -1.554 -0.234 22
58.051998 -1.661 -0.18099999 58
58.012001 -1.775 -0.12800001 113
58.014999 -1.8890001 -0.077 120
57.451 -1.983 -0.026000001 65
56.983002 -2.079 0.023 64
0 0 0 10
0 0 0 18
50.087002 -2.122 0.149 125
49.895 -2.2130001 0.19 98
47.112 -2.1819999 0.219 9
46.341999 -2.2390001 0.255 22
46.209 -2.3239999 0.292 84
46.105999 -2.4100001 0.329 90
46.055 -2.497 0.366 26
0 0 0 37
42.610001 -2.4790001 0.40599999 36
42.596001 -2.5610001 0.43900001 37
42.269001 -2.625 0.46900001 14
41.806999 -2.6789999 0.49599999 95
41.841999 -2.7650001 0.52899998 83
41.839001 -2.846 0.56 107
39.508999 -2.7650001 0.55800003 14
39.183998 -2.8199999 0.583 5
38.629002 -2.8559999 0.60299999 2
37.868999 -2.875 0.61799997 2
37.791 -2.9430001 0.64399999 38
37.791 -3.0190001 0.671 45
37.798 -3.0929999 0.69800001 52
36.062 -3.023 0.69099998 7
35.473 -3.0439999 0.70499998 9
35.029999 -3.0769999 0.72000003 8
34.562 -3.1040001 0.73400003 8
34.089001 -3.1300001 0.74800003 10
33.880001 -3.178 0.76599997 111
33.880001 -3.2460001 0.78799999 107
33.894001 -3.3150001 0.81 115
33.901001 -3.382 0.83200002 113
33.902 -3.4489999 0.85399997 102
33.919998 -3.5179999 0.87599999 75
33.922001 -3.586 0.89700001 78
33.928001 -3.6530001 0.91799998 76
33.943001 -3.723 0.94 81
33.933998 -3.789 0.95999998 85
33.922001 -3.855 0.98000002 102
33.943001 -3.925 1 112
33.933998 -3.99 1.0190001 116
33.937 -4.0570002 1.039 102
33.938 -4.1240001 1.058 99
33.944 -4.1919999 1.077 99
33.959 -4.2600002 1.096 102
33.965 -4.3270001 1.115 108
33.973 -4.395 1.133 103
33.976002 -4.4619999 1.151 99
34.311001 -4.573 1.1799999 4
0 0 0 0
0 0 0 0
0 0 0 6
26.277 -3.707 0.95700002 24
26.202999 -3.747 0.96700001 35
26.136999 -3.7880001 0.977 40
26.08 -3.8299999 0.98699999 45
26.063999 -3.8789999 0.99800003 39
26.017 -3.921 1.008 50
26.000999 -3.9690001 1.0190001 44
25.954 -4.0120001 1.029 57
25.948999 -4.0609999 1.04 59
25.940001 -4.1100001 1.051 62
25.959999 -4.1620002 1.062 53
25.968 -4.2129998 1.073 53
25.975 -4.2639999 1.084 52
26.000999 -4.3169999 1.096 38
26.016001 -4.3670001 1.1059999 41
26.041 -4.4219999 1.117 37
26.097 -4.48 1.1289999 31
26.158001 -4.54 1.142 22
26.298 -4.6129999 1.1569999 5
0 0 0 18
34.418999 -6.1669998 1.539 20
34.41 -6.23 1.55 24
34.415001 -6.2950001 1.562 25
34.438 -6.362 1.575 22
34.444 -6.428 1.586 22
34.410999 -6.4840002 1.595 19
34.417999 -6.5489998 1.6059999 19
34.398998 -6.6090002 1.6160001 19
34.368 -6.6659999 1.624 16
34.412998 -6.7379999 1.636 19
34.403 -6.7989998 1.645 17
34.410999 -6.8629999 1.655 17
34.395 -6.9229999 1.664 16
34.41 -6.9879999 1.674 18
34.405998 -7.0479999 1.682 17
34.370998 -7.1030002 1.689 15
34.311001 -7.152 1.694 18
34.193001 -7.1880002 1.696 52
34.187 -7.2480001 1.704 64
34.196999 -7.3099999 1.711 88
34.185001 -7.3670001 1.7180001 78
34.188999 -7.428 1.726 75
34.199001 -7.4899998 1.733 71
34.203999 -7.5510001 1.74 68
34.196999 -7.6090002 1.7460001 65
34.201 -7.6690001 1.752 64
0 0 0 16
18.254999 -4.1550002 0.94099998 17
18.177999 -4.1690001 0.94 27
18.121 -4.1859999 0.94 31
18.087 -4.2090001 0.94099998 25
18.054001 -4.2319999 0.94199997 36
18.021 -4.2540002 0.94199997 39
17.99 -4.277 0.94300002 38
17.969999 -4.302 0.94400001 45
17.955 -4.3280001 0.94599998 49
17.934 -4.3530002 0.94700003 49
17.931 -4.381 0.949 37
17.900999 -4.402 0.949 61
17.896 -4.4299998 0.94999999 40
17.872999 -4.454 0.94999999 62
17.870001 -4.4809999 0.95200002 70
17.856001 -4.506 0.95200002 67
17.851 -4.533 0.95300001 64
17.851999 -4.5619998 0.954 62
17.860001 -4.5910001 0.95599997 38
17.854 -4.618 0.95599997 36
17.865 -4.6479998 0.958 45
17.861 -4.6739998 0.958 51
17.872999 -4.7049999 0.95899999 35
17.870001 -4.7309999 0.95999998 33
17.875 -4.7600002 0.95999998 48
17.889999 -4.79 0.96200001 45
17.909 -4.822 0.963 41
17.905001 -4.848 0.963 37
17.917 -4.8779998 0.963 33
17.951 -4.914 0.96499997 31
17.968 -4.9450002 0.96600002 28
18.011999 -4.9819999 0.96799999 22
18.07 -5.0240002 0.97100002 17
18.148001 -5.072 0.97500002 7
0 0 0 2
34.306 -9.6850004 1.84 2
34.300999 -9.7329998 1.839 2
34.400002 -9.809 1.842 2
34.382 -9.8509998 1.84 3
34.428001 -9.9110003 1.84 2
34.416 -9.9540005 1.837 2
34.396 -9.9949999 1.834 2
34.402 -10.042 1.831 3
34.382999 -10.082 1.827 2
34.483002 -10.156 1.83 2
34.428001 -10.185 1.824 2
34.401001 -10.221 1.8200001 4
34.450001 -10.28 1.819 6
34.407001 -10.311 1.813 3
34.466999 -10.372 1.812 2
34.416 -10.4 1.8049999 2
34.431 -10.448 1.803 2
0 0 0 0
0 0 0 2
34.363998 -10.552 1.786 3
34.348999 -10.588 1.781 2
34.477001 -10.668 1.7819999 2
34.497002 -10.714 1.778 2
34.48 -10.748 1.773 2
34.387001 -10.757 1.762 2
34.505001 -10.833 1.763 2
34.518002 -10.876 1.7589999 2
34.491001 -10.906 1.751 2
34.497002 -10.946 1.7460001 4
34.556 -11.002 1.742 5
34.534 -11.032 1.735 6
34.535 -11.068 1.728 7
34.542999 -11.106 1.723 11
34.540001 -11.14 1.717 20
34.511002 -11.166 1.7079999 33
34.484001 -11.192 1.7 41
34.446999 -11.215 1.691 15
34.368999 -11.223 1.679 56
34.376999 -11.259 1.6720001 65
34.379002 -11.292 1.665 77
34.375 -11.323 1.6569999 78
34.382 -11.357 1.65 85
34.374001 -11.386 1.642 77
34.383999 -11.42 1.635 83
34.381001 -11.449 1.626 81
34.380001 -11.479 1.617 66
34.375999 -11.507 1.609 81
34.375999 -11.536 1.6 79
34.369999 -11.563 1.592 74
34.383999 -11.596 1.584 77
34.381001 -11.623 1.575 79
34.395 -11.655 1.566 81
34.393002 -11.681 1.558 81
34.396 -11.708 1.548 78
34.391998 -11.732 1.538 77
34.400002 -11.761 1.529 80
34.390999 -11.783 1.52 78
34.400002 -11.81 1.51 78
34.377998 -11.827 1.498 78
34.41 -11.861 1.4910001 64
34.390999 -11.878 1.4809999 77
34.391998 -11.901 1.47 79
34.396999 -11.925 1.46 76
34.407001 -11.95 1.45 79
34.397999 -11.968 1.4400001 82
34.396999 -11.988 1.429 77
34.395 -12.007 1.418 78
34.396999 -12.028 1.4069999 77
34.407001 -12.051 1.397 80
34.403 -12.068 1.386 81
34.405998 -12.087 1.374 80
34.398998 -12.103 1.363 81
34.407001 -12.123 1.352 78
34.417999 -12.143 1.341 82
34.403 -12.154 1.329 81
34.410999 -12.172 1.318 82
34.407001 -12.186 1.307 81
34.407001 -12.201 1.295 83
34.417999 -12.219 1.284 82
34.410999 -12.231 1.271 82
34.418999 -12.247 1.2589999 80
34.398998 -12.253 1.2460001 79
34.418999 -12.272 1.235 79
34.403 -12.278 1.223 78
34.400002 -12.289 1.209 77
34.407001 -12.302 1.198 77
34.428001 -12.32 1.186 79
34.410999 -12.323 1.174 76
34.41 -12.332 1.161 77
34.416 -12.343 1.148 74
34.415001 -12.351 1.136 79
34.410999 -12.357 1.123 78
34.429001 -12.371 1.109 78
34.421001 -12.375 1.097 81
34.410999 -12.378 1.0829999 80
34.417 -12.385 1.071 81
34.417 -12.391 1.058 80
34.424999 -12.398 1.045 81
34.409 -12.397 1.031 81
34.414001 -12.402 1.017 76
34.405998 -12.403 1.0039999 79
34.410999 -12.407 0.991 81
34.419998 -12.412 0.977 81
34.421001 -12.415 0.96399999 79
34.417999 -12.415 0.94999999 79
34.416 -12.414 0.93599999 77
34.411999 -12.413 0.92199999 78
34.417 -12.415 0.90799999 75
34.412998 -12.412 0.89399999 73
34.412998 -12.411 0.88 65
34.41 -12.408 0.866 61
34.410999 -12.406 0.85299999 55
0 0 0 1
30.207001 -10.885 0.72299999 1
30.162001 -10.865 0.70999998 2
30.15 -10.857 0.69800001 1
30.226 -10.879 0.68699998 1
30.332001 -10.913 0.67699999 1
30.191999 -10.857 0.66100001 1
30.301001 -10.891 0.64999998 1
30.299 -10.884 0.63800001 1
30.205999 -10.844 0.62300003 1
30.329 -10.881 0.61299998 1
0 0 0 20
34.415001 -12.329 0.667 20
34.421001 -12.322 0.65200001 21
34.419998 -12.311 0.63800001 21
34.404999 -12.296 0.62300003 22
34.397999 -12.282 0.60799998 27
34.403 -12.272 0.59299999 27
34.396999 -12.258 0.57800001 27
34.404999 -12.248 0.565 26
34.397999 -12.233 0.55000001 22
34.381001 -12.214 0.53600001 29
34.393002 -12.204 0.52100003 29
34.376999 -12.183 0.50700003 26
34.402 -12.177 0.491 22
34.394001 -12.159 0.477 22
34.396999 -12.144 0.463 23
34.380001 -12.122 0.44800001 27
34.375999 -12.103 0.43200001 28
34.376999 -12.086 0.41800001 27
34.396999 -12.075 0.403 24
34.384998 -12.052 0.389 23
34.362999 -12.025 0.37400001 27
34.380001 -12.012 0.359 27
34.358002 -11.984 0.34400001 28
34.387001 -11.974 0.329 29
34.374001 -11.948 0.31400001 29
34.370998 -11.926 0.29899999 27
34.356998 -11.899 0.28400001 30
34.381001 -11.885 0.26899999 26
34.366001 -11.857 0.255 30
34.374001 -11.836 0.241 23
34.359001 -11.807 0.226 26
34.374001 -11.788 0.212 27
34.352001 -11.756 0.197 27
34.367001 -11.736 0.182 23
34.352001 -11.705 0.167 27
34.341999 -11.675 0.153 26
34.347 -11.65 0.139 27
34.362999 -11.628 0.124 22
34.347 -11.595 0.11 21
34.352001 -11.569 0.094999999 20
34.334999 -11.535 0.079999998 20
0 0 0 7
30.223 -10.101 0.045000002 6
0 0 0 14
34.348 -11.42 0.023 15
34.339001 -11.386 0.0089999996 17
34.346001 -11.357 -0.0049999999 17
34.319 -11.316 -0.018999999 17
34.324001 -11.286 -0.033 19
34.332001 -11.256 -0.048 18
34.320999 -11.219 -0.061999999 20
34.327999 -11.187 -0.075000003 17
34.356998 -11.163 -0.089000002 4
34.421001 -11.149 -0.104 8
34.566002 -11.161 -0.117 10
34.624001 -11.144 -0.132 16
34.675999 -11.124 -0.146 15
34.701 -11.096 -0.161 14
34.740002 -11.072 -0.17299999 5
0 0 0 0
0 0 0 0
0 0 0 0
0 0 0 0
0 0 0 0
0 0 0 0
0 0 0 0
0 0 0 0
0 0 0 0
0 0 0 2
34.596001 -10.592 -0.31999999 11
34.616001 -10.557 -0.33399999 12
0 0 0 1
15.617 -4.724 -0.162 2
15.564 -4.6880002 -0.167 10
15.556 -4.6659999 -0.17200001 26
15.55 -4.645 -0.178 27
15.568 -4.6300001 -0.184 22
15.57 -4.6100001 -0.189 34
15.588 -4.5960002 -0.19499999 28
15.636 -4.5900002 -0.20100001 27
15.694 -4.586 -0.208 48
15.716 -4.5710001 -0.213 61
15.602 -4.5170002 -0.21699999 60
15.633 -4.5040002 -0.223 60
15.638 -4.4840002 -0.228 60
15.643 -4.4640002 -0.233 60
15.675 -4.4510002 -0.23899999 60
15.639 -4.4190001 -0.244 58
15.591 -4.3829999 -0.248 58
15.591 -4.3610001 -0.25299999 59
15.533 -4.322 -0.257 59
15.501 -4.2909999 -0.26100001 53
15.526 -4.2750001 -0.26699999 59
15.504 -4.2459998 -0.27200001 56
15.587 -4.2459998 -0.278 59
15.647 -4.2379999 -0.28299999 53
15.653 -4.217 -0.28799999 57
15.727 -4.2129998 -0.294 60
15.804 -4.21 -0.30000001 60
15.819 -4.1900001 -0.30500001 50
15.873 -4.1799998 -0.31099999 48
15.914 -4.1659999 -0.31600001 51
16.007 -4.1659999 -0.322 62
16.115 -4.1680002 -0.329 45
16.158001 -4.1539998 -0.33399999 43
16.176001 -4.1329999 -0.33899999 5
16.302 -4.1389999 -0.345 23
16.333 -4.1199999 -0.34999999 44
0 0 0 0
0 0 0 45
17.837 -4.4130001 -0.396 38
17.841 -4.3839998 -0.40099999 52
17.868 -4.3610001 -0.405 41
17.878 -4.3340001 -0.41 54
17.896 -4.309 -0.414 53
17.914 -4.283 -0.419 56
17.948 -4.2610002 -0.42300001 33
17.965 -4.2350001 -0.42699999 39
17.987 -4.2090001 -0.43200001 37
18.023001 -4.1869998 -0.43599999 24
18.049 -4.1630001 -0.44100001 34
18.124001 -4.1490002 -0.44600001 27
18.174999 -4.1290002 -0.44999999 22
18.254999 -4.1149998 -0.456 16
18.320999 -4.0970001 -0.461 1
0 0 0 50
34.125999 -7.513 -0.87099999 52
34.113998 -7.4499998 -0.87699997 47
34.014 -7.3670001 -0.88 34
34.028999 -7.309 -0.88599998 25
34.111 -7.2649999 -0.89300001 47
0 0 0 16
20.504999 -4.2919998 -0.542 27
20.5 -4.2550001 -0.54500002 25
20.509001 -4.2189999 -0.54799998 38
20.507 -4.1810002 -0.55000001 31
0 0 0 1
18.023001 -3.608 -0.48800001 2
18.052 -3.5799999 -0.491 12
18.039 -3.5439999 -0.493 3
17.856001 -3.4749999 -0.48899999 1
17.812 -3.4330001 -0.49000001 1
17.740999 -3.3870001 -0.48899999 1
17.709 -3.3469999 -0.49000001 1
17.694 -3.3110001 -0.491 1
17.691999 -3.277 -0.49200001 1
17.646999 -3.2349999 -0.49200001 2
17.649 -3.2019999 -0.493 4
17.665001 -3.171 -0.49399999 1
17.649 -3.1340001 -0.495 1
17.724001 -3.1140001 -0.498 4
17.617001 -3.0610001 -0.49599999 56
17.579 -3.02 -0.495 182
17.617001 -2.9920001 -0.49700001 188
17.615999 -2.9579999 -0.49700001 188
17.599001 -2.9200001 -0.49700001 188
17.593 -2.8840001 -0.49700001 188
17.632 -2.8559999 -0.498 188
17.563999 -2.8110001 -0.49599999 188
17.57 -2.7780001 -0.49599999 188
17.563999 -2.7420001 -0.495 188
17.579 -2.71 -0.495 188
17.572001 -2.674 -0.49399999 188
17.597 -2.642 -0.495 188
17.584 -2.605 -0.49399999 182
17.586 -2.5699999 -0.493 12
17.598 -2.5369999 -0.49200001 22
17.594999 -2.5009999 -0.491 12
17.603001 -2.467 -0.49000001 3
17.58 -2.428 -0.48800001 4
17.576 -2.392 -0.48699999 12
17.608999 -2.3610001 -0.486 9
17.607 -2.325 -0.484 8
17.620001 -2.2909999 -0.48300001 6
17.645 -2.2579999 -0.48199999 5
17.662001 -2.2249999 -0.47999999 4
17.691999 -2.1919999 -0.479 2
17.749001 -2.1630001 -0.47799999 2
17.806 -2.1340001 -0.47799999 1
17.812 -2.098 -0.47499999 1
17.924 -2.075 -0.47600001 3
17.969 -2.043 -0.47400001 33
17.955999 -2.0039999 -0.47099999 49
17.924 -1.964 -0.46700001 1
0 0 0 25
0 0 0 25
0 0 0 2
18.361 -1.8609999 -0.465 3
18.548 -1.842 -0.46599999 4
18.868 -1.834 -0.47099999 3
19.184999 -1.826 -0.47400001 1
19.433001 -1.809 -0.47600001 1
19.806 -1.803 -0.48100001 1
20.065001 -1.785 -0.48300001 1
20.379 -1.771 -0.48500001 1
0 0 0 0
0 0 0 3
21.516001 -1.735 -0.49599999 9
0 0 0 23
37.609001 -2.878 -0.84799999 29
0 0 0 0
0 0 0 3
36.597 -2.572 -0.79400003 2
0 0 0 1
0 0 0 74
36.509998 -2.335 -0.75800002 20
36.493 -2.2579999 -0.74599999 13
0 0 0 36
41.419998 -2.3889999 -0.81999999 20
41.776001 -2.322 -0.81300002 29
42.006001 -2.247 -0.80199999 36
42.398998 -2.178 -0.79400003 35
42.417 -2.0899999 -0.77999997 47
42.722 -2.016 -0.76899999 36
43.021 -1.9400001 -0.759 38
42.900002 -1.845 -0.74000001 38
42.983002 -1.758 -0.72500002 38
43.269001 -1.681 -0.713 38
43.682999 -1.605 -0.70200002 46
43.867001 -1.52 -0.68699998 48
43.879002 -1.4299999 -0.66900003 5
0 0 0 107
57.993 -1.648 -0.83499998 25
0 0 0 16
66.024002 -1.601 -0.89300001 143
66.040001 -1.464 -0.86299998 124
66.021004 -1.326 -0.833 70
66.072998 -1.187 -0.80299997 41
66.554001 -1.057 -0.77700001 10
0 0 0 85
72.468002 -0.85000002 -0.77700001 30
0 0 0 56
133.052 -1.013 -1.2970001 36
133.091 -0.741 -1.2309999 42
132.931 -0.46900001 -1.163 112
132.99001 -0.19 -1.094 95
132.86 0.082999997 -1.024 64
132.845 0.35699999 -0.95300001 83
132.823 0.63099998 -0.88200003 95
132.785 0.90399998 -0.81 91
132.76199 1.177 -0.73699999 90
132.78 1.45 -0.66399997 79
132.735 1.725 -0.588 87
132.662 1.992 -0.51300001 65
132.7 2.2679999 -0.43700001 72
132.64999 2.5380001 -0.36000001 44
132.586 2.8069999 -0.28200001 35
0 0 0 0
0 0 0 0
0 0 0 0
0 0 0 0
0 0 0 27
85.436996 2.8429999 0.127 27
0 0 0 0
0 0 0 29
87.255997 3.425 0.294 13
0 0 0 0
0 0 0 21
0 0 0 0
0 0 0 0
0 0 0 16
86.356003 4.4219999 0.63200003 19
0 0 0 0
0 0 0 17
86.556 4.9429998 0.81099999 13
86.973 5.138 0.875 14
87.612999 5.3470001 0.94300002 12
0 0 0 0
0 0 0 22
87.303001 5.8369999 1.125 18
87.042 5.9879999 1.1849999 17
0 0 0 0
0 0 0 0
0 0 0 0
0 0 0 0
0 0 0 0
0 0 0 0
0 0 0 0
0 0 0 15
89.693001 7.7119999 1.822 15
0 0 0 0
0 0 0 0
0 0 0 0
0 0 0 0
0 0 0 18
76.337997 7.4169998 1.9069999 27
76.515999 7.5760002 1.972 28
76.500999 7.7129998 2.0339999 25
74.475998 7.6440001 2.039 28
74.690002 7.803 2.105 38
73.987999 7.8649998 2.1459999 29
73.637001 7.9640002 2.1960001 39
73.580002 8.0909996 2.2550001 31
73.249001 8.1870003 2.3050001 26
72.805 8.2679996 2.352 32
0 0 0 3
0 0 0 0
0 0 0 4
0 0 0 25
63.605999 7.7880001 2.322 19
0 0 0 4
46.709999 5.8829999 1.785 7
46.743999 5.9699998 1.826 10
46.323002 5.9959998 1.85 15
0 0 0 13
42.605999 5.6620002 1.776 36
42.542 5.7259998 1.8099999 38
42.606998 5.8080001 1.85 38
42.737 5.8969998 1.893 38
42.560001 5.9450002 1.9220001 36
42.403999 5.994 1.9529999 42
42.425999 6.0679998 1.992 43
42.459999 6.1430001 2.03 41
42.583 6.2319999 2.0739999 37
42.574001 6.3000002 2.1110001 36
42.458 6.3520002 2.1429999 28
42.679001 6.4549999 2.1930001 38
42.513 6.4970002 2.2219999 31
42.525002 6.5689998 2.2609999 38
42.722 6.6669998 2.3099999 42
42.880001 6.7610002 2.358 30
43.601002 6.9450002 2.437 9
43.550999 7.006 2.474 14
43.443001 7.0570002 2.5079999 15
43.166 7.079 2.5309999 12
43.076 7.131 2.5650001 20
0 0 0 2
0 0 0 0
0 0 0 10
34.589001 5.9390001 2.187 21
0 0 0 0
0 0 0 9
32.686001 5.7589998 2.1570001 10
31.990999 5.684 2.141 17
31.972 5.7280002 2.1689999 20
31.886999 5.7600002 2.1930001 20
31.997999 5.8270001 2.2309999 21
31.798 5.836 2.2460001 21
31.964001 5.9120002 2.2880001 21
31.753 5.9180002 2.302 22
31.82 5.9759998 2.336 20
31.554001 5.9699998 2.346 25
31.094999 5.927 2.3410001 19
30.643 5.8829999 2.335 19
30.332001 5.8649998 2.3399999 31
30.408001 5.9219999 2.3740001 43
30.386 5.9590001 2.401 38
30.393 6.0009999 2.4289999 40
30.382999 6.04 2.457 46
30.259001 6.0560002 2.4760001 37
29.959 6.0349998 2.4790001 19
30 6.0830002 2.5109999 18
29.884001 6.098 2.529 18
30.09 6.1789999 2.575 18
30.002001 6.1989999 2.595 18
30.035 6.2449999 2.625 22
30.127001 6.303 2.6619999 20
30.039 6.322 2.6819999 21
29.662001 6.2789998 2.6760001 18
29.437 6.2680001 2.6830001 18
29.365 6.2880001 2.704 25
29.398001 6.3309999 2.7349999 32
29.513 6.3909998 2.773 38
29.502001 6.4239998 2.799 25
29.26 6.4060001 2.803 17
29.249001 6.4380002 2.829 25
29.499001 6.527 2.881 18
29.771 6.6220002 2.934 18
29.860001 6.6750002 2.97 19
30.232 6.7930002 3.0350001 16
30.297001 6.8410001 3.0710001 13
30.351999 6.8870001 3.1040001 20
30.253 6.8969998 3.1210001 20
30.156 6.908 3.138 19
30.174999 6.9450002 3.1670001 20
30.193001 6.98 3.1960001 20
30.761999 7.1440001 3.2850001 17
30.414 7.0949998 3.2750001 20
30.264 7.0910001 3.286 17
30.624001 7.2059999 3.3529999 20
30.105 7.1139998 3.322 9
30.101999 7.1430001 3.349 14
30.111 7.1750002 3.3770001 14
30.134001 7.21 3.4059999 17
30.363001 7.2940001 3.4590001 20
30.479 7.3499999 3.4990001 19
30.448 7.3709998 3.5220001 20
30.374001 7.381 3.54 20
30.249001 7.3790002 3.552 20
30.631001 7.4990001 3.622 19
30.599001 7.5190001 3.645 19
31.150999 7.6820002 3.7379999 20
31.153 7.7090001 3.7650001 15
31.191999 7.7449999 3.7969999 19
30.987 7.7210002 3.799 21
31.209 7.802 3.852 20
31.716999 7.9549999 3.9419999 21
31.511 7.9289999 3.9430001 26
31.530001 7.9590001 3.971 30
31.384001 7.9460001 3.9790001 22
31.277 7.9429998 3.9920001 28
31.302999 7.974 4.02 20
30.992001 7.9169998 4.006 20
0 0 0 0
0 0 0 9
29.049999 7.4840002 3.826 24
28.865 7.4569998 3.825 27
28.701 7.4349999 3.826 19
28.562 7.4180002 3.8310001 33
28.662001 7.4629998 3.8670001 18
28.583 7.461 3.8789999 37
28.577 7.4780002 3.901 39
28.583 7.4970002 3.924 38
28.641001 7.5300002 3.954 36
28.771 7.5819998 3.994 18
0 0 0 1
24.652 6.5250001 3.46 1
24.695 6.5510001 3.4849999 2
24.579 6.5339999 3.487 7
24.466 6.5170002 3.49 11
24.290001 6.4829998 3.4820001 12
24.061001 6.434 3.467 12
23.878 6.3979998 3.4590001 31
23.813999 6.3920002 3.4660001 35
23.778 6.3940001 3.4779999 37
23.76 6.4000001 3.493 40
23.784 6.4180002 3.513 36
23.83 6.441 3.5369999 30
23.862 6.46 3.5580001 21
23.927999 6.487 3.585 14
23.951 6.5029998 3.605 14
23.870001 6.4910002 3.609 32
23.849001 6.4949999 3.622 32
23.862 6.507 3.6400001 27
23.868999 6.5180001 3.6570001 38
23.847 6.52 3.6689999 38
23.868 6.5339999 3.688 37
23.875999 6.5440001 3.7049999 37
23.882 6.552 3.721 39
23.905001 6.566 3.74 39
23.959999 6.5879998 3.763 24
24.016001 6.6100001 3.7869999 22
24.084999 6.6350002 3.813 21
24.117001 6.6500001 3.8329999 29
24.177 6.6719999 3.8559999 20
24.247 6.697 3.882 24
24.254 6.704 3.898 30
24.329 6.7290001 3.924 27
24.391001 6.7509999 3.9489999 23
24.413 6.7610002 3.9660001 27
24.461 6.7779999 3.987 26
24.483 6.7880001 4.0050001 29
24.496 6.7950001 4.0209999 31
24.516001 6.8039999 4.0370002 33
24.503 6.803 4.0479999 34
24.535 6.8140001 4.066 31
24.549999 6.8200002 4.0809999 35
24.525999 6.816 4.0900002 35
24.525 6.8169999 4.1030002 36
24.549999 6.8249998 4.119 38
24.533001 6.8210001 4.1279998 40
24.544001 6.8249998 4.1420002 40
24.554001 6.8280001 4.1560001 41
24.566 6.8309999 4.1700001 43
24.579 6.835 4.1830001 43
24.544001 6.8239999 4.1880002 42
24.476 6.8039999 4.1880002 39
24.388 6.7779999 4.184 40
23.6 6.5580001 4.059 35
23.49 6.526 4.0500002 32
23.481001 6.5209999 4.059 28
23.41 6.4990001 4.0560002 21
23.500999 6.5219998 4.0809999 12
23.933001 6.6389999 4.1659999 12
23.85 6.612 4.1609998 12
23.739 6.5780001 4.151 12
23.624001 6.5419998 4.1399999 18
23.535999 6.5139999 4.1329999 33
23.489 6.4970002 4.1329999 41
23.499001 6.4949999 4.1430001 38
23.479 6.4840002 4.1479998 38
23.483 6.48 4.1570001 39
23.482 6.474 4.165 37
23.482 6.4689999 4.1719999 44
23.483999 6.4629998 4.1799998 47
23.495001 6.46 4.1890001 37
23.504999 6.4559999 4.198 36
23.504999 6.4489999 4.2049999 39
23.490999 6.4380002 4.2090001 38
23.468 6.4239998 4.211 48
23.479 6.4200001 4.2189999 49
23.514999 6.421 4.2319999 42
23.525 6.4159999 4.2399998 40
23.558001 6.4159999 4.2509999 26
23.521999 6.3979998 4.25 40
23.612 6.4130001 4.2719998 30
23.59 6.3969998 4.2729998 33
23.656 6.4050002 4.29 46
23.556999 6.369 4.277 12
23.655001 6.3850002 4.3000002 12
23.638 6.3699999 4.3000002 12
23.862 6.4190001 4.3449998 6
0 0 0 0
0 0 0 0
0 0 0 0
0 0 0 25
25.759001 6.8660002 4.71 30
25.747 6.849 4.711 35
25.691999 6.8210001 4.7049999 33
25.549 6.7690001 4.6799998 23
25.198999 6.6620002 4.619 14
25.048 6.6079998 4.5939999 13
25.309 6.6609998 4.6440001 26
25.444 6.6820002 4.671 34
25.393999 6.6529999 4.6630001 35
25.365999 6.631 4.6589999 30
25.287001 6.5939999 4.6459999 30
25.195999 6.5539999 4.6300001 37
25.219 6.5440001 4.6350002 28
25.246 6.5339999 4.6399999 29
25.219999 6.5100002 4.6360002 36
25.250999 6.5009999 4.6420002 33
25.281 6.4910002 4.6469998 46
25.301001 6.4780002 4.651 40
25.32 6.4650002 4.6529999 44
25.377001 6.461 4.6630001 40
25.417999 6.4530001 4.6700001 32
25.426001 6.4359999 4.6700001 29
25.447001 6.4219999 4.6719999 32
25.416 6.395 4.664 30
25.408001 6.3730001 4.6609998 22
25.448 6.3629999 4.6659999 5
0 0 0 6
40.137001 9.9720001 7.3520002 4
40.335999 9.9890003 7.3839998 5
40.507999 9.9969997 7.4099998 7
40.671001 10.004 7.434 11
40.748001 9.9879999 7.4429998 19
40.764 9.9569998 7.4400001 27
40.813 9.934 7.4419999 21
40.823002 9.8999996 7.4369998 21
40.73 9.8409996 7.4130001 22
40.608002 9.7749996 7.3839998 27
40.568001 9.7299995 7.368 27
40.592999 9.698 7.3649998 24
40.661999 9.6780005 7.368 25
40.75 9.6599998 7.375 22
40.838001 9.6429996 7.382 22
40.855999 9.6079998 7.375 21
40.874001 9.5719995 7.368 22
40.873001 9.5319996 7.3579998 20
40.882 9.4940004 7.348 15
40.853001 9.448 7.3309999 14
40.858002 9.408 7.3210001 19
40.838001 9.3620005 7.3049998 15
40.827999 9.3179998 7.2909999 11
40.817001 9.2729998 7.2750001 8
40.757 9.217 7.2509999 10
40.758999 9.1750002 7.2379999 5
40.799999 9.1409998 7.2309999 3
40.771999 9.092 7.2119999 5
40.813999 9.0579996 7.2049999 9
40.659 8.9799995 7.1620002 15
40.611 8.9250002 7.138 13
40.634998 8.8859997 7.1269999 13
40.696999 8.8540001 7.1220002 10
0 0 0 0
0 0 0 0
0 0 0 5
40.651001 8.6619997 7.0440001 9
40.603001 8.6059999 7.0180001 18
40.612999 8.5609999 7.0009999 17
0 0 0 0
0 0 0 39
0 0 0 10
41.119999 8.4759998 7.0100002 13
41.050999 8.4130001 6.9780002 5
41.236 8.4020004 6.9879999 5
0 0 0 36
47.291 9.5209999 7.9650002 33
47.244999 9.4560003 7.9310002 39
47.152 9.3800001 7.8899999 34
47.046001 9.3009996 7.8460002 36
47.118999 9.257 7.8319998 28
46.991001 9.1730003 7.7839999 20
0 0 0 0
0 0 0 0
0 0 0 23
47.372002 9.0080004 7.7319999 26
47.386002 8.9519997 7.7049999 19
47.359001 8.8859997 7.671 28
0 0 0 0
0 0 0 20
56.307999 10.346 9.0109997 19
56.382999 10.286 8.9849997 16
56.330002 10.202 8.9390001 13
58.638 10.543 9.2650003 42
58.625 10.463 9.2200003 29
58.652 10.39 9.1829996 31
58.806 10.34 9.1669998 33
58.84 10.267 9.1289997 29
58.872002 10.194 9.0900002 13
58.798 10.101 9.0349998 6
0 0 0 28
62.435001 10.557 9.4989996 16
0 0 0 38
115.622 19.233999 17.413 39
0 0 0 8
44.257 7.2399998 6.5949998 13
44.167 7.164 6.546 11
44.195999 7.1090002 6.5139999 10
44.174 7.0440001 6.4749999 13
44.139 6.9780002 6.4330001 24
44.105999 6.9109998 6.3909998 22
44.831001 6.9629998 6.4580002 25
44.834999 6.9000001 6.421 32
44.876999 6.8429999 6.3870001 34
44.910999 6.7849998 6.3520002 42
44.977001 6.7309999 6.322 43
45.040001 6.6760001 6.29 43
44.977001 6.6020002 6.2410002 43
45.009998 6.5440001 6.204 43
45.195999 6.506 6.1880002 32
45.223 6.4450002 6.1500001 20
0 0 0 24
116.001 16.202 15.556 30
116.209 16.063 15.472 28
116.042 15.871 15.338 24
0 0 0 0
0 0 0 0
0 0 0 0
0 0 0 0
0 0 0 28
116.288 14.886 14.67 32
116.313 14.722 14.554 27
116.247 14.543 14.425 32
116.399 14.391 14.322 28
116.405 14.22 14.2 22
0 0 0 0
0 0 0 0
0 0 0 0
0 0 0 0
0 0 0 25
0 0 0 0
0 0 0 0
0 0 0 26
116.193 12.647 13.023 40
116.164 12.471 12.887 57
116.136 12.295 12.75 70
116.182 12.126 12.621 70
116.198 11.955 12.487 80
116.184 11.78 12.349 70
116.198 11.608 12.213 74
116.19 11.437 12.075 88
116.2 11.268 11.937 81
116.205 11.095 11.797 93
116.224 10.927 11.662 127
116.243 10.754 11.519 98
116.247 10.581 11.376 71
116.278 10.41 11.235 46
0 0 0 0
0 0 0 0
0 0 0 27
126.703 10.594 11.609 40
126.714 10.402 11.447 46
126.727 10.218 11.286 34
0 0 0 0
0 0 0 0
0 0 0 0
0 0 0 0
0 0 0 36
116.66 8.3620005 9.4650002 50
116.64 8.1870003 9.3070002 48
116.634 8.0170002 9.151 43
0 0 0 0
0 0 0 29
116.717 7.5079999 8.684 24
0 0 0 0
0 0 0 0
0 0 0 18
0 0 0 0
0 0 0 22
89.328003 4.96 5.8990002 31
88.867996 4.803 5.7420001 33
88.767998 4.6680002 5.6090002 23
89.703003 4.585 5.5359998 25
89.807999 4.4590001 5.4130001 19
90.061996 4.3369999 5.296 15
0 0 0 0
0 0 0 15
88.723 3.885 4.8249998 24
88.916 3.766 4.7049999 24
89.174004 3.6459999 4.585 20
0 0 0 0
0 0 0 19
89.296997 3.267 4.191 37
90.025002 3.165 4.0890002 31
0 0 0 0
0 0 0 36
119.96 3.701 4.8959999 26
0 0 0 0
0 0 0 0
0 0 0 0
0 0 0 0
0 0 0 16
86.418999 1.932 2.7190001 22
0 0 0 0
0 0 0 29
84.485001 1.5369999 2.2590001 13
0 0 0 0
0 0 0 21
85.518997 1.2 1.876 34
85.468002 1.082 1.737 14
0 0 0 0
0 0 0 0
0 0 0 21
83.198997 0.60000002 1.152 29
0 0 0 0
0 0 0 26
85.140999 0.26800001 0.75700003 14
85.096001 0.153 0.616 29
85.362999 0.039999999 0.47600001 11
0 0 0 0
0 0 0 0
0 0 0 45
72.338997 -0.34799999 -0.079000004 68
72.311996 -0.44299999 -0.20100001 67
72.331001 -0.53799999 -0.32300001 51
72.360001 -0.63099998 -0.44400001 27
72.514999 -0.72600001 -0.56800002 28
72.403999 -0.81900001 -0.69 31
71.408997 -0.89999998 -0.80400002 104
69.202003 -0.96100003 -0.89700001 59
69.233002 -1.05 -1.017 39
66.022003 -1.085 -1.0829999 9
65.995003 -1.166 -1.193 69
66.013 -1.249 -1.307 66
66.032997 -1.331 -1.42 36
0 0 0 14
43.299999 -0.98000002 -1.082 28
43.304001 -1.035 -1.158 25
43.308998 -1.0880001 -1.234 19
43.337002 -1.14 -1.308 28
43.153999 -1.188 -1.378 41
42.868999 -1.232 -1.444 45
42.627998 -1.275 -1.5089999 36
42.223 -1.314 -1.569 38
42.139999 -1.362 -1.641 62
41.879002 -1.403 -1.705 39
41.816002 -1.45 -1.776 25
41.682999 -1.494 -1.8430001 13
0 0 0 3
29.521 -1.127 -1.411 2
28.610001 -1.125 -1.418 2
0 0 0 0
0 0 0 0
0 0 0 0
0 0 0 1
0 0 0 1
16.41 -0.75599998 -0.98799998 2
16.271999 -0.76800001 -1.0089999 2
15.641 -0.755 -0.99800003 4
14.792 -0.73100001 -0.97100002 2
14.067 -0.70999998 -0.94800001 2
13.496 -0.69599998 -0.93400002 2
12.848 -0.676 -0.912 2
12.231 -0.65700001 -0.88999999 2
11.886 -0.65100002 -0.88700002 2
11.428 -0.63800001 -0.87400001 2
10.995 -0.625 -0.86000001 2
10.614 -0.61500001 -0.85000002 2
10.254 -0.60399997 -0.83899999 2
9.9320002 -0.59500003 -0.83099997 3
9.6230001 -0.58700001 -0.82200003 3
9.2720003 -0.57499999 -0.80900002 3
8.993 -0.56699997 -0.801 3
8.7469997 -0.56 -0.79500002 3
8.4770002 -0.551 -0.78600001 3
8.2040005 -0.54100001 -0.77600002 3
7.9829998 -0.53399998 -0.76899999 3
7.7350001 -0.52499998 -0.759 4
7.4840002 -0.51499999 -0.74800003 3
7.296 -0.50999999 -0.74299997 4
