# .PCD v0.7 - Point Cloud Data file format
VERSION 0.7
FIELDS x y z intensity
SIZE 4 4 4 4
TYPE F F F F
COUNT 1 1 1 1
WIDTH 1807
HEIGHT 1
VIEWPOINT 0 0 0 1 0 0 0
POINTS 1807
DATA ascii
3.411 0.98000002 -0.583 2
3.339 0.95899999 -0.56900001 1
3.3900001 0.97299999 -0.57499999 2
3.405 0.97600001 -0.57599998 2
3.441 0.986 -0.57999998 2
3.507 1.0039999 -0.58899999 3
3.427 0.98000002 -0.574 1
3.473 0.99299997 -0.579 3
3.4560001 0.98699999 -0.574 1
3.4630001 0.98799998 -0.57300001 1
3.517 1.002 -0.57999998 3
3.582 1.0190001 -0.58899999 3
3.612 1.027 -0.59100002 3
3.5539999 1.0089999 -0.579 2
3.6400001 1.0319999 -0.59100002 2
3.5650001 1.0089999 -0.57700002 2
3.6259999 1.025 -0.58399999 2
3.6400001 1.028 -0.58399999 2
3.6900001 1.04 -0.58999997 3
3.661 1.03 -0.583 2
3.6989999 1.039 -0.58600003 3
3.7590001 1.0549999 -0.59299999 3
3.8429999 1.076 -0.60399997 3
3.7709999 1.0549999 -0.58999997 2
3.757 1.049 -0.58499998 3
3.848 1.072 -0.597 3
3.8050001 1.058 -0.58700001 2
3.852 1.069 -0.59200001 2
3.825 1.0599999 -0.58499998 2
3.8829999 1.073 -0.59100002 3
3.8610001 1.0650001 -0.58499998 2
3.9059999 1.076 -0.58899999 2
3.915 1.075 -0.588 3
3.908 1.071 -0.58399999 1
3.99 1.091 -0.59299999 3
4.0250001 1.098 -0.59500003 3
3.994 1.087 -0.588 2
4.04 1.097 -0.59100002 2
4.0310001 1.092 -0.58700001 1
4.0749998 1.101 -0.58999997 2
4.1240001 1.1109999 -0.59399998 3
4.1290002 1.11 -0.59200001 2
4.198 1.125 -0.59799999 2
4.2080002 1.125 -0.597 3
4.2399998 1.13 -0.59799999 3
4.283 1.1390001 -0.60000002 2
4.3039999 1.141 -0.60000002 2
4.3460002 1.148 -0.60299999 2
4.3709998 1.152 -0.60299999 2
4.401 1.156 -0.60299999 3
4.434 1.161 -0.60399997 2
4.473 1.168 -0.60600001 2
4.493 1.169 -0.60500002 4
4.5209999 1.1720001 -0.60500002 4
4.5580001 1.178 -0.60600001 3
4.5799999 1.1799999 -0.60500002 3
4.6220002 1.186 -0.60699999 2
4.6620002 1.192 -0.60900003 3
4.704 1.199 -0.61000001 3
4.7309999 1.201 -0.61000001 3
4.7649999 1.206 -0.61000001 4
4.8169999 1.214 -0.61299998 3
4.8629999 1.221 -0.61500001 3
4.8860002 1.222 -0.61299998 4
4.9580002 1.235 -0.61900002 2
4.9910002 1.238 -0.61799997 2
5.046 1.247 -0.62099999 2
5.092 1.253 -0.62199998 3
5.151 1.262 -0.625 3
5.1869998 1.266 -0.625 4
5.2449999 1.274 -0.62800002 3
5.303 1.283 -0.63 3
5.3530002 1.289 -0.63099998 3
5.415 1.298 -0.634 3
5.4699998 1.3049999 -0.63599998 4
5.5190001 1.311 -0.63700002 3
5.5879998 1.321 -0.63999999 3
5.6360002 1.326 -0.63999999 3
5.7119999 1.337 -0.64399999 3
5.757 1.341 -0.64399999 3
5.8080001 1.346 -0.64499998 3
5.875 1.355 -0.64700001 3
5.9400001 1.363 -0.64899999 4
6.0040002 1.37 -0.65100002 3
6.0710001 1.378 -0.653 3
6.1430001 1.387 -0.65499997 4
6.2080002 1.3940001 -0.65700001 4
6.2839999 1.403 -0.65899998 4
6.3530002 1.411 -0.66100001 3
6.4239998 1.419 -0.66299999 3
6.5159998 1.431 -0.667 4
6.5939999 1.439 -0.66900003 3
6.6830001 1.45 -0.67199999 3
6.763 1.4579999 -0.67400002 4
6.8639998 1.471 -0.67799997 4
6.9359999 1.477 -0.67900002 4
7.0050001 1.483 -0.68000001 4
7.1079998 1.495 -0.68300003 3
7.21 1.506 -0.68699998 3
7.2950001 1.515 -0.68900001 3
7.4320002 1.533 -0.69499999 3
7.5419998 1.545 -0.699 3
7.6290002 1.552 -0.69999999 3
7.7610002 1.568 -0.70599997 3
7.8530002 1.575 -0.70700002 3
7.967 1.587 -0.70999998 3
8.092 1.6 -0.71399999 4
8.217 1.613 -0.71799999 4
8.3559999 1.628 -0.72299999 3
8.5310001 1.649 -0.73100001 3
8.6800003 1.665 -0.736 3
8.8400002 1.683 -0.74199998 3
8.9840002 1.697 -0.74599999 4
9.125 1.71 -0.75 3
9.283 1.726 -0.755 3
9.4519997 1.743 -0.76099998 2
9.6750002 1.7690001 -0.76999998 2
9.8520002 1.786 -0.77600002 2
10.064 1.809 -0.78399998 2
10.298 1.835 -0.79299998 2
10.518 1.858 -0.801 3
10.748 1.882 -0.81 2
10.916 1.8940001 -0.81300002 3
11.146 1.916 -0.82099998 3
11.374 1.937 -0.82700002 2
11.751 1.982 -0.84500003 3
11.833 1.977 -0.84100002 2
12.043 1.992 -0.84600002 2
12.276 2.01 -0.852 3
12.521 2.03 -0.85799998 3
12.758 2.0469999 -0.86400002 3
13.033 2.0699999 -0.87199998 3
13.299 2.0899999 -0.87800002 3
13.566 2.109 -0.88499999 3
13.815 2.1240001 -0.88999999 3
14.097 2.1440001 -0.89600003 3
14.351 2.158 -0.90100002 3
14.665 2.1800001 -0.90799999 2
14.948 2.1960001 -0.91399997 2
15.452 2.244 -0.93199998 2
15.726 2.256 -0.93599999 2
16.070999 2.2780001 -0.94400001 2
16.465 2.3050001 -0.954 2
16.719999 2.3110001 -0.95499998 3
16.403 2.2379999 -0.92400002 4
0 0 0 0
0 0 0 3
18.481001 2.4219999 -0.99699998 3
17.997 2.326 -0.95700002 2
0 0 0 2
19.065001 2.3959999 -0.98500001 1
0 0 0 0
0 0 0 2
21.753 2.6140001 -1.073 2
0 0 0 2
0 0 0 0
0 0 0 1
0 0 0 0
0 0 0 0
0 0 0 0
0 0 0 0
0 0 0 0
0 0 0 0
0 0 0 0
0 0 0 0
0 0 0 0
0 0 0 0
0 0 0 3
41.261002 3.7950001 -1.589 6
41.276001 3.717 -1.561 15
41.269001 3.6359999 -1.533 7
41.261002 3.5550001 -1.5039999 13
41.220001 3.47 -1.475 17
41.268002 3.3929999 -1.449 4
41.964001 3.368 -1.446 16
41.278999 3.2320001 -1.395 35
41.252998 3.151 -1.368 58
41.254002 3.069 -1.342 69
41.271999 2.99 -1.316 65
41.286999 2.9089999 -1.291 58
41.352001 2.8310001 -1.267 41
41.439999 2.7550001 -1.243 18
41.685001 2.688 -1.225 9
41.994999 2.625 -1.209 6
0 0 0 60
87.559998 5.1199999 -2.415 154
87.612 4.947 -2.365 233
87.608002 4.7690001 -2.313 152
87.653 4.5910001 -2.263 127
87.632004 4.4120002 -2.2119999 33
0 0 0 154
0 0 0 14
87.745003 3.8840001 -2.0669999 94
0 0 0 81
94.880997 3.8110001 -2.131 70
0 0 0 0
0 0 0 17
91.813004 3.1240001 -1.916 41
94.901001 3.03 -1.9299999 82
0 0 0 33
0 0 0 63
94.888 2.4430001 -1.786 39
0 0 0 0
0 0 0 0
0 0 0 0
0 0 0 51
0 0 0 0
0 0 0 0
0 0 0 0
0 0 0 0
0 0 0 0
0 0 0 0
0 0 0 0
0 0 0 0
0 0 0 0
0 0 0 46
135.608 -0.76200002 -1.6390001 117
0 0 0 0
0 0 0 0
0 0 0 49
0 0 0 25
74.129997 -1.198 -0.755 55
0 0 0 26
68.728996 -1.397 -0.65100002 60
68.741997 -1.543 -0.62699997 78
68.721001 -1.689 -0.60399997 150
0 0 0 6
61.000999 -1.756 -0.49599999 32
60.695 -1.873 -0.47499999 116
60.695999 -2.003 -0.45500001 121
59.987 -2.1070001 -0.43200001 63
59.626999 -2.221 -0.41100001 117
57.480999 -2.263 -0.38 7
0 0 0 17
45.888 -2.0020001 -0.27700001 8
0 0 0 97
49.667 -2.3759999 -0.27399999 4
49.111 -2.454 -0.25799999 17
0 0 0 10
45.157001 -2.448 -0.215 7
45.243999 -2.549 -0.205 42
44.797001 -2.618 -0.192 23
44.763 -2.711 -0.182 25
44.501999 -2.79 -0.17200001 86
44.513 -2.885 -0.163 101
42.223 -2.826 -0.146 43
44.514999 -3.0739999 -0.145 81
0 0 0 7
40.805 -2.9890001 -0.118 5
40.458 -3.049 -0.11 88
40.457001 -3.135 -0.103 84
40.466999 -3.221 -0.097000003 54
0 0 0 0
0 0 0 1
22.118999 -1.9 -0.043000001 1
21.981001 -1.9349999 -0.039999999 3
21.896999 -1.973 -0.037 7
21.864 -2.016 -0.035 11
21.834 -2.059 -0.032000002 7
0 0 0 0
0 0 0 1
0 0 0 25
0 0 0 1
21.297001 -2.2309999 -0.022 1
21.382 -2.2839999 -0.02 1
21.327999 -2.323 -0.018999999 1
0 0 0 25
0 0 0 25
0 0 0 1
0 0 0 25
0 0 0 25
0 0 0 1
21.240999 -2.622 -0.013 1
0 0 0 0
0 0 0 0
0 0 0 1
21.386999 -2.8150001 -0.014 1
21.360001 -2.855 -0.014 1
21.377001 -2.901 -0.014 1
21.556 -2.9690001 -0.015 1
21.582001 -3.016 -0.016000001 1
0 0 0 0
0 0 0 0
0 0 0 0
0 0 0 0
0 0 0 0
0 0 0 0
0 0 0 0
0 0 0 0
0 0 0 0
0 0 0 1
21.777 -3.523 -0.034000002 1
21.777 -3.566 -0.035999998 2
21.662001 -3.589 -0.037999999 1
21.899 -3.6719999 -0.041000001 4
21.965 -3.7260001 -0.044 2
0 0 0 0
0 0 0 13
0 0 0 23
37.080002 -6.5780001 -0.096000001 18
37.070999 -6.6479998 -0.102 54
37.147999 -6.7319999 -0.108 2
0 0 0 0
0 0 0 0
0 0 0 0
0 0 0 0
0 0 0 8
0 0 0 17
37.042999 -7.2030001 -0.155 13
36.856998 -7.2360001 -0.162 37
36.828999 -7.2989998 -0.17 56
0 0 0 12
20.872999 -4.2140002 -0.105 20
20.804001 -4.2389998 -0.109 26
20.75 -4.2659998 -0.114 34
20.712 -4.296 -0.119 36
20.667999 -4.3249998 -0.123 42
20.643999 -4.3569999 -0.12800001 41
20.603001 -4.3850002 -0.133 44
20.583 -4.4180002 -0.138 48
20.561001 -4.4499998 -0.14300001 50
20.565001 -4.487 -0.149 56
20.546 -4.5190001 -0.154 40
20.533001 -4.552 -0.16 66
20.514999 -4.5840001 -0.16500001 65
20.532 -4.6240001 -0.171 43
20.070999 -4.5549998 -0.17299999 43
0 0 0 0
0 0 0 12
18.740999 -4.3499999 -0.178 5
18.74 -4.382 -0.184 15
18.468 -4.349 -0.18700001 18
18.75 -4.448 -0.19499999 40
18.608 -4.4450002 -0.2 38
18.662001 -4.4889998 -0.206 34
18.444 -4.4679999 -0.20999999 22
18.545 -4.5229998 -0.21699999 23
18.573999 -4.5609999 -0.22400001 20
18.613001 -4.5999999 -0.23 12
18.587 -4.6240001 -0.236 18
18.541 -4.6430001 -0.242 21
18.542 -4.6729999 -0.249 12
18.471001 -4.6849999 -0.25400001 12
18.294001 -4.6690001 -0.25799999 18
18.271 -4.6919999 -0.26499999 24
18.236 -4.7119999 -0.27000001 35
18.23 -4.7389998 -0.27700001 32
18.281 -4.7810001 -0.285 8
18.297001 -4.8130002 -0.292 2
0 0 0 0
0 0 0 5
0 0 0 5
41.549999 -11.182 -0.72600001 5
0 0 0 0
0 0 0 7
16.205 -4.4330001 -0.30199999 14
16.127001 -4.4349999 -0.30700001 34
0 0 0 1
9.9969997 -2.7780001 -0.198 1
9.9790001 -2.7880001 -0.20200001 4
9.9870005 -2.8039999 -0.206 4
9.9709997 -2.813 -0.20900001 5
9.9619999 -2.825 -0.213 5
9.967 -2.8399999 -0.21799999 6
9.9680004 -2.8540001 -0.222 5
9.9680004 -2.8670001 -0.226 1
9.8970003 -2.8599999 -0.229 1
0 0 0 44
15.578 -4.5440001 -0.373 45
15.564 -4.5599999 -0.38 48
15.564 -4.5809999 -0.38600001 48
15.577 -4.605 -0.39300001 41
15.551 -4.618 -0.40000001 40
15.535 -4.6329999 -0.40599999 40
15.516 -4.6469998 -0.412 46
15.534 -4.671 -0.419 54
15.663 -4.73 -0.43000001 61
15.573 -4.7220001 -0.435 41
15.594 -4.7470002 -0.442 33
15.576 -4.7600002 -0.44800001 31
15.564 -4.7750001 -0.45500001 30
15.539 -4.7859998 -0.46200001 29
15.551 -4.8080001 -0.46900001 18
15.548 -4.8239999 -0.47600001 26
15.561 -4.8460002 -0.48300001 16
15.555 -4.862 -0.49000001 4
0 0 0 5
0 0 0 3
30.261999 -9.559 -0.995 7
30.209999 -9.5749998 -1.008 11
30.174 -9.5959997 -1.02 16
30.174 -9.6280003 -1.035 28
30.163 -9.6560001 -1.048 34
30.153 -9.684 -1.062 42
30.141001 -9.71 -1.076 47
30.145 -9.7419996 -1.09 48
30.153999 -9.7749996 -1.104 49
30.152 -9.8030005 -1.118 49
30.155001 -9.8330002 -1.133 47
30.152 -9.8610001 -1.147 47
30.134001 -9.8830004 -1.16 50
30.159 -9.9189997 -1.175 51
30.163 -9.948 -1.189 49
30.157 -9.9729996 -1.2029999 49
30.157 -9.9989996 -1.217 48
30.16 -10.027 -1.2309999 49
30.16 -10.052 -1.2460001 51
30.156 -10.076 -1.26 49
30.163 -10.104 -1.274 47
30.155001 -10.126 -1.288 49
30.177 -10.157 -1.303 43
30.167999 -10.177 -1.317 49
30.166 -10.2 -1.331 46
30.167 -10.223 -1.346 45
30.174 -10.248 -1.36 44
30.162001 -10.267 -1.374 45
30.174999 -10.293 -1.388 43
30.167 -10.312 -1.402 41
30.177 -10.336 -1.4170001 41
30.164 -10.352 -1.4299999 38
30.171 -10.374 -1.4450001 30
30.174 -10.395 -1.4579999 24
30.183001 -10.417 -1.473 15
30.184 -10.436 -1.488 10
30.18 -10.453 -1.502 6
30.176001 -10.47 -1.516 2
0 0 0 15
33.584 -11.691 -1.719 15
33.547001 -11.696 -1.732 14
33.505001 -11.699 -1.745 14
33.466999 -11.703 -1.76 14
33.382 -11.69 -1.77 14
33.335999 -11.691 -1.783 11
33.290001 -11.69 -1.796 11
33.245998 -11.691 -1.809 9
33.238998 -11.703 -1.824 9
33.206001 -11.706 -1.837 9
33.216999 -11.723 -1.852 7
33.178001 -11.723 -1.8660001 5
33.178001 -11.736 -1.88 3
0 0 0 0
0 0 0 0
0 0 0 0
0 0 0 0
0 0 0 0
0 0 0 1
23.695 -8.4370003 -1.4170001 1
23.191999 -8.2639999 -1.396 1
0 0 0 0
0 0 0 1
12.991 -4.6389999 -0.80000001 2
12.965 -4.632 -0.80299997 3
12.956 -4.631 -0.80800003 5
12.96 -4.6350002 -0.81400001 6
12.945 -4.632 -0.81900001 7
12.949 -4.6360002 -0.824 7
12.936 -4.6329999 -0.829 9
12.93 -4.632 -0.83399999 9
12.926 -4.632 -0.83899999 10
12.933 -4.6360002 -0.84500003 8
12.908 -4.6279998 -0.84899998 10
12.913 -4.631 -0.85500002 10
12.912 -4.631 -0.86000001 10
12.9 -4.6269999 -0.86500001 10
12.91 -4.631 -0.87 10
12.907 -4.6300001 -0.875 10
12.897 -4.6269999 -0.88 11
12.904 -4.6290002 -0.88499999 11
12.904 -4.6290002 -0.89099997 11
12.905 -4.6279998 -0.89600003 10
12.916 -4.631 -0.90200001 10
12.918 -4.631 -0.90700001 11
12.927 -4.6329999 -0.912 8
12.92 -4.6290002 -0.917 9
12.933 -4.632 -0.92299998 9
12.959 -4.6389999 -0.92900002 7
12.969 -4.6409998 -0.935 6
13.042 -4.665 -0.94499999 3
13.116 -4.6890001 -0.95499998 3
13.181 -4.71 -0.96499997 3
13.285 -4.744 -0.97799999 3
13.366 -4.77 -0.98799998 4
13.328 -4.7540002 -0.99000001 3
13.3 -4.7399998 -0.99299997 3
13.233 -4.7129998 -0.99299997 3
13.131 -4.6719999 -0.99000001 3
13.048 -4.6389999 -0.98799998 3
12.985 -4.6129999 -0.98799998 3
12.905 -4.5799999 -0.986 4
12.844 -4.5539999 -0.98500001 3
12.748 -4.5149999 -0.98199999 4
12.686 -4.4889998 -0.98199999 4
12.593 -4.4510002 -0.97899997 5
12.511 -4.4169998 -0.97600001 5
12.417 -4.3779998 -0.97299999 4
12.375 -4.3579998 -0.97399998 4
12.263 -4.3130002 -0.96799999 3
12.138 -4.2639999 -0.96200001 3
12.021 -4.217 -0.95700002 3
11.862 -4.1560001 -0.94800001 3
11.698 -4.092 -0.93800002 3
11.566 -4.04 -0.93099999 2
11.454 -3.9949999 -0.92500001 2
11.4 -3.97 -0.92500001 2
11.326 -3.938 -0.92199999 2
11.252 -3.9059999 -0.91900003 2
11.191 -3.878 -0.917 3
11.126 -3.849 -0.91500002 3
11.08 -3.826 -0.91399997 2
11.014 -3.796 -0.912 3
10.958 -3.77 -0.91000003 2
10.911 -3.747 -0.90799999 3
10.847 -3.7179999 -0.90600002 3
10.801 -3.6949999 -0.90499997 2
10.726 -3.6619999 -0.90100002 3
10.675 -3.6370001 -0.89899999 2
10.637 -3.6159999 -0.89899999 3
10.569 -3.585 -0.89600003 3
10.512 -3.5580001 -0.89300001 4
10.462 -3.533 -0.89099997 3
10.402 -3.5039999 -0.889 3
10.365 -3.484 -0.88800001 3
10.307 -3.4560001 -0.88499999 3
10.272 -3.4360001 -0.884 4
10.232 -3.414 -0.88300002 2
10.198 -3.3940001 -0.88200003 3
10.145 -3.368 -0.87900001 3
10.118 -3.3499999 -0.87900001 3
10.073 -3.326 -0.87699997 2
10.038 -3.306 -0.87599999 3
9.9630003 -3.2720001 -0.87099999 3
9.9490004 -3.2579999 -0.87099999 3
9.9300003 -3.243 -0.87199998 3
9.8500004 -3.207 -0.866 4
9.8190002 -3.188 -0.86500001 4
9.783 -3.1670001 -0.86299998 4
9.7639999 -3.151 -0.86299998 4
9.7180004 -3.1259999 -0.86000001 3
9.6960001 -3.109 -0.86000001 3
9.6730003 -3.092 -0.85900003 4
9.6450005 -3.073 -0.85799998 4
9.6429996 -3.063 -0.85900003 4
9.6149998 -3.043 -0.85699999 4
9.585 -3.0239999 -0.85600001 5
9.5530005 -3.003 -0.85399997 4
9.5380001 -2.9879999 -0.85399997 5
9.5270004 -2.974 -0.85399997 3
9.5150003 -2.96 -0.85399997 4
9.5349998 -2.9549999 -0.85699999 5
9.5170002 -2.9389999 -0.85600001 6
9.4700003 -2.9130001 -0.852 4
9.4239998 -2.888 -0.84899998 4
9.3830004 -2.8640001 -0.84600002 4
9.3339996 -2.8380001 -0.84200001 4
9.3319998 -2.826 -0.84200001 3
9.3170004 -2.8110001 -0.84100002 4
9.2980003 -2.7939999 -0.83999997 5
9.2930002 -2.7809999 -0.83999997 4
9.2639999 -2.7609999 -0.838 4
9.2519999 -2.7460001 -0.83700001 4
9.2139997 -2.723 -0.83399999 6
9.2150002 -2.711 -0.83399999 5
9.2089996 -2.698 -0.83399999 6
9.2279997 -2.691 -0.83600003 4
9.2189999 -2.677 -0.83499998 5
9.2019997 -2.6600001 -0.83399999 5
9.2049999 -2.6489999 -0.83399999 6
9.2080002 -2.6370001 -0.83399999 9
9.2049999 -2.6240001 -0.833 10
9.2089996 -2.612 -0.83399999 10
9.2449999 -2.6099999 -0.83700001 8
9.2539997 -2.5999999 -0.83700001 10
9.2659998 -2.5899999 -0.838 11
9.2679996 -2.5780001 -0.838 11
9.2869997 -2.5699999 -0.83899999 10
9.2969999 -2.5599999 -0.83899999 9
9.3120003 -2.5510001 -0.83999997 10
9.3109999 -2.5369999 -0.83899999 10
9.3240004 -2.527 -0.83999997 10
9.3479996 -2.52 -0.84200001 11
9.3549995 -2.5079999 -0.84100002 11
9.3669996 -2.4979999 -0.84100002 10
9.3710003 -2.4849999 -0.84100002 8
9.3990002 -2.4779999 -0.84299999 6
9.3940001 -2.4630001 -0.84100002 9
9.4110003 -2.4530001 -0.84100002 5
9.4259996 -2.4430001 -0.84200001 7
9.4519997 -2.4349999 -0.84299999 5
9.4659996 -2.424 -0.84299999 4
9.4700003 -2.411 -0.84200001 5
9.4960003 -2.402 -0.84299999 4
9.5270004 -2.395 -0.84399998 6
9.533 -2.382 -0.84299999 4
9.6199999 -2.388 -0.84899998 4
9.6389999 -2.378 -0.84899998 4
9.6630001 -2.368 -0.85000002 3
9.6440001 -2.348 -0.84600002 3
9.6569996 -2.335 -0.84500003 4
9.6789999 -2.325 -0.84500003 3
9.7299995 -2.322 -0.84799999 3
9.7609997 -2.313 -0.84799999 3
9.7679996 -2.299 -0.847 3
9.8470001 -2.3010001 -0.852 2
9.8540001 -2.286 -0.85000002 3
9.8900003 -2.2780001 -0.85100001 3
9.9160004 -2.2679999 -0.85100001 2
9.9390001 -2.256 -0.85000002 3
9.974 -2.247 -0.85100001 3
10.03 -2.243 -0.85299999 3
10.099 -2.2409999 -0.85600001 2
10.153 -2.2349999 -0.85799998 3
10.195 -2.227 -0.85799998 3
10.228 -2.217 -0.85799998 3
10.293 -2.2130001 -0.861 3
10.349 -2.2079999 -0.86199999 2
10.414 -2.2030001 -0.86400002 3
10.483 -2.2 -0.86699998 3
10.538 -2.1930001 -0.86799997 2
10.616 -2.1900001 -0.87099999 2
10.694 -2.187 -0.87400001 2
10.779 -2.1860001 -0.87699997 2
10.859 -2.1830001 -0.88 2
10.94 -2.1800001 -0.88200003 2
11.031 -2.178 -0.88599998 2
11.11 -2.174 -0.88800001 2
11.168 -2.165 -0.88800001 2
11.269 -2.165 -0.89200002 2
11.365 -2.1619999 -0.89499998 2
11.493 -2.1659999 -0.90100002 2
11.59 -2.1630001 -0.90399998 2
11.706 -2.164 -0.90799999 2
11.816 -2.1619999 -0.91100001 2
11.942 -2.164 -0.91600001 2
12.019 -2.1559999 -0.917 2
12.181 -2.1619999 -0.92400002 3
12.314 -2.1630001 -0.92799997 3
12.394 -2.154 -0.92900002 3
12.505 -2.1500001 -0.93099999 3
12.665 -2.155 -0.93699998 3
12.798 -2.1530001 -0.94099998 3
12.977 -2.1600001 -0.94800001 3
13.148 -2.1630001 -0.954 3
13.332 -2.1689999 -0.96100003 3
13.511 -2.1719999 -0.96700001 3
13.671 -2.1719999 -0.97100002 4
13.839 -2.1730001 -0.97600001 4
13.992 -2.171 -0.97899997 4
14.234 -2.181 -0.98900002 4
14.466 -2.1900001 -0.99699998 4
14.631 -2.187 -1 4
14.829 -2.1889999 -1.006 4
14.98 -2.1819999 -1.007 4
15.13 -2.175 -1.0089999 4
15.552 -2.207 -1.028 4
15.69 -2.1960001 -1.028 6
15.741 -2.1730001 -1.022 5
15.932 -2.1700001 -1.025 5
16.263 -2.184 -1.036 4
16.534 -2.188 -1.044 4
16.767 -2.187 -1.048 5
17.031 -2.1889999 -1.054 4
17.362 -2.198 -1.063 3
17.66 -2.2019999 -1.0700001 3
17.906 -2.198 -1.073 3
17.565001 -2.122 -1.041 3
17.879 -2.1259999 -1.048 3
18.038 -2.1099999 -1.046 4
18.356001 -2.112 -1.052 1
18.708 -2.1159999 -1.059 1
0 0 0 1
21.608999 -2.362 -1.193 1
21.966 -2.3570001 -1.197 1
22.735001 -2.3959999 -1.223 1
21.457001 -2.221 -1.1390001 5
21.177999 -2.1500001 -1.109 5
21.02 -2.0940001 -1.085 6
20.969 -2.0480001 -1.067 3
20.954 -2.006 -1.05 4
20.941 -1.965 -1.034 4
20.966 -1.926 -1.0190001 3
20.966999 -1.887 -1.0039999 3
0 0 0 25
0 0 0 3
23.583 -1.985 -1.073 4
23.587 -1.9400001 -1.0549999 3
23.597 -1.8940001 -1.036 4
23.589001 -1.848 -1.016 4
24.002001 -1.834 -1.0140001 4
24.222 -1.804 -1.0039999 3
0 0 0 5
0 0 0 1
28.299999 -1.944 -1.101 154
28.305 -1.8890001 -1.077 163
28.296 -1.834 -1.053 165
28.283001 -1.778 -1.028 154
28.334 -1.728 -1.005 150
0 0 0 0
0 0 0 3
0 0 0 0
0 0 0 1
32.679001 -1.678 -1.013 14
32.900002 -1.625 -0.98900002 163
32.965 -1.566 -0.96100003 176
32.932999 -1.503 -0.93000001 153
0 0 0 28
42.330002 -1.7690001 -1.1160001 6
0 0 0 42
45.375999 -1.722 -1.11 42
45.806999 -1.651 -1.076 43
45.917999 -1.568 -1.034 35
45.956001 -1.482 -0.99000001 31
46.048 -1.4 -0.949 24
0 0 0 0
0 0 0 111
68.694 -1.697 -1.21 64
68.717003 -1.568 -1.141 79
68.704002 -1.441 -1.072 77
71.982002 -1.374 -1.05 8
71.999001 -1.239 -0.977 28
74.388 -1.141 -0.93300003 65
77.473999 -1.044 -0.89099997 14
0 0 0 0
0 0 0 47
135.69299 -1.074 -1.138 50
135.601 -0.82200003 -0.99299997 106
135.58501 -0.57099998 -0.84899998 83
135.582 -0.324 -0.70599997 90
135.57899 -0.074000001 -0.56 67
135.55901 0.17399999 -0.414 46
0 0 0 0
0 0 0 0
0 0 0 0
0 0 0 0
0 0 0 0
0 0 0 0
0 0 0 0
0 0 0 16
90.474998 1.587 0.61900002 13
90.278999 1.743 0.71899998 15
0 0 0 0
0 0 0 0
0 0 0 0
0 0 0 0
0 0 0 0
0 0 0 0
0 0 0 26
90.709 3.03 1.556 18
89.888 3.1600001 1.648 24
89.720001 3.3110001 1.751 31
90.000999 3.4749999 1.8609999 20
89.984001 3.631 1.9680001 20
91.120003 3.8340001 2.102 21
91.224998 3.9949999 2.214 18
91.862999 4.178 2.3380001 24
92.240997 4.3530002 2.4590001 25
92.066002 4.5 2.563 42
0 0 0 0
0 0 0 16
88.985001 4.796 2.8 20
88.935997 4.9429998 2.908 25
89.042 5.0999999 3.0220001 19
88.695 5.2280002 3.119 16
0 0 0 0
0 0 0 0
0 0 0 20
93.745003 6.1430001 3.7609999 26
93.482002 6.2779999 3.8670001 29
93.303001 6.4180002 3.977 21
0 0 0 26
0 0 0 14
91.674004 6.7480001 4.2519999 14
0 0 0 108
118.901 9.132 5.8169999 94
118.879 9.3190002 5.967 97
118.882 9.507 6.119 94
118.862 9.6899996 6.2670002 91
0 0 0 7
46.839001 3.964 2.589 10
46.800999 4.033 2.6459999 18
46.762001 4.1020002 2.704 25
46.667 4.165 2.7590001 24
46.682999 4.2360001 2.819 22
46.727001 4.3130002 2.8829999 13
46.766998 4.3850002 2.9449999 13
46.669998 4.448 3 15
46.643002 4.5139999 3.0580001 11
46.624001 4.5819998 3.118 5
46.585999 4.6479998 3.1760001 9
0 0 0 26
65.000999 6.6739998 4.5999999 11
0 0 0 0
0 0 0 0
0 0 0 0
0 0 0 0
0 0 0 27
0 0 0 0
0 0 0 16
50.014 5.71 4.0640001 18
50.011002 5.7779999 4.1290002 26
50.021 5.849 4.1950002 33
49.59 5.8670001 4.2249999 37
49.335999 5.9039998 4.2670002 32
47.995998 5.809 4.2140002 13
48.124001 5.8899999 4.289 20
47.948002 5.9330001 4.3369999 31
47.971001 5.9990001 4.401 47
48.005001 6.0669999 4.467 49
48.035999 6.1339998 4.5339999 47
48.049999 6.1989999 4.598 49
48.049999 6.2620001 4.6620002 41
47.949001 6.3099999 4.7140002 45
48.013 6.3800001 4.7839999 49
48.162998 6.4619999 4.862 26
48.158001 6.5219998 4.9250002 15
49.543999 6.7719998 5.132 36
49.973999 6.895 5.243 31
50.403 7.0149999 5.3540001 31
50.577 7.1040001 5.4390001 40
50.639 7.1739998 5.513 38
50.841999 7.2649999 5.6020002 32
50.823002 7.323 5.6659999 31
50.742001 7.3699999 5.7220001 23
50.652 7.4190001 5.7779999 13
0 0 0 0
0 0 0 23
48.918999 7.3369999 5.7709999 23
48.911999 7.3920002 5.836 16
0 0 0 0
0 0 0 5
0 0 0 0
0 0 0 24
48.512001 7.6040001 6.0999999 26
48.368 7.6329999 6.145 32
0 0 0 0
0 0 0 15
45.915001 7.395 6.0100002 36
45.771 7.4200001 6.0500002 45
45.716999 7.4590001 6.1009998 45
46.049999 7.5619998 6.204 36
46.139999 7.6240001 6.2750001 24
0 0 0 0
0 0 0 10
43.025002 7.2389998 6.0139999 12
42.93 7.2659998 6.0549998 12
42.896999 7.302 6.105 10
42.867001 7.3390002 6.1529999 13
42.862999 7.3779998 6.2069998 13
0 0 0 0
0 0 0 0
0 0 0 21
0 0 0 11
49.481998 8.75 7.4720001 24
49.358002 8.7720003 7.5139999 23
49.386002 8.8210001 7.579 22
49.361 8.8599997 7.6350002 21
49.914001 9.0030003 7.7820001 24
50.078999 9.0760002 7.868 30
50.009998 9.1070004 7.9180002 29
49.948002 9.1370001 7.967 36
49.889999 9.1680002 8.0179996 32
49.730999 9.1800003 8.052 23
49.675999 9.21 8.1029997 14
0 0 0 0
0 0 0 10
0 0 0 0
0 0 0 22
45.575001 8.6289997 7.6999998 36
45.599998 8.6680002 7.757 37
45.669998 8.7150002 7.822 33
45.654999 8.7460003 7.8720002 33
45.566002 8.7620001 7.9099998 34
45.508999 8.783 7.9520001 36
45.471001 8.8079996 7.9970002 29
45.415001 8.8280001 8.0380001 27
45.377998 8.8529997 8.0830002 31
45.303001 8.8690004 8.1199999 32
45.195 8.8780003 8.151 35
45.040001 8.8769999 8.1730003 32
44.886002 8.8760004 8.1940002 26
44.762001 8.8789997 8.2200003 26
44.594002 8.8739996 8.2379999 31
44.375999 8.8579998 8.2449999 34
44.333 8.8760004 8.2840004 36
44.348999 8.9049997 8.335 34
44.389999 8.9390001 8.3900003 34
44.320999 8.9499998 8.4239998 33
44.256001 8.9619999 8.4580002 25
44.230999 8.9809999 8.5 15
44.241001 9.0080004 8.5469999 13
44.207001 9.0240002 8.5880003 15
44.098999 9.0249996 8.6110001 18
43.919998 9.0109997 8.6210003 21
43.837002 9.0159998 8.6490002 25
43.737999 9.0170002 8.6730003 29
43.629002 9.0150003 8.6940002 34
43.653999 9.0410004 8.7419996 34
43.761002 9.0830002 8.8070002 33
43.818001 9.1140003 8.8610001 33
43.845001 9.1389999 8.9090004 32
43.84 9.1560001 8.9490004 33
43.827999 9.1719999 8.9879999 34
43.827999 9.1890001 9.0290003 33
43.846001 9.2110004 9.0740004 31
43.647999 9.1870003 9.073 24
43.682999 9.21 9.1199999 20
43.882999 9.2679996 9.2010002 29
43.652 9.2340002 9.1929998 34
43.522999 9.2220001 9.2030001 42
43.506001 9.2329998 9.2379999 42
43.554001 9.2580004 9.2860003 42
43.643002 9.2889996 9.3439999 32
43.345001 9.2399998 9.3170004 25
43.25 9.2320004 9.3330002 16
43.362999 9.2670002 9.3940001 16
43.263 9.2580004 9.4090004 10
43.101002 9.2340002 9.4099998 4
44.762001 9.6020002 9.8079996 31
44.715 9.6020002 9.8339996 31
44.636002 9.5950003 9.8529997 30
44.534 9.5830002 9.8660002 30
44.439999 9.5719995 9.8800001 32
44.354 9.5629997 9.8940001 29
44.249001 9.5489998 9.9049997 31
44.137001 9.5319996 9.9139996 32
44.074001 9.526 9.9329996 32
44.002998 9.5179996 9.948 32
43.914001 9.5059996 9.9589996 32
43.819 9.4910002 9.9700003 33
43.750999 9.4820004 9.9860001 33
43.721001 9.4799995 10.01 33
43.648998 9.4689999 10.024 33
43.612 9.4659996 10.044 32
43.566002 9.4589996 10.063 31
43.539001 9.4560003 10.087 29
43.514 9.4540005 10.109 25
43.473999 9.4469995 10.129 25
43.460999 9.4460001 10.154 26
43.41 9.4379997 10.168 25
43.369999 9.4289999 10.186 26
43.351002 9.4259996 10.208 23
43.307999 9.4180002 10.223 26
43.223 9.3979998 10.229 31
43.188999 9.3900003 10.246 30
43.132 9.3760004 10.257 31
43.067001 9.3610001 10.265 32
43.002998 9.3450003 10.274 32
42.971001 9.3360004 10.289 30
42.938 9.3269997 10.303 31
42.91 9.3170004 10.319 30
42.869999 9.3050003 10.331 27
0 0 0 0
0 0 0 0
0 0 0 5
27.584999 5.9749999 6.6999998 7
27.591999 5.973 6.7150002 9
27.587999 5.9679999 6.7259998 11
27.589001 5.9640002 6.7379999 12
27.611 5.9640002 6.7550001 14
27.608 5.9580002 6.7659998 14
27.608999 5.9530001 6.777 13
27.608 5.948 6.7880001 13
27.604 5.941 6.7979999 11
27.636 5.9419999 6.816 8
27.620001 5.9330001 6.822 4
0 0 0 0
0 0 0 0
0 0 0 8
42.578999 9.1029997 10.574 8
42.544998 9.085 10.577 6
42.507 9.066 10.58 4
0 0 0 26
45.389999 9.6540003 11.323 27
45.445 9.651 11.349 27
45.451 9.6379995 11.363 27
45.404999 9.6140003 11.361 27
45.393002 9.5959997 11.369 27
45.293999 9.559 11.354 27
45.193001 9.5209999 11.338 27
45.067001 9.4790001 11.315 27
44.98 9.4440002 11.302 27
44.911999 9.4110003 11.294 27
44.872002 9.3859997 11.29 26
44.810001 9.3549995 11.282 25
44.771999 9.3280001 11.279 25
44.766998 9.309 11.283 23
44.771999 9.2910004 11.29 21
44.852001 9.2880001 11.315 19
45.001999 9.2989998 11.357 22
45.158001 9.3100004 11.4 23
45.203999 9.2980003 11.415 21
45.292 9.2959995 11.44 23
45.312 9.2779999 11.447 22
45.283001 9.2489996 11.442 21
45.249001 9.2209997 11.434 23
45.212002 9.1899996 11.426 26
45.252998 9.1750002 11.437 21
45.243999 9.1490002 11.434 17
45.348999 9.1459999 11.46 17
45.368999 9.1260004 11.463 13
45.423 9.1110001 11.475 13
45.372002 9.0749998 11.46 16
45.436001 9.0620003 11.474 16
45.400002 9.0290003 11.461 18
45.382999 8.9980001 11.453 20
45.330002 8.9619999 11.435 16
45.327 8.9329996 11.43 17
45.366001 8.9139996 11.434 19
45.308998 8.8739996 11.414 18
45.301998 8.8450003 11.405 18
45.210999 8.7989998 11.375 16
45.248001 8.776 11.377 17
45.279999 8.7530003 11.377 19
45.330002 8.7329998 11.381 26
45.386002 8.7130003 11.386 28
45.380001 8.6809998 11.375 33
45.405998 8.6560001 11.371 35
45.402 8.6239996 11.359 34
45.432999 8.5979996 11.356 34
45.459 8.5710001 11.351 34
45.455002 8.5380001 11.337 35
45.521 8.5179996 11.341 31
45.525002 8.4849997 11.329 33
45.542 8.4560003 11.319 35
45.540001 8.4219999 11.304 35
45.589001 8.3959999 11.302 34
45.612999 8.3660002 11.292 31
45.672001 8.342 11.291 27
45.592999 8.2919998 11.255 26
45.549 8.25 11.227 27
45.529999 8.2110004 11.205 10
0 0 0 33
118.543 21.188999 29.079 40
118.512 21.087 29.021999 51
118.592 21.004999 28.990999 47
118.485 20.888 28.913 54
118.586 20.808001 28.884001 66
118.538 20.700001 28.816999 69
118.592 20.612 28.771 57
118.59 20.511 28.712999 68
118.599 20.414 28.655001 66
118.574 20.308001 28.589001 62
118.625 20.212 28.542999 63
118.657 20.115999 28.483999 53
118.668 20.013 28.422001 56
118.654 19.909 28.353001 49
118.723 19.813 28.305 50
118.656 19.695999 28.221001 42
118.728 19.604 28.167999 41
118.685 19.489 28.086 42
118.654 19.375 28.007 61
118.63 19.261999 27.927 45
118.687 19.162001 27.865999 54
118.707 19.056 27.790001 51
118.723 18.948999 27.719 47
118.716 18.837 27.638 46
118.775 18.737 27.570999 50
118.749 18.620001 27.483999 49
118.725 18.506001 27.395 53
118.774 18.399 27.320999 51
118.749 18.283001 27.233 54
118.784 18.173 27.153999 55
118.723 18.048 27.052 65
118.787 17.941 26.976 44
118.752 17.818001 26.877001 45
118.795 17.711 26.795 55
118.771 17.589001 26.695999 45
118.826 17.48 26.608999 54
118.788 17.355 26.504999 53
118.789 17.235001 26.407 45
118.813 17.118 26.313999 48
118.838 17.000999 26.219 47
118.837 16.879999 26.117001 49
118.848 16.759001 26.017 66
118.856 16.638 25.914 39
0 0 0 0
0 0 0 0
0 0 0 0
0 0 0 0
0 0 0 0
0 0 0 0
0 0 0 31
118.913 15.653 25.042999 40
118.936 15.533 24.933001 55
118.95 15.409 24.819 60
118.896 15.278 24.690001 63
118.922 15.154 24.576 72
118.958 15.031 24.462 70
118.958 14.903 24.341 63
118.952 14.774 24.216 58
118.991 14.654 24.1 52
119.001 14.526 23.976 38
119.059 14.404 23.861 41
119.067 14.276 23.735001 34
119.165 14.161 23.625 32
119.179 14.032 23.497 27
119.347 13.921 23.398001 31
119.404 13.797 23.275999 30
119.313 13.659 23.124001 32
119.407 13.534 23.006001 26
0 0 0 0
0 0 0 0
0 0 0 0
0 0 0 0
0 0 0 0
0 0 0 0
0 0 0 33
0 0 0 0
0 0 0 0
0 0 0 0
0 0 0 0
0 0 0 0
0 0 0 26
119.12 11.66 20.933001 38
119.15 11.53 20.785 52
119.138 11.395 20.629 58
119.152 11.266 20.481001 72
119.179 11.134 20.329 70
119.17 11.003 20.171 64
119.175 10.866 20.011999 69
119.201 10.735 19.853001 54
119.297 10.613 19.712999 55
119.387 10.49 19.566999 34
119.407 10.358 19.407 30
119.416 10.225 19.243999 29
119.393 10.088 19.075001 35
119.444 9.9589996 18.916 28
119.426 9.8260002 18.747 39
119.42 9.6920004 18.577 33
119.488 9.5629997 18.417999 30
119.445 9.4289999 18.242001 27
119.442 9.2950001 18.07 34
119.481 9.165 17.902 27
119.504 9.033 17.732 25
0 0 0 0
0 0 0 26
119.519 8.6339998 17.205 23
119.326 8.4870005 16.999001 43
119.345 8.3549995 16.823 47
119.325 8.2209997 16.636999 61
119.324 8.0889997 16.455999 74
119.305 7.9580002 16.273001 68
119.347 7.829 16.096001 72
119.368 7.698 15.915 65
119.33 7.5640001 15.728 58
119.49 7.4450002 15.565 44
119.483 7.3130002 15.377 33
119.613 7.1929998 15.208 26
119.596 7.0609999 15.016 25
0 0 0 0
0 0 0 0
0 0 0 0
0 0 0 0
0 0 0 29
119.662 6.2859998 13.872 27
119.68 6.1599998 13.68 27
119.492 6.0219998 13.463 34
119.494 5.8930001 13.266 25
119.714 5.7789998 13.094 35
119.583 5.645 12.884 58
119.477 5.5120001 12.673 61
119.42 5.3850002 12.469 86
119.44 5.2589998 12.266 80
119.479 5.1350002 12.071 70
119.458 5.0079999 11.862 62
121.93 4.9829998 11.9 75
121.897 4.8540001 11.687 72
121.956 4.7290001 11.483 84
121.961 4.6020002 11.273 70
122.011 4.48 11.069 43
127.961 4.566 11.386 34
127.939 4.4369998 11.167 38
0 0 0 0
0 0 0 0
0 0 0 0
0 0 0 0
0 0 0 0
0 0 0 26
122.087 3.3659999 9.1370001 46
122.165 3.2460001 8.9230003 43
122.193 3.128 8.7080002 39
122.202 3.007 8.4870005 41
122.255 2.888 8.2690001 34
122.131 2.7650001 8.0380001 36
122.197 2.6470001 7.8189998 32
122.183 2.5280001 7.5939999 33
122.227 2.4130001 7.375 32
122.277 2.296 7.1529999 34
122.237 2.178 6.9239998 28
122.137 2.0599999 6.6919999 48
122.087 1.943 6.4629998 70
122.038 1.8279999 6.2319999 73
122.066 1.7130001 6.0019999 64
0 0 0 0
0 0 0 0
0 0 0 72
122.198 1.2640001 5.0949998 77
122.298 1.153 4.8639998 28
0 0 0 0
0 0 0 0
0 0 0 0
0 0 0 0
0 0 0 12
84.571999 0.34599999 2.4000001 26
84.769997 0.273 2.243 44
84.982002 0.20100001 2.0869999 23
87.683998 0.131 1.983 13
88.666 0.057 1.834 25
88.907997 -0.017000001 1.668 14
86.103996 -0.089000002 1.448 24
86.003998 -0.162 1.279 36
86.793999 -0.236 1.1210001 22
87.903999 -0.31200001 0.963 19
88.084 -0.384 0.79500002 14
0 0 0 27
76.492996 -0.458 0.38999999 10
0 0 0 16
0 0 0 42
75.031998 -0.62800002 -0.059 65
75.037003 -0.68800002 -0.208 75
75.035004 -0.74599999 -0.35699999 56
75.038002 -0.80400002 -0.50300002 27
0 0 0 53
135.79601 -1.66 -1.4450001 36
0 0 0 24
75.163002 -1.0319999 -1.099 36
74.474998 -1.077 -1.2359999 67
74.098 -1.126 -1.378 134
74.122002 -1.1799999 -1.525 31
71.887001 -1.196 -1.6210001 58
71.861 -1.248 -1.767 64
0 0 0 0
0 0 0 0
0 0 0 37
68.688004 -1.3839999 -2.2379999 15
0 0 0 7
0 0 0 0
0 0 0 0
0 0 0 0
0 0 0 0
0 0 0 0
0 0 0 0
0 0 0 0
0 0 0 0
0 0 0 1
0 0 0 1
0 0 0 1
0 0 0 2
16.455 -0.479 -1.001 2
15.609 -0.463 -0.98100001 2
14.844 -0.449 -0.963 3
14.056 -0.43399999 -0.94 3
13.322 -0.419 -0.91799998 3
12.67 -0.405 -0.89899999 3
12.149 -0.39500001 -0.88700002 2
11.589 -0.38299999 -0.86900002 2
11.038 -0.37099999 -0.85000002 2
10.524 -0.359 -0.83200002 2
10.051 -0.34900001 -0.815 2
9.6639996 -0.34 -0.80299997 3
9.2390003 -0.33000001 -0.78600001 3
8.8719997 -0.32100001 -0.773 4
8.5310001 -0.31299999 -0.75999999 4
8.2139997 -0.30500001 -0.74900001 4
7.9380002 -0.29899999 -0.74000001 6
7.6880002 -0.29300001 -0.73199999 5
7.3870001 -0.285 -0.71799999 7
7.1599998 -0.28 -0.70999998 11
6.9749999 -0.27599999 -0.70599997 11
6.7729998 -0.271 -0.699 12
6.586 -0.266 -0.69300002 11
6.4190001 -0.26199999 -0.68800002 11
6.296 -0.25999999 -0.68800002 9
6.1539998 -0.257 -0.685 4
5.9759998 -0.252 -0.67699999 3
5.8140001 -0.24699999 -0.67000002 3
5.665 -0.243 -0.66399997 3
5.546 -0.23999999 -0.66100001 3
5.4070001 -0.236 -0.65600002 3
5.2729998 -0.233 -0.64999998 3
5.1669998 -0.23 -0.64700001 2
5.0609999 -0.227 -0.64399999 2
4.9549999 -0.22400001 -0.64099997 2
4.8600001 -0.221 -0.63800001 3
4.7680001 -0.219 -0.63499999 2
4.6729999 -0.21600001 -0.63200003 2
4.5840001 -0.214 -0.62900001 2
4.513 -0.212 -0.62800002 4
4.4390001 -0.20999999 -0.62599999 2
4.3400002 -0.206 -0.62099999 2
4.2930002 -0.205 -0.62300003 3
4.2529998 -0.205 -0.625 4
4.1700001 -0.20200001 -0.62099999 2
4.0219998 -0.19599999 -0.60699999 2
4.0050001 -0.19599999 -0.61199999 2
4.0079999 -0.198 -0.62099999 2
3.8970001 -0.193 -0.611 2
3.862 -0.192 -0.61299998 2
3.7809999 -0.189 -0.60699999 2
3.7639999 -0.189 -0.61199999 3
3.605 -0.182 -0.59299999 1
3.5569999 -0.18099999 -0.59200001 3
3.52 -0.18000001 -0.59299999 4
3.49 -0.17900001 -0.59399998 4
3.447 -0.177 -0.59299999 3
3.3800001 -0.175 -0.588 3
3.345 -0.17299999 -0.58899999 3
3.296 -0.17200001 -0.58600003 2
3.2490001 -0.17 -0.58399999 2
3.2119999 -0.168 -0.583 2
3.1730001 -0.167 -0.58200002 2
3.128 -0.16500001 -0.57999998 2
3.089 -0.163 -0.579 2
3.0569999 -0.162 -0.57800001 2
3.0239999 -0.161 -0.57800001 2
2.98 -0.15899999 -0.57499999 2
2.95 -0.15800001 -0.574 2
2.9260001 -0.15700001 -0.57499999 2
2.8870001 -0.155 -0.57300001 2
2.858 -0.154 -0.57200003 2
2.8340001 -0.153 -0.57300001 2
2.7869999 -0.15099999 -0.56800002 2
2.767 -0.15000001 -0.56900001 2
2.7309999 -0.148 -0.56699997 2
2.7030001 -0.147 -0.56599998 2
2.677 -0.146 -0.565 2
2.6530001 -0.145 -0.565 2
2.6259999 -0.14300001 -0.56400001 2
2.6040001 -0.142 -0.56400001 2
2.582 -0.141 -0.56300002 2
2.5569999 -0.14 -0.56199998 1
2.54 -0.139 -0.56300002 1
2.5050001 -0.13699999 -0.56 1
2.483 -0.13600001 -0.55900002 1
2.477 -0.13600001 -0.56199998 1
2.4489999 -0.13500001 -0.56 1
2.4170001 -0.133 -0.55699998 1
2.3929999 -0.132 -0.55500001 1
2.378 -0.131 -0.55599999 1
2.352 -0.12899999 -0.55400002 1
2.3369999 -0.12800001 -0.55400002 1
2.319 -0.127 -0.55400002 1
2.302 -0.127 -0.55400002 1
2.277 -0.125 -0.551 1
2.2590001 -0.124 -0.551 1
2.244 -0.123 -0.551 1
2.233 -0.122 -0.55199999 1
2.2160001 -0.121 -0.551 1
2.194 -0.12 -0.54900002 1
2.1800001 -0.119 -0.54900002 1
2.1689999 -0.119 -0.55000001 1
2.154 -0.118 -0.54900002 1
2.132 -0.116 -0.54699999 1
2.1210001 -0.115 -0.54799998 1
2.1070001 -0.115 -0.54699999 1
2.092 -0.114 -0.54699999 1
2.079 -0.113 -0.546 1
2.053 -0.111 -0.54299998 1
2.043 -0.11 -0.54299998 1
2.027 -0.109 -0.542 1
2.013 -0.108 -0.54100001 1
2.0050001 -0.108 -0.542 1
1.997 -0.107 -0.54299998 1
1.985 -0.106 -0.54299998 1
1.965 -0.105 -0.54000002 1
1.954 -0.104 -0.54000002 1
1.949 -0.103 -0.54100001 1
1.934 -0.102 -0.54000002 1
1.923 -0.101 -0.54000002 1
1.9119999 -0.101 -0.53899997 1
1.898 -0.1 -0.53799999 1
1.8890001 -0.098999999 -0.53799999 1
1.888 -0.098999999 -0.54000002 1
1.874 -0.097000003 -0.53899997 1
1.87 -0.097000003 -0.54100001 1
1.855 -0.096000001 -0.53899997 1
1.84 -0.094999999 -0.537 1
1.837 -0.093999997 -0.53799999 1
1.832 -0.093999997 -0.53899997 1
1.819 -0.093000002 -0.53799999 1
1.811 -0.092 -0.53799999 1
1.794 -0.090999998 -0.53500003 1
1.79 -0.090000004 -0.53600001 1
1.7819999 -0.089000002 -0.53600001 1
1.777 -0.089000002 -0.537 1
1.7589999 -0.086999997 -0.53399998 1
1.756 -0.086999997 -0.53500003 1
1.748 -0.086000003 -0.53500003 1
1.7460001 -0.086000003 -0.53600001 1
1.737 -0.085000001 -0.53500003 1
1.7309999 -0.083999999 -0.53600001 1
1.706 -0.082000002 -0.52999997 1
1.704 -0.082000002 -0.53100002 1
1.7 -0.081 -0.53200001 1
1.693 -0.081 -0.53200001 1
1.688 -0.079999998 -0.53200001 1
1.6849999 -0.079000004 -0.53299999 1
1.676 -0.079000004 -0.53200001 1
1.6670001 -0.078000002 -0.53100002 1
1.665 -0.077 -0.53200001 1
1.648 -0.075999998 -0.528 1
1.647 -0.075000003 -0.52899998 1
1.642 -0.075000003 -0.52999997 1
1.631 -0.074000001 -0.528 1
1.624 -0.072999999 -0.52700001 1
1.6210001 -0.071999997 -0.528 1
1.6109999 -0.071999997 -0.52600002 1
1.604 -0.071000002 -0.52499998 1
1.604 -0.07 -0.52700001 1
1.591 -0.068999998 -0.52399999 1
1.599 -0.068999998 -0.528 1
1.582 -0.068000004 -0.52399999 1
1.574 -0.067000002 -0.523 1
1.574 -0.067000002 -0.52399999 1
1.562 -0.066 -0.52200001 1
1.559 -0.064999998 -0.52200001 1
1.559 -0.064999998 -0.523 1
1.558 -0.064000003 -0.52399999 1
1.546 -0.063000001 -0.52200001 1
1.544 -0.061999999 -0.52200001 1
1.54 -0.061999999 -0.52200001 1
1.535 -0.061000001 -0.52200001 1
1.5369999 -0.061000001 -0.52399999 1
1.52 -0.059999999 -0.51899999 1
1.523 -0.059 -0.52100003 1
1.511 -0.057999998 -0.51800001 1
1.521 -0.057999998 -0.523 1
1.515 -0.057 -0.52200001 1
1.5089999 -0.057 -0.52100003 1
1.5089999 -0.056000002 -0.52100003 1
1.508 -0.055 -0.52200001 1
1.5039999 -0.055 -0.52200001 1
1.505 -0.054000001 -0.523 1
1.499 -0.054000001 -0.52200001 1
1.499 -0.052999999 -0.523 1
1.497 -0.052000001 -0.523 1
1.4910001 -0.052000001 -0.52200001 1
1.49 -0.050999999 -0.52200001 1
1.487 -0.050000001 -0.52200001 1
1.487 -0.050000001 -0.523 1
1.4859999 -0.048999999 -0.523 1
1.469 -0.048 -0.51800001 1
1.476 -0.048 -0.52100003 1
1.467 -0.046999998 -0.51899999 1
1.485 -0.046999998 -0.52600002 1
1.476 -0.046 -0.523 1
1.462 -0.045000002 -0.51899999 1
1.465 -0.045000002 -0.52100003 1
1.4680001 -0.044 -0.52200001 1
1.457 -0.044 -0.51899999 1
1.4630001 -0.043000001 -0.52100003 1
1.457 -0.041999999 -0.51999998 1
1.456 -0.041999999 -0.51999998 1
1.456 -0.041000001 -0.52100003 1
1.456 -0.041000001 -0.52100003 1
1.456 -0.039999999 -0.52200001 1
1.452 -0.039999999 -0.52100003 1
1.452 -0.039000001 -0.52100003 1
1.444 -0.037999999 -0.51800001 1
1.446 -0.037999999 -0.51999998 1
1.443 -0.037 -0.51899999 1
1.443 -0.037 -0.51899999 1
1.443 -0.035999998 -0.51899999 1
1.441 -0.035 -0.51899999 1
1.446 -0.035 -0.52100003 1
1.437 -0.034000002 -0.51800001 1
1.444 -0.034000002 -0.52100003 1
1.443 -0.033 -0.51999998 1
1.437 -0.032000002 -0.51899999 1
1.4400001 -0.032000002 -0.51999998 1
1.437 -0.030999999 -0.51899999 1
1.4400001 -0.030999999 -0.51999998 1
1.439 -0.029999999 -0.51999998 1
1.441 -0.029999999 -0.51999998 1
1.436 -0.028999999 -0.51899999 1
1.436 -0.028000001 -0.51899999 1
1.439 -0.028000001 -0.51999998 1
1.443 -0.027000001 -0.52100003 1
1.437 -0.027000001 -0.51899999 1
1.4400001 -0.026000001 -0.51999998 1
1.441 -0.026000001 -0.51999998 1
1.436 -0.025 -0.51800001 1
1.438 -0.024 -0.51899999 1
1.4450001 -0.024 -0.52100003 1
1.441 -0.023 -0.51999998 1
1.444 -0.023 -0.51999998 1
1.438 -0.022 -0.51800001 1
1.438 -0.022 -0.51800001 1
1.437 -0.021 -0.51700002 1
1.442 -0.02 -0.51800001 1
1.447 -0.02 -0.51999998 1
1.447 -0.018999999 -0.51999998 1
1.447 -0.018999999 -0.51899999 1
1.447 -0.017999999 -0.51899999 1
1.444 -0.017999999 -0.51800001 1
1.456 -0.017000001 -0.52100003 1
1.447 -0.016000001 -0.51800001 1
1.456 -0.016000001 -0.51999998 1
1.455 -0.015 -0.51999998 1
1.455 -0.015 -0.51899999 1
1.457 -0.014 -0.51899999 1
1.4680001 -0.014 -0.523 1
1.4630001 -0.013 -0.51999998 1
1.4630001 -0.013 -0.51999998 1
1.464 -0.012 -0.51899999 1
1.47 -0.012 -0.52100003 1
1.478 -0.011 -0.523 1
1.465 -0.0099999998 -0.51800001 1
1.477 -0.0099999998 -0.52100003 1
1.487 -0.0089999996 -0.52399999 1
1.479 -0.0089999996 -0.52100003 1
1.487 -0.0080000004 -0.523 1
1.49 -0.0080000004 -0.523 1
1.487 -0.0070000002 -0.52100003 1
1.495 -0.0060000001 -0.523 1
1.4910001 -0.0060000001 -0.52100003 1
1.498 -0.0049999999 -0.52200001 1
1.498 -0.0049999999 -0.52100003 1
1.5 -0.0040000002 -0.52100003 1
1.508 -0.0040000002 -0.523 1
1.5089999 -0.003 -0.52200001 1
1.5089999 -0.003 -0.52100003 1
1.51 -0.0020000001 -0.52100003 1
1.522 -0.001 -0.52399999 1
1.518 -0.001 -0.52100003 1
1.531 0 -0.52499998 1
1.5369999 0 -0.52499998 1
1.5319999 0 -0.52200001 1
1.5420001 0 -0.52499998 1
1.54 0.001 -0.523 1
1.541 0.001 -0.52200001 1
1.548 0.0020000001 -0.523 1
1.561 0.003 -0.52600002 1
1.558 0.003 -0.52399999 1
1.562 0.0040000002 -0.52399999 1
1.562 0.0040000002 -0.523 1
1.571 0.0049999999 -0.52399999 1
1.575 0.0049999999 -0.52399999 1
1.5829999 0.0060000001 -0.52600002 1
1.584 0.0070000002 -0.52399999 1
1.59 0.0070000002 -0.52499998 1
1.601 0.0080000004 -0.52700001 1
1.6 0.0080000004 -0.52499998 1
1.6059999 0.0089999996 -0.52600002 1
1.62 0.0089999996 -0.52899998 1
1.619 0.0099999998 -0.52700001 1
1.631 0.011 -0.52899998 1
1.631 0.011 -0.52700001 1
1.643 0.012 -0.52999997 1
1.646 0.012 -0.52899998 1
1.654 0.013 -0.52899998 1
1.663 0.013 -0.53100002 1
1.666 0.014 -0.52999997 1
1.674 0.015 -0.53100002 1
1.691 0.015 -0.53399998 1
1.694 0.016000001 -0.53299999 1
1.702 0.016000001 -0.53399998 1
1.705 0.017000001 -0.53299999 1
1.716 0.017000001 -0.53399998 1
1.72 0.017999999 -0.53299999 1
1.728 0.018999999 -0.53399998 1
1.734 0.018999999 -0.53399998 1
1.742 0.02 -0.53399998 1
1.757 0.02 -0.53600001 1
1.767 0.021 -0.537 2
1.775 0.022 -0.537 2
1.777 0.022 -0.53600001 2
1.78 0.023 -0.53500003 2
1.7869999 0.023 -0.53399998 2
1.799 0.024 -0.53600001 1
1.808 0.024 -0.53600001 1
1.819 0.025 -0.537 1
1.8329999 0.026000001 -0.53899997 1
1.835 0.026000001 -0.537 1
1.845 0.027000001 -0.537 1
1.86 0.027000001 -0.53899997 1
1.863 0.028000001 -0.537 1
1.8789999 0.028999999 -0.54000002 1
1.89 0.028999999 -0.54000002 1
1.905 0.029999999 -0.542 1
1.9 0.029999999 -0.537 1
1.9170001 0.030999999 -0.54000002 1
1.934 0.030999999 -0.542 1
1.9400001 0.032000002 -0.54100001 1
1.948 0.033 -0.54000002 1
1.961 0.033 -0.54100001 1
1.976 0.034000002 -0.542 1
1.9809999 0.034000002 -0.54000002 1
1.992 0.035 -0.54000002 1
2.0039999 0.035 -0.54100001 1
2.0220001 0.035999998 -0.542 1
2.0350001 0.037 -0.54299998 1
2.05 0.037 -0.54400003 1
2.0680001 0.037999999 -0.54500002 1
2.082 0.037999999 -0.546 1
2.095 0.039000001 -0.546 1
2.109 0.039999999 -0.546 1
2.1210001 0.039999999 -0.546 1
2.1400001 0.041000001 -0.54799998 1
2.1530001 0.041000001 -0.54699999 1
2.175 0.041999999 -0.54900002 1
2.188 0.043000001 -0.54900002 1
2.2030001 0.043000001 -0.55000001 1
2.221 0.044 -0.55000001 1
2.234 0.044 -0.55000001 1
2.2520001 0.045000002 -0.551 1
2.2690001 0.046 -0.551 1
2.283 0.046 -0.551 1
2.3039999 0.046999998 -0.55199999 1
2.3280001 0.046999998 -0.55400002 1
2.3399999 0.048 -0.55199999 1
2.3670001 0.048 -0.55500001 1
2.3800001 0.048999999 -0.55400002 1
2.408 0.050000001 -0.55599999 1
2.4330001 0.050000001 -0.55800003 1
2.46 0.050999999 -0.56 1
2.4749999 0.050999999 -0.55900002 1
2.4960001 0.052000001 -0.55900002 1
2.5120001 0.052000001 -0.55800003 1
2.5369999 0.052999999 -0.55900002 1
2.569 0.054000001 -0.56199998 1
2.5929999 0.054000001 -0.56300002 2
2.615 0.055 -0.56300002 2
2.6389999 0.055 -0.56300002 2
2.6559999 0.056000002 -0.56199998 1
2.7030001 0.057 -0.56699997 1
2.7939999 0.059 -0.58099997 1
2.743 0.057999998 -0.56599998 1
2.8180001 0.059 -0.57599998 1
2.806 0.059 -0.56800002 2
2.8510001 0.059999999 -0.57200003 2
2.8800001 0.059999999 -0.57300001 2
2.9100001 0.061000001 -0.57300001 2
2.9489999 0.061000001 -0.57599998 2
2.9849999 0.061999999 -0.57700002 3
3.017 0.061999999 -0.57800001 3
3.0510001 0.063000001 -0.57800001 3
3.086 0.063000001 -0.579 3
3.122 0.064000003 -0.57999998 3
3.161 0.064000003 -0.58099997 2
3.1919999 0.064999998 -0.58099997 2
3.2390001 0.064999998 -0.583 3
3.277 0.066 -0.58399999 3
3.325 0.066 -0.58600003 3
3.3570001 0.067000002 -0.58600003 2
3.451 0.068000004 -0.59500003 2
3.4779999 0.068000004 -0.59299999 2
3.5550001 0.068999998 -0.59899998 2
3.5510001 0.068000004 -0.59200001 1
3.6400001 0.07 -0.60000002 1
3.678 0.07 -0.59899998 2
3.7639999 0.071000002 -0.60500002 3
3.8150001 0.071000002 -0.60600001 2
3.901 0.071999997 -0.61199999 2
3.9619999 0.071999997 -0.61400002 2
4.0700002 0.074000001 -0.62199998 2
4.079 0.072999999 -0.616 2
4.1269999 0.072999999 -0.61500001 2
4.198 0.072999999 -0.61699998 2
4.276 0.074000001 -0.62 2
4.3499999 0.074000001 -0.62199998 2
4.4400001 0.075000003 -0.62599999 3
4.507 0.075000003 -0.62699997 3
4.6020002 0.075000003 -0.63 3
4.6859999 0.075000003 -0.63300002 3
4.763 0.075000003 -0.63300002 3
4.8670001 0.075999998 -0.63700002 3
4.98 0.075999998 -0.64200002 3
5.0869999 0.075999998 -0.64600003 3
5.1960001 0.075999998 -0.64899999 3
5.309 0.077 -0.653 3
5.4380002 0.077 -0.65799999 3
5.5469999 0.077 -0.65899998 4
5.6880002 0.077 -0.66500002 3
5.8460002 0.077 -0.671 3
5.9920001 0.077 -0.676 3
6.1539998 0.077 -0.68099999 3
6.3000002 0.077 -0.685 3
6.493 0.077 -0.69199997 3
6.6900001 0.077 -0.69999999 3
6.9089999 0.077 -0.70899999 4
7.1399999 0.077 -0.71799999 5
7.3520002 0.075999998 -0.72399998 5
7.5770001 0.075999998 -0.73100001 6
7.8309999 0.075000003 -0.73900002 6
8.0880003 0.074000001 -0.74699998 4
8.3920002 0.074000001 -0.75800002 4
8.7309999 0.072999999 -0.77100003 3
9.125 0.072999999 -0.787 4
9.5310001 0.071999997 -0.80199999 3
9.96 0.071000002 -0.81699997 3
10.436 0.068999998 -0.83499998 2
0 0 0 3
11.71 0.067000002 -0.889 8
12.096 0.064000003 -0.89300001 14
12.504 0.059999999 -0.898 5
13.128 0.057 -0.91600001 3
0 0 0 3
14.748 0.050000001 -0.96799999 3
15.491 0.045000002 -0.98500001 3
16.392 0.039000001 -1.008 3
0 0 0 2
0 0 0 1
0 0 0 1
0 0 0 1
22.993999 -0.0049999999 -1.177 1
0 0 0 0
0 0 0 0
0 0 0 0
0 0 0 0
0 0 0 153
53.945999 -0.19599999 -2.095 171
53.936001 -0.227 -1.985 225
53.957001 -0.25999999 -1.875 255
50.907001 -0.27599999 -1.664 6
0 0 0 0
0 0 0 150
0 0 0 25
0 0 0 27
119.075 -1.021 -2.6659999 33
0 0 0 0
0 0 0 0
0 0 0 0
0 0 0 0
0 0 0 44
135.756 -1.701 -1.386 56
0 0 0 38
75.098999 -1.044 -0.463 81
75.059998 -1.096 -0.31 81
74.435997 -1.138 -0.15899999 94
74.152 -1.186 -0.0099999998 69
0 0 0 29
69.476997 -1.211 0.26899999 38
70.077003 -1.273 0.41299999 20
70.142998 -1.325 0.55199999 25
70.075996 -1.376 0.69300002 13
68.757004 -1.402 0.81800002 40
0 0 0 0
0 0 0 0
0 0 0 0
0 0 0 11
58.59 -1.419 1.279 17
58.129002 -1.4529999 1.383 24
57.823002 -1.49 1.489 36
57.275002 -1.522 1.5880001 37
56.665001 -1.552 1.683 28
56.041 -1.579 1.774 25
55.756001 -1.617 1.874 36
55.226002 -1.647 1.965 15
54.567001 -1.673 2.049 7
0 0 0 0
0 0 0 11
56.459999 -1.872 2.447 16
56.001999 -1.904 2.536 42
55.916 -1.95 2.642 65
54.743999 -1.955 2.691 62
54.671001 -2.0009999 2.7939999 72
54.287998 -2.0350001 2.8789999 61
53.317001 -2.0439999 2.928 71
53.311001 -2.0910001 3.03 81
52.728001 -2.1140001 3.096 41
51.979 -2.131 3.151 62
51.976002 -2.178 3.25 68
51.256001 -2.1930001 3.299 41
50.620998 -2.2119999 3.3529999 70
50.477001 -2.25 3.438 29
49.310001 -2.2449999 3.4519999 10
48.909 -2.2709999 3.5139999 32
48.896999 -2.316 3.6040001 64
48.914001 -2.362 3.697 65
48.908001 -2.4070001 3.786 65
48.916 -2.4519999 3.875 64
48.933998 -2.5009999 3.9679999 62
48.945 -2.5469999 4.0580001 64
48.943001 -2.5940001 4.1469998 62
0 0 0 8
45.290001 -2.487 4.0019999 11
44.915001 -2.51 4.0510001 28
44.896 -2.552 4.1290002 55
44.889999 -2.595 4.2090001 60
44.110001 -2.5929999 4.2129998 38
43.93 -2.625 4.2740002 61
43.924999 -2.668 4.3509998 58
43.685001 -2.697 4.4050002 42
42.609001 -2.6730001 4.3720002 49
42.597 -2.7149999 4.447 57
42.612 -2.7579999 4.5209999 56
42.319 -2.7820001 4.5650001 35
41.244999 -2.753 4.5209999 40
41.220001 -2.7920001 4.5869999 48
41.229 -2.835 4.6589999 49
41.115002 -2.868 4.7160001 44
39.952999 -2.829 4.652 37
39.903999 -2.865 4.7129998 56
39.895 -2.9059999 4.7800002 54
39.903 -2.947 4.848 53
38.916 -2.915 4.7930002 32
38.528999 -2.925 4.809 50
38.543999 -2.967 4.8759999 50
38.543999 -3.007 4.941 49
37.789001 -2.9879999 4.9060001 12
37.094002 -2.971 4.8759999 10
36.759998 -2.983 4.8920002 22
36.757 -3.0209999 4.9510002 43
36.738998 -3.059 5.007 57
36.744999 -3.0969999 5.0669999 60
36.750999 -3.1370001 5.1259999 60
36.754002 -3.1760001 5.1849999 58
