# .PCD v0.7 - Point Cloud Data file format
VERSION 0.7
FIELDS x y z intensity
SIZE 4 4 4 4
TYPE F F F F
COUNT 1 1 1 1
WIDTH 1754
HEIGHT 1
VIEWPOINT 0 0 0 1 0 0 0
POINTS 1754
DATA ascii
1.687 -0.054000001 -0.54100001 1
1.677 -0.052999999 -0.53899997 1
1.663 -0.052000001 -0.537 1
1.658 -0.050999999 -0.537 1
1.656 -0.050999999 -0.53799999 1
1.651 -0.050000001 -0.53799999 1
1.643 -0.048999999 -0.537 1
1.642 -0.048 -0.53799999 1
1.6289999 -0.048 -0.53500003 1
1.63 -0.046999998 -0.537 1
1.623 -0.046 -0.537 1
1.624 -0.046 -0.53799999 1
1.6109999 -0.045000002 -0.53500003 1
1.6059999 -0.044 -0.53500003 1
1.607 -0.044 -0.537 1
1.599 -0.043000001 -0.53500003 1
1.592 -0.041999999 -0.53500003 1
1.594 -0.041999999 -0.537 1
1.585 -0.041000001 -0.53500003 1
1.592 -0.039999999 -0.53899997 1
1.575 -0.039000001 -0.53399998 1
1.571 -0.039000001 -0.53399998 1
1.5700001 -0.037999999 -0.53500003 1
1.569 -0.037999999 -0.53600001 1
1.5650001 -0.037 -0.53500003 1
1.564 -0.035999998 -0.53600001 1
1.558 -0.035999998 -0.53500003 1
1.551 -0.035 -0.53399998 1
1.548 -0.034000002 -0.53399998 1
1.548 -0.034000002 -0.53500003 1
1.5470001 -0.033 -0.53600001 1
1.535 -0.032000002 -0.53299999 1
1.538 -0.032000002 -0.53399998 1
1.536 -0.030999999 -0.53500003 1
1.5319999 -0.029999999 -0.53399998 1
1.528 -0.029999999 -0.53399998 1
1.533 -0.028999999 -0.53600001 1
1.528 -0.028999999 -0.53600001 1
1.513 -0.028000001 -0.53100002 1
1.521 -0.027000001 -0.53500003 1
1.513 -0.027000001 -0.53299999 1
1.5089999 -0.026000001 -0.53200001 1
1.5089999 -0.025 -0.53299999 1
1.512 -0.025 -0.53500003 1
1.508 -0.024 -0.53399998 1
1.503 -0.023 -0.53299999 1
1.502 -0.023 -0.53299999 1
1.502 -0.022 -0.53399998 1
1.494 -0.022 -0.53200001 1
1.502 -0.021 -0.53500003 1
1.488 -0.02 -0.53100002 1
1.492 -0.02 -0.53200001 1
1.492 -0.018999999 -0.53299999 1
1.4859999 -0.018999999 -0.53100002 1
1.4910001 -0.017999999 -0.53299999 1
1.497 -0.017999999 -0.53600001 1
1.4960001 -0.017000001 -0.53600001 1
1.482 -0.016000001 -0.53100002 1
1.487 -0.016000001 -0.53399998 1
1.484 -0.015 -0.53299999 1
1.4910001 -0.015 -0.53600001 1
1.4910001 -0.014 -0.53600001 1
1.482 -0.013 -0.53299999 1
1.485 -0.013 -0.53500003 1
1.478 -0.012 -0.53200001 1
1.485 -0.011 -0.53500003 1
1.485 -0.011 -0.53500003 1
1.476 -0.0099999998 -0.53200001 1
1.482 -0.0099999998 -0.53399998 1
1.484 -0.0089999996 -0.53500003 1
1.4809999 -0.0080000004 -0.53399998 1
1.48 -0.0080000004 -0.53399998 1
1.479 -0.0070000002 -0.53399998 1
1.478 -0.0070000002 -0.53299999 1
1.484 -0.0060000001 -0.53600001 1
1.478 -0.0060000001 -0.53299999 1
1.479 -0.0049999999 -0.53399998 1
1.479 -0.0040000002 -0.53399998 1
1.48 -0.0040000002 -0.53399998 1
1.485 -0.003 -0.53600001 1
1.473 -0.003 -0.53200001 1
1.478 -0.0020000001 -0.53299999 1
1.479 -0.001 -0.53299999 1
1.479 -0.001 -0.53299999 1
1.476 0 -0.53200001 1
1.48 0 -0.53299999 1
1.48 0 -0.53299999 1
1.4809999 0 -0.53299999 1
1.479 0.001 -0.53200001 1
1.482 0.0020000001 -0.53299999 1
1.4859999 0.0020000001 -0.53399998 1
1.482 0.003 -0.53200001 1
1.4859999 0.003 -0.53299999 1
1.4809999 0.0040000002 -0.53100002 1
1.485 0.0049999999 -0.53200001 1
1.4859999 0.0049999999 -0.53200001 1
1.497 0.0060000001 -0.53500003 1
1.4910001 0.0060000001 -0.53299999 1
1.4960001 0.0070000002 -0.53399998 1
1.4910001 0.0070000002 -0.53200001 1
1.502 0.0080000004 -0.53500003 1
1.5 0.0089999996 -0.53399998 1
1.499 0.0089999996 -0.53299999 1
1.494 0.0099999998 -0.52999997 1
1.508 0.0099999998 -0.53500003 1
1.5089999 0.011 -0.53399998 1
1.5089999 0.012 -0.53399998 1
1.516 0.012 -0.53500003 1
1.513 0.013 -0.53399998 1
1.513 0.013 -0.53299999 1
1.517 0.014 -0.53399998 1
1.513 0.014 -0.53100002 1
1.5089999 0.015 -0.52899998 1
1.5190001 0.016000001 -0.53200001 1
1.521 0.016000001 -0.53200001 1
1.533 0.017000001 -0.53500003 1
1.534 0.017000001 -0.53399998 1
1.535 0.017999999 -0.53399998 1
1.53 0.017999999 -0.53100002 1
1.539 0.018999999 -0.53299999 1
1.545 0.02 -0.53399998 1
1.55 0.02 -0.53500003 1
1.549 0.021 -0.53299999 1
1.549 0.021 -0.53299999 1
1.55 0.022 -0.53200001 1
1.563 0.023 -0.53500003 1
1.559 0.023 -0.53200001 1
1.571 0.024 -0.53600001 1
1.569 0.024 -0.53299999 1
1.576 0.025 -0.53500003 1
1.584 0.025 -0.53600001 1
1.5829999 0.026000001 -0.53500003 1
1.574 0.026000001 -0.52999997 1
1.596 0.027000001 -0.53600001 1
1.594 0.028000001 -0.53399998 1
1.6059999 0.028000001 -0.537 1
1.6059999 0.028999999 -0.53500003 1
1.612 0.028999999 -0.53600001 1
1.617 0.029999999 -0.53600001 1
1.6210001 0.030999999 -0.53600001 1
1.6289999 0.030999999 -0.537 1
1.625 0.032000002 -0.53399998 1
1.636 0.032000002 -0.53600001 1
1.6440001 0.033 -0.53799999 1
1.651 0.034000002 -0.53799999 1
1.655 0.034000002 -0.53799999 1
1.66 0.035 -0.53799999 1
1.665 0.035 -0.53799999 1
1.6799999 0.035999998 -0.54100001 1
1.6849999 0.037 -0.54100001 1
1.688 0.037 -0.54000002 1
1.698 0.037999999 -0.54100001 1
1.7029999 0.037999999 -0.54100001 1
1.706 0.039000001 -0.54000002 1
1.71 0.039000001 -0.53899997 1
1.717 0.039999999 -0.54000002 1
1.725 0.041000001 -0.54000002 1
1.735 0.041000001 -0.54100001 1
1.744 0.041999999 -0.542 1
1.748 0.043000001 -0.54100001 1
1.76 0.043000001 -0.54299998 1
1.766 0.044 -0.54299998 1
1.77 0.044 -0.542 1
1.7819999 0.045000002 -0.54299998 1
1.799 0.046 -0.546 1
1.801 0.046 -0.54500002 1
1.809 0.046999998 -0.54500002 1
1.813 0.046999998 -0.54400003 1
1.816 0.048 -0.542 1
1.831 0.048999999 -0.54400003 1
1.845 0.048999999 -0.546 1
1.854 0.050000001 -0.546 1
1.86 0.050000001 -0.546 1
1.869 0.050999999 -0.546 1
1.88 0.052000001 -0.54699999 1
1.886 0.052000001 -0.546 1
1.898 0.052999999 -0.54699999 1
1.908 0.052999999 -0.54699999 1
1.9220001 0.054000001 -0.54799998 1
1.927 0.055 -0.54699999 1
1.937 0.055 -0.54699999 1
1.949 0.056000002 -0.54799998 1
1.959 0.056000002 -0.54799998 1
1.9680001 0.057 -0.54699999 1
1.987 0.057999998 -0.55000001 1
1.993 0.057999998 -0.54900002 1
2.0139999 0.059 -0.551 1
2.0250001 0.059999999 -0.551 1
2.027 0.059999999 -0.54900002 1
2.0409999 0.061000001 -0.55000001 1
2.0550001 0.061000001 -0.55000001 1
2.073 0.061999999 -0.55199999 1
2.0910001 0.063000001 -0.55400002 1
2.1010001 0.063000001 -0.55299997 1
2.118 0.064000003 -0.55400002 1
2.1359999 0.064999998 -0.55599999 1
2.155 0.064999998 -0.55699998 1
2.1689999 0.066 -0.55699998 1
2.187 0.067000002 -0.55900002 1
2.194 0.067000002 -0.55699998 1
2.2049999 0.068000004 -0.55599999 1
2.2179999 0.068000004 -0.55599999 1
2.2349999 0.068999998 -0.55599999 1
2.257 0.07 -0.55800003 1
2.289 0.071000002 -0.56300002 1
2.302 0.071000002 -0.56199998 1
2.3180001 0.071999997 -0.56199998 1
2.332 0.071999997 -0.56099999 1
2.3510001 0.072999999 -0.56199998 1
2.368 0.072999999 -0.56199998 1
2.3989999 0.074000001 -0.565 1
2.4170001 0.075000003 -0.56599998 1
2.4330001 0.075000003 -0.565 1
2.451 0.075999998 -0.565 1
2.483 0.077 -0.56800002 1
2.507 0.078000002 -0.56999999 2
2.5250001 0.078000002 -0.56900001 2
2.5480001 0.079000004 -0.56999999 2
2.5739999 0.079000004 -0.57099998 2
2.598 0.079999998 -0.57200003 2
2.6229999 0.081 -0.57300001 2
2.6500001 0.081 -0.574 2
2.6700001 0.082000002 -0.574 2
2.7019999 0.082999997 -0.57599998 2
2.7290001 0.082999997 -0.57700002 2
2.7490001 0.083999999 -0.57599998 2
2.7850001 0.083999999 -0.57800001 2
2.8280001 0.085000001 -0.58200002 2
2.8429999 0.086000003 -0.57999998 2
2.869 0.086000003 -0.57999998 2
2.984 0.089000002 -0.59799999 2
3.049 0.090999998 -0.60600001 2
3.0599999 0.090999998 -0.602 2
3.056 0.090000004 -0.59600002 2
3.073 0.090000004 -0.59299999 1
3.1500001 0.092 -0.602 1
3.2119999 0.093000002 -0.60799998 1
3.266 0.094999999 -0.61199999 2
3.2360001 0.093000002 -0.60100001 1
3.302 0.093999997 -0.60699999 1
3.319 0.093999997 -0.60299999 1
3.3499999 0.094999999 -0.60299999 2
3.4230001 0.096000001 -0.60900003 2
3.4549999 0.096000001 -0.60799998 1
3.493 0.097000003 -0.60900003 2
3.5280001 0.097000003 -0.60799998 2
3.5780001 0.097000003 -0.61000001 1
3.6140001 0.097999997 -0.60900003 2
3.6730001 0.097999997 -0.61199999 2
3.766 0.1 -0.62 2
3.836 0.101 -0.62400001 3
3.8940001 0.101 -0.62599999 2
3.98 0.103 -0.63200003 2
3.987 0.102 -0.625 2
4.085 0.103 -0.63300002 2
4.1719999 0.104 -0.63800001 2
4.1939998 0.104 -0.63300002 2
4.2859998 0.105 -0.639 3
4.3629999 0.105 -0.64200002 3
4.4629998 0.106 -0.648 3
4.48 0.105 -0.64099997 3
4.5539999 0.106 -0.64300001 3
4.6399999 0.106 -0.64499998 3
4.7249999 0.106 -0.648 4
4.8150001 0.107 -0.65100002 4
4.9190001 0.107 -0.65499997 5
5.0209999 0.108 -0.65899998 4
5.1290002 0.108 -0.662 4
5.263 0.109 -0.66900003 4
5.3800001 0.11 -0.67299998 4
5.507 0.11 -0.67799997 4
5.6389999 0.111 -0.68300003 5
5.8340001 0.112 -0.69499999 7
5.987 0.113 -0.70099998 9
6.0869999 0.112 -0.70099998 13
6.2399998 0.112 -0.70599997 14
6.4250002 0.113 -0.713 13
6.5809999 0.113 -0.71799999 12
6.737 0.112 -0.72100002 10
6.9559999 0.113 -0.73000002 10
7.2129998 0.114 -0.74299997 5
7.4619999 0.114 -0.75300002 4
7.6960001 0.114 -0.76099998 4
7.9499998 0.114 -0.76999998 4
8.2279997 0.114 -0.78100002 4
8.533 0.114 -0.792 4
8.8450003 0.114 -0.80299997 5
9.1389999 0.113 -0.81099999 4
9.415 0.112 -0.81699997 5
9.79 0.111 -0.829 4
10.176 0.11 -0.84100002 3
10.618 0.11 -0.85600001 3
11.059 0.108 -0.86900002 3
11.501 0.106 -0.88 3
12.021 0.104 -0.89600003 3
12.507 0.102 -0.90700001 3
0 0 0 3
13.964 0.097000003 -0.95499998 7
14.361 0.092 -0.95300001 4
0 0 0 2
0 0 0 2
0 0 0 2
0 0 0 2
19.257999 0.064999998 -1.0829999 1
0 0 0 0
0 0 0 1
0 0 0 1
28.777 0.025 -1.385 1
0 0 0 4
0 0 0 2
0 0 0 56
42.806999 -0.075999998 -1.712 79
42.703999 -0.105 -1.622 84
42.441002 -0.134 -1.525 60
42.098 -0.162 -1.428 51
42.018002 -0.192 -1.3380001 44
42.236 -0.222 -1.262 37
42.540001 -0.25400001 -1.1849999 37
42.688999 -0.28600001 -1.103 51
42.845001 -0.31900001 -1.0190001 40
43.076 -0.352 -0.93800002 36
43.194 -0.38499999 -0.85299999 41
43.278 -0.419 -0.76800001 45
43.362 -0.45199999 -0.68199998 56
43.387001 -0.48500001 -0.597 30
43.362999 -0.51899999 -0.509 3
0 0 0 0
0 0 0 10
42.922001 -0.61400002 -0.24600001 23
42.952999 -0.64899999 -0.161 8
0 0 0 70
49.632 -0.82999998 0.011 114
49.620998 -0.87 0.109 114
49.624001 -0.91100001 0.208 114
46.755001 -0.89700001 0.287 5
0 0 0 98
0 0 0 9
46.521999 -1.0089999 0.56 6
46.471001 -1.048 0.65100002 13
46.400002 -1.086 0.741 21
0 0 0 8
42.492001 -1.068 0.84500003 25
42.472 -1.104 0.926 47
42.473 -1.142 1.0089999 48
42.48 -1.1799999 1.091 50
42.485001 -1.217 1.173 49
42.487999 -1.256 1.255 48
42.542999 -1.296 1.339 20
42.632999 -1.337 1.423 5
42.571999 -1.374 1.503 12
42.769001 -1.419 1.589 22
42.500999 -1.451 1.663 11
42.167999 -1.479 1.73 2
39.865002 -1.4349999 1.711 5
38.757 -1.431 1.737 5
37.936001 -1.438 1.773 7
37.370998 -1.452 1.817 8
36.567001 -1.455 1.846 9
35.776001 -1.4579999 1.873 11
35.268002 -1.472 1.9119999 15
34.917 -1.4910001 1.959 13
34.610001 -1.512 2.006 11
34.365002 -1.535 2.0550001 13
34.120998 -1.558 2.1029999 11
33.911999 -1.582 2.1530001 13
33.683998 -1.604 2.2 45
33.653 -1.637 2.2590001 54
33.662998 -1.671 2.322 53
33.671001 -1.706 2.3840001 51
33.682999 -1.74 2.4460001 49
33.682999 -1.775 2.507 47
33.688 -1.8099999 2.5680001 52
33.675999 -1.844 2.6270001 50
33.688999 -1.88 2.6889999 55
33.66 -1.913 2.747 99
33.682999 -1.949 2.8080001 99
33.706001 -1.985 2.8699999 99
33.716 -2.0209999 2.9300001 69
33.716 -2.056 2.9890001 82
33.735001 -2.0929999 3.05 61
33.742001 -2.1289999 3.109 66
33.751999 -2.165 3.168 60
33.757 -2.2019999 3.227 60
33.776001 -2.2390001 3.2869999 62
33.772999 -2.2750001 3.345 61
33.776001 -2.312 3.4030001 60
33.780998 -2.349 3.4619999 60
33.782001 -2.385 3.5179999 57
33.796001 -2.4230001 3.5769999 54
33.790001 -2.46 3.6329999 56
33.797001 -2.497 3.691 56
33.803001 -2.5350001 3.7479999 56
33.801998 -2.572 3.8039999 59
33.811001 -2.6099999 3.862 59
33.817001 -2.6470001 3.9170001 54
33.827999 -2.6849999 3.974 56
33.835999 -2.724 4.0300002 51
33.826 -2.76 4.0830002 56
33.846001 -2.799 4.1399999 56
33.844002 -2.8369999 4.1939998 56
33.861 -2.8759999 4.2509999 53
33.845001 -2.9130001 4.303 53
33.863998 -2.9530001 4.3590002 55
33.882 -2.993 4.415 17
33.979 -3.04 4.4819999 3
34.130001 -3.092 4.5539999 2
34.016998 -3.119 4.5910001 2
34.091 -3.165 4.6550002 3
0 0 0 0
0 0 0 2
0 0 0 0
0 0 0 0
0 0 0 0
0 0 0 0
0 0 0 0
0 0 0 0
0 0 0 0
0 0 0 0
0 0 0 0
0 0 0 0
0 0 0 0
0 0 0 0
0 0 0 1
34.230999 -3.8039999 5.4819999 2
34.166 -3.8369999 5.5190001 2
34.254002 -3.8859999 5.5809999 2
0 0 0 0
0 0 0 15
26.183001 -3.0599999 4.3730001 20
26.132999 -3.0840001 4.4000001 26
26.082001 -3.108 4.4260001 29
26.052 -3.135 4.4559999 32
26.014 -3.1600001 4.4840002 34
25.990999 -3.1860001 4.5139999 39
25.973 -3.214 4.5450001 42
25.948999 -3.2409999 4.5739999 43
25.941999 -3.27 4.6059999 44
25.917999 -3.296 4.6350002 46
25.915001 -3.325 4.6669998 50
25.900999 -3.3529999 4.6960001 41
25.895 -3.382 4.7280002 44
25.892 -3.411 4.7600002 44
25.877001 -3.438 4.789 57
25.875 -3.467 4.8189998 58
25.889 -3.4979999 4.8530002 45
25.875999 -3.5250001 4.881 54
25.889 -3.556 4.915 35
25.888 -3.586 4.9460001 37
25.886999 -3.615 4.9759998 48
25.893 -3.645 5.007 41
25.907 -3.6760001 5.039 43
25.931999 -3.7090001 5.073 38
25.936001 -3.7390001 5.1040001 37
25.961 -3.7709999 5.1370001 35
25.979 -3.803 5.1700001 34
26.011 -3.836 5.204 30
26.045 -3.8699999 5.2399998 26
26.086 -3.905 5.276 23
26.146999 -3.944 5.3169999 18
26.216 -3.9820001 5.3579998 6
0 0 0 25
31.518 -4.8569999 6.5079999 28
31.392 -4.8720002 6.5139999 24
31.257999 -4.8860002 6.5180001 27
31.152 -4.9029999 6.527 26
31.040001 -4.9190001 6.533 25
30.9 -4.9299998 6.5339999 25
30.757 -4.941 6.5339999 26
30.648001 -4.9559999 6.5409999 25
30.511999 -4.9660001 6.54 28
30.427999 -4.9850001 6.5500002 27
30.292999 -4.9949999 6.5489998 25
30.190001 -5.0100002 6.5549998 25
30.073999 -5.0229998 6.5570002 25
29.983 -5.0380001 6.5640001 28
29.868 -5.0510001 6.5650001 30
29.782 -5.0669999 6.572 23
29.656 -5.0770001 6.5700002 25
29.544001 -5.0879998 6.5700002 27
29.427999 -5.098 6.5689998 28
29.344999 -5.1139998 6.5749998 29
29.281 -5.1329999 6.585 26
29.181999 -5.145 6.586 29
29.121 -5.164 6.5949998 29
29.021999 -5.1750002 6.5960002 28
28.940001 -5.1890001 6.599 26
28.823999 -5.197 6.5949998 29
28.757999 -5.2140002 6.6009998 26
28.676001 -5.2280002 6.6040001 30
28.599001 -5.2410002 6.6079998 29
28.528 -5.256 6.612 25
28.452999 -5.27 6.6149998 26
28.378 -5.2839999 6.6170001 25
28.299 -5.2969999 6.618 29
28.218 -5.3080001 6.618 29
28.127001 -5.3179998 6.6149998 28
28.086 -5.3369999 6.6240001 28
28.011999 -5.349 6.6240001 28
27.950001 -5.3629999 6.6279998 29
27.888 -5.3769999 6.6300001 28
27.816 -5.388 6.6300001 28
27.757 -5.4029999 6.632 25
27.691999 -5.415 6.6329999 26
27.622999 -5.427 6.632 28
27.577 -5.4429998 6.6360002 24
27.523001 -5.4569998 6.638 25
27.464001 -5.4699998 6.6389999 28
27.382 -5.4780002 6.6329999 30
27.353001 -5.4949999 6.6409998 25
27.302 -5.5089998 6.6420002 31
0 0 0 1
18.252001 -3.714 4.4580002 8
18.198999 -3.7179999 4.4530001 14
18.160999 -3.7249999 4.4520001 19
18.138 -3.7360001 4.4549999 17
18.098 -3.7420001 4.4530001 24
18.087 -3.7550001 4.4580002 26
18.042 -3.76 4.454 28
18.014 -3.7690001 4.454 31
17.995001 -3.779 4.4569998 32
17.98 -3.79 4.46 34
17.964001 -3.8010001 4.4619999 38
17.968 -3.8150001 4.4699998 28
17.93 -3.8210001 4.4660001 36
17.936001 -3.836 4.474 38
17.906 -3.8429999 4.4720001 37
17.924 -3.8599999 4.4819999 40
17.898001 -3.868 4.4809999 39
17.893999 -3.8800001 4.4850001 40
17.884001 -3.891 4.487 38
17.886999 -3.904 4.493 40
17.865999 -3.9119999 4.4920001 42
17.855 -3.9219999 4.493 45
17.836 -3.9300001 4.4920001 44
17.854 -3.9460001 4.5 49
17.832001 -3.954 4.4990001 43
17.83 -3.9649999 4.5009999 47
17.825001 -3.9760001 4.5029998 48
17.819 -3.9860001 4.5050001 47
17.813999 -3.9960001 4.506 46
17.804001 -4.0050001 4.506 49
17.813 -4.0180001 4.5110002 51
17.799 -4.026 4.5089998 47
17.801001 -4.0370002 4.5120001 47
17.790001 -4.0450001 4.5110002 46
17.785999 -4.0549998 4.5110002 50
17.794001 -4.0669999 4.5149999 54
17.797001 -4.0770001 4.5159998 51
17.797001 -4.0869999 4.5170002 54
17.777 -4.0929999 4.513 50
17.783001 -4.1040001 4.5149999 52
17.792999 -4.1160002 4.5180001 58
17.778 -4.1209998 4.5139999 49
17.777 -4.1300001 4.5139999 51
17.777 -4.1389999 4.513 52
17.773001 -4.1469998 4.5120001 51
17.77 -4.1550002 4.5100002 50
17.768 -4.1630001 4.5089998 47
17.780001 -4.1739998 4.5110002 50
17.768 -4.1799998 4.506 47
17.775999 -4.1900001 4.507 48
17.794001 -4.2020001 4.5089998 51
17.777 -4.2049999 4.5029998 46
17.780001 -4.2140002 4.5019999 48
17.782 -4.2220001 4.5 44
17.782 -4.2290001 4.4970002 40
17.774 -4.2340002 4.4920001 40
17.77 -4.2399998 4.4889998 38
17.788 -4.2509999 4.4899998 37
17.788 -4.257 4.4860001 42
17.783001 -4.263 4.4819999 42
17.790001 -4.27 4.48 44
17.771999 -4.2719998 4.4710002 43
17.780001 -4.2800002 4.4689999 45
17.794001 -4.289 4.4679999 46
17.785 -4.2919998 4.461 45
17.792999 -4.3000002 4.4590001 45
17.792999 -4.3049998 4.4530001 42
17.794001 -4.3099999 4.4489999 44
17.778 -4.3109999 4.4400001 41
17.792 -4.3200002 4.4369998 44
17.788 -4.323 4.4310002 44
17.804001 -4.3309999 4.4289999 42
17.797001 -4.3330002 4.421 42
17.805 -4.3390002 4.4169998 44
17.799 -4.3410001 4.4089999 43
17.802 -4.3460002 4.4029999 41
17.792999 -4.3470001 4.3940001 43
17.797001 -4.3509998 4.3870001 44
17.789 -4.3520002 4.3779998 39
17.794001 -4.3569999 4.3720002 42
17.799999 -4.3610001 4.3649998 44
17.804001 -4.3639998 4.3590002 41
17.794001 -4.3639998 4.348 39
17.806999 -4.369 4.3429999 40
17.809999 -4.3720002 4.336 44
17.799 -4.3709998 4.3239999 44
17.799 -4.3720002 4.316 42
17.809999 -4.3769999 4.309 41
17.813 -4.3790002 4.3000002 39
17.796 -4.3759999 4.2870002 41
17.816999 -4.382 4.283 42
17.798 -4.3779998 4.2690001 37
17.823 -4.3850002 4.2649999 38
17.820999 -4.3839998 4.2540002 40
17.806 -4.381 4.2410002 39
17.798 -4.3790002 4.2280002 36
17.802 -4.3790002 4.2189999 39
17.802999 -4.3800001 4.2080002 39
17.805 -4.3800001 4.197 39
17.811001 -4.3800001 4.1880002 40
17.805 -4.3769999 4.1750002 40
17.802999 -4.3759999 4.1630001 38
17.795 -4.3730001 4.1500001 39
17.801001 -4.3720002 4.1389999 39
17.801001 -4.3709998 4.1269999 40
17.806 -4.3699999 4.1170001 41
17.809 -4.369 4.105 40
17.787001 -4.3610001 4.0869999 42
17.802 -4.3629999 4.0780001 43
17.795 -4.3579998 4.0640001 42
17.799 -4.3569999 4.052 44
17.785 -4.3499999 4.0349998 40
17.796 -4.349 4.0240002 40
17.785 -4.3429999 4.0089998 40
17.785 -4.3400002 3.9949999 42
17.783001 -4.335 3.9809999 43
17.771999 -4.329 3.964 41
17.780001 -4.3260002 3.9519999 43
17.774 -4.3200002 3.937 43
17.783001 -4.3189998 3.924 44
17.771 -4.3109999 3.9070001 44
17.763 -4.3039999 3.891 41
17.773001 -4.3010001 3.8789999 41
17.756001 -4.2919998 3.859 41
17.764999 -4.289 3.8469999 44
17.775999 -4.2859998 3.8329999 46
17.764 -4.277 3.8150001 48
17.774 -4.2729998 3.802 50
17.766001 -4.2649999 3.7850001 47
17.75 -4.256 3.766 45
17.757 -4.25 3.7520001 44
17.757999 -4.244 3.7349999 41
17.757 -4.237 3.7190001 40
17.756001 -4.23 3.7019999 36
17.761 -4.224 3.687 27
17.750999 -4.2140002 3.668 41
17.743999 -4.2049999 3.6500001 44
17.742001 -4.1960001 3.632 45
17.739 -4.1880002 3.6140001 45
17.74 -4.1799998 3.598 49
17.75 -4.1739998 3.582 50
17.757 -4.1669998 3.566 50
17.749001 -4.1560001 3.5469999 51
17.737 -4.145 3.527 48
17.742001 -4.1370001 3.51 49
17.746 -4.1279998 3.493 45
17.743999 -4.118 3.474 50
17.73 -4.105 3.454 45
17.738001 -4.0970001 3.437 51
17.736 -4.0869999 3.418 55
17.743 -4.0780001 3.4000001 56
17.746 -4.0689998 3.382 51
17.754 -4.0599999 3.365 52
17.743999 -4.0469999 3.3440001 52
17.757 -4.039 3.3280001 54
17.747999 -4.0250001 3.3069999 54
17.752001 -4.0149999 3.289 53
17.775 -4.0089998 3.273 34
17.761999 -3.994 3.2509999 49
17.789 -3.9879999 3.2360001 33
17.771999 -3.9719999 3.214 49
17.766001 -3.9590001 3.1930001 49
17.773001 -3.9489999 3.174 50
17.797001 -3.941 3.158 33
17.796 -3.928 3.138 51
17.799 -3.915 3.118 46
17.806999 -3.904 3.0999999 43
17.813 -3.892 3.0799999 43
17.82 -3.8800001 3.0599999 43
17.826 -3.868 3.0409999 45
17.836 -3.8559999 3.0220001 44
17.85 -3.845 3.0039999 41
17.858999 -3.8329999 2.984 36
17.868 -3.8199999 2.964 36
17.881001 -3.809 2.9460001 36
17.895 -3.796 2.9260001 35
17.903999 -3.783 2.9059999 34
17.917999 -3.7709999 2.8870001 34
17.917999 -3.756 2.8659999 30
17.955 -3.7479999 2.8499999 31
17.964001 -3.734 2.8299999 31
17.987 -3.723 2.8110001 28
18.025999 -3.7149999 2.7950001 25
18.056 -3.7049999 2.7780001 22
18.089001 -3.6949999 2.76 20
18.134001 -3.687 2.7449999 18
18.172001 -3.678 2.7290001 13
18.254 -3.677 2.7179999 2
0 0 0 3
34.396 -6.8629999 5.0370002 2
0 0 0 0
0 0 0 2
0 0 0 0
0 0 0 0
0 0 0 0
0 0 0 0
0 0 0 0
0 0 0 0
0 0 0 0
0 0 0 0
0 0 0 0
0 0 0 0
0 0 0 0
0 0 0 0
0 0 0 0
0 0 0 0
0 0 0 0
0 0 0 0
0 0 0 0
0 0 0 0
0 0 0 0
0 0 0 0
0 0 0 0
0 0 0 0
0 0 0 0
0 0 0 0
0 0 0 0
0 0 0 0
0 0 0 0
0 0 0 0
0 0 0 3
34.091 -5.5799999 3.585 21
34.102001 -5.539 3.5409999 29
34.140999 -5.5019999 3.5 5
0 0 0 0
0 0 0 0
0 0 0 0
0 0 0 0
0 0 0 0
0 0 0 0
0 0 0 4
34.051998 -5.1300001 3.1340001 14
0 0 0 10
25.997999 -3.846 2.3239999 21
25.945 -3.8039999 2.2850001 27
25.905001 -3.7620001 2.2479999 32
25.867001 -3.721 2.21 33
25.849001 -3.6819999 2.174 36
25.820999 -3.641 2.138 38
25.813999 -3.605 2.1040001 43
25.795 -3.566 2.069 48
25.771 -3.5250001 2.033 48
25.788 -3.4909999 2 45
25.759001 -3.45 1.964 45
25.729 -3.4089999 1.929 56
25.778 -3.378 1.898 56
25.790001 -3.342 1.8660001 49
25.797001 -3.3039999 1.832 49
25.813 -3.2690001 1.8 47
25.816 -3.23 1.766 48
25.847 -3.1960001 1.735 41
25.882999 -3.161 1.7029999 34
25.896 -3.1240001 1.671 37
25.937 -3.0899999 1.64 33
25.981001 -3.0550001 1.609 30
26.030001 -3.0209999 1.579 25
26.112 -2.9909999 1.55 18
26.219 -2.9630001 1.523 5
0 0 0 16
34.014999 -3.7379999 1.888 16
34.034 -3.687 1.847 18
34.035 -3.6340001 1.803 16
33.821999 -3.5580001 1.749 67
33.778999 -3.5 1.7029999 72
33.787998 -3.447 1.661 95
33.764 -3.3900001 1.617 104
33.761002 -3.336 1.574 104
33.763 -3.2809999 1.531 96
33.743999 -3.2249999 1.489 105
33.744999 -3.171 1.446 101
33.744999 -3.1159999 1.404 110
33.731998 -3.059 1.3609999 102
33.738998 -3.003 1.319 94
33.702 -2.9460001 1.277 107
33.701 -2.8900001 1.235 103
33.695 -2.8329999 1.193 102
33.692001 -2.777 1.152 101
33.679001 -2.721 1.1109999 111
33.691002 -2.665 1.0700001 79
33.689999 -2.609 1.029 98
33.652 -2.549 0.98699999 95
33.654999 -2.4920001 0.94700003 100
33.666 -2.4360001 0.90600002 73
33.650002 -2.3770001 0.86500001 99
33.657001 -2.3199999 0.82499999 104
33.641998 -2.2609999 0.78500003 103
33.729 -2.2090001 0.74699998 14
34.115002 -2.175 0.71499997 8
34.522999 -2.141 0.68199998 8
34.952999 -2.1070001 0.64999998 7
35.328999 -2.0669999 0.61500001 9
35.784 -2.033 0.58200002 10
37.560001 -2.0669999 0.56699997 21
37.542 -2 0.523 21
37.541 -1.934 0.47999999 21
37.514999 -1.867 0.43700001 22
37.973 -1.822 0.39899999 5
38.417 -1.776 0.36000001 6
39.108002 -1.738 0.322 19
39.188 -1.671 0.27900001 24
39.292999 -1.6059999 0.236 19
41.523998 -1.624 0.20299999 75
41.512001 -1.549 0.15700001 90
41.594002 -1.475 0.111 34
41.785999 -1.406 0.064999998 35
42.027 -1.339 0.02 5
42.443001 -1.275 -0.025 35
41.971001 -1.184 -0.071000002 3
42.41 -1.119 -0.117 5
42.212002 -1.0369999 -0.162 7
0 0 0 5
36.495998 -0.76300001 -0.21799999 7
36.492001 -0.69599998 -0.25600001 27
0 0 0 23
43 -0.662 -0.39199999 29
43.250999 -0.58399999 -0.44 16
43.389999 -0.50599998 -0.486 3
43.610001 -0.42699999 -0.53399998 29
43.555 -0.34599999 -0.57800001 63
43.539001 -0.264 -0.62199998 24
0 0 0 129
57.68 -0.134 -0.94 114
0 0 0 8
0 0 0 11
65.721001 0.214 -1.267 74
65.731003 0.338 -1.331 29
65.696999 0.46000001 -1.3940001 49
65.697998 0.583 -1.457 40
0 0 0 0
0 0 0 74
71.061996 1.035 -1.781 111
0 0 0 12
44.945 0.824 -1.21 88
0 0 0 150
47.860001 1.059 -1.377 155
0 0 0 163
50.997002 1.322 -1.5599999 180
50.979 1.419 -1.6059999 15
0 0 0 20
0 0 0 0
0 0 0 190
59.764 2.1170001 -2.0929999 171
0 0 0 155
64.442001 2.527 -2.3670001 163
0 0 0 180
69.767998 3.0039999 -2.6819999 164
72.661003 3.2679999 -2.8540001 108
0 0 0 0
0 0 0 0
0 0 0 0
0 0 0 0
0 0 0 0
0 0 0 2
0 0 0 0
0 0 0 0
0 0 0 0
0 0 0 0
0 0 0 0
0 0 0 2
25.266001 1.7640001 -1.252 3
24.656 1.7690001 -1.24 4
25.132 1.85 -1.2819999 2
24.360001 1.84 -1.26 1
0 0 0 0
0 0 0 0
0 0 0 0
0 0 0 1
18.711 1.5930001 -1.034 2
19.004 1.653 -1.063 1
0 0 0 1
17.311001 1.572 -0.99199998 1
17.799999 1.65 -1.0319999 2
17.278 1.635 -1.013 2
16.882999 1.63 -1.001 4
16.518 1.626 -0.99000001 5
16.268999 1.632 -0.98500001 3
15.958 1.632 -0.97600001 3
15.243 1.587 -0.94199997 4
15.366 1.6289999 -0.95899999 2
15.174 1.638 -0.95599997 2
14.853 1.631 -0.94499999 2
14.65 1.636 -0.94099998 2
14.419 1.638 -0.93400002 2
14.198 1.6390001 -0.92799997 3
14.015 1.6440001 -0.92400002 3
13.82 1.647 -0.91900003 3
13.641 1.651 -0.91399997 3
13.423 1.649 -0.90700001 3
13.236 1.651 -0.90200001 3
13.062 1.654 -0.89700001 3
12.907 1.658 -0.89300001 3
12.744 1.661 -0.88800001 2
12.592 1.664 -0.884 3
12.444 1.668 -0.88 3
12.302 1.6720001 -0.87599999 3
12.135 1.671 -0.87 3
12.003 1.675 -0.866 3
11.912 1.684 -0.86500001 3
11.807 1.691 -0.86299998 2
11.693 1.696 -0.86000001 2
11.614 1.706 -0.86000001 2
11.532 1.715 -0.85900003 2
11.41 1.717 -0.85500002 3
11.31 1.722 -0.852 2
11.172 1.722 -0.84600002 3
11.108 1.732 -0.84600002 2
11 1.735 -0.84200001 2
10.89 1.737 -0.838 2
10.783 1.739 -0.83499998 2
10.678 1.7410001 -0.82999998 2
10.558 1.74 -0.82499999 2
10.483 1.747 -0.82300001 2
10.384 1.749 -0.81999999 4
10.306 1.7539999 -0.81699997 4
10.268 1.765 -0.81800002 3
10.229 1.777 -0.81800002 4
10.135 1.778 -0.81400001 4
10.122 1.793 -0.81599998 4
10.035 1.795 -0.81300002 4
9.9980001 1.806 -0.81300002 3
9.9280005 1.8099999 -0.81 4
9.8970003 1.822 -0.81099999 3
9.8269997 1.826 -0.80800003 4
9.7480001 1.8279999 -0.80400002 4
9.7019997 1.835 -0.80299997 4
9.6680002 1.845 -0.80299997 4
9.6020002 1.849 -0.80000001 3
9.5679998 1.859 -0.80000001 4
9.5340004 1.868 -0.80000001 5
9.4689999 1.8710001 -0.796 4
9.4390001 1.881 -0.796 5
9.382 1.885 -0.79400003 5
9.3430004 1.892 -0.79299998 5
9.3070002 1.9 -0.792 4
9.2749996 1.909 -0.79100001 5
9.2449999 1.9170001 -0.79000002 4
9.1899996 1.921 -0.787 5
9.1599998 1.929 -0.787 5
9.1490002 1.941 -0.787 4
9.118 1.949 -0.787 4
9.0909996 1.9579999 -0.78600001 4
9.0279999 1.959 -0.78200001 4
9.0129995 1.969 -0.78200001 4
8.9879999 1.978 -0.78100002 5
8.9610004 1.9859999 -0.77999997 5
8.941 1.995 -0.77999997 5
8.9040003 2.0009999 -0.778 5
8.9189997 2.017 -0.77999997 4
8.868 2.02 -0.77700001 5
8.8540001 2.03 -0.77700001 5
8.8400002 2.04 -0.77700001 5
8.8290005 2.05 -0.77700001 5
8.823 2.062 -0.77700001 5
8.7980003 2.069 -0.77600002 5
8.7790003 2.0769999 -0.77499998 4
8.776 2.0899999 -0.77499998 5
8.757 2.098 -0.77399999 5
8.7580004 2.1099999 -0.77499998 4
8.7220001 2.1140001 -0.773 5
8.7229996 2.1270001 -0.773 5
8.7060003 2.135 -0.77200001 5
8.6969995 2.145 -0.77200001 5
8.6920004 2.1559999 -0.77200001 4
8.6899996 2.1670001 -0.77200001 5
8.6999998 2.1819999 -0.773 4
8.6800003 2.188 -0.77100003 4
8.6829996 2.201 -0.77200001 4
8.6870003 2.214 -0.77200001 4
8.6639996 2.2190001 -0.76999998 4
8.6639996 2.2309999 -0.76999998 4
8.6680002 2.243 -0.77100003 4
8.6540003 2.2509999 -0.76899999 4
8.658 2.263 -0.76999998 4
8.6719999 2.2780001 -0.77100003 4
8.6630001 2.2869999 -0.76999998 3
8.6459999 2.293 -0.76800001 3
8.6820002 2.3139999 -0.77100003 4
8.6890001 2.326 -0.77100003 4
8.6780005 2.3340001 -0.76999998 4
8.6870003 2.3469999 -0.76999998 4
8.6999998 2.3610001 -0.77100003 4
8.6960001 2.3699999 -0.76999998 4
8.7159996 2.3859999 -0.77100003 4
8.7449999 2.404 -0.773 5
8.8310003 2.438 -0.77999997 8
8.8199997 2.4449999 -0.778 7
8.7650003 2.4400001 -0.773 4
8.7629995 2.4489999 -0.77100003 4
8.7690001 2.461 -0.77100003 4
8.7690001 2.47 -0.76999998 4
8.802 2.4890001 -0.77200001 4
8.8170004 2.503 -0.773 4
8.8430004 2.52 -0.77399999 5
8.8629999 2.5350001 -0.77399999 7
8.8950005 2.553 -0.77600002 10
8.9099998 2.5669999 -0.77600002 7
8.9370003 2.5840001 -0.77700001 5
8.9709997 2.6029999 -0.77899998 6
9.0349998 2.631 -0.78299999 7
9.0500002 2.6440001 -0.78299999 9
9.0839996 2.6630001 -0.78399998 8
9.0900002 2.6730001 -0.78399998 12
9.1009998 2.6849999 -0.78299999 15
9.1120005 2.697 -0.78200001 10
9.125 2.7090001 -0.78200001 13
9.1619997 2.7279999 -0.78299999 12
9.1850004 2.744 -0.78399998 11
9.184 2.7509999 -0.78200001 15
9.1960001 2.763 -0.78100002 16
9.2030001 2.773 -0.77999997 16
9.2229996 2.7869999 -0.77999997 16
9.2399998 2.8 -0.77899998 14
9.2480001 2.8099999 -0.778 15
9.2810001 2.8280001 -0.77899998 8
9.2939997 2.839 -0.778 9
9.3039999 2.8499999 -0.77600002 10
9.3640003 2.875 -0.77899998 6
9.3999996 2.8929999 -0.77999997 6
9.4519997 2.9159999 -0.78200001 5
9.4709997 2.9289999 -0.78200001 5
9.5200005 2.951 -0.78299999 5
9.573 2.9749999 -0.78500003 3
9.6160002 2.9949999 -0.78600001 4
9.6549997 3.0139999 -0.787 4
9.6990004 3.0339999 -0.78799999 4
9.7340002 3.0510001 -0.78799999 5
9.7770004 3.0710001 -0.78899997 6
9.8120003 3.0880001 -0.78899997 7
9.8730001 3.1129999 -0.79100001 6
9.9329996 3.138 -0.79299998 5
9.9949999 3.1630001 -0.79500002 4
10.076 3.1949999 -0.79900002 4
10.134 3.2190001 -0.80000001 4
10.178 3.2390001 -0.801 5
10.224 3.2590001 -0.801 5
10.272 3.279 -0.80199999 5
10.328 3.302 -0.80299997 5
10.386 3.326 -0.80500001 5
10.464 3.3559999 -0.80699998 4
10.509 3.375 -0.80699998 4
10.551 3.3940001 -0.80699998 4
10.626 3.4230001 -0.81 5
10.675 3.4430001 -0.81 5
10.763 3.4760001 -0.81300002 5
10.826 3.5 -0.81400001 4
10.869 3.5179999 -0.81400001 5
10.947 3.5469999 -0.81599998 4
11.01 3.572 -0.81699997 4
11.08 3.598 -0.81800002 4
11.179 3.6340001 -0.82200003 3
11.271 3.6670001 -0.824 5
11.351 3.697 -0.82599998 6
11.442 3.73 -0.829 5
11.499 3.7509999 -0.829 7
11.571 3.7780001 -0.82999998 6
11.641 3.803 -0.82999998 6
11.667 3.8139999 -0.82800001 6
11.741 3.8410001 -0.829 5
11.798 3.862 -0.829 4
11.895 3.8959999 -0.83099997 5
11.961 3.9200001 -0.83099997 4
12.042 3.948 -0.83200002 3
12.125 3.977 -0.83200002 3
12.208 4.006 -0.83399999 3
12.3 4.0380001 -0.83499998 3
12.424 4.0799999 -0.83899999 3
12.537 4.118 -0.84100002 3
12.681 4.1659999 -0.84600002 3
12.804 4.2069998 -0.84899998 3
12.907 4.2410002 -0.85100001 3
13.042 4.2859998 -0.85399997 3
13.168 4.3280001 -0.85699999 4
13.358 4.3899999 -0.86400002 4
13.509 4.4400001 -0.86799997 3
13.681 4.4959998 -0.87400001 4
13.838 4.5469999 -0.87699997 4
13.971 4.5900002 -0.88 4
14.11 4.6339998 -0.88300002 4
14.212 4.6659999 -0.88300002 4
14.334 4.7049999 -0.88499999 4
0 0 0 1
11.513 3.776 -0.70099998 1
11.462 3.7579999 -0.69300002 1
11.434 3.747 -0.68599999 2
11.398 3.733 -0.67900002 2
11.366 3.72 -0.67199999 3
11.332 3.707 -0.66500002 4
11.268 3.684 -0.65600002 4
11.234 3.6700001 -0.64999998 5
11.186 3.651 -0.64200002 6
11.164 3.641 -0.63599998 7
11.121 3.6240001 -0.62800002 6
11.063 3.602 -0.62 5
10.985 3.573 -0.61000001 4
10.865 3.5309999 -0.59899998 3
10.721 3.48 -0.58600003 2
10.608 3.4400001 -0.57499999 2
10.488 3.3970001 -0.56400001 2
10.384 3.3599999 -0.55299997 2
10.318 3.3340001 -0.54500002 2
10.292 3.322 -0.53899997 2
10.247 3.303 -0.53200001 2
10.245 3.2980001 -0.52700001 2
10.261 3.299 -0.523 2
10.291 3.303 -0.51999998 2
10.321 3.3080001 -0.51700002 2
10.355 3.3139999 -0.514 2
10.346 3.306 -0.50800002 2
10.366 3.3069999 -0.505 3
10.382 3.306 -0.50099999 3
10.432 3.3169999 -0.498 3
10.475 3.325 -0.495 3
10.517 3.332 -0.49200001 4
10.54 3.3329999 -0.48899999 4
10.518 3.3199999 -0.48300001 4
10.556 3.325 -0.47999999 3
10.583 3.3269999 -0.47600001 3
10.598 3.325 -0.47099999 3
10.56 3.306 -0.465 3
10.527 3.289 -0.45899999 4
10.496 3.2720001 -0.45199999 4
10.511 3.2690001 -0.44800001 5
10.505 3.26 -0.44299999 6
10.515 3.256 -0.43799999 7
10.519 3.2490001 -0.43399999 8
10.507 3.237 -0.428 9
10.517 3.2320001 -0.42300001 9
10.5 3.2190001 -0.41800001 23
10.509 3.214 -0.41299999 150
10.55 3.2179999 -0.41 152
10.577 3.217 -0.40599999 152
10.615 3.22 -0.403 151
10.628 3.2149999 -0.398 150
10.636 3.2079999 -0.39300001 150
10.679 3.2119999 -0.38999999 150
10.702 3.21 -0.38600001 148
10.75 3.214 -0.382 91
10.778 3.2130001 -0.37799999 57
10.81 3.2119999 -0.37400001 36
10.856 3.2160001 -0.37099999 29
10.919 3.224 -0.368 18
10.94 3.22 -0.36399999 7
0 0 0 9
30.024 8.7799997 -0.972 13
29.891001 8.7110004 -0.954 118
29.906 8.6850004 -0.94 29
29.906 8.6549997 -0.92699999 11
29.913 8.6260004 -0.91399997 13
29.940001 8.6020002 -0.90100002 11
29.985001 8.5839996 -0.889 6
29.969 8.5469999 -0.875 6
30.018 8.5279999 -0.86299998 7
29.982 8.4849997 -0.84799999 7
29.940001 8.4399996 -0.83399999 8
29.916 8.3990002 -0.81900001 8
29.934 8.3699999 -0.80599999 7
29.93 8.335 -0.79299998 7
29.937 8.302 -0.77999997 8
29.952 8.2720003 -0.76800001 7
29.947001 8.2349997 -0.755 7
29.948 8.1999998 -0.74199998 6
29.978001 8.1719999 -0.72899997 6
29.99 8.1379995 -0.71600002 5
29.947001 8.0900002 -0.70300001 5
29.981001 8.0620003 -0.69 4
29.987 8.026 -0.67799997 4
30.018 7.9959998 -0.66500002 4
29.978001 7.947 -0.65200001 3
29.981001 7.9099998 -0.63999999 3
29.962999 7.8660002 -0.62599999 2
29.993999 7.835 -0.61400002 2
29.987 7.7940001 -0.602 2
30.033001 7.7659998 -0.58999997 2
29.975 7.711 -0.57700002 2
30.066 7.6919999 -0.56699997 2
30.048 7.6459999 -0.55400002 2
30.039 7.6030002 -0.542 2
30.052 7.5640001 -0.52999997 2
30.075001 7.5279999 -0.51800001 2
29.999001 7.4660001 -0.50599998 1
0 0 0 0
0 0 0 0
0 0 0 0
0 0 0 0
0 0 0 0
0 0 0 0
0 0 0 0
0 0 0 0
0 0 0 0
0 0 0 0
0 0 0 0
0 0 0 3
30.059 6.9029999 -0.36300001 5
30.062 6.8559999 -0.352 4
30.082001 6.8140001 -0.34200001 4
30.101 6.7719998 -0.33199999 6
0 0 0 0
0 0 0 0
0 0 0 0
0 0 0 0
0 0 0 0
0 0 0 14
0 0 0 0
0 0 0 0
0 0 0 0
0 0 0 0
0 0 0 0
0 0 0 0
0 0 0 0
0 0 0 0
0 0 0 0
0 0 0 0
0 0 0 0
0 0 0 3
47.714001 9.2309999 -0.25600001 4
47.686001 9.1420002 -0.244 4
47.751999 9.0710001 -0.23199999 5
47.699001 8.9750004 -0.221 5
47.737 8.8979998 -0.20999999 4
47.712002 8.8079996 -0.199 5
47.787998 8.7370005 -0.18799999 5
47.695999 8.6359997 -0.177 6
47.756001 8.5620003 -0.16599999 6
47.832001 8.4899998 -0.15700001 6
47.698002 8.3800001 -0.146 5
47.780998 8.3070002 -0.13699999 3
0 0 0 0
0 0 0 0
0 0 0 0
0 0 0 0
0 0 0 23
114.921 18.709 -0.20299999 37
114.836 18.483999 -0.185 45
114.797 18.261999 -0.16599999 56
114.844 18.052999 -0.148 46
114.968 17.855 -0.131 35
115.179 17.672001 -0.116 26
0 0 0 31
0 0 0 0
0 0 0 0
0 0 0 0
0 0 0 0
0 0 0 0
0 0 0 0
0 0 0 0
0 0 0 0
0 0 0 0
0 0 0 0
0 0 0 0
0 0 0 0
0 0 0 0
0 0 0 0
0 0 0 0
0 0 0 0
0 0 0 0
0 0 0 0
0 0 0 0
0 0 0 0
0 0 0 0
0 0 0 0
0 0 0 0
0 0 0 0
0 0 0 0
0 0 0 0
0 0 0 0
0 0 0 19
87.057999 8.1999998 0.041000001 19
0 0 0 0
0 0 0 0
0 0 0 0
0 0 0 16
88.761002 7.454 0.014 24
88.702003 7.263 0.0060000001 19
0 0 0 0
0 0 0 0
0 0 0 16
86.371002 6.3590002 -0.027000001 21
86.178001 6.164 -0.037999999 12
86.596001 6.0139999 -0.048999999 14
0 0 0 0
0 0 0 25
0 0 0 0
0 0 0 27
0 0 0 0
0 0 0 0
0 0 0 0
0 0 0 0
0 0 0 0
0 0 0 0
0 0 0 0
0 0 0 0
0 0 0 0
0 0 0 27
132.336 5.0289998 -0.43399999 31
132.36099 4.7509999 -0.46599999 30
132.343 4.4720001 -0.498 33
132.453 4.1999998 -0.53200001 45
132.526 3.9189999 -0.56599998 47
132.586 3.6440001 -0.602 44
0 0 0 28
72.000999 1.677 -0.366 54
71.996002 1.525 -0.38699999 51
72.003998 1.373 -0.40799999 52
72.075996 1.222 -0.43000001 47
71.122002 1.0549999 -0.44600001 81
0 0 0 27
65.802002 0.69800001 -0.454 62
65.730003 0.55800003 -0.47600001 71
65.732002 0.419 -0.498 148
65.735001 0.28099999 -0.51999998 109
0 0 0 22
57.756001 0.0020000001 -0.498 48
57.694 -0.118 -0.51800001 121
57.694 -0.23999999 -0.54000002 128
0 0 0 4
0 0 0 0
0 0 0 48
0 0 0 15
43.028 -0.63099998 -0.48699999 30
0 0 0 35
36.411999 -0.68599999 -0.442 59
36.443001 -0.764 -0.458 77
36.490002 -0.84100002 -0.47400001 32
36.605999 -0.921 -0.49200001 47
0 0 0 38
41.202999 -1.2079999 -0.58999997 38
41.310001 -1.298 -0.611 33
41.662998 -1.3940001 -0.63499999 28
41.488998 -1.474 -0.65200001 81
41.528999 -1.564 -0.67299998 103
41.547001 -1.649 -0.69300002 109
39.432999 -1.647 -0.67699999 3
38.584 -1.692 -0.68199998 4
38.113998 -1.75 -0.69300002 6
37.499001 -1.8 -0.70099998 20
37.389 -1.872 -0.71799999 26
0 0 0 1
21.184 -1.148 -0.42899999 7
20.524 -1.154 -0.426 1
0 0 0 0
0 0 0 0
0 0 0 0
0 0 0 0
0 0 0 0
0 0 0 1
18.580999 -1.312 -0.45899999 2
18.378 -1.334 -0.465 5
18.087 -1.349 -0.46799999 3
18.040001 -1.382 -0.47799999 3
17.780001 -1.398 -0.48100001 1
0 0 0 0
0 0 0 0
0 0 0 43
17.686001 -1.533 -0.523 56
17.646 -1.5650001 -0.53299999 27
17.58 -1.595 -0.542 1
17.517 -1.625 -0.55199999 1
0 0 0 0
0 0 0 1
17.407 -1.7180001 -0.58200002 1
17.327 -1.745 -0.59100002 1
17.358999 -1.7819999 -0.60399997 1
17.332001 -1.814 -0.61500001 1
17.368 -1.851 -0.62800002 1
17.337999 -1.882 -0.639 2
17.336 -1.916 -0.65100002 2
17.344 -1.95 -0.66299999 2
17.393 -1.99 -0.67699999 3
17.495001 -2.036 -0.69400001 8
17.502001 -2.0699999 -0.70700002 9
17.521 -2.1059999 -0.72000003 9
17.518 -2.1389999 -0.73199999 8
17.52 -2.1730001 -0.745 7
17.514 -2.2060001 -0.75800002 4
17.483 -2.2349999 -0.76899999 3
17.424 -2.2609999 -0.77999997 2
17.437 -2.2950001 -0.79299998 2
17.504 -2.3369999 -0.80900002 2
17.6 -2.382 -0.82700002 2
17.723 -2.4330001 -0.84600002 2
17.771 -2.473 -0.86199999 2
17.922001 -2.527 -0.88300002 2
18.063999 -2.5799999 -0.90399998 2
18.167999 -2.628 -0.92299998 1
18.235001 -2.671 -0.94099998 2
18.308001 -2.7160001 -0.95899999 1
18.298 -2.747 -0.97299999 1
18.332001 -2.786 -0.99000001 1
0 0 0 4
20.902 -3.253 -1.1619999 6
20.739 -3.2639999 -1.169 4
0 0 0 3
18.084 -2.9119999 -1.049 3
18.097 -2.9460001 -1.064 4
18.110001 -2.98 -1.08 4
18.098 -3.01 -1.094 4
18.076 -3.0380001 -1.108 5
17.954 -3.049 -1.115 4
17.841 -3.0610001 -1.123 3
0 0 0 1
15.683 -2.7460001 -1.013 2
15.665 -2.7690001 -1.025 2
15.893 -2.8369999 -1.054 3
15.577 -2.8069999 -1.046 3
15.231 -2.7709999 -1.036 2
14.924 -2.74 -1.028 2
14.623 -2.71 -1.02 2
14.264 -2.6670001 -1.006 3
13.937 -2.6289999 -0.995 2
13.609 -2.5899999 -0.98400003 2
13.312 -2.5550001 -0.97399998 3
13.002 -2.517 -0.96200001 3
12.74 -2.487 -0.954 3
12.499 -2.46 -0.94700003 3
12.255 -2.4319999 -0.93900001 3
12.055 -2.4119999 -0.93400002 3
11.846 -2.3889999 -0.92799997 2
11.641 -2.365 -0.92199999 2
11.431 -2.3410001 -0.91600001 2
11.212 -2.3139999 -0.90799999 2
10.991 -2.2850001 -0.89999998 2
10.771 -2.256 -0.89099997 2
10.563 -2.2279999 -0.88300002 2
10.4 -2.21 -0.87900001 2
10.277 -2.2 -0.87800002 4
10.073 -2.171 -0.86900002 3
9.9090004 -2.151 -0.86400002 5
9.7679996 -2.135 -0.86000001 6
9.6169996 -2.1159999 -0.85500002 6
9.4580002 -2.095 -0.85000002 9
9.3450003 -2.0840001 -0.84799999 8
9.217 -2.069 -0.84500003 7
9.0749998 -2.0510001 -0.83999997 8
8.9519997 -2.036 -0.83700001 6
8.8249998 -2.0190001 -0.833 7
8.7080002 -2.0050001 -0.829 5
8.5319996 -1.977 -0.81999999 4
8.3780003 -1.9529999 -0.81300002 3
8.2600002 -1.937 -0.80900002 4
8.1350002 -1.919 -0.80400002 3
8.0089998 -1.9 -0.79900002 3
7.908 -1.887 -0.796 3
7.783 -1.867 -0.79000002 3
7.6760001 -1.852 -0.78600001 3
7.5489998 -1.832 -0.77999997 4
7.4640002 -1.821 -0.778 5
7.381 -1.8099999 -0.77600002 4
7.2940001 -1.798 -0.773 5
7.2309999 -1.7920001 -0.773 5
7.1430001 -1.779 -0.76999998 5
7.0479999 -1.7640001 -0.76599997 4
6.9400001 -1.7460001 -0.75999999 4
6.868 -1.7359999 -0.759 4
6.7740002 -1.721 -0.75400001 4
6.6690001 -1.7029999 -0.74800003 4
6.586 -1.6900001 -0.745 3
6.5170002 -1.679 -0.74299997 3
6.4390001 -1.6670001 -0.74000001 3
6.3649998 -1.656 -0.73699999 3
6.29 -1.643 -0.73400003 3
6.2329998 -1.636 -0.73299998 4
6.1719999 -1.627 -0.73100001 4
6.1030002 -1.6160001 -0.72799999 4
6.0409999 -1.6059999 -0.72600001 4
5.974 -1.595 -0.72299999 4
5.915 -1.586 -0.72100002 4
5.8449998 -1.573 -0.71799999 4
5.783 -1.563 -0.71499997 4
5.7249999 -1.553 -0.713 4
5.6739998 -1.545 -0.71200001 4
5.6220002 -1.5369999 -0.70999998 4
5.5570002 -1.525 -0.70700002 4
5.5019999 -1.516 -0.704 4
5.461 -1.51 -0.704 4
5.3909998 -1.4960001 -0.699 4
5.3610001 -1.493 -0.69999999 4
5.3000002 -1.4809999 -0.69599998 4
5.25 -1.472 -0.69400001 3
5.2119999 -1.466 -0.69400001 3
5.164 -1.4579999 -0.69199997 3
5.118 -1.45 -0.69 3
5.0760002 -1.442 -0.68800002 3
5.0339999 -1.4349999 -0.68699998 3
4.993 -1.428 -0.685 3
4.9650002 -1.424 -0.685 3
4.9260001 -1.4170001 -0.68400002 3
4.8850002 -1.41 -0.68199998 3
4.8429999 -1.401 -0.68000001 2
4.8099999 -1.396 -0.68000001 2
4.7620001 -1.386 -0.67699999 2
4.7189999 -1.377 -0.67500001 2
4.6680002 -1.3660001 -0.671 4
4.6459999 -1.363 -0.67199999 2
4.6160002 -1.358 -0.671 3
4.5900002 -1.354 -0.671 3
4.5469999 -1.344 -0.66799998 4
4.513 -1.3380001 -0.66600001 3
4.48 -1.331 -0.66500002 2
4.4549999 -1.327 -0.66500002 3
4.4299998 -1.322 -0.66399997 2
4.3870001 -1.313 -0.66100001 4
4.3740001 -1.312 -0.66299999 2
4.3460002 -1.306 -0.662 2
4.3049998 -1.2970001 -0.65899998 3
4.283 -1.293 -0.65799999 3
4.263 -1.289 -0.65799999 3
4.2350001 -1.283 -0.65700001 2
4.224 -1.283 -0.65899998 4
4.1700001 -1.2690001 -0.653 2
4.131 -1.2589999 -0.64999998 2
4.1160002 -1.257 -0.65100002 2
4.1230001 -1.261 -0.65499997 2
4.0640001 -1.245 -0.648 2
4.027 -1.2359999 -0.64499998 2
4.0440001 -1.243 -0.65100002 2
4.0219998 -1.238 -0.64999998 2
4 -1.234 -0.64899999 2
4.0359998 -1.247 -0.65799999 3
3.9649999 -1.226 -0.64899999 2
3.9349999 -1.219 -0.64600003 3
3.8540001 -1.196 -0.63599998 2
3.872 -1.2029999 -0.64099997 2
3.9549999 -1.23 -0.65700001 2
3.825 -1.191 -0.63800001 2
3.7850001 -1.1799999 -0.634 2
3.776 -1.179 -0.63499999 2
3.783 -1.182 -0.639 2
3.8039999 -1.1900001 -0.64399999 2
3.8310001 -1.2 -0.65200001 2
3.777 -1.184 -0.64499998 2
3.727 -1.169 -0.63800001 2
3.7460001 -1.176 -0.64399999 3
3.822 -1.201 -0.65899998 3
3.678 -1.1569999 -0.63700002 2
3.6630001 -1.153 -0.63599998 2
3.665 -1.155 -0.63800001 2
3.619 -1.141 -0.63300002 2
3.6140001 -1.14 -0.634 2
3.6470001 -1.151 -0.64200002 2
3.5940001 -1.135 -0.634 2
3.6259999 -1.146 -0.64200002 3
3.5710001 -1.1289999 -0.634 2
3.5710001 -1.13 -0.63599998 3
3.5480001 -1.123 -0.634 2
3.457 -1.094 -0.61900002 2
3.566 -1.1289999 -0.63999999 3
3.4749999 -1.101 -0.62599999 2
3.431 -1.087 -0.62 1
3.4960001 -1.108 -0.63300002 3
3.4349999 -1.089 -0.62400001 2
3.4000001 -1.0779999 -0.61900002 1
3.4579999 -1.096 -0.63099998 3
3.3900001 -1.075 -0.62 1
3.401 -1.0779999 -0.62400001 2
3.3659999 -1.067 -0.61900002 2
3.4119999 -1.081 -0.62900001 2
3.359 -1.0650001 -0.62099999 2
3.313 -1.05 -0.61299998 1
3.3570001 -1.063 -0.62300003 2
3.3269999 -1.054 -0.61900002 2
3.3380001 -1.057 -0.62199998 2
3.3069999 -1.0470001 -0.61799997 2
3.2850001 -1.039 -0.61500001 2
3.3269999 -1.052 -0.62400001 2
3.388 -1.071 -0.63700002 2
3.2939999 -1.04 -0.62 2
3.3380001 -1.054 -0.63 2
3.3039999 -1.0420001 -0.62400001 1
3.3759999 -1.0650001 -0.639 2
3.2920001 -1.0369999 -0.62400001 2
3.286 -1.035 -0.62400001 2
3.3199999 -1.045 -0.63200003 2
3.2579999 -1.024 -0.62099999 2
3.2920001 -1.034 -0.62900001 2
3.3010001 -1.036 -0.63099998 2
3.2539999 -1.02 -0.62300003 2
3.217 -1.008 -0.61699998 2
3.263 -1.021 -0.62699997 2
3.263 -1.02 -0.62800002 2
3.3499999 -1.046 -0.64499998 2
3.2060001 -1 -0.61900002 2
3.2379999 -1.0089999 -0.625 2
3.2460001 -1.01 -0.62800002 2
3.349 -1.041 -0.648 2
3.217 -0.99800003 -0.62300003 1
3.1630001 -0.98000002 -0.61400002 1
3.2690001 -1.012 -0.63499999 2
3.2060001 -0.991 -0.62300003 2
3.2590001 -1.006 -0.634 2
3.201 -0.98699999 -0.62300003 2
3.1570001 -0.97100002 -0.616 2
3.1830001 -0.97799999 -0.62099999 1
3.2119999 -0.98500001 -0.62699997 2
3.187 -0.97600001 -0.62300003 1
3.1760001 -0.97100002 -0.62099999 2
3.2030001 -0.977 -0.62699997 2
3.21 -0.97799999 -0.62800002 1
3.2249999 -0.98000002 -0.63200003 2
3.187 -0.96700001 -0.625 1
3.1589999 -0.95700002 -0.62 2
3.2119999 -0.97100002 -0.63 2
3.1600001 -0.95300001 -0.62 2
3.2290001 -0.972 -0.634 2
3.161 -0.949 -0.62099999 2
3.2190001 -0.96499997 -0.63200003 2
3.154 -0.94300002 -0.62 2
3.1630001 -0.94400001 -0.62099999 2
3.171 -0.94400001 -0.62300003 2
3.164 -0.94 -0.62199998 1
3.152 -0.93400002 -0.62 1
3.175 -0.93800002 -0.62400001 1
3.2179999 -0.949 -0.63300002 1
3.194 -0.93900001 -0.62800002 1
3.1210001 -0.91600001 -0.61299998 1
3.1099999 -0.91000003 -0.611 1
3.151 -0.92000002 -0.61900002 1
3.1860001 -0.92699999 -0.62599999 2
3.152 -0.91500002 -0.61900002 1
3.198 -0.926 -0.62800002 2
3.154 -0.91000003 -0.61900002 2
3.1300001 -0.90100002 -0.61400002 1
3.155 -0.90499997 -0.61799997 2
3.1440001 -0.89899999 -0.616 1
3.0869999 -0.88 -0.60399997 1
3.227 -0.91799998 -0.63200003 2
3.2279999 -0.91500002 -0.63099998 2
3.131 -0.88499999 -0.61199999 1
3.1470001 -0.88599998 -0.61400002 1
3.188 -0.89499998 -0.62199998 1
3.1789999 -0.88999999 -0.62 2
3.1800001 -0.88700002 -0.61900002 1
3.1689999 -0.88099998 -0.61699998 1
3.1800001 -0.88099998 -0.61799997 1
3.181 -0.87800002 -0.61799997 1
3.151 -0.86699998 -0.611 1
3.1960001 -0.87599999 -0.61900002 1
3.223 -0.88 -0.62400001 2
3.201 -0.87099999 -0.61900002 1
3.233 -0.87599999 -0.62400001 1
3.1960001 -0.86299998 -0.616 1
3.1670001 -0.852 -0.61000001 1
3.184 -0.85299999 -0.61199999 1
3.2130001 -0.85799998 -0.61699998 1
3.1789999 -0.84500003 -0.60900003 1
3.2320001 -0.85600001 -0.61900002 1
3.26 -0.86000001 -0.62300003 2
3.2320001 -0.84899998 -0.61699998 2
3.2809999 -0.85799998 -0.625 1
3.2620001 -0.84899998 -0.62 1
3.2720001 -0.84799999 -0.62099999 1
3.312 -0.85500002 -0.62699997 2
3.2809999 -0.84399998 -0.62 2
3.2650001 -0.83600003 -0.616 1
3.335 -0.85000002 -0.62800002 2
3.289 -0.83399999 -0.61799997 1
3.29 -0.83099997 -0.61699998 2
3.3429999 -0.83999997 -0.62599999 2
3.3469999 -0.83700001 -0.625 2
3.306 -0.82300001 -0.616 1
3.3280001 -0.824 -0.61900002 1
3.2969999 -0.81300002 -0.611 1
3.3110001 -0.81199998 -0.61199999 1
3.3280001 -0.81199998 -0.61400002 1
3.3559999 -0.815 -0.61799997 2
3.329 -0.80400002 -0.611 1
3.392 -0.815 -0.62099999 1
3.368 -0.80500001 -0.61500001 2
3.3789999 -0.80299997 -0.61500001 1
3.401 -0.80400002 -0.61799997 1
3.4300001 -0.80699998 -0.62099999 2
3.4349999 -0.80299997 -0.62 2
3.4400001 -0.80000001 -0.61900002 1
3.471 -0.80299997 -0.62300003 1
3.4960001 -0.80400002 -0.625 2
3.4860001 -0.79699999 -0.62199998 1
3.4979999 -0.79500002 -0.62199998 1
3.5320001 -0.79799998 -0.62599999 3
3.5469999 -0.79699999 -0.62599999 3
3.573 -0.79799998 -0.62900001 3
3.5869999 -0.796 -0.62900001 1
3.6170001 -0.79799998 -0.63200003 3
3.5739999 -0.78399998 -0.62199998 2
3.724 -0.81099999 -0.64600003 3
3.7309999 -0.80800003 -0.64499998 3
3.628 -0.77999997 -0.625 2
3.7060001 -0.792 -0.63599998 2
3.73 -0.792 -0.63700002 3
3.687 -0.778 -0.62699997 2
3.773 -0.79000002 -0.639 3
3.7880001 -0.78799999 -0.639 2
3.7950001 -0.78399998 -0.63800001 3
3.786 -0.77700001 -0.63300002 2
3.819 -0.77899998 -0.63599998 3
3.888 -0.787 -0.64499998 3
3.911 -0.78600001 -0.64600003 2
3.8989999 -0.778 -0.64099997 2
3.875 -0.76700002 -0.634 2
3.9590001 -0.778 -0.64499998 3
3.9489999 -0.77100003 -0.63999999 2
3.967 -0.76800001 -0.63999999 2
3.973 -0.764 -0.63700002 2
4.013 -0.76599997 -0.64099997 2
4.085 -0.77399999 -0.64899999 3
4.0840001 -0.76700002 -0.64499998 3
4.085 -0.76099998 -0.64200002 2
4.184 -0.77399999 -0.65399998 3
4.151 -0.76099998 -0.64600003 3
4.224 -0.76800001 -0.653 2
4.27 -0.76999998 -0.65700001 2
4.2620001 -0.76300001 -0.65200001 2
4.2919998 -0.76099998 -0.653 2
4.3109999 -0.75800002 -0.65200001 2
4.3670001 -0.76200002 -0.65600002 2
4.3990002 -0.76099998 -0.65700001 4
4.447 -0.76200002 -0.66000003 2
4.4770002 -0.76099998 -0.66100001 2
4.5089998 -0.759 -0.66100001 2
4.5580001 -0.75999999 -0.66399997 2
4.5900002 -0.75800002 -0.66399997 2
4.6420002 -0.75999999 -0.667 2
4.6700001 -0.75700003 -0.667 4
4.6919999 -0.75400001 -0.66500002 3
4.7010002 -0.74800003 -0.662 6
4.7909999 -0.755 -0.67000002 4
4.8379998 -0.755 -0.671 2
4.8969998 -0.75599998 -0.67500001 3
4.9400001 -0.755 -0.67500001 3
4.9920001 -0.755 -0.67799997 2
5.0380001 -0.75400001 -0.67900002 4
5.1040001 -0.75599998 -0.68199998 3
5.1620002 -0.75700003 -0.68400002 4
5.2379999 -0.75999999 -0.68900001 3
5.2919998 -0.759 -0.69 3
5.3379998 -0.75700003 -0.69099998 3
5.4029999 -0.75800002 -0.69300002 4
5.4699998 -0.759 -0.69599998 4
5.5409999 -0.75999999 -0.699 4
5.6090002 -0.76099998 -0.70099998 4
5.6750002 -0.76099998 -0.70300001 4
5.7579999 -0.76300001 -0.70700002 3
5.8340001 -0.764 -0.70999998 4
5.9120002 -0.76499999 -0.71200001 3
6.006 -0.76800001 -0.71700001 3
