# .PCD v0.7 - Point Cloud Data file format
VERSION 0.7
FIELDS x y z intensity
SIZE 4 4 4 4
TYPE F F F F
COUNT 1 1 1 1
WIDTH 1820
HEIGHT 1
VIEWPOINT 0 0 0 1 0 0 0
POINTS 1820
DATA ascii
6.9060001 0.90899998 -0.70700002 3
6.8369999 0.912 -0.70499998 3
6.7340002 0.91000003 -0.69999999 3
6.6560001 0.91100001 -0.69700003 3
6.5999999 0.91399997 -0.69599998 3
6.5469999 0.91799998 -0.69499999 3
6.487 0.92000002 -0.69400001 3
6.4380002 0.92400002 -0.69300002 4
6.3850002 0.92699999 -0.69199997 4
6.3249998 0.93000001 -0.69 4
6.2540002 0.93000001 -0.68699998 3
6.1900001 0.93000001 -0.68400002 3
6.1199999 0.93000001 -0.68099999 3
6.0669999 0.93199998 -0.67900002 3
6.0120001 0.93400002 -0.67699999 3
5.9559999 0.935 -0.67500001 3
5.9089999 0.93699998 -0.67299998 3
5.848 0.93699998 -0.67000002 3
5.79 0.93699998 -0.667 3
5.7519999 0.94099998 -0.667 3
5.7129998 0.94400001 -0.66600001 3
5.664 0.94499999 -0.66399997 3
5.6230001 0.94700003 -0.662 3
5.5700002 0.94700003 -0.66000003 3
5.5450001 0.95200002 -0.66000003 3
5.4899998 0.95200002 -0.65700001 3
5.4619999 0.95499998 -0.65600002 3
5.421 0.95700002 -0.65499997 3
5.388 0.95999998 -0.65399998 3
5.349 0.96100003 -0.65200001 3
5.3109999 0.963 -0.64999998 3
5.2810001 0.96600002 -0.64899999 5
5.25 0.96799999 -0.648 3
5.2179999 0.97100002 -0.64700001 3
5.1869998 0.97299999 -0.64600003 4
5.145 0.97299999 -0.64399999 5
5.1290002 0.97799999 -0.64399999 3
5.1040001 0.98100001 -0.64399999 3
5.0710001 0.98299998 -0.64200002 3
5.046 0.98500001 -0.64099997 3
5.0139999 0.98699999 -0.63999999 4
4.9980001 0.991 -0.63999999 3
4.9790001 0.995 -0.63999999 3
4.947 0.99599999 -0.63800001 2
4.9190001 0.99800003 -0.63700002 3
4.8909998 0.99900001 -0.63499999 2
4.8709998 1.002 -0.634 3
4.8530002 1.006 -0.634 3
4.8340001 1.0089999 -0.634 2
4.8119998 1.012 -0.63300002 2
4.7859998 1.013 -0.63099998 4
4.7820001 1.0190001 -0.63300002 3
4.7459998 1.018 -0.63 2
4.7249999 1.021 -0.62900001 3
4.7080002 1.024 -0.62800002 3
4.6750002 1.023 -0.625 4
4.6810002 1.031 -0.62800002 3
4.6570001 1.0319999 -0.62599999 5
4.6350002 1.034 -0.625 2
4.605 1.034 -0.62199998 4
4.6079998 1.041 -0.62400001 2
4.586 1.0420001 -0.62300003 2
4.579 1.0470001 -0.62300003 2
4.5580001 1.048 -0.62199998 2
4.5380001 1.05 -0.62 2
4.5489998 1.058 -0.62300003 2
4.5120001 1.056 -0.61900002 4
4.5050001 1.0599999 -0.62 4
4.4949999 1.064 -0.61900002 3
4.4850001 1.067 -0.61900002 3
4.4759998 1.071 -0.61900002 2
4.4759998 1.076 -0.62 2
4.448 1.075 -0.61699998 2
4.4580002 1.0829999 -0.62 4
4.4400001 1.085 -0.61799997 2
4.4299998 1.0880001 -0.61799997 2
4.4089999 1.0880001 -0.61500001 4
4.4099998 1.094 -0.61699998 2
4.401 1.097 -0.616 4
4.3850002 1.098 -0.61500001 4
4.3979998 1.107 -0.61699998 2
4.3769999 1.107 -0.61500001 4
4.3660002 1.109 -0.61400002 3
4.3709998 1.115 -0.616 2
4.3509998 1.115 -0.61299998 4
4.348 1.119 -0.61400002 4
4.348 1.124 -0.61400002 2
4.3390002 1.127 -0.61299998 2
4.3470001 1.1339999 -0.61500001 2
4.3200002 1.132 -0.61199999 4
4.3010001 1.132 -0.61000001 3
4.3249998 1.142 -0.61299998 2
4.3150001 1.145 -0.61199999 2
4.302 1.145 -0.611 4
4.3070002 1.152 -0.61199999 4
4.3200002 1.16 -0.61400002 2
4.3060002 1.16 -0.61199999 2
4.2989998 1.163 -0.611 4
4.2820001 1.163 -0.60900003 3
4.2820001 1.1670001 -0.60900003 2
4.2789998 1.17 -0.60900003 2
4.283 1.176 -0.61000001 2
4.2800002 1.179 -0.60900003 3
4.2839999 1.184 -0.61000001 4
4.2750001 1.186 -0.60900003 4
4.2859998 1.193 -0.61000001 2
4.277 1.194 -0.60900003 2
4.2930002 1.2029999 -0.611 2
4.2779999 1.202 -0.60900003 3
4.2740002 1.205 -0.60799998 3
4.2919998 1.214 -0.611 4
4.2800002 1.214 -0.60900003 4
4.2779999 1.217 -0.60799998 4
4.2849998 1.223 -0.60900003 2
4.2870002 1.227 -0.60900003 2
4.2849998 1.23 -0.60900003 2
4.2919998 1.2359999 -0.60900003 2
4.2930002 1.239 -0.60900003 2
4.2870002 1.2410001 -0.60799998 3
4.302 1.249 -0.60900003 2
4.2940001 1.25 -0.60799998 3
4.3130002 1.258 -0.61000001 2
4.3119998 1.261 -0.61000001 2
4.322 1.267 -0.61000001 2
4.3119998 1.267 -0.60799998 4
4.3200002 1.273 -0.60900003 4
4.329 1.278 -0.61000001 4
4.3319998 1.2819999 -0.60900003 4
4.3390002 1.2869999 -0.61000001 2
4.342 1.291 -0.61000001 4
4.3429999 1.294 -0.60900003 3
4.3530002 1.299 -0.61000001 4
4.3569999 1.303 -0.60900003 4
4.375 1.311 -0.611 2
4.3699999 1.312 -0.61000001 4
4.3930001 1.322 -0.61199999 2
4.401 1.327 -0.61199999 2
4.401 1.329 -0.611 2
4.415 1.336 -0.61199999 4
4.4159999 1.3380001 -0.611 4
4.427 1.344 -0.61199999 2
4.4369998 1.349 -0.61199999 2
4.454 1.357 -0.61400002 2
4.4580002 1.36 -0.61299998 4
4.4679999 1.365 -0.61299998 4
4.4829998 1.372 -0.61400002 2
4.487 1.375 -0.61400002 2
4.4990001 1.38 -0.61400002 2
4.5120001 1.386 -0.61500001 4
4.5289998 1.393 -0.616 3
4.5380001 1.398 -0.616 3
4.5599999 1.406 -0.61699998 3
4.5650001 1.409 -0.61699998 3
4.579 1.415 -0.61699998 3
4.5840001 1.418 -0.616 2
4.612 1.428 -0.61900002 3
4.612 1.4299999 -0.61699998 3
4.6279998 1.436 -0.61799997 3
4.645 1.443 -0.61900002 3
4.6680002 1.451 -0.62 3
4.6880002 1.4579999 -0.62099999 3
4.697 1.462 -0.62099999 3
4.7119999 1.4680001 -0.62099999 3
4.7309999 1.475 -0.62199998 3
4.7480001 1.4809999 -0.62300003 3
4.7589998 1.485 -0.62199998 3
4.7719998 1.49 -0.62199998 4
4.7880001 1.4960001 -0.62199998 4
4.822 1.507 -0.625 3
4.829 1.51 -0.62400001 4
4.8590002 1.52 -0.62599999 3
4.881 1.527 -0.62699997 3
4.895 1.5319999 -0.62699997 5
4.927 1.5420001 -0.62900001 3
4.934 1.545 -0.62800002 3
4.9499998 1.55 -0.62800002 4
4.9879999 1.562 -0.63 3
5.006 1.568 -0.63099998 3
5.0339999 1.577 -0.63200003 3
5.0489998 1.581 -0.63200003 5
5.0739999 1.589 -0.63300002 5
5.0999999 1.597 -0.634 5
5.1209998 1.603 -0.634 3
5.1440001 1.61 -0.63499999 3
5.1760001 1.619 -0.63599998 3
5.2020001 1.627 -0.63700002 3
5.224 1.633 -0.63700002 3
5.2399998 1.638 -0.63700002 5
5.276 1.648 -0.63800001 3
5.2989998 1.655 -0.639 3
5.3400002 1.666 -0.64099997 3
5.3660002 1.674 -0.64200002 3
5.3920002 1.681 -0.64200002 3
5.4310002 1.692 -0.64399999 3
5.4679999 1.702 -0.64600003 3
5.494 1.709 -0.64600003 3
5.5089998 1.712 -0.64499998 3
5.5549998 1.725 -0.648 3
5.5710001 1.728 -0.64700001 3
5.599 1.735 -0.64700001 3
5.6490002 1.749 -0.64999998 3
5.678 1.757 -0.64999998 3
5.7119999 1.765 -0.65100002 3
5.77 1.781 -0.65399998 3
5.8039999 1.789 -0.65499997 3
5.8330002 1.796 -0.65499997 3
5.875 1.807 -0.65700001 3
5.914 1.817 -0.65799999 3
5.9510002 1.825 -0.65899998 3
5.9790001 1.831 -0.65899998 3
6.0289998 1.844 -0.66100001 4
6.0679998 1.853 -0.662 4
6.1160002 1.865 -0.66299999 4
6.145 1.8710001 -0.66299999 4
6.21 1.888 -0.667 4
6.2449999 1.895 -0.667 4
6.303 1.909 -0.66900003 4
6.3530002 1.921 -0.671 4
6.4000001 1.932 -0.67199999 3
6.4520001 1.944 -0.67400002 3
6.4829998 1.95 -0.67299998 3
6.526 1.959 -0.67400002 3
6.5939999 1.975 -0.67699999 3
6.6300001 1.982 -0.67699999 3
6.7030001 2 -0.68000001 3
6.7690001 2.0150001 -0.68300003 3
6.8340001 2.03 -0.685 3
6.8909998 2.0420001 -0.68699998 3
6.98 2.0639999 -0.69199997 3
7.066 2.0840001 -0.69599998 5
7.1370001 2.0999999 -0.69800001 5
7.1810002 2.108 -0.69800001 4
7.2340002 2.118 -0.699 4
7.2880001 2.128 -0.69999999 4
7.3670001 2.1459999 -0.70300001 5
7.4239998 2.1570001 -0.704 5
7.5229998 2.1789999 -0.708 5
7.5960002 2.194 -0.70999998 5
7.677 2.2119999 -0.713 4
7.73 2.221 -0.713 5
7.8340001 2.244 -0.71799999 5
7.934 2.266 -0.722 4
8.0500002 2.2920001 -0.727 5
8.1140003 2.303 -0.72799999 5
8.2200003 2.326 -0.73199999 5
8.2969999 2.3399999 -0.73400003 4
8.3979998 2.3610001 -0.73699999 4
8.5620003 2.3989999 -0.74599999 4
8.6820002 2.425 -0.75099999 7
8.7030001 2.4219999 -0.74699998 6
8.7600002 2.4300001 -0.74599999 4
8.8739996 2.4530001 -0.75099999 3
8.9659996 2.4690001 -0.75300002 3
9.1499996 2.5109999 -0.76200002 3
9.2980003 2.5420001 -0.76800001 3
9.4650002 2.5780001 -0.77600002 2
9.6219997 2.6099999 -0.78299999 2
9.783 2.6440001 -0.78899997 3
9.9359999 2.674 -0.79500002 3
10.09 2.7049999 -0.801 4
10.258 2.7390001 -0.80699998 4
10.394 2.7639999 -0.81099999 4
10.562 2.796 -0.81800002 4
10.723 2.8269999 -0.82300001 5
10.895 2.8599999 -0.829 6
11.038 2.885 -0.833 9
11.193 2.9130001 -0.83700001 7
11.344 2.9389999 -0.84100002 8
11.427 2.947 -0.83999997 11
11.551 2.9649999 -0.84100002 10
11.67 2.9820001 -0.84200001 11
11.765 2.9909999 -0.84100002 5
11.953 3.0239999 -0.847 3
12.133 3.0550001 -0.852 3
12.322 3.0869999 -0.85699999 3
12.508 3.118 -0.86199999 3
12.726 3.1559999 -0.86799997 3
12.918 3.187 -0.87300003 3
13.13 3.2219999 -0.87900001 3
13.329 3.2539999 -0.88300002 3
13.616 3.306 -0.89399999 3
13.852 3.3440001 -0.89999998 4
14.02 3.3659999 -0.90200001 4
14.192 3.388 -0.90399998 4
14.357 3.408 -0.90499997 4
14.535 3.431 -0.90700001 4
14.747 3.46 -0.91100001 4
15.02 3.503 -0.91799998 4
15.274 3.5420001 -0.92400002 4
15.622 3.5999999 -0.935 3
15.913 3.645 -0.94199997 3
16.240999 3.697 -0.95200002 3
16.493999 3.7309999 -0.95599997 3
16.99 3.8180001 -0.97399998 3
17.211 3.842 -0.97600001 3
16.663 3.6960001 -0.935 3
16.888 3.721 -0.93699998 3
17.01 3.7219999 -0.93300003 2
0 0 0 0
0 0 0 0
0 0 0 3
19.131001 4.0700002 -1.002 2
19.219999 4.0599999 -0.99400002 2
19.41 4.0700002 -0.99199998 2
19.988001 4.1599998 -1.01 1
0 0 0 0
0 0 0 0
0 0 0 0
0 0 0 3
24.080999 4.8200002 -1.1440001 2
0 0 0 0
0 0 0 0
0 0 0 0
0 0 0 0
0 0 0 0
0 0 0 2
0 0 0 2
32.890999 6.152 -1.411 3
32.952999 6.1079998 -1.3940001 2
32.75 6.0139999 -1.367 2
32.728001 5.954 -1.348 2
32.695 5.8930001 -1.3279999 2
32.706001 5.8379998 -1.311 3
32.651001 5.7719998 -1.29 3
32.685001 5.7199998 -1.273 4
32.653999 5.658 -1.2539999 5
32.633999 5.598 -1.2359999 6
32.645 5.5419998 -1.219 6
32.831001 5.5149999 -1.2079999 8
32.674 5.4299998 -1.1849999 4
32.601002 5.3610001 -1.165 41
32.751999 5.3270001 -1.154 22
32.676998 5.2550001 -1.1339999 12
32.643002 5.1919999 -1.117 17
32.640999 5.132 -1.1 17
32.737999 5.0869999 -1.086 8
32.667 5.0180001 -1.068 32
32.632999 4.9530001 -1.051 58
32.654999 4.8959999 -1.036 11
32.716 4.8449998 -1.021 16
32.608002 4.7680001 -1.002 63
32.672001 4.7160001 -0.98799998 11
32.696999 4.6589999 -0.97399998 8
32.737999 4.6030002 -0.95899999 9
32.835999 4.5539999 -0.94700003 17
32.922001 4.5050001 -0.935 17
32.971001 4.4489999 -0.921 10
33.021 4.3920002 -0.90799999 2
0 0 0 0
0 0 0 0
0 0 0 4
0 0 0 44
41.124001 5.073 -1.041 45
41.085999 4.9879999 -1.023 42
41.07 4.9060001 -1.005 47
41.035 4.823 -0.98799998 48
41.011002 4.7389998 -0.97100002 47
41.009998 4.658 -0.95499998 46
40.957001 4.573 -0.93800002 42
40.931999 4.4889998 -0.92199999 38
40.929001 4.4070001 -0.90600002 35
40.889999 4.322 -0.88999999 29
40.883999 4.2389998 -0.87400001 27
40.859001 4.1550002 -0.85900003 25
40.851002 4.073 -0.84500003 23
40.817001 3.9879999 -0.829 21
40.811001 3.905 -0.815 19
40.813999 3.823 -0.801 19
40.771999 3.7360001 -0.787 15
40.776001 3.654 -0.773 14
40.757999 3.5710001 -0.75999999 12
40.722 3.483 -0.74599999 10
40.696999 3.398 -0.73299998 8
40.688 3.3139999 -0.72100002 6
40.588001 3.224 -0.70700002 4
40.778 3.155 -0.69800001 2
40.672001 3.063 -0.685 2
40.657001 2.9779999 -0.67299998 42
40.652 2.8940001 -0.662 46
40.641998 2.809 -0.65100002 36
40.646999 2.724 -0.64099997 22
40.623001 2.638 -0.63 14
40.652 2.5550001 -0.62 5
0 0 0 0
0 0 0 30
0 0 0 0
0 0 0 52
87.051003 4.566 -1.2309999 45
87.060997 4.3839998 -1.2130001 38
86.968002 4.1939998 -1.194 22
0 0 0 0
0 0 0 52
0 0 0 0
0 0 0 0
0 0 0 21
91.069 3.24 -1.153 14
0 0 0 0
0 0 0 23
87.190002 2.55 -1.0650001 41
0 0 0 0
0 0 0 0
0 0 0 0
0 0 0 0
0 0 0 62
134.795 2.2219999 -1.553 42
134.737 1.934 -1.54 52
0 0 0 0
0 0 0 0
0 0 0 0
0 0 0 49
0 0 0 0
0 0 0 0
0 0 0 54
134.924 -0.37 -1.476 57
134.94299 -0.66000003 -1.472 55
0 0 0 0
0 0 0 0
0 0 0 0
0 0 0 24
73.487999 -1.143 -0.79799998 37
0 0 0 29
68.085999 -1.351 -0.741 73
68.087997 -1.498 -0.74299997 71
68.056 -1.643 -0.745 127
0 0 0 18
60.335999 -1.714 -0.66600001 37
60.027 -1.832 -0.66500002 99
60.022999 -1.961 -0.66900003 107
59.040001 -2.0550001 -0.662 69
58.951 -2.178 -0.66500002 134
56.535 -2.21 -0.64300001 12
0 0 0 14
45.25 -1.9630001 -0.523 28
45.158001 -2.0539999 -0.52600002 7
45.412998 -2.164 -0.53399998 12
45.666 -2.2720001 -0.542 14
44.605999 -2.313 -0.53500003 38
44.494999 -2.401 -0.53899997 41
44.091 -2.4749999 -0.54000002 47
44.167999 -2.5710001 -0.54799998 40
44.057999 -2.658 -0.55299997 51
43.846001 -2.7390001 -0.55699998 95
43.834 -2.8310001 -0.56400001 103
41.608002 -2.7739999 -0.542 2
41.515999 -2.8559999 -0.54799998 17
40.861 -2.8970001 -0.54699999 8
40.162998 -2.9319999 -0.54500002 5
39.792 -2.9890001 -0.54799998 71
0 0 0 0
0 0 0 0
0 0 0 0
0 0 0 0
0 0 0 0
0 0 0 0
0 0 0 1
0 0 0 0
0 0 0 0
0 0 0 0
0 0 0 0
0 0 0 25
0 0 0 25
0 0 0 25
0 0 0 5
19.969999 -2.165 -0.35499999 1
19.903 -2.198 -0.36000001 1
19.889 -2.237 -0.366 1
19.882 -2.277 -0.37200001 1
0 0 0 25
0 0 0 1
19.733 -2.3800001 -0.38800001 1
19.775 -2.4260001 -0.396 1
19.608999 -2.444 -0.39899999 1
19.797001 -2.5079999 -0.41 5
19.796 -2.5469999 -0.417 6
19.707001 -2.576 -0.42199999 12
19.763 -2.6229999 -0.43099999 6
19.737 -2.6589999 -0.43799999 8
19.757999 -2.701 -0.44499999 9
19.715 -2.734 -0.45199999 5
19.728001 -2.776 -0.46000001 5
19.691999 -2.8099999 -0.46700001 5
19.686001 -2.848 -0.47499999 4
19.712 -2.8900001 -0.484 4
19.743999 -2.934 -0.493 6
19.749001 -2.974 -0.50099999 8
19.746 -3.013 -0.509 10
19.704 -3.0439999 -0.51599997 16
19.711 -3.0840001 -0.52499998 23
19.811001 -3.138 -0.537 15
19.809999 -3.1760001 -0.54500002 11
19.780001 -3.2090001 -0.55400002 2
19.658001 -3.227 -0.55900002 1
19.745001 -3.279 -0.56999999 1
0 0 0 0
0 0 0 0
0 0 0 1
19.836 -3.444 -0.61000001 1
19.813999 -3.4779999 -0.61900002 1
19.924999 -3.5339999 -0.63300002 1
20.056 -3.595 -0.64600003 65
20.084999 -3.638 -0.65700001 38
20.048 -3.668 -0.66600001 1
0 0 0 19
22.462999 -4.1919999 -0.76899999 44
22.490999 -4.2379999 -0.78100002 32
22.438 -4.2690001 -0.79100001 52
22.440001 -4.309 -0.80299997 40
22.473 -4.3559999 -0.81599998 20
0 0 0 15
36.084 -7.125 -1.348 28
36.064999 -7.1849999 -1.367 40
36.144001 -7.2659998 -1.3890001 46
36.066002 -7.3150001 -1.405 49
0 0 0 14
20.198999 -4.1680002 -0.80900002 20
20.129 -4.1890001 -0.81800002 27
20.080999 -4.2129998 -0.82700002 32
20.024 -4.2360001 -0.83600003 27
20.01 -4.2680001 -0.84600002 29
19.966999 -4.2919998 -0.85600001 42
19.938 -4.3200002 -0.86699998 33
19.902 -4.3460002 -0.87599999 45
19.893 -4.3779998 -0.88700002 50
19.888 -4.4109998 -0.898 50
19.861 -4.4369998 -0.90899998 48
19.874001 -4.473 -0.921 41
19.839001 -4.4980001 -0.93099999 59
19.745001 -4.5089998 -0.93900001 34
0 0 0 8
18.202999 -4.217 -0.88700002 7
18.115 -4.2259998 -0.89300001 5
18.014 -4.2309999 -0.89899999 8
17.912001 -4.2360001 -0.90499997 7
17.811001 -4.2399998 -0.91100001 8
17.719999 -4.2459998 -0.917 8
17.620001 -4.2509999 -0.92299998 8
17.535 -4.257 -0.92900002 9
17.452999 -4.2649999 -0.935 22
17.445999 -4.29 -0.94599998 40
17.438 -4.3140001 -0.95599997 37
17.450001 -4.3429999 -0.96700001 34
17.441 -4.368 -0.97799999 35
17.445999 -4.395 -0.98900002 39
17.462999 -4.4260001 -1.001 24
17.465 -4.4520001 -1.012 44
17.443001 -4.4720001 -1.022 42
17.457001 -4.5009999 -1.034 39
17.458 -4.526 -1.045 46
17.462 -4.553 -1.056 34
17.468 -4.5799999 -1.068 26
17.469 -4.605 -1.079 40
17.462999 -4.6279998 -1.09 30
17.466 -4.6529999 -1.101 40
17.500999 -4.6859999 -1.115 6
0 0 0 1
0 0 0 1
17.899 -4.8670001 -1.175 2
17.518999 -4.7870002 -1.161 2
0 0 0 0
0 0 0 5
15.67 -4.3439999 -1.069 9
15.587 -4.3410001 -1.073 7
15.533 -4.3460002 -1.08 10
15.452 -4.3429999 -1.084 9
15.36 -4.3369999 -1.0880001 10
15.251 -4.3249998 -1.09 11
0 0 0 1
9.4060001 -2.691 -0.68400002 5
9.3290005 -2.6800001 -0.685 13
9.2840004 -2.678 -0.68800002 26
9.2530003 -2.681 -0.69099998 65
9.2709999 -2.697 -0.699 153
9.2770004 -2.7090001 -0.70499998 153
9.2139997 -2.701 -0.70599997 62
9.2519999 -2.724 -0.71499997 152
9.2290001 -2.727 -0.72000003 152
9.2209997 -2.7349999 -0.72500002 152
9.217 -2.744 -0.73000002 159
9.2279997 -2.7579999 -0.73699999 153
9.2639999 -2.7780001 -0.74599999 152
9.2919998 -2.7969999 -0.755 151
9.2250004 -2.7869999 -0.755 130
9.1960001 -2.7880001 -0.759 37
9.1850004 -2.7939999 -0.764 13
9.217 -2.813 -0.77200001 4
9.2250004 -2.825 -0.77899998 3
9.224 -2.8340001 -0.78500003 3
9.2130003 -2.839 -0.79000002 3
9.2270002 -2.8529999 -0.79699999 3
9.2189999 -2.859 -0.80199999 3
9.2060003 -2.8640001 -0.80699998 3
9.2139997 -2.875 -0.81300002 3
9.2130003 -2.8829999 -0.81900001 3
9.2049999 -2.8889999 -0.824 3
9.1829996 -2.8900001 -0.82800001 2
9.2629995 -2.924 -0.84100002 1
9.2950001 -2.9419999 -0.84899998 1
9.224 -2.927 -0.84899998 1
9.2110004 -2.931 -0.85299999 3
9.1639996 -2.924 -0.85500002 4
9.1300001 -2.921 -0.85699999 5
9.0950003 -2.9170001 -0.86000001 4
9.0710001 -2.9159999 -0.86299998 5
9.0200005 -2.9070001 -0.86400002 5
8.96 -2.8940001 -0.86299998 4
8.8599997 -2.869 -0.85900003 4
8.8079996 -2.859 -0.85900003 4
8.7419996 -2.8440001 -0.85799998 4
8.6630001 -2.8239999 -0.85600001 5
8.5480003 -2.7920001 -0.84899998 5
8.4469995 -2.7650001 -0.84500003 6
8.3500004 -2.7390001 -0.83999997 5
8.2559996 -2.714 -0.83499998 6
8.1689997 -2.6900001 -0.83099997 7
8.0839996 -2.668 -0.82700002 8
8.0100002 -2.648 -0.824 8
7.9289999 -2.6259999 -0.82099998 11
7.8740001 -2.6129999 -0.81999999 11
7.809 -2.596 -0.81800002 15
7.7719998 -2.5880001 -0.81800002 15
7.717 -2.5739999 -0.81699997 15
7.6609998 -2.559 -0.815 15
7.6170001 -2.5480001 -0.815 14
7.5760002 -2.5380001 -0.815 11
7.5229998 -2.5239999 -0.81300002 12
7.4759998 -2.5120001 -0.81199998 6
7.3839998 -2.4849999 -0.80599999 7
7.2909999 -2.457 -0.80000001 6
7.2059999 -2.431 -0.79500002 5
7.1420002 -2.4130001 -0.79100001 5
7.0760002 -2.3929999 -0.78799999 4
7.0050001 -2.372 -0.78399998 4
6.9569998 -2.358 -0.78200001 4
6.9130001 -2.346 -0.78100002 4
6.8429999 -2.325 -0.77700001 4
6.8060002 -2.3150001 -0.77600002 4
6.7420001 -2.2950001 -0.77200001 3
6.6900001 -2.279 -0.76999998 3
6.6599998 -2.2709999 -0.76899999 4
6.6059999 -2.2550001 -0.76700002 4
6.5489998 -2.237 -0.76300001 3
6.5380001 -2.2349999 -0.76499999 4
6.4910002 -2.22 -0.76300001 3
6.4250002 -2.1989999 -0.759 3
6.375 -2.184 -0.75599998 3
6.3449998 -2.174 -0.755 4
6.309 -2.164 -0.75400001 4
6.2550001 -2.1459999 -0.75 3
6.21 -2.132 -0.74800003 3
6.178 -2.1210001 -0.74699998 3
6.145 -2.1110001 -0.74599999 4
6.1170001 -2.102 -0.745 4
6.0689998 -2.086 -0.74199998 4
6.0289998 -2.073 -0.74000001 4
6.0079999 -2.066 -0.74000001 3
5.9749999 -2.0550001 -0.73799998 4
5.9439998 -2.0450001 -0.73699999 4
5.9200001 -2.0369999 -0.73699999 4
5.8759999 -2.0220001 -0.73400003 4
5.8569999 -2.0150001 -0.73400003 4
5.829 -2.0050001 -0.73299998 4
5.7919998 -1.992 -0.73100001 3
5.763 -1.982 -0.72899997 3
5.744 -1.976 -0.72899997 3
5.6999998 -1.96 -0.72600001 3
5.6859999 -1.955 -0.72600001 3
5.6459999 -1.9400001 -0.72299999 4
5.6290002 -1.934 -0.72299999 3
5.6110001 -1.927 -0.72299999 3
5.5749998 -1.914 -0.72100002 3
5.552 -1.905 -0.72000003 3
5.5339999 -1.898 -0.71899998 3
5.5149999 -1.89 -0.71899998 3
5.4840002 -1.8789999 -0.71700001 3
5.4660001 -1.8710001 -0.71600002 3
5.4320002 -1.858 -0.71399999 3
5.414 -1.851 -0.713 3
5.3930001 -1.842 -0.71200001 3
5.3740001 -1.835 -0.71200001 4
5.3629999 -1.829 -0.71200001 4
5.3299999 -1.816 -0.70899999 4
5.323 -1.812 -0.70999998 4
5.2989998 -1.803 -0.708 4
5.2820001 -1.795 -0.70700002 4
5.276 -1.791 -0.708 4
5.2600002 -1.784 -0.708 4
5.2399998 -1.775 -0.70599997 4
5.2189999 -1.766 -0.70499998 4
5.2189999 -1.7640001 -0.70599997 4
5.1999998 -1.755 -0.70499998 4
5.184 -1.747 -0.704 4
5.1589999 -1.737 -0.70200002 4
5.1399999 -1.728 -0.70099998 3
5.1259999 -1.721 -0.69999999 3
5.119 -1.716 -0.69999999 3
5.1069999 -1.709 -0.69999999 3
5.085 -1.699 -0.69800001 3
5.0770001 -1.694 -0.69800001 3
5.0560002 -1.684 -0.69599998 5
5.0570002 -1.682 -0.69700003 3
5.04 -1.674 -0.69599998 3
5.0300002 -1.6670001 -0.69499999 3
5.0240002 -1.6619999 -0.69599998 3
5.0209999 -1.658 -0.69599998 3
5.0079999 -1.651 -0.69499999 3
4.994 -1.643 -0.69400001 3
4.9759998 -1.6339999 -0.69199997 3
4.9660001 -1.627 -0.69199997 5
4.9640002 -1.623 -0.69199997 3
4.9710002 -1.622 -0.69400001 3
4.9569998 -1.614 -0.69300002 3
4.9520001 -1.609 -0.69300002 3
4.9320002 -1.599 -0.69 3
4.9219999 -1.592 -0.69 5
4.9180002 -1.587 -0.69 3
4.9169998 -1.5829999 -0.69 3
4.908 -1.576 -0.68900001 3
4.9000001 -1.5700001 -0.68900001 3
4.8889999 -1.562 -0.68699998 5
4.901 -1.562 -0.69 3
4.888 -1.554 -0.68800002 3
4.8769999 -1.5470001 -0.68699998 3
4.8740001 -1.5420001 -0.68699998 3
4.8860002 -1.541 -0.68900001 3
4.862 -1.529 -0.685 5
4.8709998 -1.528 -0.68699998 3
4.8610001 -1.52 -0.68599999 3
4.8590002 -1.515 -0.685 4
4.868 -1.5140001 -0.68699998 3
4.8540001 -1.505 -0.685 3
4.8579998 -1.502 -0.68599999 3
4.8590002 -1.497 -0.68599999 3
4.8610001 -1.493 -0.68599999 3
4.8530002 -1.4859999 -0.685 3
4.8579998 -1.483 -0.685 3
4.8540001 -1.476 -0.685 3
4.8629999 -1.474 -0.68599999 3
4.8530002 -1.466 -0.68400002 2
4.8649998 -1.465 -0.68599999 3
4.868 -1.461 -0.68599999 3
4.8559999 -1.452 -0.68400002 3
4.8579998 -1.447 -0.68400002 2
4.8740001 -1.447 -0.68599999 3
4.8740001 -1.441 -0.685 3
4.869 -1.434 -0.68400002 3
4.8740001 -1.4299999 -0.68400002 3
4.8779998 -1.426 -0.68400002 4
4.8860002 -1.423 -0.685 3
4.8959999 -1.42 -0.68599999 3
4.8969998 -1.415 -0.685 3
4.9039998 -1.411 -0.68599999 3
4.9039998 -1.406 -0.685 3
4.9070001 -1.4 -0.685 2
4.9169998 -1.397 -0.685 3
4.928 -1.395 -0.68599999 3
4.9229999 -1.387 -0.685 5
4.9380002 -1.385 -0.68599999 3
4.941 -1.38 -0.685 3
4.9489999 -1.376 -0.68599999 5
4.9710002 -1.376 -0.68800002 3
4.9809999 -1.373 -0.68800002 3
4.98 -1.3660001 -0.68699998 3
5.0040002 -1.3660001 -0.68900001 3
4.9920001 -1.3559999 -0.68599999 5
5.0170002 -1.357 -0.68900001 3
5.0219998 -1.351 -0.68800002 3
5.039 -1.349 -0.68900001 3
5.059 -1.348 -0.69099998 3
5.053 -1.339 -0.68800002 5
5.0780001 -1.339 -0.69099998 3
5.085 -1.334 -0.69 3
5.1139998 -1.335 -0.69300002 3
5.1220002 -1.33 -0.69199997 5
5.1300001 -1.325 -0.69199997 3
5.152 -1.323 -0.69300002 4
5.1609998 -1.318 -0.69300002 2
5.1929998 -1.319 -0.69499999 2
5.1999998 -1.313 -0.69499999 3
5.2189999 -1.3099999 -0.69499999 2
5.224 -1.304 -0.69400001 2
5.263 -1.307 -0.69800001 2
5.2690001 -1.3 -0.69599998 2
5.2989998 -1.3 -0.69800001 2
5.309 -1.295 -0.69800001 2
5.3260002 -1.291 -0.69800001 3
5.3499999 -1.289 -0.699 3
5.3670001 -1.285 -0.699 2
5.4039998 -1.286 -0.70200002 3
5.4120002 -1.279 -0.70099998 2
5.4390001 -1.278 -0.70200002 2
5.4640002 -1.275 -0.70300001 2
5.4959998 -1.274 -0.704 3
5.513 -1.27 -0.704 2
5.5479999 -1.2690001 -0.70599997 3
5.5760002 -1.267 -0.70700002 2
5.6110001 -1.266 -0.70899999 3
5.638 -1.2640001 -0.70999998 3
5.6589999 -1.2589999 -0.70999998 3
5.6830001 -1.256 -0.70999998 3
5.7199998 -1.255 -0.71200001 3
5.7729998 -1.257 -0.71499997 3
5.7839999 -1.251 -0.71399999 3
5.8249998 -1.25 -0.71600002 3
5.8579998 -1.248 -0.71700001 2
5.902 -1.248 -0.71899998 3
5.9439998 -1.247 -0.72100002 3
5.9899998 -1.247 -0.72299999 3
6.0100002 -1.2410001 -0.722 3
6.0469999 -1.239 -0.72399998 3
6.0830002 -1.237 -0.72399998 3
6.1259999 -1.235 -0.72600001 4
6.1700001 -1.234 -0.727 4
6.2049999 -1.2309999 -0.72799999 4
6.277 -1.235 -0.73299998 5
6.3150001 -1.2309999 -0.73299998 4
6.368 -1.2309999 -0.73500001 4
6.415 -1.23 -0.73699999 4
6.48 -1.232 -0.74000001 4
6.52 -1.228 -0.741 4
6.5780001 -1.228 -0.74299997 4
6.6389999 -1.228 -0.745 4
6.6989999 -1.228 -0.74800003 4
6.7410002 -1.224 -0.74800003 3
6.8169999 -1.226 -0.75199997 4
6.875 -1.225 -0.75300002 4
6.9380002 -1.224 -0.755 4
7.0190001 -1.227 -0.759 4
7.0939999 -1.228 -0.76200002 4
7.1750002 -1.229 -0.76599997 4
7.2379999 -1.228 -0.76700002 4
7.335 -1.2309999 -0.77200001 5
7.4099998 -1.2309999 -0.77499998 4
7.4460001 -1.224 -0.773 4
7.54 -1.227 -0.77700001 4
7.6409998 -1.229 -0.78100002 5
7.7280002 -1.23 -0.78399998 5
7.8179998 -1.2309999 -0.787 5
7.9120002 -1.232 -0.79100001 5
8.0200005 -1.235 -0.79500002 5
8.1269999 -1.237 -0.79900002 4
8.2139997 -1.2359999 -0.801 5
8.342 -1.24 -0.80599999 4
8.4630003 -1.243 -0.81099999 4
8.5860004 -1.2460001 -0.81599998 3
8.7150002 -1.249 -0.82099998 3
8.8570004 -1.2539999 -0.82599998 3
9.0340004 -1.263 -0.83499998 4
9.276 -1.281 -0.85000002 3
9.4899998 -1.294 -0.861 5
9.6389999 -1.2970001 -0.866 6
9.7919998 -1.3 -0.87099999 11
9.9219999 -1.299 -0.87400001 10
10.022 -1.295 -0.87300003 12
10.171 -1.296 -0.87699997 7
10.329 -1.2970001 -0.88099998 15
10.501 -1.301 -0.88599998 10
10.71 -1.307 -0.89399999 7
10.95 -1.317 -0.90399998 8
11.165 -1.323 -0.91100001 8
11.411 -1.332 -0.92000002 4
11.631 -1.337 -0.926 4
11.858 -1.342 -0.93300003 3
12.102 -1.348 -0.94 2
12.41 -1.36 -0.95200002 3
12.727 -1.372 -0.96399999 3
13.079 -1.387 -0.977 3
13.414 -1.398 -0.98900002 3
13.742 -1.408 -0.99900001 3
14.116 -1.421 -1.012 3
14.483 -1.432 -1.023 3
14.821 -1.4400001 -1.0319999 3
15.207 -1.45 -1.043 3
15.606 -1.46 -1.054 3
16.146 -1.482 -1.073 3
16.618 -1.4960001 -1.087 2
17.157 -1.5140001 -1.104 2
17.738001 -1.533 -1.122 2
18.32 -1.551 -1.1390001 2
18.323999 -1.5190001 -1.12 1
18.82 -1.527 -1.1289999 1
0 0 0 2
0 0 0 4
22.855 -1.733 -1.295 3
23.113001 -1.711 -1.283 2
0 0 0 2
25.051001 -1.767 -1.334 2
0 0 0 3
27.548 -1.846 -1.404 3
27.544001 -1.7970001 -1.3710001 29
27.568001 -1.75 -1.341 155
27.608999 -1.704 -1.3099999 150
27.697001 -1.661 -1.281 49
0 0 0 4
41.463001 -2.342 -1.8200001 26
39.644001 -2.171 -1.693 8
39.488998 -2.0929999 -1.6390001 43
0 0 0 56
32.286999 -1.6 -1.262 165
32.251999 -1.541 -1.22 255
32.294998 -1.488 -1.182 224
32.265999 -1.431 -1.141 150
0 0 0 55
44.042999 -1.802 -1.449 45
44.291 -1.7359999 -1.401 40
44.490002 -1.6670001 -1.351 41
44.882 -1.605 -1.306 41
45.129002 -1.536 -1.256 44
45.229 -1.462 -1.201 40
45.291 -1.387 -1.1440001 35
45.332001 -1.313 -1.087 26
0 0 0 25
68.050003 -1.743 -1.4579999 100
68.058998 -1.627 -1.367 72
68.057999 -1.512 -1.278 85
68.050003 -1.397 -1.188 80
68.412003 -1.29 -1.103 17
71.234001 -1.224 -1.054 68
73.471001 -1.14 -0.98799998 106
74.487 -1.0319999 -0.90200001 25
74.320999 -0.90799999 -0.801 13
74.362 -0.78500003 -0.70099998 37
74.356003 -0.662 -0.60000002 60
74.369003 -0.54000002 -0.49900001 62
74.380997 -0.41800001 -0.39700001 33
0 0 0 0
0 0 0 0
0 0 0 0
0 0 0 37
0 0 0 0
0 0 0 11
87.164001 0.498 0.38100001 22
86.416 0.63200003 0.49900001 24
0 0 0 25
0 0 0 0
0 0 0 0
0 0 0 0
0 0 0 0
0 0 0 0
0 0 0 0
0 0 0 20
91.705002 1.965 1.704 14
0 0 0 0
0 0 0 0
0 0 0 15
0 0 0 0
0 0 0 0
0 0 0 0
0 0 0 23
0 0 0 0
0 0 0 0
0 0 0 20
89.365997 3.3959999 3.095 32
89.014 3.5139999 3.2149999 34
88.623001 3.6270001 3.3310001 32
88.445 3.75 3.4579999 14
0 0 0 0
0 0 0 22
89.734001 4.1939998 3.9089999 33
89.633003 4.3210001 4.0430002 24
0 0 0 0
0 0 0 31
118.495 6.217 5.8790002 50
0 0 0 0
0 0 0 19
90.579002 5.131 4.9029999 16
0 0 0 0
0 0 0 0
0 0 0 18
89.509003 5.5630002 5.3899999 20
91.192001 5.7919998 5.631 33
91.226997 5.9169998 5.7719998 34
90.994003 6.0240002 5.8969998 33
90.735001 6.1279998 6.0190001 19
0 0 0 36
118.751 8.3339996 8.2379999 36
118.69 8.4849997 8.4169998 40
118.806 8.6490002 8.6070004 55
118.691 8.7939997 8.7810001 58
118.742 8.9510002 8.9680004 62
118.58 9.0900002 9.1350002 32
118.446 9.2309999 9.3070002 24
0 0 0 32
128.627 10.348 10.5 28
0 0 0 0
0 0 0 41
128.821 10.842 11.109 70
128.672 10.988 11.294 51
0 0 0 0
0 0 0 0
0 0 0 75
118.321 10.675 11.113 106
118.278 10.811 11.292 129
118.276 10.951 11.474 115
118.284 11.09 11.657 82
118.306 11.23 11.842 78
118.292 11.364 12.019 81
118.291 11.5 12.202 77
118.252 11.631 12.38 72
118.318 11.771 12.569 53
118.236 11.896 12.742 28
0 0 0 0
0 0 0 0
0 0 0 0
0 0 0 0
0 0 0 0
0 0 0 0
0 0 0 0
0 0 0 28
118.42 13.065 14.389 24
0 0 0 0
0 0 0 0
0 0 0 0
0 0 0 27
118.426 13.67 15.291 32
118.332 13.777 15.458 50
118.248 13.883 15.622 56
118.202 13.994 15.795 73
118.187 14.106 15.971 69
118.21 14.223 16.152 69
118.192 14.333 16.327 75
118.17 14.442 16.497999 61
118.197 14.555 16.679001 45
118.186 14.663 16.854 32
0 0 0 0
0 0 0 26
118.342 15.005 17.400999 22
0 0 0 0
0 0 0 25
118.373 15.322 17.93 26
118.299 15.415 18.089001 33
118.228 15.507 18.252001 28
118.36 15.624 18.441999 26
118.268 15.711 18.6 32
118.326 15.814 18.777 26
118.465 15.933 18.972 22
118.205 15.994 19.101 27
118.356 16.108999 19.296 26
118.187 16.18 19.438999 36
118.163 16.268999 19.604 43
118.107 16.353001 19.764 53
118.099 16.443001 19.927 62
118.079 16.525999 20.091 79
118.168 16.627001 20.27 64
118.103 16.705 20.424999 70
118.131 16.796 20.593 56
118.069 16.872 20.747 70
118.027 16.951 20.905001 69
118.11 17.046 21.084 50
118.088 17.125 21.24 57
118.095 17.207001 21.403999 54
118.087 17.285999 21.565001 54
118.038 17.357 21.718 47
118.096 17.441 21.885 52
118.098 17.518 22.046 54
118.083 17.591 22.202999 50
118.108 17.67 22.363001 60
118.054 17.736 22.507 49
118.099 17.815001 22.674 51
118.141 17.893 22.837999 53
118.131 17.962 22.992001 50
118.075 18.024 23.132999 56
118.054 18.089001 23.284 52
118.044 18.153999 23.434999 58
118.006 18.214001 23.580999 68
118.078 18.291 23.743999 49
118.081 18.356001 23.896 49
118.099 18.421 24.049999 46
118.066 18.478001 24.193001 53
118.075 18.540001 24.344 57
118.065 18.599001 24.486 45
118.106 18.660999 24.642 46
118.052 18.711 24.774 48
118.091 18.773001 24.927 46
118.039 18.820999 25.058001 45
118.118 18.888 25.218 53
118.091 18.937 25.356001 48
118.093 18.99 25.497999 51
118.075 19.039 25.632 50
118.017 19.08 25.759001 48
118.064 19.136 25.909 47
118.052 19.181999 26.044001 46
118.08 19.235001 26.184 46
118.082 19.281 26.320999 46
118.14 19.336 26.469999 53
118.078 19.368999 26.59 45
118.03 19.403999 26.712999 56
118.065 19.451 26.853001 64
118.08 19.493999 26.988001 73
118.088 19.535999 27.117001 47
118.306 19.608999 27.299999 26
118.406 19.665001 27.448 25
118.266 19.677999 27.544001 31
118.203 19.702 27.655001 36
118.173 19.732 27.774 39
118.182 19.766001 27.9 39
118.092 19.783001 28.002001 52
118.066 19.809999 28.118 58
118.105 19.848 28.245001 58
118.087 19.874001 28.360001 62
118.088 19.900999 28.479 56
118.1 19.934 28.599001 50
118.13 19.965 28.723 37
118.084 19.981001 28.827 32
0 0 0 0
0 0 0 0
0 0 0 0
0 0 0 0
0 0 0 0
0 0 0 0
0 0 0 0
0 0 0 0
0 0 0 0
0 0 0 0
0 0 0 0
0 0 0 0
0 0 0 0
0 0 0 0
0 0 0 0
0 0 0 0
0 0 0 0
0 0 0 0
0 0 0 0
0 0 0 0
0 0 0 0
0 0 0 0
0 0 0 0
0 0 0 0
0 0 0 0
0 0 0 0
0 0 0 31
118.335 20.304001 31.618999 29
118.299 20.292999 31.690001 31
118.161 20.263 31.731001 33
118.154 20.257999 31.804001 36
118.213 20.26 31.896 36
118.147 20.239 31.952999 41
118.181 20.238001 32.033001 50
118.144 20.218 32.097 47
118.224 20.219999 32.188999 63
118.195 20.202 32.25 58
118.244 20.198999 32.328999 62
118.107 20.16 32.358002 51
118.18 20.16 32.442001 55
118.151 20.138 32.497002 59
118.173 20.125 32.566002 54
118.248 20.118 32.646 46
118.176 20.086 32.686001 44
118.226 20.077 32.756001 41
118.229 20.056 32.813999 37
118.207 20.028999 32.862 34
118.182 20.000999 32.909 29
118.263 19.99 32.984001 28
118.125 19.944 32.994999 27
0 0 0 0
0 0 0 26
0 0 0 0
0 0 0 0
0 0 0 0
0 0 0 0
0 0 0 0
0 0 0 0
0 0 0 0
0 0 0 0
0 0 0 0
0 0 0 0
0 0 0 0
0 0 0 0
0 0 0 0
0 0 0 27
118.477 19.438 33.737 28
118.365 19.378 33.73 38
118.322 19.330999 33.738998 60
118.32 19.287001 33.761002 78
118.306 19.24 33.778 56
118.306 19.195 33.797001 48
118.355 19.157 33.827999 42
118.351 19.112 33.841999 44
118.346 19.063999 33.855 45
118.355 19.02 33.868999 37
118.344 18.968 33.877998 45
118.338 18.917 33.886002 46
118.402 18.875999 33.912998 40
118.336 18.813 33.902 44
118.401 18.771 33.925999 48
118.334 18.709999 33.91 51
118.411 18.667999 33.935001 49
118.409 18.612 33.935001 46
118.393 18.552999 33.93 46
118.407 18.497999 33.931999 40
118.379 18.436001 33.921001 41
118.413 18.386 33.924999 41
118.414 18.327 33.918999 43
118.435 18.27 33.917 48
118.388 18.202 33.894001 43
118.435 18.150999 33.896 40
118.421 18.087 33.879002 45
118.439 18.025999 33.870998 42
118.424 17.959999 33.851002 50
118.422 17.898001 33.833 53
118.364 17.823999 33.797001 47
118.426 17.767 33.794998 40
118.462 17.705999 33.785 44
118.464 17.639 33.763 44
118.512 17.577999 33.752998 41
118.442 17.499001 33.706001 41
118.455 17.434 33.681999 42
118.488 17.368999 33.661999 41
118.535 17.304001 33.645 47
118.458 17.224001 33.589001 39
118.429 17.146999 33.547001 46
118.517 17.084 33.540001 44
118.495 17.009001 33.494999 47
118.483 16.933001 33.452999 46
118.493 16.858999 33.416 41
118.536 16.792999 33.387001 46
118.526 16.715 33.341 44
118.484 16.632 33.285999 63
118.507 16.556999 33.247002 63
118.551 16.486 33.214001 30
0 0 0 0
0 0 0 0
0 0 0 0
0 0 0 0
0 0 0 0
0 0 0 24
118.595 15.926 32.848999 28
118.656 15.852 32.810001 33
118.579 15.761 32.728001 37
118.571 15.676 32.662998 33
118.547 15.587 32.592999 35
118.562 15.507 32.532001 41
118.642 15.431 32.487 49
118.635 15.344 32.417999 61
118.629 15.256 32.346001 63
118.587 15.162 32.264 56
118.663 15.085 32.215 50
118.645 14.997 32.136002 58
118.633 14.906 32.057999 60
118.669 14.821 31.99 55
118.638 14.727 31.903999 55
118.628 14.638 31.822001 45
118.731 14.56 31.768 44
118.729 14.468 31.684999 32
118.749 14.378 31.606001 34
118.784 14.289 31.530001 30
118.768 14.194 31.438 28
118.864 14.115 31.375999 30
118.966 14.033 31.312 28
119.057 13.949 31.245001 27
0 0 0 0
0 0 0 23
118.969 13.652 30.938999 30
0 0 0 0
0 0 0 0
0 0 0 0
0 0 0 0
0 0 0 0
0 0 0 0
0 0 0 0
0 0 0 0
0 0 0 0
0 0 0 28
118.845 12.571 29.761999 25
0 0 0 0
0 0 0 28
0 0 0 0
0 0 0 24
118.963 12.083 29.215 26
118.982 11.984 29.1 23
118.992 11.88 28.981001 25
0 0 0 0
0 0 0 30
118.823 11.56 28.57 33
118.844 11.459 28.448999 45
118.812 11.355 28.311001 56
118.832 11.254 28.187 64
118.817 11.151 28.056999 62
118.822 11.049 27.927 61
118.838 10.946 27.798 54
118.87 10.846 27.671 57
118.888 10.747 27.541 47
118.918 10.644 27.407 38
118.973 10.544 27.281 36
119.13 10.454 27.177999 32
0 0 0 0
0 0 0 0
0 0 0 0
0 0 0 0
0 0 0 0
0 0 0 30
0 0 0 0
0 0 0 0
0 0 0 0
0 0 0 0
0 0 0 0
0 0 0 0
0 0 0 0
0 0 0 0
0 0 0 0
0 0 0 0
0 0 0 28
118.899 8.552 24.405001 39
118.903 8.4499998 24.245001 53
118.949 8.3479996 24.09 56
118.989 8.243 23.931 66
118.996 8.1379995 23.766001 63
118.938 8.0319996 23.587999 63
118.993 7.9310002 23.43 46
119.079 7.8319998 23.277 45
119.109 7.7290001 23.112 32
119.314 7.6370001 22.979 26
119.332 7.5359998 22.809999 26
0 0 0 0
0 0 0 26
0 0 0 0
0 0 0 29
119.152 7.0040002 21.886999 28
0 0 0 0
0 0 0 0
0 0 0 0
0 0 0 0
0 0 0 0
0 0 0 25
119.122 6.2870002 20.606001 39
119.078 6.1820002 20.410999 46
119.06 6.079 20.219 63
119.06 5.9770002 20.030001 72
119.085 5.8790002 19.844999 72
119.061 5.776 19.65 65
119.125 5.6750002 19.465 60
119.157 5.579 19.278999 44
119.295 5.4840002 19.106001 44
119.352 5.3860002 18.919001 25
0 0 0 0
0 0 0 0
0 0 0 0
0 0 0 0
0 0 0 0
0 0 0 30
121.805 4.7930002 17.884001 23
121.71 4.6890001 17.662001 32
121.801 4.5929999 17.466 29
121.803 4.494 17.257 30
121.802 4.395 17.046 29
121.8 4.296 16.834 41
121.77 4.1999998 16.618999 32
121.635 4.098 16.388 45
121.624 4 16.172001 46
121.571 3.902 15.95 70
121.604 3.8069999 15.739 79
121.636 3.7119999 15.526 71
121.617 3.6159999 15.306 72
121.65 3.5220001 15.092 53
121.722 3.4300001 14.881 31
121.789 3.3380001 14.666 26
121.853 3.2479999 14.458 29
0 0 0 0
0 0 0 0
0 0 0 0
0 0 0 0
0 0 0 0
0 0 0 0
0 0 0 0
0 0 0 0
0 0 0 0
0 0 0 36
121.639 2.253 11.957 75
121.583 2.1670001 11.724 70
121.593 2.0799999 11.494 86
121.584 1.994 11.262 79
121.558 1.909 11.028 83
121.617 1.825 10.8 77
121.711 1.742 10.575 51
121.751 1.659 10.344 37
121.8 1.5779999 10.116 38
121.733 1.495 9.8780003 39
121.676 1.413 9.6339998 35
121.67 1.332 9.3959999 41
121.677 1.251 9.1590004 40
121.669 1.171 8.9209995 38
121.665 1.094 8.6850004 50
121.773 1.016 8.4530001 50
121.842 0.93900001 8.2180004 36
121.805 0.861 7.974 26
0 0 0 0
0 0 0 40
121.847 0.63499999 7.2550001 48
121.824 0.56 7.0110002 44
121.832 0.48699999 6.7680001 46
121.846 0.41499999 6.5279999 48
121.794 0.34200001 6.2800002 52
121.615 0.27000001 6.027 61
121.566 0.199 5.7789998 82
121.527 0.12899999 5.5320001 65
0 0 0 0
0 0 0 23
85.057999 -0.052000001 3.3570001 34
0 0 0 0
0 0 0 25
0 0 0 0
0 0 0 18
0 0 0 0
0 0 0 25
84.561996 -0.36700001 2.1359999 35
85.182999 -0.41299999 1.976 24
86.084 -0.46000001 1.822 16
0 0 0 17
73.295998 -0.465 1.245 38
73.014999 -0.49900001 1.089 45
72.420998 -0.52999997 0.93099999 59
72.098 -0.56099999 0.77700001 45
71.268997 -0.588 0.62 51
71.098999 -0.61900002 0.47099999 40
0 0 0 0
0 0 0 0
0 0 0 0
0 0 0 30
74.384003 -0.81 -0.27399999 62
74.387001 -0.84200001 -0.42899999 78
74.376999 -0.87199998 -0.583 57
74.456001 -0.903 -0.73900002 51
74.554001 -0.93400002 -0.89600003 38
74.518997 -0.963 -1.05 28
74.081001 -0.986 -1.199 46
73.559998 -1.006 -1.34 112
73.459 -1.0319999 -1.492 140
73.434998 -1.059 -1.646 93
73.445 -1.086 -1.803 33
71.246002 -1.0779999 -1.898 18
71.209999 -1.102 -2.0469999 65
71.218002 -1.127 -2.197 47
71.210999 -1.15 -2.3469999 14
0 0 0 0
0 0 0 15
58.849998 -1.007 -2.309 15
58.844002 -1.025 -2.4330001 5
0 0 0 0
0 0 0 0
0 0 0 0
0 0 0 0
0 0 0 1
26.969 -0.51499999 -1.455 1
0 0 0 1
0 0 0 1
18.854 -0.37400001 -1.135 1
0 0 0 2
16.459 -0.33399999 -1.0599999 4
15.576 -0.31999999 -1.036 2
14.723 -0.30500001 -1.01 3
13.979 -0.29300001 -0.98799998 3
13.277 -0.28099999 -0.96700001 3
12.608 -0.26899999 -0.94400001 2
11.978 -0.25799999 -0.92199999 2
11.479 -0.249 -0.90700001 2
11.027 -0.241 -0.89399999 2
10.511 -0.23199999 -0.875 3
10.049 -0.223 -0.85699999 3
9.5889997 -0.215 -0.838 3
9.2010002 -0.207 -0.82300001 3
8.8389997 -0.2 -0.80900002 3
8.4879999 -0.193 -0.79400003 3
8.1829996 -0.18799999 -0.78299999 3
7.8709998 -0.18099999 -0.76899999 5
7.6020002 -0.176 -0.75800002 5
7.3540001 -0.171 -0.74900001 7
7.1479998 -0.167 -0.74299997 6
6.9190001 -0.162 -0.73299998 6
6.6630001 -0.15700001 -0.72000003 10
6.4780002 -0.153 -0.713 9
6.3639998 -0.15099999 -0.71399999 9
6.2259998 -0.148 -0.71100003 8
6.0630002 -0.14399999 -0.70499998 4
5.8759999 -0.14 -0.69499999 3
5.7360001 -0.13699999 -0.69 3
5.6069999 -0.134 -0.68599999 3
5.4710002 -0.131 -0.68000001 3
5.362 -0.12899999 -0.67799997 3
5.2350001 -0.126 -0.67199999 3
5.112 -0.123 -0.667 2
4.9980001 -0.12 -0.662 5
4.895 -0.118 -0.65799999 3
4.8039999 -0.116 -0.65600002 3
4.697 -0.113 -0.65100002 2
4.6149998 -0.111 -0.648 2
4.5209999 -0.109 -0.64399999 2
4.428 -0.106 -0.63999999 2
4.362 -0.105 -0.639 3
4.2880001 -0.103 -0.63700002 3
4.1690001 -0.1 -0.62800002 2
4.1220002 -0.097999997 -0.62800002 2
4.0570002 -0.097000003 -0.62699997 2
4.0380001 -0.096000001 -0.63200003 2
3.9170001 -0.093000002 -0.62 2
3.8989999 -0.092 -0.625 2
3.8770001 -0.090999998 -0.62900001 3
3.7539999 -0.088 -0.61699998 2
3.7019999 -0.086000003 -0.61500001 2
3.6659999 -0.085000001 -0.61699998 2
3.631 -0.083999999 -0.61799997 2
3.5380001 -0.081 -0.60900003 1
3.474 -0.079999998 -0.60399997 1
3.4519999 -0.079000004 -0.60699999 2
3.4389999 -0.078000002 -0.611 2
3.401 -0.077 -0.611 2
3.4200001 -0.077 -0.62099999 2
3.3599999 -0.075000003 -0.61699998 1
3.221 -0.071000002 -0.597 2
3.1819999 -0.07 -0.59600002 2
3.1340001 -0.068000004 -0.59299999 2
3.095 -0.067000002 -0.59100002 2
3.062 -0.066 -0.59100002 2
3.0250001 -0.064000003 -0.58899999 2
2.997 -0.063000001 -0.58899999 2
2.961 -0.061999999 -0.588 2
2.9230001 -0.061000001 -0.58499998 2
2.8900001 -0.059 -0.58399999 3
2.862 -0.057999998 -0.583 4
2.848 -0.057 -0.58600003 4
2.823 -0.056000002 -0.58600003 4
2.7839999 -0.055 -0.583 2
2.747 -0.052999999 -0.57999998 2
2.7079999 -0.052000001 -0.57599998 2
2.6800001 -0.050999999 -0.57499999 2
2.6589999 -0.050000001 -0.57599998 2
2.6370001 -0.048999999 -0.57499999 2
2.612 -0.048 -0.574 2
2.5810001 -0.046999998 -0.57200003 2
2.5599999 -0.046 -0.57200003 2
2.539 -0.045000002 -0.57200003 2
2.516 -0.043000001 -0.57099998 2
2.487 -0.041999999 -0.56800002 1
2.471 -0.041000001 -0.56900001 1
2.4460001 -0.039999999 -0.56699997 1
2.4360001 -0.039000001 -0.56900001 1
2.4089999 -0.037999999 -0.56699997 1
2.3900001 -0.037 -0.56599998 1
2.368 -0.035999998 -0.565 2
2.346 -0.035 -0.56400001 2
2.3280001 -0.034000002 -0.56300002 2
2.316 -0.033 -0.56400001 2
2.2969999 -0.032000002 -0.56300002 2
2.2750001 -0.030999999 -0.56199998 1
2.263 -0.030999999 -0.56199998 1
2.24 -0.029999999 -0.56 1
2.22 -0.028999999 -0.55900002 1
2.211 -0.028000001 -0.56 1
2.201 -0.027000001 -0.56099999 1
2.181 -0.026000001 -0.55900002 1
2.161 -0.025 -0.55800003 1
2.1470001 -0.024 -0.55699998 1
2.1359999 -0.023 -0.55800003 1
2.122 -0.022 -0.55699998 1
2.1040001 -0.021 -0.55599999 1
2.0910001 -0.02 -0.55500001 1
2.0780001 -0.02 -0.55500001 1
2.063 -0.018999999 -0.55400002 1
2.0469999 -0.017999999 -0.55299997 1
2.033 -0.017000001 -0.55199999 1
2.0190001 -0.016000001 -0.551 1
2.0109999 -0.015 -0.55199999 1
2 -0.014 -0.55199999 1
1.985 -0.014 -0.55000001 1
1.974 -0.013 -0.55000001 1
1.9680001 -0.012 -0.551 1
1.956 -0.011 -0.551 1
1.946 -0.0099999998 -0.55000001 1
1.933 -0.0089999996 -0.54900002 1
1.921 -0.0089999996 -0.54799998 1
1.913 -0.0080000004 -0.54900002 1
1.903 -0.0070000002 -0.54900002 1
1.897 -0.0060000001 -0.54900002 1
1.885 -0.0060000001 -0.54799998 1
1.876 -0.0049999999 -0.54799998 1
1.8559999 -0.0040000002 -0.54500002 1
1.858 -0.003 -0.54799998 1
1.851 -0.0020000001 -0.54799998 1
1.842 -0.0020000001 -0.54799998 1
1.829 -0.001 -0.546 1
1.822 0 -0.546 1
1.819 0 -0.54699999 1
1.802 0 -0.54500002 1
1.798 0.001 -0.546 1
1.788 0.0020000001 -0.54500002 1
1.783 0.003 -0.54500002 1
1.776 0.003 -0.54500002 1
1.7690001 0.0040000002 -0.54500002 1
1.753 0.0049999999 -0.542 1
1.747 0.0060000001 -0.542 1
1.744 0.0060000001 -0.54299998 1
1.727 0.0070000002 -0.54000002 1
1.724 0.0080000004 -0.54100001 1
1.717 0.0080000004 -0.54000002 1
1.705 0.0089999996 -0.53799999 1
1.699 0.0099999998 -0.53799999 1
1.702 0.011 -0.54100001 1
1.6849999 0.011 -0.537 1
1.682 0.012 -0.53799999 1
1.676 0.013 -0.53799999 1
1.671 0.013 -0.53799999 1
1.666 0.014 -0.53799999 1
1.664 0.015 -0.53899997 1
1.6619999 0.016000001 -0.54000002 1
1.647 0.016000001 -0.53600001 1
1.647 0.017000001 -0.53799999 1
1.6390001 0.017999999 -0.537 1
1.636 0.017999999 -0.537 1
1.6289999 0.018999999 -0.53600001 1
1.622 0.02 -0.53600001 1
1.619 0.02 -0.53600001 1
1.607 0.021 -0.53299999 1
1.61 0.022 -0.53600001 1
1.6059999 0.022 -0.53600001 1
1.596 0.023 -0.53399998 1
1.595 0.024 -0.53399998 1
1.596 0.024 -0.53600001 1
1.5829999 0.025 -0.53299999 1
1.5829999 0.026000001 -0.53399998 1
1.576 0.026000001 -0.53299999 1
1.576 0.027000001 -0.53399998 1
1.567 0.027000001 -0.53200001 1
1.576 0.028000001 -0.53600001 1
1.567 0.028999999 -0.53399998 1
1.554 0.028999999 -0.53100002 1
1.554 0.029999999 -0.53200001 1
1.55 0.030999999 -0.53200001 1
1.549 0.030999999 -0.53200001 1
1.549 0.032000002 -0.53299999 1
1.54 0.033 -0.53100002 1
1.551 0.034000002 -0.53600001 1
1.541 0.034000002 -0.53299999 1
1.538 0.035 -0.53299999 1
1.5369999 0.035 -0.53299999 1
1.536 0.035999998 -0.53399998 1
1.538 0.037 -0.53500003 1
1.533 0.037 -0.53399998 1
1.517 0.037999999 -0.52899998 1
1.53 0.039000001 -0.53500003 1
1.5190001 0.039000001 -0.53100002 1
1.517 0.039999999 -0.53100002 1
1.51 0.039999999 -0.52899998 1
1.517 0.041000001 -0.53299999 1
1.5190001 0.041999999 -0.53399998 1
1.5190001 0.041999999 -0.53500003 1
1.51 0.043000001 -0.53200001 1
1.5089999 0.043000001 -0.53200001 1
1.505 0.044 -0.53100002 1
1.502 0.045000002 -0.53100002 1
1.503 0.045000002 -0.53100002 1
1.501 0.046 -0.53100002 1
1.498 0.046 -0.53100002 1
1.502 0.046999998 -0.53200001 1
1.492 0.048 -0.52899998 1
1.494 0.048 -0.52999997 1
1.495 0.048999999 -0.53100002 1
1.494 0.050000001 -0.53100002 1
1.487 0.050000001 -0.52899998 1
1.487 0.050999999 -0.52899998 1
1.488 0.050999999 -0.52999997 1
1.493 0.052000001 -0.53100002 1
1.4859999 0.052000001 -0.52899998 1
1.49 0.052999999 -0.53100002 1
1.487 0.054000001 -0.52999997 1
1.487 0.054000001 -0.52999997 1
1.484 0.055 -0.52899998 1
1.482 0.055 -0.528 1
1.488 0.056000002 -0.53100002 1
1.4859999 0.057 -0.52999997 1
1.483 0.057 -0.52899998 1
1.4809999 0.057999998 -0.528 1
1.487 0.059 -0.53100002 1
1.484 0.059 -0.52899998 1
1.487 0.059999999 -0.52999997 1
1.4859999 0.059999999 -0.52999997 1
1.485 0.061000001 -0.52899998 1
1.489 0.061999999 -0.53100002 1
1.483 0.061999999 -0.528 1
1.488 0.063000001 -0.52999997 1
1.489 0.063000001 -0.52999997 1
1.484 0.064000003 -0.528 1
1.485 0.064000003 -0.528 1
1.493 0.064999998 -0.53100002 1
1.489 0.066 -0.52899998 1
1.502 0.067000002 -0.53299999 1
1.493 0.067000002 -0.52999997 1
1.493 0.067000002 -0.52999997 1
1.501 0.068000004 -0.53200001 1
1.501 0.068999998 -0.53200001 1
1.494 0.068999998 -0.52899998 1
1.502 0.07 -0.53100002 1
1.502 0.07 -0.53100002 1
1.502 0.071000002 -0.52999997 1
1.5089999 0.071999997 -0.53200001 1
1.5039999 0.071999997 -0.52999997 1
1.5 0.072999999 -0.528 1
1.5140001 0.074000001 -0.53200001 1
1.511 0.074000001 -0.53100002 1
1.5089999 0.075000003 -0.52899998 1
1.5190001 0.075000003 -0.53200001 1
1.52 0.075999998 -0.53200001 1
1.517 0.075999998 -0.52999997 1
1.525 0.077 -0.53200001 1
1.518 0.077 -0.52899998 1
1.53 0.078000002 -0.53299999 1
1.533 0.079000004 -0.53299999 1
1.5319999 0.079000004 -0.53200001 1
1.534 0.079999998 -0.53100002 1
1.534 0.081 -0.53100002 1
1.545 0.082000002 -0.53399998 1
1.544 0.082000002 -0.53200001 1
1.5470001 0.082999997 -0.53299999 1
1.552 0.082999997 -0.53299999 1
1.557 0.083999999 -0.53399998 1
1.551 0.083999999 -0.53100002 1
1.558 0.085000001 -0.53200001 1
1.561 0.085000001 -0.53200001 1
1.572 0.086000003 -0.53500003 1
1.567 0.086999997 -0.53200001 1
1.571 0.086999997 -0.53299999 1
1.581 0.088 -0.53500003 1
1.58 0.089000002 -0.53299999 1
1.589 0.090000004 -0.53500003 1
1.5880001 0.090000004 -0.53299999 1
1.589 0.090000004 -0.53299999 1
1.5930001 0.090999998 -0.53299999 1
1.597 0.090999998 -0.53299999 1
1.6059999 0.092 -0.53500003 1
1.607 0.093000002 -0.53299999 1
1.607 0.093000002 -0.53200001 1
1.615 0.093999997 -0.53299999 1
1.6210001 0.094999999 -0.53399998 1
1.627 0.094999999 -0.53500003 1
1.627 0.096000001 -0.53299999 1
1.635 0.096000001 -0.53399998 1
1.642 0.097000003 -0.53500003 1
1.649 0.097999997 -0.53600001 1
1.654 0.098999999 -0.53600001 1
1.656 0.098999999 -0.53500003 1
1.675 0.1 -0.53899997 1
1.679 0.101 -0.53899997 1
1.679 0.101 -0.53799999 1
1.689 0.102 -0.53899997 1
1.693 0.103 -0.53799999 1
1.698 0.103 -0.53799999 1
1.7079999 0.104 -0.54000002 1
1.716 0.105 -0.54100001 1
1.719 0.105 -0.53899997 1
1.7309999 0.106 -0.54100001 1
1.742 0.107 -0.54299998 1
1.739 0.107 -0.54000002 1
1.747 0.108 -0.54100001 1
1.757 0.109 -0.542 1
1.7690001 0.11 -0.54299998 1
1.775 0.11 -0.54299998 1
1.786 0.111 -0.54500002 1
1.788 0.111 -0.54299998 1
1.794 0.112 -0.54299998 1
1.804 0.113 -0.54400003 1
1.812 0.113 -0.54400003 1
1.8150001 0.114 -0.542 1
1.831 0.115 -0.54500002 1
1.832 0.115 -0.54299998 1
1.849 0.116 -0.546 1
1.854 0.117 -0.54500002 1
1.8660001 0.117 -0.546 1
1.874 0.118 -0.546 1
1.882 0.119 -0.546 1
1.89 0.119 -0.546 1
1.906 0.12 -0.54799998 1
1.913 0.121 -0.54699999 1
1.929 0.122 -0.54900002 1
1.932 0.122 -0.54799998 1
1.948 0.123 -0.55000001 1
1.9529999 0.123 -0.54799998 1
1.966 0.124 -0.54900002 1
1.983 0.125 -0.551 1
1.993 0.126 -0.551 1
2.0050001 0.126 -0.55199999 1
2.0150001 0.127 -0.55199999 1
2.027 0.12800001 -0.55199999 1
2.0420001 0.12899999 -0.55299997 1
2.0580001 0.13 -0.55500001 1
2.066 0.13 -0.55400002 1
2.073 0.13 -0.55299997 1
2.0829999 0.131 -0.55199999 1
2.1059999 0.132 -0.55500001 1
2.119 0.133 -0.55500001 1
2.1259999 0.133 -0.55400002 1
2.1429999 0.134 -0.55500001 1
2.1570001 0.134 -0.55599999 1
2.177 0.13600001 -0.55699998 1
2.2019999 0.13699999 -0.56 1
2.2149999 0.13699999 -0.56 2
2.2309999 0.138 -0.56099999 2
2.244 0.139 -0.56099999 2
2.263 0.14 -0.56199998 2
2.2809999 0.14 -0.56300002 2
2.299 0.141 -0.56300002 2
2.3110001 0.142 -0.56300002 2
2.329 0.142 -0.56300002 2
2.348 0.14300001 -0.56400001 2
2.3699999 0.14399999 -0.565 2
2.3870001 0.145 -0.56599998 2
2.401 0.145 -0.565 2
2.4260001 0.146 -0.56699997 2
2.4430001 0.147 -0.56699997 2
2.4719999 0.148 -0.56999999 2
2.4960001 0.149 -0.57099998 2
2.516 0.149 -0.57099998 2
2.529 0.15000001 -0.56999999 2
2.5569999 0.15099999 -0.57200003 2
2.5769999 0.15099999 -0.57200003 2
2.602 0.152 -0.57300001 2
2.6329999 0.153 -0.57499999 2
2.648 0.154 -0.574 2
2.678 0.155 -0.57599998 2
2.707 0.156 -0.57700002 2
2.7249999 0.156 -0.57599998 2
2.753 0.15700001 -0.57800001 2
2.786 0.15800001 -0.57999998 2
2.8080001 0.15800001 -0.579 2
