# .PCD v0.7 - Point Cloud Data file format
VERSION 0.7
FIELDS x y z intensity
SIZE 4 4 4 4
TYPE F F F F
COUNT 1 1 1 1
WIDTH 1774
HEIGHT 1
VIEWPOINT 0 0 0 1 0 0 0
POINTS 1774
DATA ascii
6.9419999 -0.227 -0.70899999 4
6.7270002 -0.222 -0.70099998 4
6.5300002 -0.21799999 -0.69400001 4
6.3299999 -0.213 -0.68599999 6
6.1589999 -0.20900001 -0.68000001 6
6.013 -0.205 -0.676 6
5.8940001 -0.20299999 -0.67400002 5
5.7399998 -0.199 -0.66799998 4
5.5739999 -0.19499999 -0.66000003 5
5.4219999 -0.191 -0.653 7
5.3200002 -0.189 -0.65200001 10
5.2189999 -0.186 -0.64999998 11
5.118 -0.184 -0.64700001 11
5 -0.18099999 -0.64200002 10
4.9229999 -0.17900001 -0.64200002 7
4.823 -0.176 -0.639 5
4.7129998 -0.17299999 -0.634 4
4.6329999 -0.171 -0.63300002 3
4.546 -0.169 -0.63 3
4.4580002 -0.16599999 -0.62699997 2
4.381 -0.164 -0.625 2
4.2989998 -0.162 -0.62099999 3
4.2220001 -0.16 -0.61900002 3
4.1630001 -0.15800001 -0.61799997 2
4.0830002 -0.156 -0.61500001 2
4.0159998 -0.154 -0.61299998 2
3.937 -0.15099999 -0.60799998 2
3.8940001 -0.15000001 -0.60900003 2
3.8329999 -0.148 -0.60699999 2
3.7420001 -0.145 -0.60000002 2
3.7980001 -0.148 -0.616 3
3.675 -0.14300001 -0.60399997 2
3.5999999 -0.141 -0.59799999 2
3.5280001 -0.138 -0.59299999 1
3.507 -0.138 -0.597 2
3.457 -0.13600001 -0.59500003 1
3.4159999 -0.13500001 -0.59399998 2
3.4590001 -0.13699999 -0.60799998 2
3.3640001 -0.133 -0.59799999 1
3.339 -0.132 -0.60000002 1
3.3529999 -0.133 -0.60900003 2
3.2620001 -0.13 -0.59899998 1
3.2130001 -0.12800001 -0.59600002 1
3.171 -0.126 -0.59399998 1
3.1589999 -0.126 -0.597 1
3.0699999 -0.122 -0.58700001 1
3.112 -0.124 -0.60000002 2
2.96 -0.118 -0.57700002 2
2.9189999 -0.116 -0.574 2
2.891 -0.115 -0.574 2
2.8559999 -0.114 -0.57200003 2
2.8329999 -0.113 -0.57300001 2
2.7939999 -0.111 -0.56999999 2
2.7650001 -0.11 -0.56900001 2
2.7379999 -0.109 -0.56800002 2
2.7179999 -0.108 -0.56900001 2
2.6830001 -0.107 -0.56699997 2
2.668 -0.106 -0.56800002 2
2.6400001 -0.105 -0.56699997 2
2.6170001 -0.103 -0.56699997 1
2.5840001 -0.102 -0.56400001 1
2.566 -0.101 -0.565 1
2.5320001 -0.1 -0.56199998 1
2.513 -0.098999999 -0.56199998 1
2.4949999 -0.097999997 -0.56199998 1
2.4649999 -0.096000001 -0.56 1
2.45 -0.094999999 -0.56099999 1
2.4330001 -0.094999999 -0.56099999 1
2.411 -0.093000002 -0.56 1
2.3889999 -0.092 -0.55900002 1
2.368 -0.090999998 -0.55800003 1
2.359 -0.090999998 -0.56 1
2.3280001 -0.089000002 -0.55699998 1
2.313 -0.088 -0.55699998 1
2.3 -0.086999997 -0.55800003 1
2.28 -0.086000003 -0.55599999 1
2.2579999 -0.085000001 -0.55500001 1
2.2479999 -0.083999999 -0.55599999 1
2.2279999 -0.082999997 -0.55500001 1
2.211 -0.082000002 -0.55400002 1
2.1900001 -0.081 -0.55199999 1
2.177 -0.079999998 -0.55199999 1
2.165 -0.079999998 -0.55299997 1
2.151 -0.079000004 -0.55299997 1
2.1440001 -0.078000002 -0.55400002 1
2.1229999 -0.077 -0.55199999 1
2.1099999 -0.075999998 -0.55199999 1
2.095 -0.075000003 -0.551 1
2.082 -0.074000001 -0.551 1
2.0639999 -0.072999999 -0.55000001 1
2.053 -0.071999997 -0.55000001 1
2.0380001 -0.071000002 -0.54900002 1
2.026 -0.07 -0.54900002 1
2.017 -0.07 -0.54900002 2
2.0079999 -0.068999998 -0.55000001 2
2.0079999 -0.068999998 -0.55299997 2
1.983 -0.067000002 -0.54900002 1
1.9529999 -0.066 -0.54299998 1
1.9450001 -0.064999998 -0.54400003 1
1.932 -0.064000003 -0.54299998 1
1.927 -0.063000001 -0.54400003 1
1.9170001 -0.063000001 -0.54400003 1
1.908 -0.061999999 -0.54400003 1
1.8940001 -0.061000001 -0.54299998 1
1.883 -0.059999999 -0.542 1
1.875 -0.059 -0.542 1
1.864 -0.057999998 -0.542 1
1.857 -0.057999998 -0.542 2
1.848 -0.057 -0.542 2
1.832 -0.056000002 -0.54000002 1
1.825 -0.055 -0.54000002 1
1.8150001 -0.054000001 -0.54000002 1
1.813 -0.054000001 -0.54100001 1
1.795 -0.052999999 -0.53799999 1
1.79 -0.052000001 -0.53899997 1
1.7819999 -0.050999999 -0.53899997 1
1.7690001 -0.050000001 -0.537 1
1.766 -0.050000001 -0.53799999 1
1.76 -0.048999999 -0.53899997 1
1.749 -0.048 -0.537 1
1.745 -0.048 -0.53799999 1
1.733 -0.046999998 -0.53600001 1
1.726 -0.046 -0.53600001 1
1.723 -0.045000002 -0.537 1
1.705 -0.044 -0.53399998 1
1.697 -0.044 -0.53299999 1
1.692 -0.043000001 -0.53299999 1
1.687 -0.041999999 -0.53399998 1
1.6799999 -0.041000001 -0.53299999 1
1.678 -0.041000001 -0.53399998 1
1.67 -0.039999999 -0.53399998 1
1.663 -0.039000001 -0.53299999 1
1.659 -0.039000001 -0.53399998 1
1.649 -0.037999999 -0.53200001 1
1.645 -0.037 -0.53200001 1
1.6440001 -0.037 -0.53399998 1
1.642 -0.035999998 -0.53500003 1
1.6390001 -0.035 -0.53500003 1
1.633 -0.035 -0.53500003 1
1.628 -0.034000002 -0.53500003 1
1.609 -0.033 -0.52999997 1
1.6160001 -0.033 -0.53399998 1
1.607 -0.032000002 -0.53299999 1
1.604 -0.030999999 -0.53299999 1
1.5880001 -0.029999999 -0.52899998 1
1.587 -0.029999999 -0.52999997 1
1.581 -0.028999999 -0.52899998 1
1.5829999 -0.028000001 -0.53200001 1
1.58 -0.028000001 -0.53200001 1
1.573 -0.027000001 -0.53100002 1
1.567 -0.026000001 -0.52999997 1
1.566 -0.026000001 -0.53100002 1
1.562 -0.025 -0.53100002 1
1.551 -0.024 -0.528 1
1.553 -0.024 -0.52999997 1
1.55 -0.023 -0.52999997 1
1.544 -0.022 -0.52899998 1
1.543 -0.022 -0.52999997 1
1.54 -0.021 -0.52999997 1
1.538 -0.021 -0.52999997 1
1.531 -0.02 -0.52899998 1
1.5369999 -0.018999999 -0.53200001 1
1.53 -0.018999999 -0.53100002 1
1.53 -0.017999999 -0.53100002 1
1.521 -0.017000001 -0.52899998 1
1.526 -0.017000001 -0.53200001 1
1.517 -0.016000001 -0.52999997 1
1.495 -0.015 -0.523 1
1.51 -0.015 -0.52899998 1
1.51 -0.014 -0.52999997 1
1.495 -0.013 -0.52499998 1
1.493 -0.013 -0.52499998 1
1.494 -0.012 -0.52700001 1
1.492 -0.012 -0.52700001 1
1.49 -0.011 -0.52600002 1
1.493 -0.0099999998 -0.528 1
1.488 -0.0099999998 -0.52700001 1
1.483 -0.0089999996 -0.52600002 1
1.484 -0.0089999996 -0.52700001 1
1.48 -0.0080000004 -0.52600002 1
1.487 -0.0070000002 -0.52899998 1
1.483 -0.0070000002 -0.528 1
1.475 -0.0060000001 -0.52600002 1
1.484 -0.0060000001 -0.52899998 1
1.475 -0.0049999999 -0.52700001 1
1.478 -0.0040000002 -0.528 1
1.483 -0.0040000002 -0.53100002 1
1.473 -0.003 -0.52700001 1
1.477 -0.003 -0.52899998 1
1.467 -0.0020000001 -0.52600002 1
1.477 -0.001 -0.52999997 1
1.477 -0.001 -0.52999997 1
1.4680001 0 -0.52700001 1
1.467 0 -0.52700001 1
1.477 0 -0.53100002 1
1.456 0.001 -0.52399999 1
1.4529999 0.001 -0.523 1
1.459 0.0020000001 -0.52499998 1
1.456 0.0020000001 -0.52399999 1
1.466 0.003 -0.528 1
1.4579999 0.003 -0.52499998 1
1.452 0.0040000002 -0.523 1
1.4579999 0.0049999999 -0.52600002 1
1.454 0.0049999999 -0.52399999 1
1.4579999 0.0060000001 -0.52600002 1
1.46 0.0060000001 -0.52600002 1
1.454 0.0070000002 -0.52399999 1
1.4579999 0.0080000004 -0.52600002 1
1.456 0.0080000004 -0.52499998 1
1.4529999 0.0089999996 -0.52399999 1
1.456 0.0089999996 -0.52499998 1
1.45 0.0099999998 -0.52200001 1
1.452 0.0099999998 -0.523 1
1.456 0.011 -0.52399999 1
1.467 0.012 -0.528 1
1.459 0.012 -0.52499998 1
1.456 0.013 -0.52399999 1
1.471 0.013 -0.52899998 1
1.4579999 0.014 -0.52399999 1
1.4680001 0.015 -0.52700001 1
1.474 0.015 -0.52899998 1
1.474 0.016000001 -0.52899998 1
1.474 0.016000001 -0.528 1
1.479 0.017000001 -0.52999997 1
1.477 0.017000001 -0.52899998 1
1.475 0.017999999 -0.52700001 1
1.475 0.018999999 -0.52700001 1
1.482 0.018999999 -0.52899998 1
1.475 0.02 -0.52600002 1
1.478 0.02 -0.52700001 1
1.476 0.021 -0.52499998 1
1.487 0.022 -0.52899998 1
1.489 0.022 -0.52899998 1
1.4809999 0.023 -0.52499998 1
1.4910001 0.023 -0.52899998 1
1.4910001 0.024 -0.528 1
1.485 0.024 -0.52499998 1
1.492 0.025 -0.52700001 1
1.492 0.025 -0.52600002 1
1.498 0.026000001 -0.52700001 1
1.503 0.027000001 -0.528 1
1.498 0.027000001 -0.52600002 1
1.5089999 0.028000001 -0.52899998 1
1.527 0.028999999 -0.53500003 1
1.512 0.028999999 -0.528 1
1.517 0.029999999 -0.52899998 1
1.523 0.029999999 -0.53100002 1
1.526 0.030999999 -0.53100002 1
1.53 0.030999999 -0.53100002 1
1.527 0.032000002 -0.52899998 1
1.536 0.033 -0.53100002 1
1.539 0.033 -0.53100002 1
1.535 0.034000002 -0.52899998 1
1.534 0.034000002 -0.52700001 1
1.546 0.035 -0.52999997 1
1.541 0.035 -0.528 1
1.5470001 0.035999998 -0.52899998 1
1.5549999 0.035999998 -0.52999997 1
1.5549999 0.037 -0.52899998 1
1.558 0.037999999 -0.52899998 1
1.566 0.037999999 -0.52999997 1
1.572 0.039000001 -0.53100002 1
1.566 0.039000001 -0.528 1
1.579 0.039999999 -0.53100002 1
1.582 0.041000001 -0.53100002 1
1.586 0.041000001 -0.53100002 1
1.592 0.041999999 -0.53100002 1
1.602 0.041999999 -0.53299999 1
1.598 0.043000001 -0.52999997 1
1.608 0.044 -0.53200001 1
1.608 0.044 -0.53100002 1
1.608 0.044 -0.52899998 1
1.6109999 0.045000002 -0.52899998 1
1.622 0.046 -0.53100002 1
1.6289999 0.046 -0.53100002 1
1.6289999 0.046999998 -0.52999997 1
1.632 0.046999998 -0.52899998 1
1.638 0.048 -0.52899998 1
1.65 0.048999999 -0.53200001 1
1.658 0.048999999 -0.53299999 1
1.66 0.050000001 -0.53100002 1
1.663 0.050000001 -0.53100002 1
1.671 0.050999999 -0.53100002 1
1.675 0.050999999 -0.53100002 1
1.686 0.052000001 -0.53200001 1
1.693 0.052999999 -0.53299999 1
1.704 0.052999999 -0.53399998 1
1.711 0.054000001 -0.53500003 1
1.7130001 0.055 -0.53299999 1
1.738 0.056000002 -0.53899997 1
1.74 0.056000002 -0.53799999 1
1.747 0.057 -0.53799999 1
1.753 0.057 -0.537 1
1.76 0.057999998 -0.53799999 1
1.77 0.059 -0.53799999 1
1.757 0.057999998 -0.53200001 1
1.7819999 0.059999999 -0.53799999 1
1.789 0.059999999 -0.53799999 1
1.802 0.061000001 -0.53899997 1
1.8099999 0.061000001 -0.53899997 1
1.825 0.061999999 -0.54100001 1
1.826 0.063000001 -0.53899997 1
1.8380001 0.063000001 -0.54000002 1
1.845 0.064000003 -0.54000002 1
1.8559999 0.064999998 -0.54100001 1
1.863 0.064999998 -0.54000002 1
1.875 0.066 -0.54100001 1
1.8839999 0.066 -0.54100001 1
1.8940001 0.067000002 -0.542 1
1.902 0.067000002 -0.54100001 1
1.916 0.068000004 -0.542 1
1.924 0.068999998 -0.542 1
1.933 0.068999998 -0.542 1
1.946 0.07 -0.54299998 1
1.951 0.07 -0.54100001 1
1.971 0.071000002 -0.54400003 1
1.995 0.071999997 -0.54799998 1
2.007 0.072999999 -0.54799998 1
2.0179999 0.074000001 -0.54799998 1
2.0280001 0.074000001 -0.54799998 1
2.039 0.075000003 -0.54799998 1
2.0480001 0.075000003 -0.54699999 1
2.0699999 0.075999998 -0.55000001 1
2.079 0.077 -0.54900002 1
2.092 0.077 -0.54900002 1
2.1059999 0.078000002 -0.55000001 1
2.1270001 0.079000004 -0.55199999 1
2.135 0.079000004 -0.551 1
2.154 0.079999998 -0.55199999 1
2.1630001 0.079999998 -0.551 1
2.187 0.081 -0.55400002 1
2.1919999 0.081 -0.551 1
2.214 0.082000002 -0.55299997 1
2.2379999 0.082999997 -0.55599999 1
2.247 0.082999997 -0.55400002 1
2.263 0.083999999 -0.55500001 1
2.276 0.085000001 -0.55400002 1
2.2950001 0.085000001 -0.55500001 1
2.316 0.086000003 -0.55599999 1
2.3399999 0.086999997 -0.55800003 1
2.348 0.086999997 -0.55599999 1
2.368 0.088 -0.55699998 1
2.391 0.088 -0.55800003 1
2.411 0.089000002 -0.55900002 1
2.431 0.090000004 -0.55900002 1
2.457 0.090000004 -0.56099999 1
2.483 0.090999998 -0.56199998 1
2.497 0.092 -0.56099999 1
2.5280001 0.092 -0.56400001 1
2.5469999 0.093000002 -0.56400001 1
2.5639999 0.093000002 -0.56300002 1
2.592 0.093999997 -0.56400001 1
2.622 0.094999999 -0.56599998 2
2.642 0.094999999 -0.56599998 2
2.665 0.096000001 -0.56599998 2
2.6889999 0.096000001 -0.56599998 2
2.7179999 0.097000003 -0.56800002 2
2.7420001 0.097999997 -0.56800002 2
2.7739999 0.097999997 -0.56900001 2
2.803 0.098999999 -0.56999999 2
2.832 0.1 -0.57099998 2
2.865 0.1 -0.57200003 2
2.8929999 0.101 -0.57300001 2
2.927 0.102 -0.574 2
2.9560001 0.102 -0.574 2
2.9990001 0.103 -0.57700002 2
3.1570001 0.108 -0.602 2
3.142 0.107 -0.59299999 1
3.2079999 0.108 -0.59899998 1
3.2609999 0.109 -0.60299999 1
3.339 0.111 -0.611 2
3.266 0.108 -0.59200001 2
3.362 0.11 -0.60299999 2
3.346 0.109 -0.59399998 2
3.4289999 0.111 -0.602 2
3.404 0.109 -0.59100002 2
3.4920001 0.111 -0.60000002 2
3.4949999 0.11 -0.59399998 2
3.6010001 0.113 -0.60500002 3
3.609 0.112 -0.59899998 2
3.6989999 0.114 -0.60699999 2
3.6989999 0.113 -0.60000002 2
3.8080001 0.115 -0.61000001 2
3.872 0.116 -0.61299998 2
4.007 0.118 -0.62699997 3
3.964 0.116 -0.61199999 2
4.0430002 0.117 -0.61699998 2
4.0869999 0.117 -0.61500001 2
4.138 0.117 -0.61500001 2
4.1659999 0.116 -0.611 2
4.3379998 0.119 -0.62800002 2
4.3709998 0.119 -0.62400001 2
4.4349999 0.119 -0.62400001 4
4.5279999 0.12 -0.62800002 2
4.6230001 0.12 -0.63200003 2
4.71 0.121 -0.63499999 3
4.7940001 0.121 -0.63700002 3
4.8920002 0.121 -0.63999999 3
5.0019999 0.122 -0.64399999 3
5.1069999 0.123 -0.648 3
5.2319999 0.123 -0.653 3
5.3460002 0.124 -0.65700001 3
5.4460001 0.124 -0.65799999 4
5.5809999 0.124 -0.66399997 5
5.7010002 0.124 -0.667 5
5.8319998 0.124 -0.67000002 5
5.9850001 0.125 -0.676 6
6.1539998 0.125 -0.68300003 6
6.3070002 0.126 -0.68699998 6
6.474 0.126 -0.69199997 5
6.6690001 0.126 -0.69999999 4
6.8590002 0.126 -0.70599997 6
7.0999999 0.127 -0.71600002 4
7.3439999 0.12800001 -0.72600001 4
7.5500002 0.127 -0.73100001 4
7.8080001 0.12800001 -0.741 4
8.0900002 0.12800001 -0.75099999 4
8.4069996 0.12800001 -0.764 4
8.7290001 0.12800001 -0.77499998 4
9.0340004 0.12800001 -0.78399998 5
9.3940001 0.127 -0.796 4
9.8809996 0.12800001 -0.81800002 5
10.29 0.12800001 -0.83099997 12
10.505 0.124 -0.82700002 15
10.911 0.122 -0.83700001 6
11.43 0.121 -0.85299999 3
0 0 0 5
12.562 0.118 -0.88700002 4
13.096 0.114 -0.898 3
13.709 0.111 -0.91299999 3
14.42 0.107 -0.93000001 2
15.27 0.104 -0.954 2
16.169001 0.098999999 -0.97799999 3
0 0 0 2
0 0 0 2
0 0 0 1
0 0 0 0
0 0 0 3
0 0 0 1
0 0 0 0
0 0 0 2
0 0 0 0
0 0 0 0
0 0 0 0
0 0 0 0
0 0 0 0
0 0 0 0
0 0 0 21
52.144001 -0.27399999 -1.48 44
52.133999 -0.31400001 -1.375 118
0 0 0 39
117.147 -0.88999999 -2.6259999 60
117.129 -0.98299998 -2.391 40
0 0 0 0
0 0 0 0
0 0 0 0
0 0 0 0
0 0 0 0
0 0 0 41
0 0 0 18
73.174004 -1.096 -0.33399999 46
73.241997 -1.159 -0.192 95
73.237999 -1.222 -0.048 83
72.386002 -1.271 0.093999997 105
0 0 0 11
67.543999 -1.303 0.35100001 38
67.824997 -1.368 0.48300001 24
68.316002 -1.438 0.62 20
68.128998 -1.4960001 0.75099999 14
66.893997 -1.529 0.86699998 150
66.884003 -1.589 0.995 32
0 0 0 0
0 0 0 0
0 0 0 0
0 0 0 23
56.27 -1.595 1.376 62
56.083 -1.643 1.478 65
55.584 -1.681 1.572 35
54.358002 -1.697 1.642 31
53.469002 -1.721 1.7180001 29
52.779999 -1.75 1.796 32
52.083 -1.777 1.8710001 32
51.523998 -1.808 1.947 28
51.095001 -1.844 2.029 71
51.063999 -1.893 2.1229999 56
51.043999 -1.943 2.2179999 15
0 0 0 0
0 0 0 0
0 0 0 0
0 0 0 0
0 0 0 4
50.105999 -2.211 2.7360001 14
50.022999 -2.2590001 2.823 27
48.764 -2.2520001 2.8410001 39
48.646999 -2.2969999 2.9219999 40
47.512001 -2.2909999 2.938 10
47.035999 -2.3180001 2.994 30
47.016998 -2.3670001 3.079 60
47.026001 -2.4159999 3.164 69
47.030998 -2.467 3.25 69
47.033001 -2.517 3.3340001 71
47.039001 -2.5680001 3.4189999 68
47.048 -2.619 3.503 66
0 0 0 5
43.528999 -2.517 3.395 9
43.102001 -2.539 3.438 21
43.014999 -2.5799999 3.5050001 54
43.015999 -2.6270001 3.5810001 59
42.215 -2.6240001 3.5869999 35
42.033001 -2.6589999 3.645 62
42.049 -2.7060001 3.7179999 63
41.629002 -2.7260001 3.753 36
40.703999 -2.711 3.74 58
40.719002 -2.756 3.8099999 58
40.706001 -2.8010001 3.878 52
39.943001 -2.793 3.8729999 28
39.339001 -2.7950001 3.882 53
39.337002 -2.8399999 3.948 53
39.347 -2.885 4.013 53
38.451 -2.8629999 3.987 29
38.000999 -2.872 4.0029998 62
38.015999 -2.9159999 4.0669999 59
38.018002 -2.96 4.1300001 63
37.483002 -2.961 4.1329999 29
36.658001 -2.938 4.1020002 55
36.652 -2.9790001 4.1589999 59
36.660999 -3.0220001 4.2199998 55
35.979 -3.007 4.1989999 12
35.167999 -2.98 4.1609998 9
34.855 -2.994 4.1789999 34
34.844002 -3.0320001 4.2319999 57
34.841999 -3.073 4.2870002 59
34.855 -3.115 4.342 59
34.841999 -3.154 4.3959999 57
34.862 -3.197 4.4530001 61
34.854 -3.237 4.5050001 62
34.865002 -3.279 4.5599999 59
34.863998 -3.319 4.6129999 59
34.876999 -3.3610001 4.6680002 58
34.868999 -3.401 4.7189999 57
34.879002 -3.4430001 4.7719998 57
34.881001 -3.484 4.8249998 60
34.889999 -3.526 4.8779998 59
34.894001 -3.5669999 4.928 57
34.890999 -3.608 4.9790001 57
34.897999 -3.6500001 5.0310001 58
34.893002 -3.6900001 5.0799999 59
34.897999 -3.7320001 5.132 59
34.915001 -3.7750001 5.184 61
34.909 -3.816 5.2329998 60
34.917999 -3.8570001 5.283 61
34.917999 -3.8989999 5.3319998 61
34.919998 -3.941 5.381 61
34.937 -3.984 5.4330001 58
34.932999 -4.0250001 5.48 55
34.936001 -4.0669999 5.5279999 57
34.945999 -4.1100001 5.5780001 55
34.958 -4.1529999 5.6269999 10
35.040001 -4.204 5.6869998 4
35.162998 -4.2600002 5.7540002 2
35.113998 -4.2950001 5.7930002 2
35.195 -4.3470001 5.8520002 2
35.134998 -4.381 5.888 2
0 0 0 0
0 0 0 2
37.292 -4.783 6.3940001 2
35.16 -4.5510001 6.073 2
35.178001 -4.5949998 6.1209998 2
35.222 -4.6420002 6.1719999 3
35.606998 -4.7340002 6.2839999 2
35.384998 -4.7459998 6.2880001 3
35.429001 -4.7940001 6.3390002 3
35.460999 -4.8400002 6.388 4
35.160999 -4.8400002 6.3769999 6
35.013 -4.8610001 6.3920002 12
34.879002 -4.8829999 6.4089999 18
34.742001 -4.9050002 6.4239998 23
34.632999 -4.9299998 6.4439998 26
0 0 0 9
27.257999 -3.9430001 5.1339998 20
27.204 -3.967 5.1550002 24
27.136 -3.9879999 5.1719999 29
27.117001 -4.0159998 5.1989999 33
27.072001 -4.0409999 5.2199998 37
27.052 -4.0689998 5.2459998 40
27.035 -4.098 5.2719998 41
27.004 -4.1240001 5.2950001 42
26.987 -4.152 5.3200002 46
26.973 -4.1810002 5.3449998 48
26.962 -4.2090001 5.3709998 51
26.948 -4.237 5.3969998 49
26.936001 -4.2659998 5.4219999 51
26.924 -4.2950001 5.447 53
26.924999 -4.3249998 5.474 57
26.926001 -4.355 5.5009999 58
26.916 -4.3839998 5.5250001 57
26.917999 -4.415 5.552 54
26.931999 -4.447 5.5799999 48
26.927999 -4.4759998 5.6040001 50
26.927999 -4.5050001 5.6290002 50
26.954 -4.539 5.6609998 49
26.948999 -4.5679998 5.684 44
26.959999 -4.5999999 5.711 42
26.987 -4.6329999 5.7410002 38
27.004 -4.6659999 5.7680001 34
27.025999 -4.698 5.7969999 30
27.077 -4.7360001 5.8309999 25
27.093 -4.7680001 5.8579998 25
27.125 -4.803 5.8870001 21
27.215 -4.848 5.9289999 16
27.302999 -4.8920002 5.9710002 3
0 0 0 30
29.943001 -5.428 6.5960002 26
29.854 -5.4419999 6.5999999 26
29.764 -5.4569998 6.6030002 25
29.653 -5.467 6.6009998 30
29.577 -5.4840002 6.6059999 26
29.489 -5.4970002 6.6079998 27
29.406 -5.5120001 6.6110001 30
29.322001 -5.526 6.6129999 29
29.243 -5.54 6.6170001 25
29.149 -5.5510001 6.6149998 24
29.063999 -5.5640001 6.6160002 29
29.007 -5.5819998 6.6220002 26
28.923 -5.5939999 6.6220002 31
28.844 -5.6059999 6.6230001 29
28.794001 -5.6240001 6.6300001 29
28.731001 -5.6399999 6.6329999 25
28.648001 -5.651 6.6329999 25
28.558001 -5.6599998 6.6290002 28
28.500999 -5.6760001 6.6329999 28
28.415001 -5.6859999 6.6300001 27
28.354 -5.6989999 6.631 25
28.284 -5.711 6.631 26
28.243999 -5.7290001 6.6370001 24
28.177 -5.7420001 6.6370001 26
28.128 -5.757 6.6399999 24
28.066999 -5.7690001 6.6399999 25
28.034 -5.7880001 6.6459999 24
27.983 -5.802 6.6479998 25
27.927999 -5.8150001 6.6490002 25
27.875 -5.829 6.6490002 27
27.832001 -5.8439999 6.652 27
27.777 -5.8559999 6.651 26
27.738001 -5.8709998 6.6539998 26
27.686001 -5.8839998 6.6529999 23
27.641001 -5.8969998 6.6539998 27
27.598 -5.9109998 6.6539998 28
27.551001 -5.9239998 6.6539998 27
27.507999 -5.9359999 6.6539998 28
27.466999 -5.9499998 6.6539998 28
27.437 -5.9650002 6.6570001 26
27.41 -5.9809999 6.6589999 24
27.364 -5.9920001 6.658 28
27.323999 -6.0050001 6.6570001 23
27.285999 -6.0170002 6.6560001 27
27.254 -6.0300002 6.6570001 26
27.239 -6.0479999 6.6609998 25
27.205999 -6.0609999 6.6599998 26
27.169001 -6.072 6.658 26
0 0 0 4
19.264 -4.3340001 4.73 14
19.222 -4.3379998 4.7249999 18
19.193001 -4.3439999 4.7220001 19
19.153999 -4.349 4.7160001 19
19.125999 -4.3559999 4.7129998 22
19.107 -4.3649998 4.7119999 23
19.089001 -4.3730001 4.711 26
19.063999 -4.3800001 4.7080002 27
19.059999 -4.3920002 4.71 30
19.038 -4.3990002 4.7069998 31
19.007999 -4.4039998 4.7020001 30
18.982 -4.4099998 4.698 32
18.962999 -4.4169998 4.6950002 33
18.968 -4.4299998 4.698 34
18.952 -4.4369998 4.6960001 37
18.943001 -4.4460001 4.6950002 36
18.929001 -4.4549999 4.6929998 36
18.919001 -4.4629998 4.691 38
18.917 -4.473 4.6919999 39
18.903999 -4.4809999 4.6890001 38
18.903999 -4.4910002 4.6900001 38
18.889999 -4.4970002 4.6859999 38
18.889999 -4.507 4.6859999 40
18.884001 -4.5159998 4.684 42
18.879999 -4.5250001 4.6820002 44
18.874001 -4.533 4.6799998 43
18.865 -4.54 4.677 44
18.855 -4.5469999 4.6729999 44
18.856001 -4.5560002 4.6719999 50
18.846001 -4.5619998 4.6680002 44
18.854 -4.572 4.6690001 47
18.848 -4.5799999 4.665 51
18.830999 -4.5840001 4.658 49
18.843 -4.5939999 4.6589999 50
18.839001 -4.6009998 4.6550002 52
18.827999 -4.6059999 4.6500001 52
18.826 -4.6129999 4.6469998 54
18.822001 -4.619 4.6420002 58
18.816 -4.625 4.6370001 57
18.819 -4.6329999 4.6339998 58
18.822001 -4.6399999 4.632 54
18.805 -4.6420002 4.6230001 51
18.816 -4.652 4.6220002 53
18.808001 -4.6560001 4.6149998 55
18.820999 -4.664 4.6139998 37
18.804001 -4.6669998 4.6040001 52
18.799 -4.671 4.598 54
18.799999 -4.6760001 4.5929999 56
18.794001 -4.6799998 4.586 52
18.792999 -4.6849999 4.5809999 57
18.792 -4.6890001 4.5739999 59
18.792 -4.6939998 4.5679998 57
18.801001 -4.7010002 4.5640001 60
18.791 -4.7030001 4.5549998 54
18.788 -4.7059999 4.5479999 59
18.791 -4.711 4.5409999 59
18.798 -4.7160001 4.5359998 32
18.804001 -4.7210002 4.5300002 60
18.792 -4.7210002 4.52 54
18.780001 -4.7210002 4.5089998 49
18.784 -4.7249999 4.5019999 49
18.778 -4.7270002 4.493 49
18.795 -4.7329998 4.4889998 50
18.799999 -4.7360001 4.4809999 35
18.778 -4.7329998 4.4679999 51
18.787001 -4.737 4.461 49
18.778999 -4.737 4.4499998 51
18.778999 -4.7389998 4.4400001 55
18.785999 -4.7420001 4.4330001 56
18.780001 -4.7410002 4.4219999 51
18.783001 -4.743 4.4130001 53
18.773001 -4.7410002 4.4000001 56
18.780001 -4.744 4.3920002 58
18.774 -4.7420001 4.3800001 53
18.781 -4.744 4.3709998 58
18.773001 -4.7420001 4.3590002 55
18.785999 -4.7449999 4.3509998 38
18.791 -4.7459998 4.3410001 38
18.782 -4.743 4.3270001 60
18.771999 -4.7399998 4.3140001 52
18.787001 -4.7420001 4.3060002 37
18.789 -4.7410002 4.2940001 38
18.771999 -4.7360001 4.2779999 52
18.767 -4.7329998 4.2649999 50
18.775999 -4.7329998 4.2550001 52
18.785999 -4.7329998 4.2449999 39
18.774 -4.7280002 4.2290001 56
18.774 -4.7259998 4.2160001 57
18.784 -4.7259998 4.2049999 56
18.784 -4.723 4.1929998 58
18.784 -4.7199998 4.1789999 61
18.788 -4.717 4.1659999 56
18.778 -4.7119999 4.1500001 64
18.785999 -4.71 4.1389999 40
18.784 -4.7049999 4.1240001 57
18.771 -4.698 4.1069999 56
18.778 -4.6950002 4.0939999 56
18.778999 -4.691 4.0799999 60
18.77 -4.6849999 4.0640001 58
18.775 -4.6810002 4.0500002 58
18.782 -4.678 4.0359998 59
18.771 -4.6690001 4.0190001 56
18.785 -4.6669998 4.006 55
18.787001 -4.6620002 3.9909999 57
18.780001 -4.6550002 3.974 53
18.792 -4.651 3.961 57
18.780001 -4.6420002 3.9419999 53
18.788 -4.638 3.928 53
18.784 -4.6300001 3.911 50
18.784 -4.6230001 3.8940001 55
18.792 -4.618 3.8800001 51
18.788 -4.6100001 3.862 52
18.791 -4.6030002 3.846 52
18.802999 -4.598 3.8310001 52
18.797001 -4.5890002 3.813 53
18.799 -4.5809999 3.796 50
18.802 -4.5739999 3.78 47
18.809999 -4.5669999 3.7639999 47
18.834999 -4.5640001 3.7509999 33
18.82 -4.552 3.73 45
18.82 -4.5430002 3.7119999 42
18.827999 -4.5349998 3.6960001 42
18.834 -4.527 3.678 44
18.837999 -4.5190001 3.661 45
18.834999 -4.5079999 3.642 46
18.848 -4.5009999 3.6259999 45
18.861 -4.494 3.609 45
18.854 -4.4819999 3.589 42
18.861 -4.4720001 3.572 43
18.867001 -4.4629998 3.553 40
18.878 -4.454 3.536 40
18.882 -4.4439998 3.517 42
18.888 -4.434 3.4990001 39
18.903 -4.4260001 3.4820001 40
18.914 -4.4159999 3.464 40
18.915001 -4.4039998 3.444 28
18.917 -4.3920002 3.424 35
18.940001 -4.3850002 3.408 33
18.944 -4.3740001 3.3889999 33
18.959999 -4.3639998 3.3710001 34
18.968 -4.3530002 3.352 30
19.007 -4.348 3.3380001 30
19.034 -4.3410001 3.322 22
19.047001 -4.3299999 3.303 25
19.075001 -4.322 3.2869999 24
19.080999 -4.309 3.267 22
19.131001 -4.3060002 3.2539999 18
19.177999 -4.302 3.24 15
19.208 -4.2940001 3.224 15
19.254999 -4.289 3.21 5
0 0 0 8
35.445 -7.8390002 5.829 5
35.504002 -7.823 5.7969999 4
35.665001 -7.829 5.7820001 4
35.653999 -7.7969999 5.7389998 3
35.469002 -7.7259998 5.6680002 3
0 0 0 0
0 0 0 2
37.130001 -7.9899998 5.802 2
35.271999 -7.559 5.4699998 2
0 0 0 0
0 0 0 0
0 0 0 2
0 0 0 0
0 0 0 0
0 0 0 2
35.279999 -7.3319998 5.177 2
0 0 0 0
0 0 0 2
0 0 0 0
0 0 0 2
0 0 0 0
0 0 0 0
0 0 0 3
0 0 0 2
35.202 -6.9970002 4.7779999 2
0 0 0 0
0 0 0 0
0 0 0 0
0 0 0 2
35.173 -6.803 4.5539999 3
35.092999 -6.7470002 4.5 13
35.068001 -6.704 4.4520001 18
35.007999 -6.6529999 4.4000001 2
0 0 0 0
0 0 0 2
35.037998 -6.539 4.2709999 5
35.050999 -6.5009999 4.2290001 9
35.042999 -6.4590001 4.184 9
35.118 -6.4310002 4.1479998 9
35.119999 -6.3889999 4.1020002 5
0 0 0 0
0 0 0 0
0 0 0 0
0 0 0 0
0 0 0 10
27.035 -4.7210002 2.9530001 20
26.985001 -4.6789999 2.9130001 25
26.944 -4.638 2.8740001 33
26.917999 -4.5999999 2.836 34
26.892 -4.5609999 2.799 36
26.870001 -4.5219998 2.7620001 39
26.860001 -4.4860001 2.7260001 41
26.858999 -4.4510002 2.6930001 46
26.816 -4.4089999 2.654 42
26.82 -4.3740001 2.6199999 49
26.834 -4.3400002 2.586 46
26.815001 -4.3010001 2.55 59
26.825001 -4.2680001 2.517 59
26.804001 -4.2280002 2.4809999 61
26.823999 -4.1950002 2.4489999 55
26.853001 -4.1630001 2.4170001 43
26.868 -4.1279998 2.3829999 46
26.867001 -4.0910001 2.3499999 47
26.893999 -4.0580001 2.3169999 42
26.917999 -4.0240002 2.2850001 34
26.950001 -3.99 2.253 36
26.993 -3.9590001 2.2219999 34
27.032 -3.9260001 2.191 26
27.084 -3.895 2.1600001 27
27.163 -3.8670001 2.132 20
27.263 -3.842 2.1059999 9
0 0 0 57
34.875999 -4.8140001 2.605 54
34.876999 -4.763 2.5610001 55
34.859001 -4.7090001 2.5150001 49
34.849998 -4.6560001 2.47 79
34.846001 -4.6030002 2.425 79
34.835999 -4.5500002 2.381 80
34.834 -4.4970002 2.3369999 78
34.820999 -4.4419999 2.2920001 83
34.813999 -4.388 2.247 78
34.814999 -4.335 2.2030001 80
34.831001 -4.283 2.1600001 65
34.803001 -4.2259998 2.1159999 77
34.786999 -4.1700001 2.0710001 74
34.797001 -4.118 2.0280001 74
34.797001 -4.0640001 1.985 77
34.792 -4.0089998 1.942 82
34.772999 -3.951 1.897 81
34.779999 -3.8970001 1.854 84
34.769001 -3.8410001 1.811 74
34.771 -3.7850001 1.768 88
34.762001 -3.7290001 1.726 90
34.702 -3.6659999 1.6799999 104
34.671001 -3.6059999 1.636 96
34.745998 -3.5580001 1.597 90
34.724998 -3.4990001 1.553 110
34.757999 -3.4449999 1.513 98
34.741001 -3.3859999 1.47 87
34.754002 -3.3310001 1.429 29
35.055 -3.302 1.399 8
35.368 -3.273 1.369 10
35.963001 -3.2679999 1.349 7
36.373001 -3.244 1.321 7
36.804001 -3.221 1.2920001 7
38.634998 -3.316 1.311 86
38.626999 -3.2490001 1.2640001 88
38.618999 -3.1819999 1.2180001 82
38.611 -3.115 1.1720001 67
39.001999 -3.079 1.138 5
39.550999 -3.0550001 1.107 5
40.145 -3.0309999 1.077 26
40.234001 -2.967 1.0319999 19
0 0 0 100
42.674999 -2.9990001 0.99699998 107
42.667999 -2.9260001 0.949 103
42.806999 -2.8599999 0.90200001 10
43.386002 -2.823 0.86500001 4
45.292 -2.8670001 0.85100001 16
45.339001 -2.79 0.80199999 33
46.791 -2.7969999 0.77399999 15
46.909 -2.72 0.72399998 31
46.935001 -2.638 0.671 84
47.123001 -2.5639999 0.62099999 15
47.379002 -2.493 0.57200003 11
0 0 0 98
50.729 -2.4849999 0.5 96
50.854 -2.3989999 0.44600001 26
51.000999 -2.316 0.39300001 31
0 0 0 48
57.897999 -2.4200001 0.32100001 66
58.273998 -2.329 0.26100001 67
58.825001 -2.2449999 0.20100001 110
58.821999 -2.1370001 0.139 115
58.824001 -2.029 0.075999998 108
59.015999 -1.929 0.016000001 75
59.237999 -1.826 -0.046 23
0 0 0 121
66.859001 -1.813 -0.191 150
66.876999 -1.689 -0.25999999 67
66.863998 -1.564 -0.32800001 68
67.07 -1.446 -0.39700001 57
0 0 0 0
0 0 0 112
73.362 -1.173 -0.65399998 42
0 0 0 30
0 0 0 0
0 0 0 0
0 0 0 81
133.755 -0.87800002 -1.851 115
0 0 0 0
0 0 0 0
0 0 0 0
0 0 0 0
0 0 0 0
0 0 0 0
0 0 0 0
0 0 0 25
0 0 0 25
0 0 0 14
39.278 0.56300002 -0.94599998 20
39.127998 0.63599998 -0.977 30
39.004002 0.70899999 -1.0089999 27
38.862 0.78100002 -1.04 25
38.772999 0.85399997 -1.071 25
38.674999 0.92500001 -1.102 26
38.587002 0.99699998 -1.132 62
38.549 1.071 -1.164 41
38.499001 1.1440001 -1.1950001 47
38.483002 1.2180001 -1.227 60
38.490002 1.2920001 -1.26 41
38.555 1.369 -1.294 29
38.693001 1.448 -1.33 31
38.866001 1.53 -1.368 24
38.938 1.608 -1.402 17
38.687 1.6720001 -1.424 3
38.702999 1.747 -1.455 3
38.634998 1.8200001 -1.483 4
38.735001 1.901 -1.517 5
38.786999 1.977 -1.549 4
0 0 0 0
0 0 0 0
0 0 0 0
0 0 0 0
0 0 0 0
0 0 0 0
0 0 0 0
0 0 0 0
0 0 0 1
0 0 0 0
0 0 0 1
25.341 1.878 -1.232 1
0 0 0 25
0 0 0 0
0 0 0 1
19.944 1.632 -1.023 1
0 0 0 3
17.981001 1.5420001 -0.94599998 5
18.558001 1.627 -0.98799998 2
0 0 0 0
0 0 0 2
17.612 1.645 -0.97100002 4
17.132999 1.633 -0.95499998 2
16.768999 1.631 -0.94499999 2
16.344999 1.6210001 -0.93000001 3
16.313999 1.649 -0.93800002 3
16.021 1.65 -0.93099999 3
15.774 1.654 -0.92500001 3
15.483 1.653 -0.917 2
15.205 1.652 -0.90899998 2
14.929 1.651 -0.90100002 3
14.813 1.666 -0.90200001 4
14.579 1.6670001 -0.89499998 3
14.326 1.665 -0.88700002 3
14.12 1.668 -0.88200003 3
13.921 1.671 -0.87699997 4
13.728 1.673 -0.87099999 3
13.524 1.674 -0.86500001 3
13.41 1.6849999 -0.86500001 3
13.258 1.691 -0.861 3
13.146 1.701 -0.86000001 3
12.998 1.707 -0.85699999 3
12.871 1.714 -0.85500002 3
12.696 1.714 -0.84899998 3
12.592 1.723 -0.847 3
12.428 1.724 -0.84200001 3
12.287 1.727 -0.838 3
12.192 1.7359999 -0.83600003 3
12.047 1.738 -0.83099997 3
11.934 1.743 -0.829 5
11.845 1.752 -0.82700002 2
11.748 1.7589999 -0.82499999 2
11.624 1.762 -0.82099998 2
11.541 1.77 -0.81999999 2
11.437 1.775 -0.81699997 3
11.338 1.78 -0.81400001 2
11.256 1.7869999 -0.81199998 3
11.15 1.791 -0.80800003 3
11.082 1.799 -0.80699998 3
10.985 1.803 -0.80400002 3
10.913 1.811 -0.80199999 3
10.841 1.818 -0.801 3
10.771 1.826 -0.79900002 3
10.689 1.831 -0.796 3
10.65 1.8430001 -0.79699999 2
10.553 1.845 -0.79299998 3
10.485 1.851 -0.79100001 4
10.408 1.855 -0.78799999 3
10.378 1.868 -0.78899997 3
10.285 1.869 -0.78399998 4
10.276 1.885 -0.787 4
10.192 1.887 -0.78299999 5
10.14 1.895 -0.78100002 5
10.101 1.905 -0.78100002 4
10.048 1.9119999 -0.77899998 4
10.001 1.92 -0.778 3
9.9610004 1.929 -0.77700001 3
9.8920002 1.932 -0.77399999 3
9.8839998 1.947 -0.77600002 3
9.8450003 1.956 -0.77499998 4
9.776 1.959 -0.77100003 4
9.7270002 1.965 -0.76899999 4
9.6949997 1.974 -0.76899999 3
9.6560001 1.982 -0.76700002 4
9.6169996 1.99 -0.76599997 5
9.5939999 2.0009999 -0.76599997 4
9.5430002 2.006 -0.76300001 4
9.4809999 2.0079999 -0.75999999 3
9.4720001 2.0209999 -0.76099998 3
9.427 2.027 -0.75800002 4
9.4099998 2.0380001 -0.75800002 4
9.3900003 2.0480001 -0.75800002 4
9.3789997 2.0610001 -0.75800002 4
9.3380003 2.0669999 -0.75599998 4
9.316 2.076 -0.75599998 4
9.3140001 2.0899999 -0.75599998 4
9.2819996 2.098 -0.755 5
9.2510004 2.105 -0.75300002 5
9.2419996 2.1170001 -0.75300002 4
9.2270002 2.1270001 -0.75300002 4
9.2049999 2.1359999 -0.75199997 4
9.2290001 2.1559999 -0.75400001 4
9.3140001 2.1889999 -0.76200002 5
9.1599998 2.1670001 -0.75 4
9.1499996 2.178 -0.75 4
9.1359997 2.188 -0.74900001 5
9.1610003 2.207 -0.75099999 5
9.1260004 2.2119999 -0.74900001 3
9.1049995 2.22 -0.74699998 3
9.0830002 2.227 -0.74599999 4
9.1090002 2.247 -0.74800003 3
9.0699997 2.25 -0.745 3
9.0649996 2.2609999 -0.745 4
9.0830002 2.2780001 -0.74699998 4
9.0530005 2.283 -0.74400002 4
9.0579996 2.2969999 -0.74400002 4
9.0780001 2.3139999 -0.74599999 5
9.0819998 2.3269999 -0.74599999 4
9.073 2.3369999 -0.745 4
9.0609999 2.346 -0.74400002 4
9.0609999 2.358 -0.74400002 4
9.0690002 2.372 -0.74400002 4
9.0760002 2.385 -0.74400002 4
9.0799999 2.398 -0.74400002 3
9.085 2.411 -0.74400002 5
9.0699997 2.418 -0.74199998 5
9.0909996 2.4349999 -0.74299997 4
9.1079998 2.451 -0.74400002 5
9.1129999 2.464 -0.74400002 4
9.1260004 2.4779999 -0.74400002 5
9.1450005 2.4949999 -0.745 4
9.1610003 2.51 -0.745 5
9.1929998 2.529 -0.74699998 4
9.1960001 2.5409999 -0.74599999 4
9.1960001 2.552 -0.745 6
9.2220001 2.569 -0.74699998 4
9.2550001 2.589 -0.74800003 4
9.25 2.598 -0.74699998 6
9.2559996 2.6099999 -0.74599999 5
9.1549997 2.592 -0.73699999 6
9.0340004 2.5669999 -0.72600001 7
9.0570002 2.5840001 -0.72600001 8
9.2690001 2.654 -0.74199998 7
9.3850002 2.697 -0.75 6
9.3909998 2.7090001 -0.74900001 6
9.4300003 2.73 -0.75099999 7
9.4429998 2.744 -0.75 6
9.4700003 2.7609999 -0.75099999 5
9.4940004 2.777 -0.75099999 7
9.5389996 2.8 -0.75300002 6
9.5579996 2.8150001 -0.75300002 5
9.5970001 2.836 -0.75400001 5
9.6230001 2.852 -0.75400001 6
9.6639996 2.8740001 -0.755 4
9.6709995 2.885 -0.75400001 5
9.6730003 2.8940001 -0.75199997 6
9.7209997 2.9170001 -0.75400001 6
9.7299995 2.9289999 -0.75300002 6
9.7840004 2.9530001 -0.755 6
9.8380003 2.9779999 -0.75700003 5
9.849 2.99 -0.75599998 5
9.8640003 3.0020001 -0.755 6
9.927 3.03 -0.75700003 5
9.9829998 3.0550001 -0.759 6
10.007 3.0710001 -0.759 5
10.043 3.089 -0.759 5
10.088 3.1110001 -0.75999999 6
10.162 3.141 -0.76300001 4
10.218 3.1659999 -0.764 6
10.267 3.1889999 -0.76499999 7
10.296 3.2060001 -0.76499999 7
10.347 3.2290001 -0.76599997 8
10.38 3.2460001 -0.76499999 6
10.37 3.25 -0.76200002 8
10.376 3.2590001 -0.759 12
10.435 3.2850001 -0.76099998 11
10.509 3.3139999 -0.76300001 9
10.574 3.342 -0.76499999 9
10.63 3.3659999 -0.76599997 7
10.664 3.3829999 -0.76499999 7
10.707 3.4030001 -0.76499999 8
10.745 3.421 -0.76499999 7
10.798 3.444 -0.76499999 6
10.852 3.467 -0.76499999 5
10.944 3.503 -0.76800001 4
11.015 3.5309999 -0.76999998 4
11.094 3.562 -0.77200001 4
11.165 3.5899999 -0.77399999 3
11.221 3.6140001 -0.77399999 3
11.337 3.6559999 -0.778 3
11.415 3.6860001 -0.77899998 4
11.486 3.7149999 -0.78100002 3
11.565 3.7449999 -0.78200001 4
11.594 3.7590001 -0.77999997 4
11.623 3.773 -0.778 4
11.622 3.777 -0.77399999 5
11.59 3.7709999 -0.76800001 5
11.565 3.767 -0.76200002 5
11.53 3.7590001 -0.75599998 4
11.481 3.747 -0.74800003 3
11.407 3.7260001 -0.74000001 3
11.349 3.711 -0.73199999 3
0 0 0 1
9.3380003 3.0580001 -0.59500003 1
0 0 0 0
0 0 0 0
0 0 0 0
0 0 0 0
0 0 0 0
0 0 0 1
8.974 2.9519999 -0.54900002 1
8.915 2.934 -0.542 1
8.9879999 2.9590001 -0.542 2
8.9949999 2.9619999 -0.53899997 2
9.0100002 2.9679999 -0.537 2
8.9809999 2.96 -0.53100002 3
8.9219999 2.941 -0.52399999 3
8.9309998 2.9449999 -0.52100003 2
8.9160004 2.9400001 -0.51700002 3
8.9119997 2.9389999 -0.51300001 4
8.9090004 2.938 -0.509 4
8.8999996 2.9349999 -0.505 4
8.9090004 2.938 -0.50199997 5
8.8889999 2.9319999 -0.49700001 5
8.8889999 2.931 -0.493 6
8.8780003 2.927 -0.48899999 7
8.8690004 2.924 -0.48500001 8
8.875 2.925 -0.48199999 9
8.8599997 2.9189999 -0.477 11
8.8610001 2.918 -0.47299999 11
8.8669996 2.9189999 -0.47 13
8.8649998 2.9170001 -0.46599999 12
8.8690004 2.918 -0.463 14
8.8540001 2.911 -0.458 13
8.8610001 2.9119999 -0.454 11
8.8690004 2.9130001 -0.45100001 12
8.8719997 2.9119999 -0.44800001 10
8.8809996 2.9130001 -0.44400001 9
8.875 2.9089999 -0.44 7
8.8959999 2.9130001 -0.43700001 6
8.901 2.9119999 -0.43399999 4
8.9099998 2.9130001 -0.43000001 4
8.9180002 2.9130001 -0.426 3
8.9259996 2.9130001 -0.42300001 3
8.9309998 2.9119999 -0.419 3
8.9309998 2.908 -0.41499999 3
8.9309998 2.905 -0.412 2
8.9320002 2.902 -0.40700001 2
8.9250002 2.8970001 -0.403 2
8.9329996 2.8959999 -0.39899999 2
8.9300003 2.891 -0.39500001 2
8.9329996 2.888 -0.39199999 2
8.9499998 2.8900001 -0.38800001 2
8.9580002 2.8889999 -0.38499999 2
8.9680004 2.888 -0.38100001 2
8.9680004 2.8829999 -0.377 2
8.9829998 2.8829999 -0.37400001 2
8.9870005 2.8800001 -0.37 2
9.0100002 2.8829999 -0.36700001 3
9.0100002 2.878 -0.36300001 3
9.0179996 2.8759999 -0.359 3
9.0380001 2.8770001 -0.35499999 2
9.0410004 2.8729999 -0.352 2
9.0679998 2.8759999 -0.34900001 3
9.0760002 2.8729999 -0.345 3
9.0769997 2.868 -0.34099999 3
9.0640001 2.858 -0.336 3
9.0649996 2.8529999 -0.33199999 3
9.0679998 2.8469999 -0.32800001 3
9.0620003 2.839 -0.324 2
9.0200005 2.8199999 -0.31799999 2
9.0159998 2.812 -0.31400001 2
9.0279999 2.8099999 -0.31 2
9.026 2.803 -0.30599999 3
9.026 2.796 -0.30199999 3
9.0150003 2.786 -0.29800001 3
9.0200005 2.78 -0.294 3
9.0290003 2.776 -0.28999999 3
9.0369997 2.7709999 -0.28600001 3
9.059 2.77 -0.28299999 3
9.059 2.763 -0.27900001 3
9.0679998 2.7579999 -0.27500001 3
9.0749998 2.753 -0.271 3
9.0769997 2.7449999 -0.26699999 3
9.0869999 2.7409999 -0.264 3
9.1000004 2.7360001 -0.25999999 3
9.1099997 2.7309999 -0.25600001 3
9.1210003 2.7260001 -0.252 3
9.1289997 2.72 -0.249 3
9.1499996 2.7179999 -0.245 3
9.158 2.711 -0.242 2
9.1590004 2.7030001 -0.23800001 2
9.1730003 2.698 -0.234 2
9.1780005 2.691 -0.23 2
9.198 2.687 -0.226 2
9.1999998 2.678 -0.222 2
9.2159996 2.6730001 -0.219 2
9.2320004 2.668 -0.215 2
9.2410002 2.661 -0.212 1
9.2740002 2.661 -0.208 1
9.3000002 2.658 -0.205 1
9.2959995 2.6470001 -0.20100001 1
0 0 0 0
0 0 0 0
0 0 0 0
0 0 0 0
0 0 0 0
0 0 0 3
9.4790001 2.6240001 -0.177 76
9.4899998 2.615 -0.17399999 81
9.5190001 2.612 -0.17 25
9.5970001 2.622 -0.168 7
9.6639996 2.628 -0.16500001 6
9.71 2.6289999 -0.162 3
9.8120003 2.6440001 -0.16 1
0 0 0 4
11.388 3.04 -0.177 4
11.398 3.0280001 -0.17200001 4
11.436 3.0239999 -0.168 5
11.447 3.0120001 -0.164 6
11.467 3.0020001 -0.16 8
11.482 2.9909999 -0.156 9
11.487 2.977 -0.152 9
11.503 2.9660001 -0.148 9
11.53 2.9560001 -0.14399999 6
11.555 2.947 -0.14 2
11.657 2.957 -0.13699999 1
11.68 2.9460001 -0.133 1
11.704 2.9360001 -0.12899999 1
11.732 2.927 -0.125 1
11.783 2.9230001 -0.121 1
11.833 2.918 -0.118 1
11.899 2.9170001 -0.114 1
11.938 2.9100001 -0.111 1
11.984 2.9030001 -0.107 1
12.098 2.9130001 -0.104 1
12.27 2.9360001 -0.101 1
0 0 0 0
0 0 0 0
0 0 0 0
0 0 0 0
0 0 0 0
0 0 0 0
0 0 0 0
0 0 0 0
0 0 0 0
0 0 0 0
0 0 0 0
0 0 0 0
0 0 0 0
0 0 0 0
0 0 0 0
0 0 0 0
0 0 0 0
0 0 0 0
0 0 0 0
0 0 0 0
0 0 0 0
0 0 0 0
0 0 0 0
0 0 0 0
0 0 0 0
0 0 0 6
62.792 12.29 -0.048 9
0 0 0 0
0 0 0 0
0 0 0 0
0 0 0 4
49.034 9.1660004 0.013 5
48.992001 9.073 0.022 5
48.997002 8.9860001 0.032000002 4
48.970001 8.8929996 0.041000001 5
49.035999 8.816 0.050000001 6
0 0 0 0
0 0 0 63
0 0 0 5
0 0 0 0
0 0 0 4
48.938 8.2650003 0.094999999 4
49.146 8.2089996 0.103 4
0 0 0 31
66.403999 10.844 0.15700001 34
66.415001 10.722 0.16500001 37
0 0 0 0
0 0 0 0
0 0 0 0
0 0 0 0
0 0 0 0
0 0 0 44
76.240997 11.298 0.243 46
76.267998 11.155 0.25 23
0 0 0 15
0 0 0 0
0 0 0 0
0 0 0 0
0 0 0 0
0 0 0 0
0 0 0 0
0 0 0 0
0 0 0 36
116.541 14.782 0.43000001 42
116.52 14.546 0.43000001 48
116.547 14.321 0.43200001 51
116.597 14.099 0.43099999 40
116.755 13.886 0.43000001 31
0 0 0 27
0 0 0 0
0 0 0 0
0 0 0 0
0 0 0 47
0 0 0 0
0 0 0 0
0 0 0 0
0 0 0 0
0 0 0 0
0 0 0 0
0 0 0 0
0 0 0 0
0 0 0 0
0 0 0 0
0 0 0 0
0 0 0 0
0 0 0 0
0 0 0 0
0 0 0 0
0 0 0 0
0 0 0 0
0 0 0 0
0 0 0 0
0 0 0 0
0 0 0 13
88.389 5.6440001 0.078000002 12
88.734001 5.4809999 0.061000001 17
0 0 0 0
0 0 0 0
0 0 0 21
0 0 0 0
0 0 0 0
0 0 0 58
0 0 0 31
0 0 0 82
133.185 5.7189999 -0.189 113
133.222 5.441 -0.22499999 88
133.22701 5.165 -0.26199999 93
133.233 4.8850002 -0.30000001 99
133.26801 4.6139998 -0.33700001 110
0 0 0 37
0 0 0 98
0 0 0 30
0 0 0 104
133.40401 3.22 -0.54500002 79
133.39101 2.9389999 -0.58999997 77
133.435 2.6589999 -0.63499999 72
133.461 2.382 -0.68099999 65
133.595 2.1029999 -0.72899997 115
133.491 1.821 -0.77700001 54
133.547 1.544 -0.82599998 47
133.52 1.263 -0.87599999 44
133.535 0.986 -0.926 33
133.666 0.70499998 -0.97899997 46
0 0 0 0
0 0 0 0
0 0 0 0
0 0 0 0
0 0 0 50
133.72701 -0.96799999 -1.309 118
0 0 0 0
0 0 0 0
0 0 0 51
0 0 0 33
72.245003 -1.278 -0.87 82
70.021004 -1.385 -0.87599999 69
66.834 -1.46 -0.86699998 40
66.852997 -1.604 -0.90100002 71
66.857002 -1.744 -0.93400002 101
66.857002 -1.883 -0.96700001 125
0 0 0 0
0 0 0 3
44.110001 -1.5140001 -0.70499998 6
44.583 -1.623 -0.736 7
44.557999 -1.7130001 -0.759 41
44.125999 -1.788 -0.77499998 34
43.738998 -1.863 -0.792 33
43.501999 -1.943 -0.81199998 39
43.383999 -2.027 -0.83399999 39
43.213001 -2.108 -0.85500002 38
0 0 0 2
0 0 0 3
0 0 0 28
0 0 0 8
0 0 0 0
0 0 0 3
40.172001 -2.5339999 -0.95999998 24
40.111 -2.612 -0.98299998 31
0 0 0 9
26.409 -1.826 -0.68000001 152
26.431999 -1.881 -0.69700003 150
26.462999 -1.937 -0.71499997 21
0 0 0 9
38.931999 -3.007 -1.102 8
38.547001 -3.0550001 -1.117 83
0 0 0 5
22.062 -1.837 -0.66799998 5
21.673 -1.848 -0.671 3
21.261 -1.854 -0.67199999 1
20.969 -1.87 -0.67699999 1
20.705 -1.888 -0.68300003 2
20.389999 -1.899 -0.68699998 2
20.099001 -1.9119999 -0.69099998 2
19.124001 -1.857 -0.671 4
19.065001 -1.8890001 -0.68199998 3
19.035 -1.923 -0.69499999 3
19.02 -1.959 -0.708 3
18.948999 -1.988 -0.71899998 2
18.799 -2.0090001 -0.727 1
18.754 -2.04 -0.73900002 1
18.747 -2.076 -0.75300002 2
18.799 -2.118 -0.76899999 2
18.804001 -2.155 -0.78299999 3
18.812 -2.1919999 -0.79799998 3
18.858999 -2.233 -0.81400001 3
18.903 -2.2739999 -0.82999998 3
18.975 -2.319 -0.84799999 4
19.223 -2.3859999 -0.87400001 5
19.011 -2.3940001 -0.87900001 2
18.969999 -2.425 -0.89200002 1
0 0 0 0
0 0 0 1
0 0 0 0
0 0 0 1
0 0 0 0
0 0 0 0
0 0 0 0
0 0 0 1
0 0 0 0
0 0 0 1
20.028999 -2.967 -1.12 2
0 0 0 1
19.125999 -2.9030001 -1.101 2
0 0 0 1
16.826 -2.6140001 -0.99699998 1
16.479 -2.589 -0.99000001 1
16.809 -2.671 -1.024 2
16.386 -2.6329999 -1.013 2
16.118 -2.618 -1.01 3
15.748 -2.585 -1 3
15.393 -2.5539999 -0.991 2
0 0 0 2
14.572 -2.4679999 -0.96399999 2
14.14 -2.4200001 -0.94700003 3
13.817 -2.388 -0.93800002 4
13.52 -2.3599999 -0.92900002 3
13.294 -2.3429999 -0.926 3
13.052 -2.322 -0.92000002 3
12.849 -2.3069999 -0.917 3
12.64 -2.2909999 -0.91399997 4
12.443 -2.276 -0.91100001 5
12.239 -2.2590001 -0.90700001 4
12.056 -2.2449999 -0.90399998 6
11.841 -2.2249999 -0.898 5
11.616 -2.201 -0.89200002 5
11.35 -2.1700001 -0.88099998 3
11.09 -2.138 -0.87099999 3
10.837 -2.1059999 -0.861 3
10.671 -2.0910001 -0.85799998 2
10.473 -2.069 -0.85100001 3
10.295 -2.05 -0.84600002 3
10.124 -2.0320001 -0.84100002 3
9.934 -2.0090001 -0.83399999 3
9.7410002 -1.985 -0.82700002 4
9.5780001 -1.967 -0.82200003 2
9.4119997 -1.947 -0.81599998 3
9.2519999 -1.928 -0.81099999 3
9.0970001 -1.91 -0.80599999 3
8.9770002 -1.898 -0.80299997 3
8.8129997 -1.877 -0.79699999 3
8.6560001 -1.8559999 -0.79100001 3
8.5500002 -1.846 -0.78899997 4
8.4049997 -1.8279999 -0.78299999 4
8.2810001 -1.813 -0.77999997 3
8.177 -1.802 -0.77700001 4
8.0489998 -1.785 -0.773 3
7.914 -1.767 -0.76700002 3
7.7810001 -1.748 -0.76099998 3
7.658 -1.7309999 -0.75599998 3
7.5500002 -1.7180001 -0.75300002 4
7.448 -1.705 -0.74900001 4
7.3559999 -1.694 -0.74699998 4
7.2449999 -1.678 -0.74199998 4
7.1490002 -1.666 -0.73900002 4
7.0599999 -1.654 -0.736 5
6.9749999 -1.6440001 -0.73400003 5
6.8899999 -1.633 -0.73199999 6
6.8000002 -1.6210001 -0.72799999 6
6.7160001 -1.61 -0.72500002 5
6.6300001 -1.598 -0.722 5
6.5409999 -1.585 -0.71899998 5
6.4619999 -1.574 -0.71600002 4
6.3940001 -1.5650001 -0.71399999 4
6.309 -1.553 -0.71100003 3
6.2410002 -1.544 -0.70899999 4
6.1830001 -1.5369999 -0.708 4
6.105 -1.525 -0.70499998 4
6.0380001 -1.516 -0.70200002 3
5.9770002 -1.508 -0.70099998 3
5.9120002 -1.498 -0.699 3
5.8530002 -1.49 -0.69700003 3
5.7789998 -1.478 -0.69300002 3
5.7069998 -1.467 -0.69 3
5.664 -1.462 -0.69 3
5.6110001 -1.455 -0.68800002 3
5.553 -1.446 -0.68599999 3
5.4899998 -1.436 -0.68300003 3
5.4320002 -1.427 -0.68099999 3
5.3920002 -1.423 -0.68099999 4
5.335 -1.413 -0.67900002 3
5.2649999 -1.4 -0.67400002 3
5.2270002 -1.396 -0.67400002 3
5.171 -1.386 -0.67199999 3
5.118 -1.377 -0.66900003 3
5.0749998 -1.3710001 -0.66799998 3
5.039 -1.3660001 -0.66799998 3
4.9889998 -1.358 -0.66600001 3
4.9460001 -1.351 -0.66399997 3
4.8870001 -1.34 -0.66100001 3
4.8530002 -1.335 -0.66000003 3
4.8099999 -1.3279999 -0.65899998 2
4.7589998 -1.319 -0.65600002 2
4.723 -1.313 -0.65499997 2
4.691 -1.309 -0.65499997 3
4.6440001 -1.3 -0.65200001 3
4.5939999 -1.29 -0.64899999 2
4.5700002 -1.2869999 -0.64899999 3
4.5310001 -1.28 -0.648 3
4.493 -1.273 -0.64600003 2
4.4749999 -1.272 -0.64700001 3
4.461 -1.272 -0.64899999 2
4.414 -1.262 -0.64600003 2
4.368 -1.253 -0.64200002 3
4.3410001 -1.248 -0.64200002 2
4.3099999 -1.243 -0.64099997 2
4.2909999 -1.2410001 -0.64200002 2
4.243 -1.23 -0.63800001 2
4.211 -1.224 -0.63700002 3
4.1680002 -1.215 -0.634 3
4.131 -1.207 -0.63099998 2
4.118 -1.206 -0.63200003 2
4.1100001 -1.207 -0.634 3
4.0599999 -1.1950001 -0.63 2
4.0229998 -1.187 -0.62699997 2
4.0289998 -1.191 -0.63099998 3
3.9920001 -1.183 -0.62900001 2
3.951 -1.173 -0.625 2
3.9319999 -1.17 -0.625 2
3.9349999 -1.174 -0.62900001 2
3.8889999 -1.1619999 -0.62400001 2
3.846 -1.152 -0.62 2
3.848 -1.155 -0.62400001 2
3.8740001 -1.165 -0.63099998 2
3.796 -1.143 -0.62099999 2
3.757 -1.1339999 -0.61699998 2
3.8080001 -1.151 -0.62800002 2
3.793 -1.148 -0.62800002 2
3.72 -1.128 -0.61900002 2
3.7750001 -1.147 -0.63099998 3
3.677 -1.119 -0.61699998 2
3.727 -1.136 -0.62800002 3
3.6630001 -1.118 -0.62 2
3.6140001 -1.105 -0.61400002 2
3.661 -1.1210001 -0.625 2
3.6029999 -1.104 -0.61699998 2
3.6400001 -1.117 -0.62599999 3
3.6300001 -1.1160001 -0.62599999 2
3.5339999 -1.0880001 -0.61199999 2
3.5899999 -1.1059999 -0.62400001 2
3.645 -1.124 -0.63599998 3
3.5280001 -1.089 -0.61799997 2
3.4820001 -1.076 -0.61199999 2
3.467 -1.073 -0.61199999 2
3.4530001 -1.069 -0.611 2
3.4100001 -1.057 -0.60600001 2
3.5020001 -1.087 -0.62400001 3
3.4100001 -1.059 -0.61000001 2
3.4779999 -1.081 -0.62400001 3
3.3859999 -1.053 -0.61000001 2
3.3699999 -1.049 -0.60900003 2
3.418 -1.0650001 -0.61900002 3
3.3889999 -1.056 -0.616 2
3.3329999 -1.04 -0.60799998 2
3.3039999 -1.031 -0.60399997 2
3.3180001 -1.036 -0.60900003 2
3.3429999 -1.044 -0.61500001 2
3.2920001 -1.029 -0.60699999 2
3.415 -1.068 -0.63200003 2
3.3659999 -1.052 -0.625 2
3.27 -1.023 -0.60900003 2
3.358 -1.051 -0.62699997 2
3.3050001 -1.034 -0.61799997 2
3.2679999 -1.023 -0.61299998 2
3.293 -1.031 -0.61900002 2
3.2650001 -1.022 -0.616 2
3.247 -1.017 -0.61400002 2
3.256 -1.0190001 -0.61699998 2
3.214 -1.006 -0.61000001 2
3.253 -1.018 -0.61900002 2
3.165 -0.991 -0.60399997 2
3.2539999 -1.0190001 -0.62199998 2
3.2539999 -1.018 -0.62400001 2
3.2620001 -1.021 -0.62699997 2
3.1819999 -0.995 -0.61299998 2
3.152 -0.986 -0.60799998 2
3.221 -1.007 -0.62300003 2
3.1619999 -0.98799998 -0.61299998 2
3.1440001 -0.98199999 -0.61000001 2
3.1889999 -0.99599999 -0.62 2
3.0469999 -0.95099998 -0.59299999 2
3.0350001 -0.94599998 -0.59200001 2
3.0280001 -0.94400001 -0.59200001 2
3.0280001 -0.94300002 -0.59299999 2
3.0209999 -0.94 -0.59299999 2
3.01 -0.93599999 -0.59100002 2
3.0050001 -0.93400002 -0.59100002 2
3.003 -0.93199998 -0.59200001 2
2.9909999 -0.92799997 -0.58999997 2
2.9920001 -0.92699999 -0.59100002 2
2.9920001 -0.926 -0.59200001 2
2.9860001 -0.92400002 -0.59200001 2
2.9760001 -0.92000002 -0.59100002 2
2.9690001 -0.91600001 -0.58999997 2
2.9649999 -0.91399997 -0.58999997 2
2.9619999 -0.912 -0.58999997 2
2.9590001 -0.91000003 -0.58999997 2
2.9590001 -0.90899998 -0.59100002 2
2.951 -0.90499997 -0.58999997 2
2.948 -0.903 -0.58999997 2
2.9419999 -0.89999998 -0.58999997 2
2.937 -0.898 -0.58899999 2
2.937 -0.89600003 -0.58999997 2
2.938 -0.89499998 -0.58999997 2
2.9289999 -0.89099997 -0.58899999 2
2.927 -0.889 -0.58899999 2
2.9219999 -0.88599998 -0.58899999 2
2.925 -0.88599998 -0.58999997 2
2.9200001 -0.88200003 -0.58899999 2
2.9130001 -0.87900001 -0.588 2
2.9159999 -0.87800002 -0.58899999 2
2.9170001 -0.87699997 -0.58899999 2
2.9130001 -0.87400001 -0.58899999 2
2.9119999 -0.87199998 -0.58899999 2
2.9089999 -0.86900002 -0.588 2
2.9030001 -0.866 -0.588 2
2.905 -0.86500001 -0.588 2
2.901 -0.86199999 -0.58700001 2
2.9089999 -0.86199999 -0.58899999 2
2.9130001 -0.861 -0.58999997 2
2.905 -0.85699999 -0.58899999 2
2.9059999 -0.85600001 -0.58899999 2
2.9059999 -0.85399997 -0.58899999 2
2.908 -0.852 -0.58899999 2
2.9059999 -0.85000002 -0.58899999 2
2.904 -0.847 -0.588 2
2.905 -0.84500003 -0.58899999 2
2.9070001 -0.84399998 -0.58899999 2
2.9059999 -0.84100002 -0.58899999 2
2.9030001 -0.838 -0.588 2
2.908 -0.83700001 -0.58899999 2
2.904 -0.83399999 -0.588 2
2.9189999 -0.83600003 -0.59100002 2
2.908 -0.83099997 -0.588 2
2.911 -0.829 -0.588 2
2.9130001 -0.82700002 -0.588 2
2.9130001 -0.82499999 -0.588 2
2.914 -0.82200003 -0.588 2
2.9200001 -0.82200003 -0.58899999 2
2.9289999 -0.82200003 -0.58999997 2
2.9260001 -0.81800002 -0.58899999 2
2.928 -0.81599998 -0.58899999 2
2.9260001 -0.81300002 -0.588 2
2.9330001 -0.81199998 -0.58899999 2
2.9349999 -0.81 -0.58899999 2
2.9389999 -0.80800003 -0.58899999 2
2.9460001 -0.80800003 -0.58999997 2
