# .PCD v0.7 - Point Cloud Data file format
VERSION 0.7
FIELDS x y z intensity
SIZE 4 4 4 4
TYPE F F F F
COUNT 1 1 1 1
WIDTH 1807
HEIGHT 1
VIEWPOINT 0 0 0 1 0 0 0
POINTS 1807
DATA ascii
37.540001 2.336 -1.322 25
37.591999 2.267 -1.295 25
37.653999 2.197 -1.2690001 28
37.749001 2.1270001 -1.243 25
37.855999 2.0580001 -1.2180001 23
37.952 1.988 -1.192 22
38.095001 1.92 -1.169 150
38.194 1.85 -1.1440001 5
0 0 0 38
0 0 0 51
0 0 0 0
0 0 0 0
0 0 0 0
0 0 0 0
0 0 0 21
115.896 3.7620001 -2.8150001 42
115.933 3.529 -2.737 47
115.958 3.2980001 -2.661 32
115.997 3.0650001 -2.5840001 33
0 0 0 0
0 0 0 39
71.027 1.4450001 -1.443 128
68.834999 1.26 -1.354 110
0 0 0 0
0 0 0 71
65.68 0.79799998 -1.1670001 97
65.661003 0.66500002 -1.127 46
65.696999 0.52999997 -1.087 89
0 0 0 0
0 0 0 118
57.655998 0.107 -0.85000002 119
0 0 0 22
43.542 -0.097000003 -0.59100002 61
43.575001 -0.18700001 -0.56699997 29
43.199001 -0.27599999 -0.537 4
43.084999 -0.36500001 -0.51099998 13
0 0 0 14
36.404999 -0.45899999 -0.39199999 78
36.438999 -0.53600001 -0.373 44
36.499001 -0.611 -0.354 19
36.618 -0.69 -0.336 26
0 0 0 37
41.894001 -0.963 -0.34099999 36
41.727001 -1.0470001 -0.31900001 48
41.722 -1.133 -0.29800001 41
41.66 -1.2180001 -0.27700001 59
41.491001 -1.3 -0.25600001 75
41.484001 -1.3890001 -0.236 90
39.316002 -1.397 -0.205 14
39.175999 -1.474 -0.186 2
38.869999 -1.544 -0.167 10
38.117001 -1.594 -0.147 6
37.477001 -1.6440001 -0.12800001 43
37.463001 -1.722 -0.111 22
37.415001 -1.799 -0.094999999 23
37.52 -1.883 -0.079000004 22
35.405998 -1.852 -0.059999999 4
0 0 0 0
0 0 0 1
20.296 -1.188 -0.0099999998 1
20.115 -1.219 -0.0020000001 1
19.24 -1.206 0.0040000002 1
19.004999 -1.2309999 0.011 2
18.934999 -1.266 0.017999999 5
18.855 -1.3 0.025 10
18.853001 -1.34 0.030999999 8
18.819 -1.377 0.037999999 4
0 0 0 0
0 0 0 1
0 0 0 0
0 0 0 1
18.476 -1.543 0.067000002 1
18.485001 -1.582 0.071999997 1
18.556999 -1.627 0.078000002 1
18.558001 -1.666 0.082999997 1
0 0 0 0
0 0 0 0
0 0 0 1
0 0 0 25
0 0 0 25
0 0 0 25
0 0 0 1
0 0 0 25
0 0 0 25
0 0 0 25
0 0 0 25
0 0 0 25
0 0 0 25
0 0 0 25
0 0 0 25
0 0 0 0
0 0 0 0
0 0 0 0
0 0 0 0
0 0 0 0
0 0 0 0
0 0 0 0
0 0 0 0
0 0 0 0
0 0 0 0
0 0 0 1
19.039 -2.7639999 0.184 1
19.056999 -2.806 0.186 1
0 0 0 6
58.327 -8.8219995 0.58099997 10
0 0 0 6
34.245998 -5.3169999 0.34599999 26
34.203999 -5.3779998 0.34799999 38
34.179001 -5.441 0.34999999 14
34.311001 -5.5300002 0.35299999 2
0 0 0 0
0 0 0 0
0 0 0 0
0 0 0 0
0 0 0 8
0 0 0 17
34.243999 -5.987 0.35800001 30
34.026001 -6.0139999 0.35600001 49
34.014 -6.0770001 0.35600001 68
34.008999 -6.1420002 0.35499999 117
34.016998 -6.2090001 0.35499999 124
34.032001 -6.277 0.354 116
34.027 -6.3410001 0.35299999 119
34.033001 -6.4070001 0.352 122
34.034 -6.4720001 0.34999999 118
34.035999 -6.5359998 0.34900001 124
34.047001 -6.6030002 0.34799999 120
0 0 0 16
17.986 -3.5550001 0.18099999 20
17.893 -3.5699999 0.17900001 28
17.858 -3.5969999 0.177 31
17.809999 -3.6199999 0.175 36
17.790001 -3.6489999 0.17399999 40
17.778 -3.6789999 0.17200001 28
17.745001 -3.7049999 0.17 30
17.718 -3.7309999 0.168 44
17.702999 -3.76 0.16599999 32
17.686001 -3.789 0.164 52
17.673 -3.8180001 0.162 55
17.648001 -3.8440001 0.16 67
17.643999 -3.8740001 0.15700001 67
17.628 -3.9030001 0.155 74
17.634001 -3.934 0.152 43
17.625 -3.9630001 0.149 64
17.625999 -3.9949999 0.147 56
17.618 -4.0240002 0.14399999 51
17.634001 -4.059 0.141 47
17.628 -4.0879998 0.138 51
17.638 -4.1209998 0.13600001 47
17.648001 -4.1529999 0.132 47
17.662001 -4.1869998 0.12899999 30
17.677 -4.2210002 0.126 43
17.691999 -4.2540002 0.123 37
17.721001 -4.2909999 0.12 26
17.715 -4.3189998 0.116 29
17.775999 -4.3639998 0.113 25
17.83 -4.4060001 0.11 18
17.91 -4.4549999 0.107 10
0 0 0 2
0 0 0 0
0 0 0 0
0 0 0 0
0 0 0 0
0 0 0 0
0 0 0 5
38.231998 -10 0.15800001 4
38.262001 -10.068 0.148 4
38.261002 -10.129 0.139 6
38.330002 -10.206 0.12899999 4
38.261002 -10.247 0.119 4
38.256001 -10.304 0.109 4
0 0 0 39
34.578999 -9.4169998 0.079999998 35
34.553001 -9.4619999 0.07 20
0 0 0 5
38.997002 -10.795 0.057 4
0 0 0 0
0 0 0 0
0 0 0 2
30.124001 -8.5139999 0.0089999996 2
30.111 -8.5530005 0 2
0 0 0 2
34.727001 -9.9610004 -0.02 8
34.683998 -9.9969997 -0.030999999 12
34.582001 -10.016 -0.041999999 10
34.442001 -10.022 -0.052999999 7
34.346001 -10.041 -0.064000003 8
34.351002 -10.088 -0.074000001 19
34.332001 -10.129 -0.086000003 19
0 0 0 1
27.558001 -8.2030001 -0.086999997 2
27.562 -8.2399998 -0.097000003 3
0 0 0 0
0 0 0 1
0 0 0 0
0 0 0 8
34.368 -10.491 -0.17900001 8
34.389999 -10.54 -0.191 10
34.360001 -10.573 -0.20299999 9
34.404999 -10.628 -0.21600001 10
34.398998 -10.667 -0.228 9
34.404999 -10.709 -0.23999999 10
0 0 0 1
13.066 -4.0970001 -0.101 1
13.022 -4.098 -0.105 1
12.969 -4.0960002 -0.109 2
12.821 -4.0640001 -0.113 7
12.858 -4.0890002 -0.118 17
12.906 -4.119 -0.123 26
12.832 -4.1090002 -0.127 21
12.752 -4.0970001 -0.131 11
12.868 -4.1479998 -0.138 19
12.958 -4.191 -0.14300001 42
12.975 -4.21 -0.149 42
12.911 -4.2020001 -0.153 41
12.822 -4.1859999 -0.15700001 41
12.773 -4.1830001 -0.161 29
12.761 -4.191 -0.16599999 39
12.713 -4.1880002 -0.17 35
12.699 -4.1950002 -0.175 35
12.73 -4.217 -0.18099999 40
12.716 -4.224 -0.186 40
12.726 -4.2389998 -0.191 40
12.769 -4.2649999 -0.197 41
12.758 -4.2729998 -0.20100001 41
12.701 -4.2649999 -0.206 40
12.69 -4.2719998 -0.211 40
12.688 -4.2820001 -0.21600001 40
12.687 -4.2919998 -0.221 40
12.741 -4.3210001 -0.227 41
12.782 -4.3449998 -0.233 41
12.805 -4.3629999 -0.23899999 41
12.811 -4.375 -0.244 41
12.801 -4.381 -0.249 41
12.779 -4.3829999 -0.25400001 19
12.747 -4.382 -0.259 8
12.815 -4.414 -0.26499999 3
12.892 -4.4499998 -0.27200001 1
0 0 0 40
27.506001 -9.5319996 -0.60399997 43
27.495001 -9.5469999 -0.616 47
27.503 -9.5670004 -0.62699997 47
27.514999 -9.5889997 -0.639 47
27.511 -9.6049995 -0.65100002 46
27.509001 -9.6210003 -0.66299999 46
27.518 -9.6400003 -0.67400002 42
27.524 -9.658 -0.68599999 35
27.514 -9.6700001 -0.69700003 22
0 0 0 1
7.0689998 -2.4920001 -0.185 1
7.053 -2.49 -0.18700001 3
7.0300002 -2.4849999 -0.189 6
6.9959998 -2.477 -0.191 9
6.9910002 -2.4779999 -0.19400001 41
7.0669999 -2.5079999 -0.199 150
7.0339999 -2.5 -0.20100001 157
7.0159998 -2.4960001 -0.204 157
7.0300002 -2.5039999 -0.207 157
7.0310001 -2.5079999 -0.20999999 157
7.0419998 -2.5139999 -0.213 157
7.039 -2.516 -0.21600001 157
7.0349998 -2.517 -0.219 157
7.0320001 -2.5179999 -0.222 161
7.0409999 -2.5239999 -0.22499999 163
7.039 -2.526 -0.228 170
7.04 -2.5280001 -0.23100001 178
7.0489998 -2.533 -0.234 183
7.053 -2.5369999 -0.237 185
7.0279999 -2.53 -0.23899999 184
7.0240002 -2.53 -0.242 182
7.0209999 -2.53 -0.245 178
7.0479999 -2.5409999 -0.249 174
7.0079999 -2.5280001 -0.25 170
7.0079999 -2.53 -0.25299999 159
7.0289998 -2.5380001 -0.257 162
7.02 -2.536 -0.259 157
7.013 -2.5350001 -0.26199999 157
6.9970002 -2.53 -0.264 157
6.9980001 -2.5309999 -0.26699999 157
6.9990001 -2.5320001 -0.27000001 157
7.0040002 -2.5339999 -0.273 157
6.9959998 -2.5320001 -0.27500001 153
7.0380001 -2.5480001 -0.28 150
7.0250001 -2.543 -0.28200001 110
6.9910002 -2.5309999 -0.28400001 62
7.046 -2.5510001 -0.289 82
7.0869999 -2.5650001 -0.29300001 150
7.0739999 -2.5610001 -0.29499999 150
7.0560002 -2.5539999 -0.29699999 152
7.027 -2.543 -0.29899999 156
7.033 -2.5450001 -0.30199999 157
7.0250001 -2.5409999 -0.30500001 157
6.9980001 -2.5309999 -0.30599999 157
7.013 -2.5350001 -0.31 157
6.9959998 -2.5280001 -0.31099999 157
7.0250001 -2.5380001 -0.315 157
6.9860001 -2.523 -0.31600001 157
6.9879999 -2.5220001 -0.31900001 158
7.006 -2.527 -0.322 157
7.0440001 -2.54 -0.32699999 158
7.013 -2.527 -0.32800001 159
7.0089998 -2.5239999 -0.33000001 159
7.0320001 -2.53 -0.33399999 160
7.013 -2.5220001 -0.336 161
7.0170002 -2.5209999 -0.33899999 167
7.0009999 -2.513 -0.34099999 166
7.0139999 -2.516 -0.34400001 171
7.02 -2.516 -0.347 173
7.0469999 -2.523 -0.34999999 177
6.9970002 -2.503 -0.34999999 175
7.0310001 -2.5120001 -0.35499999 172
7.0110002 -2.5020001 -0.35600001 166
7.0159998 -2.5009999 -0.359 160
6.9920001 -2.49 -0.36000001 160
7.006 -2.4920001 -0.36300001 157
6.9770002 -2.4790001 -0.36399999 157
6.9980001 -2.483 -0.368 157
7.033 -2.4920001 -0.37200001 157
7.0320001 -2.4879999 -0.37400001 157
7.0430002 -2.4890001 -0.377 157
7.0450001 -2.4860001 -0.37900001 157
7.0450001 -2.4820001 -0.382 157
7.0240002 -2.471 -0.38299999 157
7.059 -2.48 -0.38699999 157
7.046 -2.471 -0.389 157
7.059 -2.471 -0.39199999 152
7.0749998 -2.473 -0.39500001 132
7.0949998 -2.4760001 -0.398 76
7.0799999 -2.4660001 -0.40000001 38
7.0809999 -2.4619999 -0.40200001 19
7.0840001 -2.4579999 -0.40400001 8
7.092 -2.4560001 -0.40700001 5
7.1020002 -2.4549999 -0.40900001 1
0 0 0 26
12.572 -4.3280001 -0.73299998 26
12.577 -4.3210001 -0.736 26
12.57 -4.309 -0.74000001 25
12.573 -4.3010001 -0.74400002 24
12.561 -4.2870002 -0.74599999 21
12.569 -4.2800002 -0.75099999 24
12.559 -4.2670002 -0.75300002 25
12.576 -4.263 -0.75700003 25
12.567 -4.2490001 -0.75999999 26
12.572 -4.2399998 -0.764 27
12.559 -4.2259998 -0.76599997 27
12.564 -4.2160001 -0.76999998 27
12.562 -4.2049999 -0.773 25
12.56 -4.1929998 -0.77600002 26
12.557 -4.1810002 -0.77899998 29
12.558 -4.1700001 -0.78200001 29
12.549 -4.1550002 -0.78500003 24
12.566 -4.1490002 -0.78899997 23
12.556 -4.1339998 -0.79100001 23
12.55 -4.1199999 -0.79400003 26
12.542 -4.105 -0.796 25
12.558 -4.098 -0.80000001 28
12.539 -4.079 -0.801 27
12.536 -4.0650001 -0.80400002 29
12.544 -4.0549998 -0.80699998 23
12.544 -4.0419998 -0.81 22
12.549 -4.0310001 -0.81300002 24
12.539 -4.0139999 -0.815 26
12.54 -4.0009999 -0.81699997 27
12.541 -3.9879999 -0.81999999 30
12.548 -3.9760001 -0.82200003 30
12.535 -3.9590001 -0.82300001 26
12.535 -3.944 -0.82599998 23
12.579 -3.944 -0.83099997 9
12.62 -3.9430001 -0.83600003 11
12.662 -3.941 -0.84100002 12
12.704 -3.9389999 -0.84500003 8
12.731 -3.9319999 -0.84899998 11
12.77 -3.9289999 -0.85399997 10
12.814 -3.927 -0.85900003 12
12.832 -3.9170001 -0.86199999 15
12.903 -3.9230001 -0.86900002 10
12.946 -3.9200001 -0.87300003 11
12.997 -3.9189999 -0.87800002 9
13.03 -3.9130001 -0.88200003 15
13.071 -3.908 -0.88700002 11
13.09 -3.8970001 -0.889 15
13.155 -3.9000001 -0.89499998 13
13.192 -3.8929999 -0.89899999 12
13.247 -3.892 -0.90499997 9
13.306 -3.891 -0.91000003 13
13.342 -3.8840001 -0.91299999 9
13.401 -3.8829999 -0.91900003 10
13.446 -3.878 -0.92299998 9
13.503 -3.8759999 -0.92799997 3
0 0 0 2
14.844 -4.2199998 -1.022 2
14.752 -4.1729999 -1.017 2
14.761 -4.1550002 -1.018 2
14.793 -4.1430001 -1.021 3
14.737 -4.1059999 -1.018 4
14.681 -4.0689998 -1.015 4
14.651 -4.04 -1.013 4
14.625 -4.0120001 -1.012 4
15.382 -4.1960001 -1.0650001 5
15.185 -4.1199999 -1.052 23
15.153 -4.0890002 -1.05 22
15.158 -4.0669999 -1.05 23
15.136 -4.039 -1.049 21
15.127 -4.013 -1.048 20
15.149 -3.9960001 -1.05 26
15.134 -3.9679999 -1.049 29
15.147 -3.948 -1.049 29
15.148 -3.925 -1.049 27
15.133 -3.8970001 -1.048 31
15.133 -3.8740001 -1.0470001 35
15.13 -3.849 -1.0470001 34
15.132 -3.826 -1.046 32
15.122 -3.799 -1.045 35
15.136 -3.7780001 -1.045 25
15.141 -3.7550001 -1.044 27
15.139 -3.73 -1.043 22
15.093 -3.694 -1.039 14
15.145 -3.681 -1.0420001 8
15.214 -3.674 -1.045 8
15.283 -3.665 -1.048 8
15.321 -3.648 -1.05 8
15.382 -3.6370001 -1.052 9
15.432 -3.6229999 -1.054 8
15.497 -3.6129999 -1.057 7
15.543 -3.5969999 -1.058 7
15.59 -3.582 -1.059 7
15.642 -3.5669999 -1.061 5
15.67 -3.546 -1.061 5
15.059 -3.381 -1.017 4
15.123 -3.3699999 -1.0190001 3
15.15 -3.3499999 -1.0190001 3
15.246 -3.3440001 -1.023 3
15.377 -3.346 -1.029 3
15.336 -3.3099999 -1.023 3
15.363 -3.289 -1.023 3
15.419 -3.273 -1.023 3
15.373 -3.2360001 -1.018 3
15.782 -3.2939999 -1.0420001 4
15.869 -3.2839999 -1.044 5
16.028 -3.2880001 -1.051 5
16.247 -3.3039999 -1.062 5
16.114 -3.2479999 -1.05 5
16.229 -3.2420001 -1.053 5
16.351999 -3.237 -1.058 5
16.417999 -3.2190001 -1.058 5
16.247 -3.1559999 -1.043 3
0 0 0 0
0 0 0 2
16.778 -3.1659999 -1.064 2
0 0 0 0
0 0 0 2
17.24 -3.158 -1.0779999 2
17.462 -3.165 -1.087 1
17.694 -3.175 -1.096 2
0 0 0 0
0 0 0 0
0 0 0 0
0 0 0 0
0 0 0 15
18.740999 -3.1500001 -1.125 4
18.122 -3.0120001 -1.081 4
18.108 -2.9749999 -1.074 4
18.094 -2.938 -1.066 4
18.08 -2.901 -1.059 4
18.089001 -2.868 -1.053 4
0 0 0 1
0 0 0 4
0 0 0 7
20.919001 -3.154 -1.184 7
21.077999 -3.1370001 -1.184 2
0 0 0 24
22.938999 -3.3239999 -1.2690001 40
22.959999 -3.283 -1.261 26
22.954 -3.2379999 -1.25 39
22.964001 -3.1949999 -1.2410001 30
0 0 0 1
20.778999 -2.809 -1.104 3
20.766001 -2.767 -1.0930001 3
20.754999 -2.724 -1.082 4
0 0 0 1
18.221001 -2.3199999 -0.93199998 1
18.367001 -2.302 -0.93099999 1
18.424 -2.2739999 -0.92500001 2
18.069 -2.1949999 -0.898 4
17.941 -2.1440001 -0.88200003 4
17.968 -2.1110001 -0.87400001 3
17.806999 -2.0569999 -0.85699999 3
17.613001 -2 -0.838 3
17.540001 -1.957 -0.82499999 3
17.532 -1.9220001 -0.815 3
17.540001 -1.888 -0.80500001 3
17.504999 -1.849 -0.79400003 3
17.466999 -1.811 -0.78200001 3
17.450001 -1.775 -0.77100003 3
17.43 -1.737 -0.75999999 2
17.393999 -1.7 -0.74800003 2
17.406 -1.666 -0.73799998 2
17.408001 -1.632 -0.72799999 2
17.437 -1.6 -0.71899998 2
17.459999 -1.568 -0.70899999 2
17.441999 -1.5319999 -0.69700003 1
17.455 -1.498 -0.68699998 1
17.531 -1.469 -0.67799997 1
17.576 -1.438 -0.66799998 1
0 0 0 0
0 0 0 0
0 0 0 1
17.893 -1.321 -0.63300002 3
17.937 -1.288 -0.62199998 4
17.948999 -1.253 -0.61000001 3
17.966 -1.2180001 -0.59799999 3
18.615999 -1.226 -0.60600001 2
18.865999 -1.204 -0.60100001 1
19.129 -1.184 -0.59600002 1
19.372 -1.16 -0.58899999 1
19.702999 -1.141 -0.58499998 1
19.947001 -1.1160001 -0.57800001 1
20.184 -1.089 -0.56900001 1
20.816 -1.082 -0.57200003 4
21.163 -1.058 -0.565 7
21.246 -1.021 -0.551 2
0 0 0 27
37.453999 -1.651 -0.91399997 46
37.914001 -1.598 -0.89600003 6
38.488998 -1.546 -0.87900001 6
39.284 -1.501 -0.866 9
41.508999 -1.5039999 -0.88099998 56
41.507999 -1.425 -0.84899998 95
41.518002 -1.3430001 -0.815 93
41.424 -1.2589999 -0.77899998 35
41.068001 -1.166 -0.73699999 35
41.050999 -1.085 -0.70200002 33
41.138 -1.007 -0.66900003 45
41.289001 -0.92900002 -0.63599998 28
0 0 0 17
36.528 -0.68000001 -0.5 9
36.446999 -0.60799998 -0.46799999 73
36.426998 -0.537 -0.435 62
36.408001 -0.465 -0.403 88
0 0 0 0
0 0 0 13
0 0 0 69
54.75 -0.27599999 -0.41 17
56.771 -0.178 -0.37400001 63
57.108002 -0.07 -0.32300001 54
57.672001 0.039000001 -0.273 137
57.675999 0.149 -0.22 126
57.837002 0.25999999 -0.167 87
58.084999 0.373 -0.112 18
0 0 0 146
65.723999 0.66900003 -0.003 150
65.699997 0.79400003 0.059 101
65.766998 0.917 0.121 71
66.458 1.053 0.18700001 28
66.355003 1.176 0.252 46
0 0 0 0
0 0 0 0
0 0 0 8
0 0 0 0
0 0 0 18
72.068001 2.0829999 0.70099998 26
0 0 0 0
0 0 0 18
82.759003 2.8510001 1.058 28
82.657997 2.9990001 1.142 38
83.010002 3.164 1.233 36
82.759003 3.3039999 1.314 26
0 0 0 0
0 0 0 0
0 0 0 11
85.153 4.0170002 1.7079999 16
88.303001 4.3239999 1.865 16
0 0 0 0
0 0 0 0
0 0 0 0
0 0 0 13
86.662003 5.0159998 2.2950001 19
86.334999 5.1479998 2.378 30
86.230003 5.2940001 2.47 31
86.163002 5.4429998 2.563 16
0 0 0 0
0 0 0 0
0 0 0 24
0 0 0 0
0 0 0 0
0 0 0 19
87.071999 6.5549998 3.266 33
86.794998 6.6820002 3.3540001 32
86.357002 6.7950001 3.4349999 32
86.294998 6.9359999 3.53 24
0 0 0 0
0 0 0 23
90.716003 7.7470002 4.0190001 17
89.007004 7.7490001 4.046 43
88.827003 7.8790002 4.138 14
86.845001 7.8470001 4.1459999 14
86.710999 7.9780002 4.2399998 14
0 0 0 0
0 0 0 41
115.672 11.206 6.0570002 39
115.728 11.399 6.1950002 25
0 0 0 0
0 0 0 0
0 0 0 19
0 0 0 0
0 0 0 0
0 0 0 19
88.662003 9.7189999 5.4749999 13
0 0 0 24
115.87 13.056 7.427 25
115.994 13.249 7.573 33
0 0 0 30
130.047 15.25 8.7980003 30
0 0 0 0
0 0 0 29
124.395 15.149 8.8590002 29
124.332 15.327 9.0039997 30
0 0 0 0
0 0 0 0
0 0 0 45
0 0 0 0
0 0 0 25
115.642 15.274 9.2069998 43
115.636 15.434 9.3430004 48
115.577 15.594 9.4779997 42
115.506 15.749 9.6120005 35
0 0 0 0
0 0 0 0
0 0 0 0
0 0 0 0
0 0 0 32
124.558 18.014 11.264 26
124.232 18.135 11.385 37
0 0 0 19
48.002998 7.1360002 4.5139999 25
47.875999 7.1799998 4.559 28
48.137001 7.283 4.6420002 38
48.007999 7.3270001 4.6869998 35
47.638 7.3319998 4.7090001 37
47.458 7.3660002 4.7490001 40
45.453999 7.1129999 4.6020002 5
46.986 7.4130001 4.8140001 36
46.979 7.4710002 4.8699999 47
46.898998 7.5170002 4.9169998 37
46.736 7.5489998 4.9559999 40
46.588001 7.5830002 4.9970002 39
46.410999 7.6110001 5.0339999 38
46.421001 7.6700001 5.0910001 28
46.527 7.744 5.158 20
46.591 7.8099999 5.2199998 16
0 0 0 0
0 0 0 36
68.344002 11.699 7.9029999 41
68.154999 11.746 7.9629998 35
68.218002 11.836 8.0509996 31
68.332001 11.936 8.1459999 13
0 0 0 0
0 0 0 0
0 0 0 0
0 0 0 0
0 0 0 0
0 0 0 0
0 0 0 0
0 0 0 9
62.702999 11.573 8.1389999 20
0 0 0 5
45.613998 8.5129995 6.026 20
45.627998 8.5629997 6.0809999 19
45.566002 8.5970001 6.1259999 20
45.314999 8.5959997 6.1440001 26
43.810001 8.3540001 5.9889998 20
44.158001 8.4639997 6.0890002 31
44.111 8.4980001 6.132 35
44.148998 8.5480003 6.1890001 35
44.181 8.5959997 6.243 36
43.876999 8.5780001 6.25 42
43.797001 8.6040001 6.2880001 42
43.769001 8.6389999 6.3330002 42
43.681 8.6630001 6.3699999 42
43.609001 8.6879997 6.408 37
43.526001 8.71 6.4450002 31
43.456001 8.7340002 6.4829998 20
43.465 8.7740002 6.5310001 16
0 0 0 0
0 0 0 19
61.716 12.616 9.4779997 27
61.693001 12.662 9.5419998 26
58.146999 11.984 9.0559998 6
61.398998 12.704 9.6289997 19
62.912998 13.068 9.9350004 17
0 0 0 9
58.07 12.153 9.2930002 18
57.851002 12.151 9.3190002 29
57.784 12.181 9.368 32
57.592999 12.183 9.3999996 41
57.332001 12.171 9.4160004 42
57.216999 12.186 9.4560003 39
57.134998 12.211 9.5010004 37
57.071999 12.238 9.5500002 35
56.971001 12.255 9.5909996 39
56.847 12.268 9.6289997 37
56.695 12.273 9.6610003 40
56.507 12.269 9.6859999 39
56.425999 12.288 9.7290001 38
56.256001 12.287 9.7559996 36
56.063 12.28 9.7779999 38
55.966 12.294 9.8149996 39
55.877998 12.308 9.8529997 38
55.824001 12.33 9.8979998 32
55.780998 12.353 9.9449997 26
55.783001 12.386 9.9969997 23
0 0 0 6
0 0 0 0
0 0 0 13
42.577 9.5469999 7.7909999 13
42.487 9.5489998 7.8140001 14
42.390999 9.5489998 7.836 19
42.296001 9.5480003 7.8559999 29
42.188 9.5430002 7.875 36
42.104 9.5459995 7.8969998 36
42.021 9.5459995 7.9200001 35
41.980999 9.5550003 7.9489999 33
41.909 9.5579996 7.9720001 44
41.877998 9.5679998 8.0030003 44
41.847 9.5790005 8.033 34
41.750999 9.5749998 8.0509996 35
41.667 9.573 8.0710001 39
41.626999 9.5799999 8.0970001 39
41.556999 9.5790005 8.1190004 37
41.497002 9.5810003 8.1420002 33
41.445 9.5830002 8.1660004 28
41.396999 9.5860004 8.1899996 25
41.362 9.592 8.2159996 24
41.341 9.6009998 8.2449999 21
41.298 9.6040001 8.2690001 19
41.257 9.6070004 8.2939997 15
41.278 9.6239996 8.3299999 10
41.196999 9.6169996 8.3450003 6
0 0 0 32
56.376999 13.189 11.506 37
56.360001 13.199 11.544 38
56.300999 13.199 11.573 39
56.234001 13.195 11.6 39
56.175999 13.194 11.629 39
56.126999 13.193 11.659 38
56.174999 13.216 11.707 33
56.134998 13.217 11.738 30
56.153 13.23 11.781 25
0 0 0 5
42.326 9.9860001 8.9359999 7
42.352001 9.9980001 8.9689999 10
42.369999 10.007 9.0010004 13
42.32 10 9.0170002 16
42.291 9.9980001 9.0369997 20
42.263 9.9949999 9.0579996 19
42.251999 9.9960003 9.0819998 21
42.261002 10.001 9.1099997 20
42.210999 9.9919996 9.125 20
42.181999 9.9870005 9.1440001 22
42.176998 9.9870005 9.1669998 23
42.144001 9.9799995 9.184 24
42.117001 9.9750004 9.2030001 21
42.068001 9.9639997 9.2150002 21
42.057999 9.9619999 9.2340002 19
42.001999 9.948 9.2449999 22
41.98 9.9420004 9.2609997 23
41.962002 9.9350004 9.2799997 24
41.939999 9.9280005 9.2969999 28
41.874001 9.9099998 9.302 32
41.818001 9.8940001 9.3109999 33
41.779999 9.882 9.323 38
41.700001 9.8590002 9.323 33
41.626999 9.8380003 9.3260002 38
41.546001 9.8140001 9.3269997 39
41.477001 9.7919998 9.3299999 39
41.395 9.7679996 9.3290005 39
41.325001 9.7449999 9.3310003 39
41.289001 9.7299995 9.3400002 37
41.257 9.7159996 9.3500004 36
41.229 9.7019997 9.3599997 34
41.219002 9.6920004 9.3739996 36
41.224998 9.6859999 9.3900003 31
41.220001 9.6759996 9.4029999 30
41.221001 9.6669998 9.4189997 27
41.238998 9.6619997 9.4359999 24
41.23 9.6499996 9.448 20
41.229 9.6389999 9.4610004 16
41.266998 9.6370001 9.4829998 13
41.273998 9.6280003 9.4980001 9
41.245998 9.6099997 9.5019999 4
41.319 9.6149998 9.5310001 3
0 0 0 0
0 0 0 0
0 0 0 0
0 0 0 23
114.811 26.535 26.628 23
114.71 26.471001 26.629999 28
114.703 26.43 26.650999 28
114.798 26.408001 26.697001 29
114.849 26.375999 26.731001 25
114.861 26.336 26.753 27
114.72 26.257 26.740999 30
114.84 26.236 26.787001 29
114.835 26.186001 26.804001 28
114.947 26.162001 26.846001 26
0 0 0 0
0 0 0 0
0 0 0 0
0 0 0 0
0 0 0 0
0 0 0 0
0 0 0 0
0 0 0 0
0 0 0 0
0 0 0 0
0 0 0 0
0 0 0 0
0 0 0 0
0 0 0 0
0 0 0 0
0 0 0 0
0 0 0 22
115.17 25.129999 26.979 27
0 0 0 0
0 0 0 0
0 0 0 0
0 0 0 0
0 0 0 0
0 0 0 0
0 0 0 0
0 0 0 0
0 0 0 0
0 0 0 0
0 0 0 0
0 0 0 0
0 0 0 0
0 0 0 0
0 0 0 0
0 0 0 0
0 0 0 73
114.812 23.635 26.570999 56
114.81 23.545 26.544001 50
114.858 23.466999 26.521 49
114.864 23.377001 26.490999 50
114.81 23.275 26.445 45
114.873 23.195 26.424999 49
114.858 23.101999 26.385 45
114.891 23.014 26.356001 45
114.895 22.92 26.319 55
114.865 22.820999 26.271 44
114.913 22.733999 26.242001 42
114.961 22.646 26.211 49
115.015 22.556999 26.18 47
114.924 22.440001 26.115 47
114.893 22.337 26.061001 63
114.974 22.250999 26.033001 36
114.974 22.149 25.985001 46
115.015 22.054001 25.945 46
115.017 21.951 25.895 49
115.037 21.85 25.847 44
115.018 21.740999 25.790001 42
115.066 21.645 25.743 49
115.108 21.546 25.695999 48
115.106 21.438 25.639 42
115.109 21.333 25.580999 48
115.066 21.216 25.511999 47
115.049 21.106001 25.445999 57
115.082 21.000999 25.392 63
115.165 20.900999 25.348 24
0 0 0 0
0 0 0 23
115.13 20.558001 25.142 26
115.144 20.450001 25.077 30
115.19 20.339001 25.018 39
115.208 20.23 24.951 43
115.216 20.114 24.879999 48
115.261 20.004 24.816999 54
115.241 19.886 24.738001 69
115.238 19.767 24.660999 70
115.255 19.65 24.587999 60
115.281 19.535 24.516001 64
115.279 19.413 24.436001 70
115.261 19.290001 24.348 65
115.312 19.176001 24.277 62
115.342 19.062 24.200001 65
115.346 18.938 24.120001 60
115.378 18.82 24.041 42
115.4 18.702 23.959 41
115.459 18.59 23.882999 42
115.503 18.471001 23.802999 40
115.587 18.358 23.73 34
115.537 18.226 23.631001 28
115.553 18.101999 23.538 28
115.698 17.999001 23.476999 30
115.785 17.881001 23.396 27
0 0 0 0
0 0 0 0
0 0 0 0
0 0 0 0
0 0 0 0
0 0 0 0
0 0 0 22
116.109 16.886 22.652 22
0 0 0 0
0 0 0 0
0 0 0 0
0 0 0 0
0 0 0 0
0 0 0 0
0 0 0 0
0 0 0 0
0 0 0 0
0 0 0 27
115.818 15.361 21.358999 29
115.875 15.231 21.250999 29
115.849 15.09 21.125999 36
115.75 14.939 20.986 46
115.81 14.812 20.875 54
115.823 14.672 20.75 60
115.775 14.53 20.617001 61
115.791 14.393 20.493999 77
115.788 14.253 20.365999 70
115.768 14.111 20.235001 64
115.841 13.98 20.118 71
115.825 13.838 19.985001 76
115.853 13.704 19.858999 74
115.911 13.57 19.736 73
115.922 13.43 19.604 55
116.054 13.304 19.490999 36
116.095 13.167 19.362 31
116.065 13.022 19.219 37
116.131 12.891 19.091999 30
116.022 12.737 18.934999 33
116.123 12.606 18.811001 33
116.176 12.469 18.677999 30
116.18 12.33 18.535999 27
116.246 12.194 18.403 32
116.21 12.048 18.252001 30
116.162 11.9 18.094999 28
116.164 11.757 17.948 28
116.177 11.615 17.802 36
116.316 11.486 17.673 33
116.195 11.331 17.504999 29
116.326 11.2 17.372999 23
116.251 11.052 17.209999 23
116.161 10.897 17.042 26
116.198 10.757 16.889 38
116.201 10.617 16.736 54
116.142 10.469 16.570999 65
116.183 10.329 16.419001 69
116.161 10.18 16.256001 73
116.171 10.038 16.097 59
116.214 9.901 15.944 61
116.244 9.7609997 15.787 62
116.32 9.6269999 15.636 45
0 0 0 0
0 0 0 0
0 0 0 32
118.868 9.2530003 15.302 24
118.97 9.1169996 15.146 32
119.211 8.9890003 15.003 22
0 0 0 0
0 0 0 25
0 0 0 0
0 0 0 0
0 0 0 0
0 0 0 0
0 0 0 0
0 0 0 0
0 0 0 0
0 0 0 0
0 0 0 0
0 0 0 0
0 0 0 37
118.977 6.9499998 12.458 64
118.972 6.8060002 12.271 82
118.971 6.664 12.084 77
119 6.5229998 11.898 80
119.028 6.3850002 11.714 86
118.983 6.2399998 11.519 88
119.04 6.1009998 11.333 85
119.074 5.961 11.145 64
119.152 5.8239999 10.959 45
119.24 5.6869998 10.77 32
119.168 5.5419998 10.568 33
119.257 5.4029999 10.378 39
119.214 5.2620001 10.178 37
119.185 5.1199999 9.9750004 38
0 0 0 0
0 0 0 0
0 0 0 0
0 0 0 30
119.252 4.4330001 8.9840002 50
119.248 4.2950001 8.7810001 42
119.389 4.1659999 8.5909996 40
119.413 4.0300002 8.3889999 37
119.383 3.8929999 8.1820002 43
119.471 3.7639999 7.9879999 27
119.378 3.625 7.776 27
119.37 3.493 7.5710001 25
0 0 0 16
0 0 0 58
73.248001 1.898 4.2639999 85
71.891998 1.783 4.059 74
70.581001 1.6720001 3.8599999 60
69.391998 1.568 3.6719999 55
68.327003 1.47 3.4960001 46
67.640999 1.383 3.3440001 63
66.445 1.286 3.1670001 66
65.124001 1.189 2.9849999 70
64.190002 1.103 2.829 50
63.698002 1.025 2.691 67
62.401001 0.93699998 2.523 67
61.375 0.85600001 2.3699999 38
61.069 0.78799999 2.2490001 6
0 0 0 15
55.101002 0.59600002 1.829 15
54.57 0.53299999 1.712 14
54.537998 0.47600001 1.6109999 46
54.619999 0.41999999 1.512 35
0 0 0 0
0 0 0 0
0 0 0 0
0 0 0 19
0 0 0 0
0 0 0 0
0 0 0 0
0 0 0 25
0 0 0 15
56.876999 -0.134 0.51599997 63
56.681999 -0.189 0.40700001 65
56.973 -0.245 0.30199999 57
0 0 0 0
0 0 0 9
42.922001 -0.30899999 -0.017999999 10
42.898998 -0.34999999 -0.1 13
42.888 -0.38999999 -0.18099999 12
42.884998 -0.43000001 -0.26300001 19
0 0 0 34
36.410999 -0.43200001 -0.36300001 68
36.391998 -0.46599999 -0.433 72
36.436001 -0.5 -0.50400001 90
36.424999 -0.53200001 -0.574 95
36.419998 -0.565 -0.64399999 41
36.250999 -0.59500003 -0.70999998 2
36.405998 -0.63 -0.78399998 5
36.587002 -0.66500002 -0.85900003 7
37.615002 -0.71700001 -0.95599997 14
37.630001 -0.75 -1.031 16
37.723999 -0.78500003 -1.107 5
0 0 0 1
27.892 -0.62800002 -0.92799997 2
27.754 -0.648 -0.97600001 1
0 0 0 10
37.693001 -0.94300002 -1.474 4
38.083 -0.98400003 -1.564 4
0 0 0 0
0 0 0 2
0 0 0 0
0 0 0 2
24.981001 -0.74599999 -1.272 3
0 0 0 2
0 0 0 1
0 0 0 0
0 0 0 1
17.223 -0.58099997 -1.0470001 2
0 0 0 2
15.23 -0.53600001 -0.98500001 2
14.458 -0.51899999 -0.96399999 3
13.759 -0.50400001 -0.94400001 3
13.05 -0.48699999 -0.921 3
12.512 -0.47600001 -0.90799999 3
11.956 -0.46399999 -0.89099997 2
11.485 -0.45300001 -0.87900001 2
11.053 -0.44400001 -0.86799997 2
10.602 -0.433 -0.85299999 2
10.196 -0.42300001 -0.83999997 3
9.8269997 -0.41499999 -0.82999998 2
9.4770002 -0.40599999 -0.81900001 2
9.1540003 -0.39899999 -0.80900002 3
8.8649998 -0.39199999 -0.801 3
8.5719995 -0.384 -0.792 3
8.2980003 -0.377 -0.78299999 3
8.0100002 -0.36899999 -0.77200001 4
7.7810001 -0.36399999 -0.76499999 4
7.5510001 -0.35800001 -0.75700003 3
7.303 -0.34999999 -0.74699998 4
7.0830002 -0.34400001 -0.73799998 4
6.9159999 -0.34 -0.73400003 4
6.7270002 -0.33500001 -0.72799999 3
6.526 -0.32800001 -0.71899998 3
6.3540001 -0.32300001 -0.71200001 3
6.1999998 -0.31900001 -0.70700002 3
6.0549998 -0.315 -0.70200002 3
5.8839998 -0.30899999 -0.69400001 3
5.7470002 -0.30500001 -0.68900001 3
5.599 -0.30000001 -0.68199998 3
5.4879999 -0.29699999 -0.68000001 3
5.375 -0.294 -0.676 3
5.2410002 -0.289 -0.67000002 4
5.1230001 -0.28600001 -0.66500002 4
5.0240002 -0.28299999 -0.662 4
4.908 -0.27900001 -0.65600002 4
4.8169999 -0.27599999 -0.653 5
4.7509999 -0.27399999 -0.653 3
4.6919999 -0.273 -0.65399998 2
4.5780001 -0.26899999 -0.64700001 2
4.4910002 -0.266 -0.64399999 2
4.4200001 -0.26300001 -0.64200002 3
4.316 -0.259 -0.63499999 2
4.2309999 -0.25600001 -0.63099998 2
4.1739998 -0.25400001 -0.63 2
4.1420002 -0.25400001 -0.63300002 4
4.04 -0.249 -0.62599999 2
3.9679999 -0.24699999 -0.62199998 2
3.9909999 -0.25 -0.63300002 2
3.848 -0.242 -0.61799997 2
3.8369999 -0.243 -0.62400001 3
3.7420001 -0.23899999 -0.61500001 1
3.7390001 -0.23999999 -0.62199998 3
3.6689999 -0.237 -0.61699998 3
3.6400001 -0.236 -0.61900002 3
3.5569999 -0.23199999 -0.61199999 1
3.45 -0.226 -0.60000002 1
3.4400001 -0.227 -0.60399997 1
3.3840001 -0.22400001 -0.60100001 1
3.411 -0.227 -0.61199999 2
3.2969999 -0.221 -0.59799999 3
3.2620001 -0.219 -0.597 5
3.2379999 -0.219 -0.59899998 6
3.2060001 -0.21699999 -0.59899998 5
3.1670001 -0.21600001 -0.59799999 3
3.223 -0.221 -0.61400002 1
3.181 -0.21799999 -0.61199999 1
3.0899999 -0.213 -0.60000002 1
3.049 -0.211 -0.597 1
3.0190001 -0.20999999 -0.597 1
2.9519999 -0.206 -0.58899999 1
2.924 -0.205 -0.58899999 1
2.8770001 -0.20200001 -0.58399999 2
2.8599999 -0.20200001 -0.58600003 2
2.8269999 -0.2 -0.58399999 2
2.7820001 -0.197 -0.57999998 2
2.757 -0.19599999 -0.57999998 1
2.727 -0.19499999 -0.57800001 1
2.694 -0.193 -0.57599998 1
2.6670001 -0.191 -0.57499999 1
2.6429999 -0.19 -0.574 1
2.6170001 -0.189 -0.57300001 1
2.5940001 -0.18799999 -0.57300001 1
2.572 -0.186 -0.57200003 1
2.5539999 -0.186 -0.57300001 1
2.53 -0.184 -0.57200003 1
2.5020001 -0.183 -0.56900001 1
2.484 -0.182 -0.56999999 1
2.4649999 -0.18099999 -0.56900001 1
2.444 -0.17900001 -0.56900001 1
2.421 -0.178 -0.56699997 1
2.392 -0.176 -0.565 1
2.3789999 -0.176 -0.565 1
2.352 -0.17399999 -0.56300002 1
2.3310001 -0.17299999 -0.56199998 1
2.325 -0.17200001 -0.56400001 1
2.302 -0.171 -0.56199998 1
2.2820001 -0.17 -0.56099999 1
2.2679999 -0.169 -0.56099999 1
2.2509999 -0.168 -0.56099999 1
2.233 -0.16599999 -0.56 1
2.2119999 -0.16500001 -0.55800003 1
2.2 -0.164 -0.55800003 1
2.187 -0.163 -0.55900002 1
2.1719999 -0.162 -0.55800003 1
2.1600001 -0.161 -0.55800003 1
2.145 -0.16 -0.55800003 1
2.1270001 -0.15899999 -0.55599999 1
2.1099999 -0.15800001 -0.55500001 1
2.098 -0.15700001 -0.55500001 1
2.0869999 -0.156 -0.55500001 1
2.073 -0.155 -0.55500001 1
2.0539999 -0.154 -0.55299997 1
2.0409999 -0.153 -0.55199999 1
2.027 -0.152 -0.551 1
2.02 -0.15099999 -0.55199999 1
2.013 -0.15099999 -0.55400002 1
2 -0.15000001 -0.55299997 1
1.99 -0.149 -0.55299997 1
1.987 -0.149 -0.55500001 1
1.961 -0.147 -0.55000001 1
1.952 -0.146 -0.551 1
1.9400001 -0.145 -0.55000001 1
1.936 -0.14399999 -0.551 1
1.9220001 -0.14300001 -0.55000001 1
1.915 -0.14300001 -0.551 1
1.897 -0.141 -0.54799998 1
1.886 -0.14 -0.54699999 1
1.882 -0.14 -0.54900002 1
1.8710001 -0.139 -0.54799998 1
1.86 -0.138 -0.54699999 1
1.8559999 -0.13699999 -0.54799998 1
1.842 -0.13600001 -0.54699999 1
1.832 -0.13500001 -0.546 1
1.829 -0.13500001 -0.54699999 1
1.823 -0.134 -0.54799998 1
1.812 -0.133 -0.54699999 1
1.804 -0.132 -0.546 1
1.795 -0.131 -0.546 1
1.784 -0.13 -0.54500002 1
1.784 -0.13 -0.54699999 1
1.765 -0.12800001 -0.54299998 1
1.763 -0.12800001 -0.54500002 1
1.751 -0.127 -0.54299998 1
1.739 -0.126 -0.54100001 1
1.735 -0.125 -0.542 1
1.73 -0.125 -0.542 1
1.724 -0.124 -0.542 1
1.717 -0.123 -0.542 1
1.71 -0.122 -0.542 1
1.701 -0.121 -0.54100001 1
1.693 -0.12 -0.54000002 1
1.692 -0.12 -0.54100001 1
1.6849999 -0.119 -0.54100001 1
1.678 -0.118 -0.54000002 1
1.6720001 -0.118 -0.54000002 1
1.671 -0.117 -0.54100001 1
1.663 -0.116 -0.54000002 1
1.645 -0.115 -0.53600001 1
1.645 -0.114 -0.53799999 1
1.642 -0.114 -0.53799999 1
1.633 -0.113 -0.537 1
1.628 -0.112 -0.537 1
1.624 -0.111 -0.537 1
1.614 -0.11 -0.53500003 1
1.614 -0.11 -0.53600001 1
1.612 -0.109 -0.537 1
1.608 -0.109 -0.537 1
1.6 -0.108 -0.53600001 1
1.595 -0.107 -0.53500003 1
1.594 -0.107 -0.53600001 1
1.5930001 -0.106 -0.537 1
1.586 -0.105 -0.53600001 1
1.579 -0.104 -0.53500003 1
1.576 -0.104 -0.53500003 1
1.574 -0.103 -0.53600001 1
1.568 -0.102 -0.53500003 1
1.5700001 -0.102 -0.537 1
1.567 -0.101 -0.537 1
1.559 -0.1 -0.53500003 1
1.558 -0.1 -0.53600001 1
1.55 -0.098999999 -0.53399998 1
1.553 -0.098999999 -0.53600001 1
1.544 -0.097999997 -0.53399998 1
1.545 -0.097000003 -0.53500003 1
1.5420001 -0.097000003 -0.53500003 1
1.538 -0.096000001 -0.53500003 1
1.539 -0.094999999 -0.53600001 1
1.534 -0.094999999 -0.53500003 1
1.534 -0.093999997 -0.53600001 1
1.5190001 -0.093000002 -0.53200001 1
1.52 -0.092 -0.53299999 1
1.525 -0.092 -0.53500003 1
1.522 -0.090999998 -0.53500003 1
1.516 -0.090000004 -0.53299999 1
1.515 -0.090000004 -0.53399998 1
1.515 -0.089000002 -0.53500003 1
1.52 -0.089000002 -0.537 1
1.51 -0.088 -0.53399998 1
1.5140001 -0.088 -0.53600001 1
1.507 -0.086999997 -0.53399998 1
1.507 -0.086000003 -0.53500003 1
1.506 -0.086000003 -0.53500003 1
1.507 -0.085000001 -0.53600001 1
1.493 -0.083999999 -0.53100002 1
1.497 -0.083999999 -0.53299999 1
1.497 -0.082999997 -0.53399998 1
1.497 -0.082999997 -0.53399998 1
1.4960001 -0.082000002 -0.53399998 1
1.4910001 -0.081 -0.53299999 1
1.495 -0.081 -0.53399998 1
1.4960001 -0.079999998 -0.53500003 1
1.495 -0.079999998 -0.53500003 1
1.494 -0.079000004 -0.53500003 1
1.494 -0.079000004 -0.53600001 1
1.489 -0.078000002 -0.53399998 1
1.489 -0.077 -0.53399998 1
1.484 -0.075999998 -0.53299999 1
1.488 -0.075999998 -0.53399998 1
1.483 -0.075000003 -0.53299999 1
1.488 -0.075000003 -0.53500003 1
1.4809999 -0.074000001 -0.53200001 1
1.483 -0.072999999 -0.53299999 1
1.488 -0.072999999 -0.53500003 1
1.4859999 -0.071999997 -0.53399998 1
1.488 -0.071999997 -0.53500003 1
1.4859999 -0.071000002 -0.53399998 1
1.488 -0.071000002 -0.53500003 1
1.485 -0.07 -0.53399998 1
1.484 -0.068999998 -0.53299999 1
1.489 -0.068999998 -0.53500003 1
1.4859999 -0.068000004 -0.53399998 1
1.483 -0.067000002 -0.53299999 1
1.489 -0.067000002 -0.53500003 1
1.4859999 -0.066 -0.53399998 1
1.485 -0.066 -0.53299999 1
1.4910001 -0.064999998 -0.53500003 1
1.494 -0.064999998 -0.53600001 1
1.49 -0.064000003 -0.53399998 1
1.493 -0.064000003 -0.53500003 1
1.49 -0.063000001 -0.53399998 1
1.497 -0.063000001 -0.53600001 1
1.495 -0.061999999 -0.53500003 1
1.492 -0.061000001 -0.53299999 1
1.494 -0.061000001 -0.53399998 1
1.4910001 -0.059999999 -0.53200001 1
1.4910001 -0.059 -0.53200001 1
1.492 -0.059 -0.53200001 1
1.505 -0.057999998 -0.53600001 1
1.4960001 -0.057 -0.53200001 1
1.507 -0.057 -0.53600001 1
1.515 -0.057 -0.53799999 1
1.505 -0.056000002 -0.53399998 1
1.5190001 -0.056000002 -0.53799999 1
1.5089999 -0.055 -0.53399998 1
1.516 -0.054000001 -0.53600001 1
1.5140001 -0.054000001 -0.53399998 1
1.515 -0.052999999 -0.53399998 1
1.526 -0.052999999 -0.537 1
1.52 -0.052000001 -0.53500003 1
1.528 -0.052000001 -0.537 1
1.5319999 -0.050999999 -0.537 1
1.534 -0.050000001 -0.537 1
1.535 -0.050000001 -0.53600001 1
1.538 -0.048999999 -0.537 1
1.5369999 -0.048 -0.53600001 1
1.54 -0.048 -0.53600001 1
1.535 -0.046999998 -0.53299999 1
1.545 -0.046999998 -0.53600001 1
1.548 -0.046 -0.53600001 1
1.548 -0.046 -0.53500003 1
1.5549999 -0.045000002 -0.53600001 1
1.558 -0.045000002 -0.53600001 1
1.5599999 -0.044 -0.53600001 1
1.559 -0.043000001 -0.53399998 1
1.562 -0.043000001 -0.53399998 1
1.566 -0.041999999 -0.53500003 1
1.564 -0.041000001 -0.53299999 1
1.577 -0.041000001 -0.53600001 1
1.5829999 -0.041000001 -0.537 1
1.579 -0.039999999 -0.53399998 1
1.591 -0.039000001 -0.537 1
1.594 -0.039000001 -0.537 1
1.595 -0.037999999 -0.53600001 1
1.599 -0.037999999 -0.53600001 1
1.601 -0.037 -0.53500003 1
1.61 -0.035999998 -0.537 1
1.615 -0.035999998 -0.537 1
1.622 -0.035 -0.53799999 1
1.626 -0.035 -0.53799999 1
1.631 -0.034000002 -0.53799999 1
1.632 -0.034000002 -0.537 1
1.646 -0.033 -0.54000002 1
1.6440001 -0.032000002 -0.53799999 1
1.651 -0.032000002 -0.53799999 1
1.656 -0.030999999 -0.53799999 1
1.676 -0.030999999 -0.54299998 1
1.669 -0.029999999 -0.53899997 1
1.683 -0.029999999 -0.542 1
1.687 -0.028999999 -0.542 1
1.691 -0.028999999 -0.54100001 1
1.7 -0.028000001 -0.542 1
1.7029999 -0.027000001 -0.54100001 1
1.7079999 -0.027000001 -0.54100001 1
1.717 -0.026000001 -0.542 1
1.725 -0.026000001 -0.54299998 1
1.733 -0.025 -0.54299998 1
1.74 -0.025 -0.54400003 1
1.747 -0.024 -0.54400003 1
1.7539999 -0.023 -0.54400003 1
1.76 -0.023 -0.54400003 1
1.768 -0.022 -0.54400003 1
1.772 -0.022 -0.54299998 1
1.791 -0.021 -0.54699999 1
1.791 -0.021 -0.54500002 1
1.799 -0.02 -0.54500002 1
1.8049999 -0.018999999 -0.54500002 1
1.8150001 -0.018999999 -0.54500002 1
1.821 -0.017999999 -0.54500002 1
1.835 -0.017999999 -0.54699999 1
1.841 -0.017000001 -0.546 1
1.85 -0.017000001 -0.54699999 1
1.868 -0.016000001 -0.54900002 1
1.8710001 -0.016000001 -0.54799998 1
1.878 -0.015 -0.54699999 1
1.8940001 -0.014 -0.54900002 1
1.895 -0.014 -0.54699999 1
1.91 -0.013 -0.54900002 1
1.923 -0.013 -0.55000001 1
1.928 -0.012 -0.54900002 1
1.9400001 -0.011 -0.54900002 1
1.956 -0.011 -0.551 1
1.964 -0.0099999998 -0.551 1
1.9809999 -0.0099999998 -0.55299997 1
1.993 -0.0089999996 -0.55299997 1
2 -0.0089999996 -0.55199999 1
2.0109999 -0.0080000004 -0.55199999 1
2.027 -0.0080000004 -0.55400002 1
2.0380001 -0.0070000002 -0.55299997 1
2.049 -0.0060000001 -0.55400002 1
2.0650001 -0.0060000001 -0.55500001 1
2.0780001 -0.0049999999 -0.55500001 1
2.0940001 -0.0049999999 -0.55599999 1
2.108 -0.0040000002 -0.55699998 1
2.1229999 -0.0040000002 -0.55699998 1
2.1340001 -0.003 -0.55699998 1
2.148 -0.0020000001 -0.55699998 1
2.1659999 -0.0020000001 -0.55800003 1
2.178 -0.001 -0.55800003 1
2.197 -0.001 -0.56 1
2.2130001 0 -0.56 1
2.221 0 -0.55800003 1
2.244 0 -0.56099999 1
2.2579999 0.001 -0.56 1
2.277 0.001 -0.56099999 1
2.2909999 0.0020000001 -0.56099999 1
2.3080001 0.0020000001 -0.56099999 1
2.326 0.003 -0.56199998 1
2.345 0.003 -0.56300002 1
2.368 0.0040000002 -0.56400001 1
2.3889999 0.0040000002 -0.565 1
2.4100001 0.0049999999 -0.56599998 1
2.4349999 0.0060000001 -0.56800002 1
2.4549999 0.0060000001 -0.56800002 1
2.48 0.0070000002 -0.56999999 1
2.4949999 0.0070000002 -0.56900001 1
2.5179999 0.0080000004 -0.56999999 1
2.546 0.0080000004 -0.57099998 1
2.5669999 0.0089999996 -0.57200003 1
2.5940001 0.0089999996 -0.57300001 1
2.6170001 0.0099999998 -0.574 2
2.6459999 0.0099999998 -0.57499999 2
2.6700001 0.011 -0.57599998 2
2.7 0.011 -0.57700002 2
2.7349999 0.012 -0.57999998 2
2.757 0.012 -0.57999998 2
2.779 0.013 -0.579 2
2.8150001 0.013 -0.58099997 2
2.9230001 0.014 -0.59799999 1
2.9879999 0.015 -0.60600001 2
2.9909999 0.015 -0.60100001 2
3.0320001 0.016000001 -0.60399997 2
3.086 0.017000001 -0.60900003 2
3.1099999 0.017000001 -0.60799998 2
3.1210001 0.017000001 -0.60399997 1
3.187 0.017999999 -0.611 2
3.2309999 0.017999999 -0.61299998 1
3.3570001 0.018999999 -0.63099998 2
3.2590001 0.018999999 -0.60600001 2
3.3610001 0.02 -0.61900002 2
3.335 0.02 -0.60799998 2
3.411 0.021 -0.61500001 2
3.362 0.02 -0.60000002 2
3.4100001 0.021 -0.602 2
3.4790001 0.021 -0.60699999 2
3.5179999 0.022 -0.60699999 2
3.6300001 0.023 -0.61900002 3
3.6289999 0.023 -0.61199999 2
3.677 0.023 -0.61299998 2
3.75 0.023 -0.61799997 2
3.826 0.024 -0.62300003 2
3.8570001 0.024 -0.62 2
3.9360001 0.025 -0.625 2
3.967 0.025 -0.62199998 2
4.0289998 0.025 -0.62400001 3
4.2160001 0.026000001 -0.64499998 3
4.1799998 0.026000001 -0.63099998 4
4.2360001 0.026000001 -0.63099998 4
4.3319998 0.026000001 -0.63700002 3
4.414 0.026000001 -0.63999999 3
4.4910002 0.026000001 -0.64200002 3
4.5749998 0.027000001 -0.64499998 3
4.6529999 0.027000001 -0.64600003 3
4.7389998 0.027000001 -0.64899999 4
4.8340001 0.027000001 -0.65200001 4
4.9629998 0.027000001 -0.65899998 4
5.0560002 0.027000001 -0.662 4
5.1789999 0.027000001 -0.667 4
5.3130002 0.027000001 -0.67299998 4
5.4289999 0.027000001 -0.67699999 4
5.5640001 0.027000001 -0.68300003 4
5.7160001 0.027000001 -0.69 4
5.882 0.027000001 -0.69800001 5
6.0139999 0.027000001 -0.70099998 6
6.1890001 0.027000001 -0.70899999 4
6.3499999 0.026000001 -0.71399999 4
6.5349998 0.026000001 -0.72100002 3
6.7189999 0.025 -0.72799999 4
6.9159999 0.025 -0.73500001 4
7.1209998 0.024 -0.74199998 5
7.3610001 0.024 -0.75199997 5
7.6329999 0.023 -0.764 5
7.8559999 0.022 -0.76999998 5
8.1140003 0.021 -0.778 4
8.4209995 0.02 -0.79000002 4
8.724 0.017999999 -0.80000001 4
9.0240002 0.017000001 -0.80900002 5
9.316 0.015 -0.81599998 5
9.6719999 0.013 -0.82700002 4
10.056 0.011 -0.838 4
10.505 0.0089999996 -0.85399997 3
10.976 0.0060000001 -0.86900002 3
11.441 0.003 -0.88200003 3
11.991 0 -0.89999998 4
12.47 -0.003 -0.90899998 3
13.109 -0.0070000002 -0.92799997 3
13.82 -0.012 -0.949 3
14.552 -0.017000001 -0.97000003 3
15.376 -0.023 -0.99199998 2
0 0 0 2
0 0 0 2
0 0 0 2
19.556999 -0.057 -1.097 1
0 0 0 0
0 0 0 1
0 0 0 3
29.525 -0.13 -1.4069999 3
0 0 0 20
41.314999 -0.215 -1.795 42
41.344002 -0.23199999 -1.711 57
0 0 0 6
36.279999 -0.234 -1.349 35
36.289001 -0.249 -1.275 65
36.314999 -0.26499999 -1.198 62
36.327 -0.28099999 -1.122 48
36.332001 -0.29699999 -1.0470001 47
36.332001 -0.31299999 -0.972 49
36.347 -0.33000001 -0.89600003 48
36.365002 -0.347 -0.81999999 43
36.356998 -0.36399999 -0.745 42
36.372002 -0.382 -0.66900003 46
36.396999 -0.40099999 -0.59100002 49
36.388 -0.41800001 -0.51599997 59
36.380001 -0.43599999 -0.442 89
36.403999 -0.45500001 -0.36399999 69
36.41 -0.47400001 -0.29100001 19
36.488998 -0.49399999 -0.215 7
36.528 -0.514 -0.138 5
36.488998 -0.53299999 -0.061999999 2
0 0 0 27
45.952999 -0.72100002 0.109 24
45.909 -0.74599999 0.205 33
45.896 -0.77100003 0.30000001 90
45.932999 -0.79799998 0.39500001 81
45.925999 -0.82499999 0.49000001 24
45.808998 -0.84899998 0.58399999 59
45.82 -0.87599999 0.67799997 112
0 0 0 3
42.43 -0.86199999 0.801 22
42.423 -0.88800001 0.88800001 55
42.448002 -0.91399997 0.97399998 50
42.459 -0.94 1.061 45
42.466 -0.96700001 1.148 47
42.436001 -0.99400002 1.235 50
42.530998 -1.023 1.326 35
42.551998 -1.051 1.413 14
42.563999 -1.08 1.5 10
42.452999 -1.104 1.58 18
42.505001 -1.1339999 1.668 15
0 0 0 0
0 0 0 3
38.235001 -1.097 1.73 5
37.941002 -1.115 1.793 8
37.185001 -1.118 1.832 8
36.780998 -1.132 1.885 8
36.483002 -1.148 1.943 6
36.272999 -1.168 2.0039999 6
36.040001 -1.186 2.063 9
35.851002 -1.206 2.1240001 13
35.549999 -1.222 2.177 13
35.212002 -1.2359999 2.2249999 20
35.009998 -1.255 2.2809999 25
34.787998 -1.273 2.3340001 21
34.598999 -1.2920001 2.3889999 17
34.483002 -1.313 2.4489999 21
34.146 -1.327 2.4920001 17
33.928001 -1.344 2.5409999 19
33.838001 -1.367 2.5999999 31
33.846001 -1.393 2.6659999 19
33.669998 -1.4119999 2.7160001 40
33.644001 -1.437 2.7780001 57
33.659 -1.464 2.8440001 45
33.657001 -1.4910001 2.908 49
33.675999 -1.5190001 2.974 39
33.726002 -1.548 3.0409999 31
33.807999 -1.579 3.112 10
34.247002 -1.628 3.2179999 13
34.067001 -1.647 3.2639999 10
33.789001 -1.661 3.3010001 14
33.708 -1.6849999 3.3559999 52
33.714001 -1.7130001 3.418 57
33.703999 -1.742 3.48 62
33.727001 -1.771 3.546 58
33.716 -1.798 3.6059999 59
33.743999 -1.829 3.6700001 61
33.728001 -1.8559999 3.7290001 59
33.737 -1.886 3.7909999 61
33.740002 -1.915 3.8540001 61
33.744999 -1.944 3.914 61
33.755001 -1.974 3.9749999 60
33.750999 -2.003 4.0349998 60
33.768002 -2.0339999 4.0970001 59
33.77 -2.063 4.1570001 57
33.768002 -2.0929999 4.2160001 58
33.779999 -2.1229999 4.277 55
33.777 -2.1530001 4.336 53
33.790001 -2.1830001 4.395 45
33.785 -2.214 4.4549999 54
33.794998 -2.244 4.513 56
33.799 -2.2750001 4.572 57
33.813999 -2.3069999 4.6329999 58
33.812 -2.3369999 4.6900001 56
33.814999 -2.369 4.7480001 58
33.82 -2.4000001 4.8060002 55
33.844002 -2.4330001 4.8670001 47
33.831001 -2.4630001 4.9219999 58
33.841 -2.4949999 4.98 56
33.835999 -2.526 5.0349998 55
33.846001 -2.5580001 5.0939999 58
33.855999 -2.5899999 5.151 61
33.858002 -2.622 5.2059999 57
33.856998 -2.6530001 5.2610002 56
33.869999 -2.6860001 5.3179998 56
33.862999 -2.7179999 5.3720002 55
33.862999 -2.75 5.4260001 56
33.883999 -2.783 5.4840002 58
33.896999 -2.8169999 5.54 42
33.944 -2.852 5.5999999 5
34.014 -2.8900001 5.665 4
34.062 -2.927 5.7259998 2
33.993999 -2.9530001 5.7680001 2
34.035999 -2.99 5.8270001 2
34.019001 -3.0209999 5.8779998 2
0 0 0 0
0 0 0 2
36.049999 -3.3039999 6.3909998 2
34.084 -3.1559999 6.0949998 2
34.118 -3.1919999 6.151 3
34.231998 -3.2360001 6.223 3
34.323002 -3.2780001 6.29 3
34.317001 -3.3110001 6.3390002 4
34.240002 -3.336 6.3740001 4
34.014 -3.346 6.381 11
33.855 -3.3629999 6.3990002 16
33.707001 -3.381 6.4190001 22
33.542999 -3.3970001 6.4349999 26
33.380001 -3.4119999 6.4510002 26
33.189999 -3.425 6.46 26
33.000999 -3.438 6.4689999 26
32.803001 -3.4489999 6.4749999 24
32.618 -3.461 6.4829998 23
32.417999 -3.47 6.487 23
32.233002 -3.4820001 6.493 23
32.051998 -3.493 6.5 24
0 0 0 1
26.299 -2.9170001 5.402 10
26.212999 -2.9330001 5.4190001 19
26.174 -2.9530001 5.4439998 24
26.122999 -2.973 5.467 25
26.094999 -2.9949999 5.494 29
26.076 -3.0179999 5.5240002 33
26.048 -3.039 5.5500002 34
26.021999 -3.0610001 5.5770001 37
26 -3.0840001 5.6040001 39
25.99 -3.1070001 5.6329999 41
25.964001 -3.1289999 5.6589999 39
25.958 -3.1530001 5.6890001 43
25.948999 -3.1760001 5.717 45
25.944 -3.2 5.7470002 46
25.927 -3.223 5.7729998 48
25.916 -3.2460001 5.8010001 50
25.917999 -3.2709999 5.8309999 39
25.905001 -3.2939999 5.8579998 50
25.909 -3.3180001 5.888 42
25.899 -3.342 5.914 52
25.905001 -3.3670001 5.9439998 51
25.895 -3.3900001 5.9699998 52
25.896999 -3.414 5.9980001 41
25.899 -3.438 6.026 42
25.899 -3.4630001 6.0539999 45
25.914 -3.4890001 6.0840001 35
25.912001 -3.513 6.1110001 41
25.927 -3.5380001 6.1409998 40
25.931 -3.563 6.1680002 40
25.938999 -3.5880001 6.1960001 38
25.974001 -3.6170001 6.23 31
25.976 -3.641 6.256 35
25.99 -3.6659999 6.2839999 35
26.01 -3.6919999 6.3140001 34
26.031 -3.7190001 6.3429999 31
26.054001 -3.7449999 6.3730001 29
26.079 -3.7720001 6.4029999 26
26.117001 -3.8010001 6.4349999 24
26.171 -3.832 6.473 19
26.466999 -3.8989999 6.5700002 15
26.768999 -3.967 6.6680002 29
26.719999 -3.9820001 6.6789999 29
26.643 -3.9949999 6.6820002 28
26.566999 -4.006 6.6849999 32
26.489 -4.0180001 6.6880002 25
26.406 -4.0279999 6.6880002 30
26.337999 -4.0409999 6.6919999 29
26.250999 -4.0500002 6.691 26
26.177 -4.0599999 6.6919999 27
26.110001 -4.072 6.6950002 23
26.030001 -4.0819998 6.6950002 29
25.951 -4.0910001 6.6929998 29
25.899 -4.105 6.6989999 26
25.822001 -4.1139998 6.698 28
25.773001 -4.1279998 6.7030001 29
25.702999 -4.138 6.7030001 29
25.652 -4.1500001 6.7069998 26
25.601 -4.1620002 6.711 25
25.539 -4.1729999 6.711 24
25.472 -4.1820002 6.71 24
25.417999 -4.1929998 6.7119999 24
25.367001 -4.2049999 6.7140002 25
25.325001 -4.2189999 6.7179999 27
25.264999 -4.2280002 6.7179999 31
25.209999 -4.2379999 6.7179999 31
25.166 -4.2509999 6.7210002 27
25.124001 -4.2620001 6.724 26
25.087 -4.2750001 6.7280002 26
25.039 -4.2859998 6.7280002 31
25.000999 -4.2989998 6.7309999 31
24.941999 -4.3080001 6.7280002 25
24.906 -4.3200002 6.73 29
24.856001 -4.329 6.7290001 30
24.819 -4.3410001 6.7309999 25
24.778 -4.3509998 6.7309999 27
24.747999 -4.3639998 6.7340002 24
24.694 -4.3720002 6.73 30
24.666 -4.3850002 6.7329998 25
24.611 -4.3920002 6.7280002 29
24.597 -4.4070001 6.7340002 30
24.575001 -4.4200001 6.7379999 27
24.535 -4.4289999 6.7360001 26
24.497 -4.4390001 6.7350001 31
24.489 -4.454 6.7410002 27
24.457001 -4.4640002 6.7410002 27
24.422001 -4.474 6.7399998 31
24.408001 -4.4879999 6.743 32
24.389999 -4.5 6.7449999 27
24.355 -4.5100002 6.743 33
24.339001 -4.5229998 6.7449999 29
24.311001 -4.5320001 6.744 27
24.299 -4.5450001 6.7459998 27
24.267 -4.5539999 6.743 30
24.250999 -4.5650001 6.744 26
24.231001 -4.5760002 6.744 27
24.216999 -4.5879998 6.7449999 28
24.202 -4.599 6.7459998 30
24.173 -4.6079998 6.7420001 30
24.167 -4.6199999 6.744 30
24.153999 -4.632 6.743 25
24.141001 -4.6430001 6.743 30
24.129 -4.6529999 6.743 30
24.132 -4.6669998 6.7459998 27
24.114 -4.677 6.744 30
24.103001 -4.6869998 6.743 25
24.093 -4.698 6.7420001 29
24.093 -4.71 6.744 29
24.087 -4.7210002 6.743 30
24.089001 -4.7329998 6.7449999 26
24.082001 -4.744 6.743 31
24.083 -4.756 6.744 30
24.08 -4.7670002 6.743 29
0 0 0 2
18.284 -3.6359999 5.119 6
18.253 -3.638 5.1100001 11
18.223 -3.6400001 5.1009998 15
18.197001 -3.6429999 5.092 16
18.181 -3.648 5.086 17
18.163 -3.652 5.0799999 19
18.136 -3.654 5.0700002 20
18.127001 -3.6600001 5.066 20
18.108 -3.6630001 5.0580001 22
18.101999 -3.6689999 5.0539999 23
18.083 -3.6719999 5.046 24
18.073 -3.6760001 5.0409999 24
18.058001 -3.6800001 5.033 25
18.046 -3.684 5.027 26
18.044001 -3.6900001 5.0229998 22
18.033001 -3.694 5.0159998 27
18.007999 -3.6949999 5.0050001 31
18.016001 -3.7030001 5.0029998 30
17.997 -3.704 4.993 31
17.993 -3.7090001 4.9879999 32
17.988001 -3.7130001 4.9809999 23
17.966999 -3.7149999 4.9699998 31
17.958 -3.7179999 4.9629998 34
17.978001 -3.727 4.9629998 25
17.973 -3.7309999 4.9559999 26
17.955999 -3.7320001 4.9450002 35
17.952999 -3.7360001 4.9380002 34
17.941 -3.7379999 4.928 35
17.940001 -3.7409999 4.9219999 36
17.943001 -3.747 4.915 37
17.941999 -3.75 4.908 37
17.926001 -3.75 4.8969998 37
