# .PCD v0.7 - Point Cloud Data file format
VERSION 0.7
FIELDS x y z intensity
SIZE 4 4 4 4
TYPE F F F F
COUNT 1 1 1 1
WIDTH 1800
HEIGHT 1
VIEWPOINT 0 0 0 1 0 0 0
POINTS 1800
DATA ascii
0 0 0 0
0 0 0 0
0 0 0 0
0 0 0 0
0 0 0 0
0 0 0 1
0 0 0 0
0 0 0 0
0 0 0 0
0 0 0 36
33.467999 -0.229 1.214 70
33.471001 -0.22400001 1.285 115
33.464001 -0.21799999 1.355 112
33.473 -0.213 1.426 112
33.469002 -0.20900001 1.497 118
33.464001 -0.204 1.566 109
33.470001 -0.2 1.637 110
33.480999 -0.19599999 1.709 83
33.463001 -0.192 1.777 112
33.465 -0.18799999 1.848 115
33.457001 -0.185 1.918 109
33.463001 -0.18099999 1.987 101
33.469002 -0.17900001 2.0580001 99
33.471001 -0.176 2.128 99
33.484001 -0.17399999 2.1989999 86
33.480999 -0.171 2.2690001 89
33.483002 -0.169 2.3399999 84
33.465 -0.168 2.408 92
33.470001 -0.16599999 2.477 93
33.473 -0.16500001 2.5469999 99
33.471001 -0.164 2.6159999 94
33.490002 -0.163 2.687 97
33.478001 -0.162 2.756 95
33.490002 -0.162 2.826 94
33.494999 -0.161 2.8970001 76
33.474998 -0.161 2.964 100
33.493 -0.162 3.033 98
33.484001 -0.162 3.1010001 99
33.502998 -0.163 3.171 96
33.523998 -0.164 3.2420001 86
33.551998 -0.16500001 3.3139999 60
33.580002 -0.167 3.3840001 34
33.612 -0.169 3.4549999 9
0 0 0 0
0 0 0 4
0 0 0 0
0 0 0 0
0 0 0 5
51.896999 -0.28200001 5.9640002 7
51.854 -0.287 6.0630002 5
0 0 0 0
0 0 0 0
0 0 0 2
0 0 0 0
0 0 0 0
0 0 0 0
0 0 0 2
0 0 0 0
0 0 0 2
38.257 -0.259 5.2309999 2
38.294998 -0.266 5.3109999 2
0 0 0 0
0 0 0 0
0 0 0 2
38.264999 -0.292 5.6020002 2
38.314999 -0.29899999 5.6820002 2
38.375 -0.30700001 5.7639999 2
0 0 0 0
0 0 0 2
0 0 0 0
0 0 0 0
0 0 0 0
0 0 0 0
0 0 0 2
0 0 0 0
0 0 0 0
0 0 0 2
33.799 -0.354 5.7729998 2
0 0 0 0
0 0 0 2
0 0 0 0
0 0 0 2
0 0 0 0
0 0 0 2
33.772999 -0.419 6.198 2
0 0 0 0
0 0 0 2
33.823002 -0.449 6.3870001 2
34.110001 -0.463 6.5 2
34.095001 -0.47299999 6.5570002 3
34.030998 -0.48300001 6.6040001 4
33.910999 -0.493 6.6399999 4
33.695999 -0.5 6.6550002 11
33.532001 -0.50800002 6.6799998 19
33.376999 -0.51700002 6.7069998 24
33.151001 -0.52499998 6.7179999 28
32.943001 -0.53200001 6.7309999 27
32.717999 -0.54000002 6.7399998 30
32.472 -0.54799998 6.7449999 23
32.237 -0.55500001 6.7490001 23
32.028 -0.56300002 6.7579999 24
31.790001 -0.56999999 6.7600002 25
31.579 -0.57800001 6.7680001 28
31.375 -0.58600003 6.7740002 27
31.163 -0.59299999 6.7779999 28
30.971001 -0.60100001 6.7859998 25
30.775999 -0.60900003 6.7919998 29
30.559999 -0.61699998 6.7940001 29
30.381001 -0.625 6.802 27
30.215 -0.63300002 6.8130002 26
30.028999 -0.64099997 6.8169999 27
29.851999 -0.64899999 6.8239999 24
0 0 0 3
26.025 -0.58700001 6.0289998 9
26.002001 -0.59600002 6.0630002 14
25.976 -0.60600001 6.0960002 17
25.909 -0.616 6.1199999 17
25.907 -0.62699997 6.158 19
25.892 -0.63700002 6.1919999 21
25.881001 -0.64700001 6.2280002 23
25.868999 -0.65799999 6.263 23
25.844999 -0.66799998 6.2950001 25
25.843 -0.68000001 6.3319998 26
25.802999 -0.69 6.3600001 28
25.795 -0.70099998 6.3940001 28
25.799 -0.713 6.4320002 30
25.795 -0.72399998 6.467 31
25.783001 -0.73500001 6.5 28
25.76 -0.745 6.5300002 32
25.768999 -0.75700003 6.5669999 33
25.75 -0.76800001 6.5970001 33
25.754 -0.77999997 6.6329999 29
25.73 -0.79100001 6.6599998 34
25.733999 -0.80299997 6.6950002 38
25.725 -0.81400001 6.7270002 37
25.708 -0.82499999 6.757 35
25.714001 -0.838 6.7909999 39
25.702999 -0.84899998 6.8210001 37
25.698999 -0.861 6.8520002 37
25.679001 -0.87300003 6.8790002 36
25.65 -0.884 6.9039998 35
25.601 -0.89499998 6.9219999 35
25.511999 -0.903 6.9299998 36
25.431999 -0.912 6.9390001 30
25.327 -0.921 6.941 34
25.233999 -0.93000001 6.9460001 27
25.139999 -0.93800002 6.9489999 26
25.02 -0.94599998 6.9450002 25
24.924 -0.95499998 6.947 29
24.834999 -0.963 6.9510002 28
24.739 -0.972 6.9520001 30
24.671 -0.98100001 6.96 27
24.577999 -0.98799998 6.961 25
24.474001 -0.99599999 6.9580002 23
24.392 -1.005 6.961 25
24.299999 -1.013 6.961 30
24.23 -1.022 6.967 25
24.143999 -1.031 6.967 26
24.080999 -1.039 6.974 27
23.997999 -1.048 6.974 33
23.926001 -1.057 6.9759998 29
23.837 -1.0650001 6.974 27
23.771999 -1.073 6.9790001 26
23.677 -1.081 6.974 30
23.610001 -1.089 6.9770002 31
23.540001 -1.097 6.9780002 32
23.478001 -1.1059999 6.9819999 33
23.427999 -1.1160001 6.9879999 27
23.361 -1.124 6.9889998 30
23.299999 -1.133 6.9910002 27
23.236 -1.141 6.9920001 26
23.172001 -1.15 6.993 30
23.108 -1.158 6.993 26
23.040001 -1.1670001 6.9920001 32
22.999001 -1.176 6.9990001 25
22.927 -1.183 6.9949999 30
22.872999 -1.191 6.9970002 26
22.820999 -1.2 6.9980001 26
22.76 -1.2079999 6.9970002 31
22.708 -1.217 6.9980001 32
22.656 -1.225 6.9990001 26
22.618999 -1.234 7.0040002 26
22.57 -1.243 7.0050001 31
22.514 -1.251 7.0040002 27
22.465 -1.2589999 7.0040002 31
22.417999 -1.268 7.0050001 32
22.374001 -1.276 7.0050001 28
22.339001 -1.285 7.0089998 26
22.289 -1.293 7.007 34
22.232 -1.301 7.0029998 33
22.207001 -1.3099999 7.0089998 36
22.165001 -1.319 7.0089998 34
22.122 -1.327 7.0079999 31
22.098 -1.337 7.013 35
22.07 -1.345 7.0159998 32
22.032 -1.354 7.0159998 33
22.003 -1.363 7.0180001 34
21.988001 -1.372 7.0250001 29
21.945 -1.381 7.0219998 28
21.908001 -1.388 7.0209999 28
21.860001 -1.396 7.0159998 31
21.85 -1.406 7.0219998 32
21.808001 -1.413 7.0180001 30
21.783001 -1.4220001 7.02 30
21.759001 -1.431 7.0209999 25
21.715 -1.438 7.0149999 30
21.701 -1.448 7.0190001 31
21.698999 -1.4579999 7.026 26
21.656 -1.465 7.02 30
21.645 -1.474 7.0240002 25
21.618 -1.483 7.0219998 26
21.594999 -1.4910001 7.0219998 33
21.573999 -1.499 7.0209999 27
21.566 -1.5089999 7.0250001 28
21.535 -1.516 7.0209999 34
21.521999 -1.525 7.0219998 34
21.507999 -1.534 7.0219998 34
21.500999 -1.543 7.0250001 28
21.464001 -1.549 7.0180001 35
21.48 -1.561 7.027 29
21.465 -1.5700001 7.026 35
21.444 -1.577 7.0229998 36
21.434 -1.586 7.0229998 28
21.424999 -1.595 7.0229998 29
21.423 -1.603 7.0250001 28
21.417 -1.613 7.0250001 29
21.403 -1.62 7.0229998 35
21.396 -1.6289999 7.0219998 34
21.402 -1.6390001 7.026 35
21.396 -1.648 7.0250001 29
21.385 -1.655 7.0229998 33
21.386 -1.665 7.0229998 28
21.378 -1.673 7.0209999 32
21.370001 -1.6799999 7.0180001 33
21.395 -1.691 7.026 34
21.386 -1.699 7.0229998 35
21.386 -1.709 7.0219998 33
21.388 -1.717 7.0209999 33
21.392 -1.726 7.0209999 34
21.410999 -1.7359999 7.0250001 28
21.403999 -1.743 7.0209999 36
21.414 -1.752 7.0219998 28
21.413 -1.761 7.0180001 34
21.431999 -1.77 7.0219998 29
21.434 -1.778 7.0190001 35
21.434999 -1.7869999 7.0159998 34
21.455999 -1.7970001 7.0180001 35
21.472 -1.806 7.0190001 28
21.488001 -1.8150001 7.02 27
21.493 -1.824 7.0170002 34
21.504 -1.832 7.0149999 34
21.514 -1.84 7.013 34
21.527 -1.849 7.0110002 35
21.546 -1.859 7.0110002 28
21.572001 -1.868 7.013 28
21.584999 -1.877 7.0110002 33
21.594 -1.885 7.006 33
21.618 -1.8940001 7.007 32
21.648001 -1.904 7.0089998 33
21.66 -1.913 7.0040002 32
21.694 -1.923 7.007 32
21.716999 -1.932 7.006 25
21.736 -1.9400001 7.0029998 30
21.768 -1.95 7.0050001 24
21.775 -1.957 6.9970002 29
21.811001 -1.967 6.9990001 30
21.841 -1.976 6.9980001 32
21.857 -1.985 6.993 31
21.903999 -1.995 6.9970002 25
21.926001 -2.0039999 6.993 30
21.969 -2.0139999 6.9949999 30
21.997999 -2.023 6.9920001 29
22.042999 -2.0320001 6.9949999 30
22.086 -2.0420001 6.9959998 32
22.114 -2.0510001 6.9920001 33
22.145 -2.0599999 6.9879999 34
22.181999 -2.069 6.987 35
22.222 -2.079 6.9860001 29
22.254999 -2.0880001 6.9819999 33
22.290001 -2.0969999 6.9780002 33
22.332001 -2.1059999 6.9770002 33
22.365 -2.1140001 6.973 27
22.412001 -2.1240001 6.9720001 31
22.451 -2.1329999 6.9679999 30
22.495001 -2.142 6.9660001 29
22.558001 -2.1530001 6.9699998 25
22.601 -2.1619999 6.9660001 29
22.652 -2.1719999 6.9650002 25
22.704 -2.1819999 6.9640002 29
22.77 -2.1919999 6.9660001 25
22.826 -2.2030001 6.9650002 29
22.879 -2.2130001 6.9629998 25
22.934 -2.2219999 6.9619999 25
23.014999 -2.234 6.967 27
23.062 -2.243 6.9619999 33
23.108999 -2.2509999 6.9569998 26
23.173 -2.2609999 6.9559999 29
23.243 -2.273 6.9559999 25
23.311001 -2.2820001 6.9559999 30
23.368999 -2.2920001 6.9520001 25
23.441 -2.303 6.9520001 25
23.504999 -2.312 6.9489999 30
23.572001 -2.322 6.947 26
23.632 -2.3310001 6.9419999 31
23.684999 -2.3399999 6.9359999 32
23.750999 -2.349 6.9320002 32
23.830999 -2.3599999 6.9310002 26
23.917 -2.3710001 6.9330001 25
23.999001 -2.382 6.9320002 25
24.073 -2.391 6.9299998 25
24.148001 -2.401 6.9260001 25
24.24 -2.4130001 6.927 30
24.299 -2.4200001 6.9190001 29
24.379999 -2.4300001 6.9159999 30
24.471001 -2.4419999 6.915 24
24.565001 -2.4530001 6.915 26
24.643 -2.4619999 6.9089999 28
24.726999 -2.4719999 6.9060001 27
24.847 -2.4860001 6.9109998 25
24.922001 -2.494 6.9039998 25
25.017 -2.5050001 6.901 29
25.101 -2.5139999 6.895 24
25.193001 -2.5250001 6.8909998 25
25.309999 -2.5369999 6.8930001 24
25.406 -2.5469999 6.8889999 24
25.502001 -2.5569999 6.8850002 22
25.605 -2.5680001 6.881 24
25.716 -2.579 6.881 22
25.822001 -2.5899999 6.8769999 24
25.919001 -2.599 6.8699999 26
26.018 -2.609 6.8639998 22
26.149 -2.622 6.8649998 22
26.267 -2.6329999 6.8629999 23
26.381001 -2.6440001 6.8579998 23
26.486 -2.6530001 6.8520002 24
26.601999 -2.6630001 6.8470001 27
26.743 -2.6760001 6.848 25
26.871 -2.688 6.8449998 25
27.011999 -2.7 6.8449998 26
27.128 -2.71 6.8379998 27
27.257999 -2.721 6.8340001 23
27.403999 -2.734 6.8330002 23
27.539 -2.7449999 6.829 23
27.665001 -2.7550001 6.822 26
27.818001 -2.767 6.8210001 22
27.947001 -2.777 6.8130002 24
28.087 -2.7880001 6.8080001 23
28.221001 -2.7980001 6.8000002 25
28.398001 -2.813 6.802 26
28.559999 -2.825 6.8000002 28
28.695 -2.835 6.79 23
28.854 -2.846 6.7859998 26
29.018999 -2.858 6.7820001 25
29.167999 -2.868 6.7740002 27
29.316999 -2.878 6.7649999 27
29.469 -2.8889999 6.756 23
29.659 -2.902 6.7550001 21
29.82 -2.9130001 6.7470002 23
30.014 -2.9260001 6.7459998 23
30.184 -2.937 6.7379999 26
30.372 -2.9489999 6.7329998 22
30.566 -2.9619999 6.7290001 23
30.745001 -2.9719999 6.7220001 26
30.948 -2.9849999 6.717 22
31.16 -2.9990001 6.7150002 23
31.353001 -3.01 6.7059999 22
31.545 -3.0209999 6.698 24
31.745001 -3.0320001 6.6900001 22
31.962 -3.0439999 6.684 21
32.167999 -3.056 6.6760001 22
32.377998 -3.0680001 6.6669998 21
32.616001 -3.0810001 6.665 23
32.845001 -3.0940001 6.658 22
33.088001 -3.1059999 6.6529999 22
33.297001 -3.1170001 6.6389999 24
33.52 -3.1270001 6.6290002 24
33.762001 -3.1400001 6.6199999 24
33.943001 -3.1459999 6.5999999 23
34.111 -3.151 6.5760002 13
34.296001 -3.1570001 6.5539999 8
34.541 -3.168 6.5430002 3
34.706001 -3.171 6.5159998 3
34.866001 -3.1730001 6.4879999 3
34.587002 -3.135 6.3779998 2
0 0 0 0
0 0 0 0
0 0 0 2
34.306 -3.059 6.0910001 1
0 0 0 2
0 0 0 0
0 0 0 2
34.286999 -3.0020001 5.8509998 1
0 0 0 0
0 0 0 2
0 0 0 0
0 0 0 1
0 0 0 0
0 0 0 0
0 0 0 1
0 0 0 0
0 0 0 0
0 0 0 0
0 0 0 0
0 0 0 0
0 0 0 0
0 0 0 0
0 0 0 0
0 0 0 0
0 0 0 0
0 0 0 0
0 0 0 0
0 0 0 0
0 0 0 0
0 0 0 0
0 0 0 0
0 0 0 0
0 0 0 0
0 0 0 0
0 0 0 0
0 0 0 0
0 0 0 0
0 0 0 0
0 0 0 0
0 0 0 0
0 0 0 0
0 0 0 2
34.023998 -2.3329999 3.6440001 6
33.973 -2.306 3.575 17
33.974998 -2.2839999 3.513 30
33.984001 -2.2609999 3.45 32
33.966999 -2.237 3.385 29
33.973999 -2.2130001 3.323 33
33.969002 -2.1889999 3.2579999 44
33.945999 -2.1630001 3.1919999 45
33.91 -2.1359999 3.1259999 49
33.889999 -2.1099999 3.0599999 47
33.890999 -2.085 2.9960001 49
33.879002 -2.059 2.931 54
33.870998 -2.033 2.8659999 51
33.872002 -2.007 2.803 55
33.866001 -1.9809999 2.7379999 53
33.855 -1.954 2.674 51
33.846001 -1.927 2.609 52
33.854 -1.901 2.546 47
33.849998 -1.874 2.4809999 55
33.853001 -1.846 2.418 39
0 0 0 7
25.804001 -1.365 1.745 15
25.743 -1.341 1.692 20
25.705999 -1.318 1.642 25
25.679001 -1.294 1.59 28
25.639 -1.27 1.54 30
25.617001 -1.247 1.49 31
25.607 -1.225 1.441 34
25.580999 -1.201 1.391 37
25.566999 -1.178 1.342 39
25.552 -1.155 1.293 41
25.534 -1.131 1.244 43
25.524 -1.108 1.196 46
25.518 -1.085 1.147 48
25.500999 -1.061 1.098 51
25.466 -1.036 1.049 50
25.478001 -1.013 1.001 51
25.483 -0.99000001 0.95300001 48
25.474001 -0.96600002 0.90600002 35
25.481001 -0.94199997 0.85799998 17
25.476999 -0.917 0.81 1
0 0 0 0
0 0 0 0
0 0 0 0
0 0 0 0
0 0 0 0
0 0 0 0
0 0 0 0
0 0 0 0
0 0 0 0
0 0 0 1
18.047001 -0.45300001 0.204 1
17.830999 -0.43000001 0.168 1
0 0 0 0
0 0 0 0
0 0 0 0
0 0 0 1
17.108999 -0.32300001 0.0040000002 3
17.111 -0.30500001 -0.026000001 3
17.1 -0.28600001 -0.057 1
17.021999 -0.26699999 -0.088 1
17.047001 -0.249 -0.119 1
17.061001 -0.23100001 -0.15000001 1
17.076 -0.212 -0.182 1
17.155001 -0.19400001 -0.214 1
16.971001 -0.17299999 -0.242 1
17.006001 -0.155 -0.273 1
17.000999 -0.13600001 -0.303 7
17.002001 -0.117 -0.33399999 6
17.025999 -0.097999997 -0.36500001 3
16.992001 -0.078000002 -0.39500001 1
17.056 -0.059 -0.426 1
17.033001 -0.039999999 -0.456 1
17.059 -0.02 -0.48699999 1
17.076 0 -0.51800001 1
17.063 0.018999999 -0.54799998 2
17.117001 0.037999999 -0.57999998 2
17.204 0.059 -0.61299998 2
17.334 0.079999998 -0.648 4
17.419001 0.1 -0.68199998 6
17.704 0.123 -0.72399998 6
17.882 0.145 -0.76200002 7
17.959 0.168 -0.79699999 8
17.834 0.18799999 -0.82200003 5
17.646 0.207 -0.84399998 7
17.622999 0.228 -0.87400001 4
17.549999 0.248 -0.89999998 6
17.171 0.264 -0.91000003 5
0 0 0 5
15.113 0.26899999 -0.85299999 3
14.819 0.28200001 -0.861 3
14.187 0.28799999 -0.84799999 3
13.613 0.29300001 -0.83700001 3
12.984 0.29499999 -0.81999999 3
12.447 0.29899999 -0.80699998 3
12.036 0.30399999 -0.80000001 3
11.648 0.30899999 -0.79400003 3
11.244 0.31200001 -0.78500003 2
10.843 0.315 -0.77499998 3
10.503 0.31799999 -0.76800001 3
10.164 0.32100001 -0.75999999 2
9.8330002 0.32300001 -0.75099999 3
9.5530005 0.32600001 -0.745 3
9.2720003 0.32800001 -0.73799998 3
9.0010004 0.33000001 -0.73199999 3
8.7790003 0.333 -0.72799999 3
8.5340004 0.33500001 -0.72100002 3
8.3179998 0.33700001 -0.71600002 3
8.1009998 0.33899999 -0.70999998 3
7.915 0.34200001 -0.70700002 3
7.7059999 0.34299999 -0.69999999 4
7.5019999 0.34299999 -0.69300002 3
7.3369999 0.345 -0.69 4
7.178 0.347 -0.68599999 3
7.0009999 0.34799999 -0.68000001 3
6.8179998 0.34799999 -0.67299998 3
6.6659999 0.34900001 -0.66799998 3
6.5510001 0.352 -0.66600001 4
6.421 0.35299999 -0.66299999 4
6.3049998 0.35499999 -0.66100001 3
6.1810002 0.35699999 -0.65700001 3
6.0479999 0.35699999 -0.65200001 3
5.9549999 0.359 -0.65100002 3
5.829 0.36000001 -0.64600003 3
5.737 0.36199999 -0.64399999 3
5.632 0.36300001 -0.64099997 3
5.5170002 0.36199999 -0.63599998 3
5.4200001 0.36300001 -0.63200003 3
5.335 0.36500001 -0.63 3
5.2319999 0.36500001 -0.62599999 3
5.1589999 0.36700001 -0.62400001 3
5.086 0.368 -0.62300003 3
4.9959998 0.36899999 -0.61900002 3
4.9229999 0.37 -0.61699998 3
4.8559999 0.37099999 -0.61500001 3
4.7810001 0.37200001 -0.61199999 3
4.684 0.37099999 -0.60699999 3
4.6279998 0.373 -0.60600001 3
4.5700002 0.37400001 -0.60500002 3
4.4990001 0.375 -0.60100001 3
4.4419999 0.37599999 -0.60000002 4
4.3790002 0.37599999 -0.597 5
4.3990002 0.384 -0.60600001 4
4.3439999 0.38499999 -0.60399997 2
4.2410002 0.382 -0.59500003 2
4.2340002 0.38699999 -0.60000002 2
4.1350002 0.38299999 -0.59100002 2
4.092 0.38499999 -0.58999997 2
4.0580001 0.38699999 -0.59100002 2
4.0440001 0.39199999 -0.59399998 2
3.9879999 0.39199999 -0.59100002 2
4.0209999 0.40000001 -0.60100001 3
3.925 0.396 -0.59200001 2
3.9489999 0.40400001 -0.60000002 2
3.8900001 0.403 -0.59600002 3
3.75 0.39399999 -0.579 3
3.7360001 0.39700001 -0.58200002 4
3.71 0.40000001 -0.58200002 4
3.664 0.40000001 -0.57999998 3
3.6589999 0.40400001 -0.583 2
3.608 0.403 -0.579 2
3.55 0.40200001 -0.574 1
3.53 0.40400001 -0.57499999 1
3.4990001 0.405 -0.574 1
3.553 0.41600001 -0.58700001 2
3.434 0.40700001 -0.57200003 2
3.48 0.417 -0.583 2
3.484 0.42300001 -0.588 2
3.4979999 0.42899999 -0.59399998 2
3.4200001 0.42399999 -0.58499998 2
3.3859999 0.42399999 -0.583 2
3.2809999 0.41499999 -0.56800002 2
3.299 0.42199999 -0.57499999 2
3.2509999 0.41999999 -0.56999999 1
3.221 0.421 -0.56800002 1
3.233 0.42699999 -0.574 1
3.28 0.43700001 -0.58600003 2
3.198 0.43000001 -0.574 1
3.244 0.44100001 -0.58600003 2
3.1300001 0.43000001 -0.56900001 1
3.165 0.43900001 -0.57800001 1
3.0999999 0.433 -0.56900001 1
3.0910001 0.43599999 -0.57099998 1
3.096 0.44100001 -0.57499999 1
3.0550001 0.43900001 -0.56999999 1
3.0569999 0.44299999 -0.574 2
3.085 0.45100001 -0.58200002 2
2.967 0.43799999 -0.56199998 1
2.961 0.44100001 -0.56400001 1
2.9489999 0.44299999 -0.56400001 2
2.908 0.44100001 -0.55900002 1
2.9630001 0.45199999 -0.57300001 1
2.9419999 0.45300001 -0.57099998 2
2.895 0.449 -0.565 1
2.9000001 0.454 -0.56800002 1
2.846 0.449 -0.56 1
2.845 0.45300001 -0.56199998 1
2.8770001 0.461 -0.57099998 1
2.8 0.45199999 -0.55800003 1
2.812 0.458 -0.56300002 1
2.7709999 0.454 -0.55699998 1
2.7190001 0.449 -0.54900002 1
2.7190001 0.45300001 -0.551 1
2.6960001 0.45199999 -0.54900002 1
2.687 0.454 -0.54900002 2
2.668 0.454 -0.54699999 2
2.664 0.45699999 -0.54799998 2
2.6489999 0.45699999 -0.54699999 2
2.635 0.458 -0.546 1
2.6270001 0.46000001 -0.54699999 1
2.6229999 0.46200001 -0.54799998 1
2.6099999 0.463 -0.54699999 2
2.5999999 0.46399999 -0.54699999 2
2.589 0.465 -0.546 2
2.582 0.46700001 -0.546 2
2.563 0.46599999 -0.54400003 2
2.5539999 0.46799999 -0.54400003 2
2.553 0.47 -0.54500002 2
2.539 0.47099999 -0.54400003 1
2.5309999 0.472 -0.54400003 1
2.526 0.47400001 -0.54500002 1
2.5079999 0.47400001 -0.542 1
2.507 0.47600001 -0.54400003 1
2.4920001 0.47600001 -0.542 1
2.4920001 0.479 -0.54299998 1
2.4849999 0.47999999 -0.54299998 1
2.4749999 0.48100001 -0.542 1
2.467 0.48199999 -0.542 1
2.4590001 0.48300001 -0.542 1
2.448 0.484 -0.54100001 1
2.444 0.48500001 -0.54100001 1
2.441 0.48699999 -0.542 1
2.4330001 0.48800001 -0.54100001 1
2.421 0.48899999 -0.54000002 1
2.421 0.491 -0.54100001 1
2.4089999 0.491 -0.53899997 1
2.411 0.49399999 -0.54100001 1
2.401 0.49399999 -0.54000002 1
2.391 0.495 -0.53899997 1
2.382 0.495 -0.537 1
2.3789999 0.49700001 -0.53799999 1
2.382 0.5 -0.54000002 1
2.368 0.49900001 -0.537 1
2.3699999 0.50199997 -0.53899997 1
2.362 0.50300002 -0.53799999 1
2.3540001 0.50300002 -0.537 1
2.348 0.50400001 -0.53600001 1
2.352 0.50700003 -0.53799999 1
2.345 0.50700003 -0.537 1
2.3380001 0.50800002 -0.537 1
2.332 0.509 -0.53600001 1
2.3310001 0.51099998 -0.537 1
2.323 0.51099998 -0.53500003 1
2.325 0.514 -0.53600001 1
2.3210001 0.51499999 -0.53600001 1
2.3210001 0.51700002 -0.537 1
2.312 0.51700002 -0.53500003 1
2.3050001 0.51700002 -0.53500003 1
2.3010001 0.51800001 -0.53399998 1
2.296 0.51899999 -0.53299999 1
2.3010001 0.52200001 -0.53500003 1
2.29 0.52100003 -0.53299999 1
2.289 0.523 -0.53399998 1
2.2850001 0.52399999 -0.53299999 1
2.2880001 0.52600002 -0.53399998 1
2.286 0.528 -0.53399998 1
2.2820001 0.52899998 -0.53299999 1
2.279 0.52999997 -0.53299999 1
2.283 0.53200001 -0.53399998 1
2.2809999 0.53299999 -0.53399998 1
2.28 0.53500003 -0.53399998 2
2.2739999 0.53500003 -0.53299999 2
2.273 0.53600001 -0.53299999 2
2.2739999 0.53799999 -0.53399998 2
2.2750001 0.54000002 -0.53399998 2
2.2739999 0.54100001 -0.53399998 2
2.2720001 0.54299998 -0.53399998 2
2.2720001 0.54400003 -0.53399998 2
2.27 0.54500002 -0.53299999 2
2.267 0.546 -0.53299999 2
2.2709999 0.54799998 -0.53399998 2
2.2720001 0.55000001 -0.53399998 2
2.266 0.55000001 -0.53299999 2
2.27 0.55199999 -0.53399998 2
2.2679999 0.55299997 -0.53299999 2
2.2679999 0.55400002 -0.53299999 2
2.2679999 0.55599999 -0.53299999 2
2.2709999 0.55800003 -0.53399998 2
2.263 0.55699998 -0.53200001 1
2.257 0.55699998 -0.52999997 1
2.2620001 0.55900002 -0.53100002 1
2.2620001 0.56 -0.53100002 1
2.273 0.56400001 -0.53299999 1
2.2720001 0.565 -0.53299999 1
2.2750001 0.56699997 -0.53299999 2
2.273 0.56699997 -0.53299999 2
2.2750001 0.56900001 -0.53299999 2
2.2809999 0.57099998 -0.53399998 2
2.28 0.57200003 -0.53299999 2
2.2809999 0.57300001 -0.53299999 2
2.2850001 0.57499999 -0.53399998 2
2.2820001 0.57599998 -0.53299999 2
2.2839999 0.57700002 -0.53299999 2
2.2820001 0.57700002 -0.53200001 2
2.2869999 0.579 -0.53200001 2
2.2939999 0.58200002 -0.53399998 2
2.2939999 0.583 -0.53299999 2
2.303 0.58600003 -0.53399998 2
2.3080001 0.588 -0.53500003 2
2.3099999 0.58899999 -0.53500003 2
2.306 0.58899999 -0.53299999 2
2.3210001 0.59399998 -0.53600001 2
2.319 0.59399998 -0.53500003 2
2.3199999 0.59500003 -0.53500003 3
2.332 0.59799999 -0.537 3
2.3340001 0.59899998 -0.53600001 3
2.332 0.59899998 -0.53500003 3
2.3369999 0.60100001 -0.53600001 3
2.3440001 0.60399997 -0.53600001 3
2.3469999 0.60500002 -0.53600001 2
2.348 0.60600001 -0.53600001 2
2.3469999 0.60600001 -0.53500003 2
2.3540001 0.60799998 -0.53500003 2
2.359 0.61000001 -0.53500003 2
2.3629999 0.611 -0.53600001 1
2.368 0.61299998 -0.53600001 1
2.3759999 0.61500001 -0.537 1
2.385 0.61799997 -0.537 1
2.3789999 0.616 -0.53500003 1
2.388 0.61900002 -0.53600001 1
2.398 0.62199998 -0.537 1
2.402 0.62300003 -0.537 1
2.4030001 0.62300003 -0.53600001 1
2.418 0.62699997 -0.53799999 1
2.4159999 0.62699997 -0.537 1
2.414 0.62599999 -0.53500003 1
2.4300001 0.63099998 -0.537 1
2.4300001 0.63099998 -0.53600001 1
2.4330001 0.63099998 -0.53600001 1
2.451 0.63599998 -0.53799999 1
2.4549999 0.63700002 -0.53799999 1
2.4660001 0.63999999 -0.53899997 1
2.47 0.64099997 -0.53899997 1
2.4760001 0.64200002 -0.53899997 1
2.4820001 0.64300001 -0.53799999 1
2.487 0.64399999 -0.53799999 1
2.493 0.64600003 -0.53799999 1
2.506 0.64899999 -0.53899997 1
2.5090001 0.64899999 -0.53799999 1
2.5139999 0.64999998 -0.53799999 1
2.523 0.65200001 -0.53799999 1
2.53 0.65399998 -0.53799999 1
2.543 0.65600002 -0.53899997 2
2.5580001 0.66000003 -0.54100001 2
2.562 0.66000003 -0.54000002 2
2.569 0.662 -0.54000002 2
2.5829999 0.66500002 -0.54100001 2
2.5899999 0.66600001 -0.54100001 2
2.5929999 0.66600001 -0.54000002 2
2.609 0.66900003 -0.54100001 2
2.6140001 0.67000002 -0.54000002 2
2.619 0.67000002 -0.54000002 2
2.635 0.67400002 -0.54100001 2
2.648 0.676 -0.542 2
2.6619999 0.67900002 -0.54299998 2
2.6730001 0.68099999 -0.54299998 2
2.6860001 0.68300003 -0.54400003 2
2.6919999 0.68400002 -0.54299998 2
2.6989999 0.685 -0.542 2
2.714 0.68800002 -0.54299998 2
2.7249999 0.68900001 -0.54299998 2
2.7379999 0.69099998 -0.54400003 2
2.7550001 0.69499999 -0.54500002 2
2.766 0.69599998 -0.54500002 2
2.779 0.69800001 -0.54500002 2
2.7839999 0.69800001 -0.54400003 2
2.7939999 0.699 -0.54400003 2
2.8180001 0.704 -0.546 2
2.8310001 0.70599997 -0.546 2
2.839 0.70700002 -0.546 1
2.8610001 0.71100003 -0.54799998 1
2.8659999 0.70999998 -0.546 2
2.9790001 0.73699999 -0.565 2
3.072 0.75800002 -0.57999998 2
2.9549999 0.72799999 -0.55599999 1
2.9760001 0.73100001 -0.55699998 1
3.007 0.73699999 -0.56 1
3.1059999 0.75999999 -0.57599998 1
3.2030001 0.78100002 -0.59100002 2
3.04 0.74000001 -0.55800003 1
3.119 0.75700003 -0.56999999 1
3.191 0.77200001 -0.57999998 2
3.148 0.75999999 -0.56999999 1
3.194 0.76899999 -0.57499999 1
3.1789999 0.76300001 -0.56900001 2
3.1700001 0.759 -0.565 1
3.1559999 0.75300002 -0.55900002 1
3.2030001 0.76200002 -0.565 2
3.2320001 0.76700002 -0.56699997 1
3.2690001 0.773 -0.56999999 1
3.2980001 0.778 -0.57200003 2
3.348 0.787 -0.57800001 2
3.3199999 0.778 -0.56999999 2
3.3759999 0.78799999 -0.57599998 2
3.4630001 0.80599999 -0.588 2
3.378 0.78399998 -0.56999999 1
3.3729999 0.77999997 -0.56599998 2
3.4089999 0.78500003 -0.56900001 1
3.3959999 0.77899998 -0.56300002 2
3.427 0.78399998 -0.565 2
3.517 0.801 -0.57599998 3
3.527 0.80000001 -0.57499999 3
3.5769999 0.80900002 -0.579 3
3.5469999 0.79900002 -0.57099998 2
3.559 0.79799998 -0.56900001 3
3.5780001 0.79900002 -0.56900001 3
3.6070001 0.80199999 -0.56900001 3
3.6259999 0.80299997 -0.56900001 4
3.6470001 0.80400002 -0.56800002 4
3.6730001 0.80699998 -0.56900001 3
3.8050001 0.83200002 -0.58499998 2
3.8929999 0.84799999 -0.59500003 2
3.881 0.84100002 -0.58899999 2
3.832 0.82700002 -0.57700002 2
3.9560001 0.84899998 -0.59200001 3
3.9820001 0.85100001 -0.59200001 2
3.921 0.83399999 -0.579 2
3.98 0.84200001 -0.583 2
3.977 0.838 -0.579 3
4.0689998 0.85299999 -0.588 3
4.0799999 0.85100001 -0.58499998 3
4.1409998 0.85900003 -0.58899999 3
4.152 0.85600001 -0.58600003 3
4.1440001 0.85000002 -0.58099997 3
4.2709999 0.87199998 -0.59399998 3
4.2839999 0.87 -0.59100002 3
4.2810001 0.86400002 -0.58600003 3
4.3439999 0.87199998 -0.58999997 3
4.3520002 0.86799997 -0.58700001 2
4.3920002 0.87099999 -0.58700001 2
4.4450002 0.87699997 -0.58999997 4
4.4850001 0.87900001 -0.58999997 3
4.5419998 0.88499999 -0.59299999 2
4.5960002 0.88999999 -0.59500003 3
4.651 0.89499998 -0.597 2
4.7049999 0.89999998 -0.59899998 3
4.757 0.90399998 -0.60100001 2
4.816 0.90899998 -0.60299999 3
4.868 0.91299999 -0.60399997 3
4.9239998 0.917 -0.60500002 3
4.9679999 0.91900003 -0.60500002 4
5.0300002 0.92400002 -0.60799998 4
5.099 0.93000001 -0.61000001 3
5.1669998 0.93599999 -0.61299998 3
5.2319999 0.94099998 -0.61500001 2
5.2969999 0.94499999 -0.61699998 2
5.3839998 0.954 -0.62099999 2
5.4450002 0.95700002 -0.62199998 3
5.527 0.96399999 -0.625 3
5.599 0.96899998 -0.62699997 3
5.677 0.97500002 -0.63 3
5.7649999 0.98199999 -0.63300002 3
5.8309999 0.98500001 -0.634 3
5.9000001 0.98799998 -0.63499999 3
5.973 0.99199998 -0.63599998 3
6.073 1 -0.64099997 3
6.1630001 1.006 -0.64300001 3
6.2379999 1.01 -0.64399999 3
6.3379998 1.017 -0.64700001 4
6.4429998 1.024 -0.65100002 3
6.5419998 1.03 -0.65399998 3
6.6500001 1.038 -0.65799999 3
6.756 1.044 -0.66100001 3
6.8779998 1.052 -0.66500002 4
6.994 1.0599999 -0.66900003 5
7.1230001 1.069 -0.67299998 4
7.21 1.071 -0.67400002 4
7.3200002 1.076 -0.676 4
7.46 1.085 -0.68099999 4
7.5970001 1.094 -0.685 4
7.7950001 1.11 -0.69499999 6
7.9879999 1.125 -0.70300001 9
8.1210003 1.131 -0.70599997 15
8.21 1.131 -0.70499998 15
8.3000002 1.13 -0.704 16
8.3979998 1.13 -0.704 16
8.5240002 1.133 -0.70499998 9
8.6990004 1.143 -0.70999998 5
8.8509998 1.148 -0.713 4
9.0209999 1.156 -0.71700001 5
9.2139997 1.166 -0.72299999 4
9.3710003 1.17 -0.72600001 4
9.5559998 1.178 -0.73000002 4
9.7279997 1.183 -0.73299998 3
9.9390001 1.192 -0.73799998 3
10.174 1.2029999 -0.745 3
10.377 1.21 -0.74900001 3
10.579 1.216 -0.75199997 3
10.787 1.222 -0.75599998 2
11.018 1.229 -0.76099998 2
11.308 1.242 -0.76899999 3
11.545 1.249 -0.77399999 4
11.783 1.2539999 -0.77700001 3
12.015 1.2589999 -0.78100002 3
12.271 1.2640001 -0.78500003 3
12.645 1.281 -0.796 3
12.948 1.289 -0.80199999 3
13.194 1.29 -0.80400002 4
13.615 1.307 -0.81599998 3
13.982 1.318 -0.824 3
14.324 1.325 -0.829 2
14.759 1.339 -0.83999997 2
15.446 1.374 -0.86400002 4
15.698 1.368 -0.86299998 3
16.197001 1.383 -0.87400001 2
16.662001 1.393 -0.88300002 3
16.330999 1.335 -0.85000002 2
16.884001 1.35 -0.86199999 1
17.658001 1.38 -0.88499999 3
17.715 1.352 -0.87 2
0 0 0 0
0 0 0 0
0 0 0 0
0 0 0 3
0 0 0 4
24.150999 1.575 -1.05 4
24.719 1.5650001 -1.051 3
24.768999 1.522 -1.031 3
24.766001 1.475 -1.008 26
24.709999 1.426 -0.98299998 150
24.759001 1.382 -0.963 76
24.794001 1.337 -0.94099998 150
24.822001 1.2920001 -0.921 128
0 0 0 25
36.155998 1.745 -1.277 25
35.657001 1.651 -1.227 26
0 0 0 3
20.694 0.87900001 -0.676 14
20.311001 0.82300001 -0.64600003 5
20.097 0.77600002 -0.62199998 4
19.747 0.72399998 -0.59399998 2
19.455999 0.676 -0.56900001 2
19.179001 0.62900001 -0.54400003 2
18.898001 0.583 -0.51999998 2
18.666 0.53899997 -0.49900001 1
18.388 0.495 -0.47600001 1
17.615 0.44 -0.442 4
17.566 0.40400001 -0.426 3
17.552999 0.37 -0.412 3
17.565001 0.33500001 -0.398 3
17.42 0.29800001 -0.38100001 1
0 0 0 0
0 0 0 0
0 0 0 45
17.289 0.15800001 -0.324 57
17.273001 0.123 -0.31 8
17.160999 0.088 -0.29499999 1
17.139999 0.052999999 -0.28099999 1
17.07 0.02 -0.26800001 1
0 0 0 0
0 0 0 0
0 0 0 0
0 0 0 0
0 0 0 0
0 0 0 1
17.02 -0.22 -0.18099999 1
17.062 -0.255 -0.169 1
17.082001 -0.28999999 -0.15700001 1
17.124001 -0.32600001 -0.146 13
17.131001 -0.361 -0.13500001 13
17.162001 -0.396 -0.124 9
17.177999 -0.43099999 -0.112 9
17.156 -0.465 -0.101 6
17.173 -0.50099999 -0.090000004 4
17.201 -0.537 -0.079000004 4
17.121 -0.56900001 -0.068000004 6
17.086 -0.60299999 -0.057 4
17.073 -0.63700002 -0.046 5
17.111 -0.67400002 -0.035999998 4
17.104 -0.708 -0.025 4
17.129 -0.745 -0.015 4
17.139 -0.77999997 -0.0049999999 3
17.149 -0.815 0.0040000002 1
17.115 -0.84899998 0.014 1
17.152 -0.88599998 0.024 1
0 0 0 0
0 0 0 0
0 0 0 0
0 0 0 1
0 0 0 0
0 0 0 1
0 0 0 0
0 0 0 1
0 0 0 0
0 0 0 0
0 0 0 7
64.462997 -4.927 0.50199997 6
64.598999 -5.0710001 0.53399998 8
0 0 0 19
34.181 -2.825 0.315 38
33.98 -2.878 0.329 52
33.970001 -2.9460001 0.34400001 78
33.981998 -3.0179999 0.36000001 116
33.997002 -3.0899999 0.375 122
34.002998 -3.1589999 0.389 106
34.018002 -3.23 0.40400001 113
34.042 -3.303 0.419 119
34.057999 -3.3740001 0.433 117
34.055 -3.4430001 0.447 115
34.077999 -3.5150001 0.46000001 117
0 0 0 12
17.794001 -1.908 0.25400001 20
17.708 -1.9349999 0.259 26
17.667 -1.967 0.26499999 29
17.628 -1.998 0.271 34
17.606001 -2.0309999 0.27700001 37
17.582001 -2.0639999 0.28299999 44
17.546 -2.095 0.28799999 45
17.532 -2.1289999 0.294 46
17.506001 -2.1619999 0.29899999 51
17.495001 -2.1960001 0.30500001 69
17.488001 -2.23 0.31 41
17.474001 -2.263 0.315 43
17.469 -2.2980001 0.31999999 47
17.478001 -2.3340001 0.32499999 50
17.466 -2.3670001 0.33000001 39
17.493 -2.4059999 0.33500001 38
17.49 -2.4400001 0.34 53
17.492001 -2.4749999 0.345 58
17.507999 -2.513 0.34900001 55
17.516001 -2.5480001 0.354 47
17.535 -2.585 0.359 47
17.566999 -2.625 0.36300001 27
17.582001 -2.6619999 0.368 35
17.614 -2.701 0.37200001 29
17.667999 -2.744 0.377 23
17.733 -2.789 0.38299999 15
17.844 -2.8410001 0.38800001 2
0 0 0 0
0 0 0 0
0 0 0 0
0 0 0 4
38.605 -6.5240002 0.87599999 4
38.641998 -6.6069999 0.884 4
38.618999 -6.678 0.889 4
38.646 -6.757 0.89600003 4
0 0 0 19
34.887001 -6.2329998 0.81900001 33
34.898998 -6.302 0.82300001 7
0 0 0 0
0 0 0 0
0 0 0 0
0 0 0 0
0 0 0 3
35.046001 -6.7280002 0.84899998 19
35.008999 -6.7870002 0.85100001 38
34.848 -6.8210001 0.85000002 21
34.707001 -6.8579998 0.84899998 11
34.674 -6.915 0.85100001 85
34.687 -6.9819999 0.85399997 85
34.713001 -7.052 0.85600001 87
34.723999 -7.119 0.85900003 82
34.742001 -7.1859999 0.861 83
34.740002 -7.2490001 0.86199999 85
34.761002 -7.3169999 0.86299998 76
34.778999 -7.3839998 0.86500001 65
34.786999 -7.448 0.866 62
34.803001 -7.5149999 0.866 74
34.828999 -7.5830002 0.86699998 65
0 0 0 1
30.5 -6.7480001 0.75999999 1
30.504 -6.803 0.759 1
30.525 -6.8600001 0.759 1
30.629999 -6.9380002 0.76099998 1
0 0 0 19
34.901001 -8.026 0.866 26
34.923 -8.0930004 0.86400002 23
34.93 -8.1560001 0.86400002 32
34.955002 -8.2220001 0.86199999 21
0 0 0 0
0 0 0 0
0 0 0 0
0 0 0 3
31.628 -7.7059999 0.76999998 3
0 0 0 1
28.051001 -6.928 0.67799997 1
0 0 0 0
0 0 0 0
0 0 0 1
0 0 0 5
31.145 -7.947 0.73799998 5
31.131001 -7.994 0.73400003 7
31.159 -8.0500002 0.73000002 6
31.158001 -8.099 0.72600001 7
31.18 -8.1540003 0.72299999 7
31.169001 -8.1999998 0.71899998 6
31.18 -8.2519999 0.71499997 6
31.212 -8.309 0.71100003 7
31.216999 -8.3579998 0.70599997 6
31.212999 -8.4040003 0.70200002 5
31.216 -8.4530001 0.69700003 2
0 0 0 0
0 0 0 2
0 0 0 0
0 0 0 1
28.243 -7.8569999 0.60699999 3
0 0 0 0
0 0 0 0
0 0 0 0
0 0 0 2
30.837999 -8.8000002 0.63300002 5
30.799 -8.8319998 0.625 7
30.790001 -8.8719997 0.61900002 8
30.813999 -8.9219999 0.61299998 11
30.806 -8.9619999 0.60600001 11
30.808001 -9.0050001 0.59899998 12
30.804001 -9.0439997 0.59299999 12
30.823999 -9.092 0.58600003 13
30.820999 -9.132 0.579 12
30.853001 -9.1820002 0.57200003 13
30.834999 -9.217 0.565 12
30.830999 -9.2559996 0.55699998 13
30.841999 -9.2989998 0.55000001 8
30.811001 -9.3280001 0.54100001 6
30.726999 -9.342 0.53200001 4
0 0 0 0
0 0 0 12
27.347 -8.4160004 0.45199999 21
27.281 -8.4289999 0.44400001 27
27.231001 -8.4469995 0.43599999 32
27.205 -8.4709997 0.428 36
27.164 -8.4899998 0.419 41
27.121 -8.5080004 0.41100001 39
27.108999 -8.5349998 0.40400001 45
27.086 -8.559 0.39500001 44
27.049999 -8.5780001 0.38699999 49
27.038 -8.6049995 0.37900001 49
27.021999 -8.6300001 0.37 53
27.011999 -8.6560001 0.36199999 54
26.981001 -8.6750002 0.354 59
26.987 -8.7060003 0.34599999 62
26.951 -8.7220001 0.33700001 49
26.951 -8.7510004 0.329 64
26.938 -8.7729998 0.31999999 61
26.945999 -8.8039999 0.31200001 57
26.941999 -8.8290005 0.303 57
26.945 -8.8570004 0.29499999 53
26.943001 -8.882 0.28600001 48
26.943001 -8.908 0.278 45
26.944 -8.934 0.26899999 45
26.958 -8.9639997 0.25999999 40
26.954 -8.9879999 0.25099999 40
0 0 0 1
10.07 -3.3759999 0.086000003 5
10.014 -3.3659999 0.082999997 11
9.9799995 -3.3629999 0.079000004 14
9.9659996 -3.3670001 0.075999998 11
9.927 -3.362 0.071999997 20
9.8999996 -3.3610001 0.068000004 22
9.8879995 -3.365 0.064999998 15
9.8719997 -3.368 0.061000001 24
9.8459997 -3.3659999 0.057 24
9.8540001 -3.3770001 0.054000001 13
9.8369999 -3.3789999 0.050000001 14
9.8079996 -3.3759999 0.046999998 24
9.802 -3.381 0.043000001 24
9.7969999 -3.3870001 0.039999999 17
9.7950001 -3.3929999 0.035999998 19
9.7810001 -3.395 0.032000002 18
9.7690001 -3.3970001 0.028999999 20
9.7629995 -3.401 0.025 19
9.7639999 -3.408 0.021 19
9.7480001 -3.4089999 0.017999999 26
9.7469997 -3.414 0.014 27
9.7349997 -3.4159999 0.0099999998 28
9.7250004 -3.418 0.0070000002 28
9.7259998 -3.424 0.003 28
9.724 -3.4289999 0 28
9.7130003 -3.431 -0.003 28
9.7150002 -3.437 -0.0070000002 29
9.6940002 -3.434 -0.011 29
9.6990004 -3.441 -0.014 30
9.6829996 -3.4400001 -0.017999999 30
9.6859999 -3.4449999 -0.022 30
9.6739998 -3.4460001 -0.026000001 30
9.6759996 -3.451 -0.028999999 31
9.6709995 -3.4530001 -0.033 31
9.6630001 -3.454 -0.037 31
9.6630001 -3.4579999 -0.039999999 31
9.6700001 -3.464 -0.044 31
9.6639996 -3.4660001 -0.048 30
9.6499996 -3.464 -0.052000001 30
9.6599998 -3.471 -0.056000002 31
9.6459999 -3.4690001 -0.059 31
9.6440001 -3.4719999 -0.063000001 31
9.6389999 -3.4719999 -0.067000002 31
9.6339998 -3.474 -0.071000002 32
9.6429996 -3.4790001 -0.075000003 32
9.6339998 -3.4790001 -0.078000002 32
9.6210003 -3.4760001 -0.082000002 32
9.625 -3.48 -0.086000003 33
9.6300001 -3.484 -0.090000004 33
9.625 -3.484 -0.093999997 33
9.6359997 -3.4890001 -0.097999997 33
9.6269999 -3.4879999 -0.101 32
9.6300001 -3.49 -0.105 33
9.618 -3.487 -0.109 33
9.6289997 -3.4920001 -0.113 33
9.6260004 -3.4920001 -0.116 32
9.6210003 -3.4909999 -0.12 32
9.6129999 -3.4890001 -0.124 32
9.6330004 -3.497 -0.12800001 32
9.6149998 -3.4909999 -0.132 31
9.6160002 -3.4920001 -0.13600001 31
9.6090002 -3.49 -0.139 31
9.6160002 -3.4920001 -0.14300001 31
9.6149998 -3.4909999 -0.147 31
9.6190004 -3.493 -0.15099999 31
9.6280003 -3.4960001 -0.155 31
9.6210003 -3.4920001 -0.15899999 31
9.6160002 -3.49 -0.162 31
9.6219997 -3.4909999 -0.16599999 31
9.6140003 -3.487 -0.17 31
9.6110001 -3.4849999 -0.17399999 31
9.6140003 -3.4849999 -0.178 30
9.6129999 -3.483 -0.18099999 31
9.6300001 -3.4879999 -0.185 31
9.6230001 -3.483 -0.189 31
9.6199999 -3.4809999 -0.193 31
9.6260004 -3.4809999 -0.197 31
9.6260004 -3.4790001 -0.2 31
9.6309996 -3.4779999 -0.204 31
9.6389999 -3.4790001 -0.208 31
9.6379995 -3.4760001 -0.212 32
9.6420002 -3.474 -0.21600001 32
9.6289997 -3.467 -0.219 32
9.6409998 -3.4679999 -0.223 32
9.651 -3.4690001 -0.227 31
9.6540003 -3.467 -0.23100001 31
9.6450005 -3.46 -0.235 30
9.6479998 -3.457 -0.23800001 30
9.6560001 -3.457 -0.242 30
9.6569996 -3.4530001 -0.24600001 31
9.658 -3.4489999 -0.25 31
9.6660004 -3.448 -0.25299999 32
9.6680002 -3.4449999 -0.257 32
9.6739998 -3.4419999 -0.26100001 31
9.6669998 -3.4349999 -0.264 31
9.6780005 -3.4349999 -0.26800001 30
9.677 -3.4289999 -0.271 30
9.6800003 -3.425 -0.27500001 29
9.6920004 -3.425 -0.27900001 29
9.7019997 -3.4230001 -0.28299999 30
9.7019997 -3.4170001 -0.287 30
9.6999998 -3.411 -0.28999999 30
9.71 -3.4089999 -0.294 29
9.717 -3.405 -0.29699999 29
9.7309999 -3.404 -0.301 28
9.7399998 -3.401 -0.30500001 28
9.7449999 -3.3970001 -0.30899999 27
9.7410002 -3.3889999 -0.31200001 17
9.7600002 -3.3889999 -0.31600001 18
9.7679996 -3.385 -0.31999999 18
9.7779999 -3.382 -0.32300001 17
9.7799997 -3.375 -0.32699999 16
9.7690001 -3.365 -0.33000001 24
9.7969999 -3.3670001 -0.33399999 24
9.816 -3.3659999 -0.338 17
9.8290005 -3.3629999 -0.34200001 17
9.8389997 -3.359 -0.345 16
9.8529997 -3.355 -0.34999999 24
9.8769999 -3.3559999 -0.35299999 14
9.8979998 -3.355 -0.35699999 13
9.9099998 -3.3499999 -0.361 18
9.9429998 -3.3529999 -0.36500001 18
9.9659996 -3.352 -0.36899999 15
10.004 -3.3559999 -0.37400001 11
10.043 -3.3610001 -0.37900001 7
10.093 -3.368 -0.384 1
0 0 0 38
26.922001 -8.9359999 -1.041 37
26.908001 -8.9049997 -1.048 41
26.907 -8.8800001 -1.056 43
26.913 -8.8549995 -1.064 46
26.909 -8.8280001 -1.072 47
26.917999 -8.8039999 -1.08 49
26.910999 -8.7740002 -1.0880001 43
26.910999 -8.7469997 -1.096 56
26.926001 -8.724 -1.104 62
26.927 -8.6960001 -1.112 58
26.937 -8.6709995 -1.119 60
26.954 -8.6470003 -1.128 45
26.955999 -8.6190004 -1.135 56
26.966999 -8.5930004 -1.142 48
26.993 -8.573 -1.151 47
27.007 -8.5459995 -1.158 42
27.033001 -8.5229998 -1.1670001 38
27.056 -8.5 -1.175 40
27.079 -8.4759998 -1.182 36
27.107 -8.4530001 -1.1900001 34
27.153999 -8.4350004 -1.199 32
27.183001 -8.4130001 -1.207 26
27.229 -8.3950005 -1.215 24
27.26 -8.3710003 -1.223 20
27.363001 -8.3690004 -1.234 12
27.450001 -8.3610001 -1.244 3
0 0 0 0
0 0 0 7
0 0 0 2
6.7379999 -2.0179999 -0.31099999 41
6.7940001 -2.026 -0.315 156
6.7719998 -2.01 -0.315 156
6.757 -1.997 -0.31600001 156
6.7399998 -1.983 -0.317 153
6.756 -1.979 -0.31900001 156
6.7529998 -1.969 -0.31999999 156
6.7620001 -1.962 -0.32100001 156
6.7870002 -1.96 -0.324 156
6.77 -1.946 -0.324 156
6.777 -1.939 -0.32600001 157
6.7589998 -1.924 -0.32600001 159
6.8049998 -1.927 -0.329 166
6.7789998 -1.91 -0.329 166
6.79 -1.904 -0.331 170
6.777 -1.89 -0.331 179
6.783 -1.882 -0.33199999 167
6.7930002 -1.875 -0.33399999 156
6.7919998 -1.865 -0.33500001 156
6.7800002 -1.851 -0.33500001 156
6.816 -1.851 -0.338 156
6.8060002 -1.8380001 -0.338 150
6.8369999 -1.836 -0.34 35
6.8530002 -1.829 -0.34200001 4
0 0 0 1
28.854 -7.6149998 -1.447 1
28.271 -7.4169998 -1.421 2
28.582001 -7.454 -1.439 1
28.259001 -7.3249998 -1.425 1
0 0 0 7
12.495 -3.1989999 -0.63200003 23
12.496 -3.1789999 -0.63300002 26
12.486 -3.1570001 -0.63300002 24
12.484 -3.1359999 -0.634 24
12.469 -3.112 -0.634 25
12.474 -3.0929999 -0.63499999 26
12.472 -3.072 -0.63599998 24
12.458 -3.0480001 -0.63499999 26
12.455 -3.026 -0.63599998 29
12.46 -3.007 -0.63700002 24
12.453 -2.984 -0.63599998 25
12.453 -2.9630001 -0.63700002 30
12.441 -2.9389999 -0.63599998 43
12.441 -2.918 -0.63599998 25
12.44 -2.8959999 -0.63599998 24
12.439 -2.875 -0.63599998 28
12.431 -2.8510001 -0.63599998 28
12.421 -2.8269999 -0.63499999 29
12.426 -2.8069999 -0.63499999 18
12.484 -2.7980001 -0.63800001 9
12.513 -2.783 -0.639 11
12.603 -2.7809999 -0.64300001 10
12.627 -2.7639999 -0.64399999 11
12.698 -2.757 -0.64700001 15
12.738 -2.743 -0.64899999 11
12.831 -2.74 -0.653 9
12.893 -2.73 -0.65499997 11
12.946 -2.7179999 -0.65700001 10
13.002 -2.7060001 -0.65899998 14
13.06 -2.6949999 -0.66000003 14
13.125 -2.684 -0.66299999 8
13.204 -2.6760001 -0.66500002 11
13.268 -2.665 -0.667 11
13.319 -2.6500001 -0.66900003 10
13.396 -2.641 -0.671 1
0 0 0 3
27.957001 -5.408 -1.3940001 2
28.048 -5.3740001 -1.395 2
0 0 0 0
0 0 0 1
28.544001 -5.309 -1.4069999 2
28.636 -5.2719998 -1.408 2
0 0 0 12
15.108 -2.724 -0.73799998 29
15.099 -2.6930001 -0.73500001 28
15.092 -2.664 -0.73100001 51
15.093 -2.635 -0.72899997 25
15.073 -2.6029999 -0.72500002 44
15.076 -2.5739999 -0.722 44
15.074 -2.5450001 -0.71899998 28
15.066 -2.5139999 -0.71499997 34
15.065 -2.4849999 -0.71200001 24
15.057 -2.4549999 -0.708 26
15.059 -2.4260001 -0.70499998 25
15.043 -2.3940001 -0.69999999 27
15.054 -2.3670001 -0.69700003 25
15.051 -2.3369999 -0.69300002 17
15.147 -2.322 -0.69400001 11
15.239 -2.3069999 -0.69400001 11
15.328 -2.29 -0.69400001 12
15.414 -2.273 -0.69400001 12
15.501 -2.2550001 -0.69300002 10
15.605 -2.2390001 -0.69300002 12
15.695 -2.221 -0.69300002 8
15.801 -2.204 -0.69300002 10
15.894 -2.1860001 -0.69199997 11
0 0 0 0
0 0 0 34
17.462 -2.296 -0.74299997 42
17.462999 -2.2620001 -0.73699999 39
17.459 -2.2260001 -0.73100001 39
17.469999 -2.1930001 -0.72500002 35
17.483 -2.1600001 -0.71899998 34
17.497 -2.1270001 -0.71399999 30
17.518 -2.0929999 -0.708 31
17.535 -2.0599999 -0.70200002 43
17.568001 -2.029 -0.69599998 41
17.589001 -1.995 -0.69 35
17.635 -1.965 -0.685 31
17.667999 -1.933 -0.67900002 29
17.735001 -1.905 -0.67400002 23
17.827999 -1.8789999 -0.67000002 17
17.941999 -1.855 -0.667 1
0 0 0 48
33.626999 -3.339 -1.221 13
33.896999 -3.2980001 -1.215 19
33.648998 -3.2049999 -1.191 9
33.373001 -3.1110001 -1.166 13
33.910999 -3.092 -1.168 41
0 0 0 46
19.987 -1.7410001 -0.66900003 69
19.987 -1.701 -0.66000003 42
19.988001 -1.661 -0.64999998 32
0 0 0 1
17.396999 -1.375 -0.54799998 1
17.322001 -1.3329999 -0.537 1
17.285999 -1.295 -0.52600002 1
17.247 -1.258 -0.51599997 1
17.214001 -1.22 -0.50599998 1
17.143 -1.1799999 -0.49399999 1
17.163 -1.147 -0.48500001 1
17.173 -1.113 -0.47600001 1
17.181 -1.0779999 -0.46700001 1
17.145 -1.041 -0.456 1
17.143 -1.006 -0.44600001 1
17.073 -0.96600002 -0.43399999 1
17.039 -0.93000001 -0.42300001 7
17.068001 -0.89600003 -0.41299999 174
17.076 -0.86299998 -0.403 185
17.039 -0.82599998 -0.39199999 185
17.047001 -0.792 -0.38100001 185
17.032 -0.75599998 -0.37 185
16.989 -0.72000003 -0.35800001 185
16.964001 -0.685 -0.347 185
17.01 -0.653 -0.33700001 185
16.969999 -0.616 -0.32499999 185
16.987 -0.583 -0.31400001 165
16.982 -0.54900002 -0.303 161
16.986 -0.51499999 -0.292 158
17.01 -0.48100001 -0.28099999 153
17.132999 -0.44999999 -0.271 7
17.115999 -0.41499999 -0.259 7
17.108999 -0.38100001 -0.24699999 16
17.097 -0.34599999 -0.234 4
17.024 -0.31099999 -0.221 1
17.041 -0.27700001 -0.20900001 1
17.047001 -0.244 -0.197 1
17.018999 -0.20900001 -0.184 1
17.058001 -0.175 -0.17200001 1
0 0 0 0
0 0 0 0
0 0 0 0
0 0 0 0
0 0 0 0
0 0 0 0
0 0 0 0
0 0 0 1
0 0 0 0
0 0 0 0
0 0 0 0
0 0 0 0
0 0 0 0
0 0 0 0
0 0 0 0
0 0 0 1
18.42 0.428 0.061999999 1
18.605 0.46799999 0.078000002 1
18.815001 0.509 0.094999999 1
19.086 0.55400002 0.113 1
0 0 0 0
0 0 0 0
0 0 0 1
0 0 0 2
34.814999 1.3430001 0.359 8
35.178001 1.423 0.39300001 9
37.074001 1.571 0.44800001 75
37.070999 1.642 0.48199999 73
37.057999 1.711 0.51499999 73
37.061001 1.78 0.54900002 30
37.671001 1.882 0.59299999 7
38.202999 1.98 0.63599998 7
38.629002 2.0739999 0.67900002 32
38.990002 2.1659999 0.722 10
41.000999 2.3529999 0.79699999 83
41.007 2.4300001 0.83600003 97
41.009998 2.5039999 0.87400001 61
41.622002 2.618 0.926 6
0 0 0 0
0 0 0 28
44.483002 3.0420001 1.118 10
45.243 3.178 1.182 22
0 0 0 5
41.865002 3.0899999 1.174 11
41.889999 3.1670001 1.215 18
41.877998 3.2409999 1.256 25
41.868999 3.3150001 1.2970001 28
41.884998 3.391 1.34 40
41.880001 3.4649999 1.38 42
41.859001 3.5369999 1.4220001 41
0 0 0 4
0 0 0 0
0 0 0 0
0 0 0 0
0 0 0 0
0 0 0 8
51.41 4.9720001 2.112 24
52.074001 5.125 2.1930001 39
52.957001 5.303 2.2850001 26
54.032001 5.5029998 2.3870001 11
55.127998 5.7080002 2.493 8
0 0 0 8
61.604 6.585 2.914 46
62.897999 6.829 3.0409999 57
64.266998 7.085 3.175 76
65.578003 7.3390002 3.309 68
66.961998 7.6059999 3.45 70
68.792 7.928 3.6170001 51
70.704002 8.2639999 3.793 67
72.260002 8.5640001 3.954 87
73.595001 8.8400002 4.1040001 44
0 0 0 26
82.457001 10.171 4.7750001 29
82.845001 10.349 4.8870001 32
0 0 0 54
117.732 15.085 7.1989999 76
117.665 15.257 7.3200002 73
117.675 15.443 7.448 66
117.682 15.625 7.5739999 64
117.625 15.8 7.698 56
117.661 15.987 7.829 46
117.731 16.177999 7.9619999 30
117.701 16.353001 8.0889997 30
117.591 16.514999 8.2069998 33
117.661 16.702999 8.3409996 32
117.541 16.861 8.4589996 35
117.44 17.021999 8.5810003 32
117.409 17.190001 8.7040005 30
117.358 17.356001 8.8299999 31
117.438 17.541 8.9650002 31
117.382 17.704 9.0909996 32
117.333 17.867001 9.2159996 34
117.31 18.033001 9.3439999 39
117.24 18.184999 9.4659996 34
117.266 18.360001 9.5970001 39
117.147 18.507 9.717 31
117.075 18.660999 9.8409996 38
117.097 18.827999 9.9720001 38
117.011 18.975 10.092 48
116.914 19.121 10.213 38
116.928 19.284 10.344 36
116.765 19.416 10.459 28
0 0 0 0
0 0 0 0
0 0 0 0
0 0 0 40
116.762 20.193001 11.102 41
0 0 0 0
0 0 0 0
0 0 0 0
0 0 0 36
114.386 20.513 11.503 38
114.421 20.662001 11.629 42
114.317 20.785999 11.745 23
114.329 20.93 11.872 45
114.36 21.076 12.001 49
114.336 21.211 12.124 56
114.227 21.329 12.238 45
114.059 21.434999 12.345 41
113.831 21.527 12.446 54
113.808 21.656 12.564 72
113.786 21.784 12.683 86
113.757 21.910999 12.804 75
113.745 22.035 12.924 78
113.755 22.166 13.048 70
113.721 22.288 13.168 66
113.709 22.417 13.289 78
113.656 22.528999 13.407 67
113.666 22.659 13.53 81
113.624 22.774 13.647 70
113.572 22.886 13.759 64
113.565 23.006001 13.884 56
113.551 23.122999 14 42
113.513 23.233999 14.117 37
113.532 23.356001 14.24 28
0 0 0 0
0 0 0 0
0 0 0 0
0 0 0 0
0 0 0 0
0 0 0 23
0 0 0 0
0 0 0 0
0 0 0 0
0 0 0 0
0 0 0 0
0 0 0 0
0 0 0 36
113.466 24.862 15.876 25
0 0 0 0
0 0 0 0
0 0 0 0
0 0 0 0
0 0 0 0
0 0 0 31
113.395 25.518999 16.662001 27
113.287 25.584999 16.757999 41
113.197 25.653999 16.856001 47
113.134 25.728001 16.957001 49
113.077 25.801001 17.058001 51
113.008 25.871 17.157 63
113.007 25.955 17.266001 65
112.977 26.031 17.370001 69
112.996 26.117001 17.481001 67
112.948 26.186001 17.577 68
112.956 26.268999 17.687 64
112.933 26.341999 17.785999 72
112.899 26.41 17.886 56
113.021 26.511 18.011999 50
112.853 26.548 18.087999 41
112.88 26.624001 18.194 36
112.916 26.704 18.302999 36
113.119 26.823 18.434999 24
0 0 0 0
0 0 0 0
0 0 0 23
112.971 27.058001 18.813 23
112.905 27.105 18.902 23
113.065 27.204 19.025 23
112.959 27.242001 19.107 33
112.961 27.302 19.205 29
112.955 27.358999 19.299999 25
112.825 27.384001 19.374001 23
112.858 27.448 19.471001 28
112.871 27.506001 19.568001 26
112.927 27.573999 19.667999 29
112.979 27.635 19.771999 28
112.847 27.653999 19.841 26
112.87 27.708 19.937 30
112.859 27.754 20.021999 30
112.853 27.802 20.113001 28
112.821 27.839001 20.195999 25
112.895 27.899 20.297001 27
112.859 27.936001 20.375999 27
112.867 27.979 20.465 25
112.788 28 20.535999 31
112.74 28.027 20.613001 32
112.857 28.093 20.719 26
112.683 28.087 20.767 34
112.656 28.115 20.844999 41
112.667 28.150999 20.929001 36
112.608 28.167999 20.999001 39
112.641 28.208 21.086 45
112.572 28.219999 21.153 42
112.564 28.246 21.23 53
112.557 28.271 21.306 56
112.528 28.292 21.375 58
112.599 28.334 21.465 63
112.573 28.35 21.535 65
112.527 28.362 21.597 61
112.548 28.386999 21.674999 69
112.542 28.405001 21.746 64
112.537 28.423 21.813999 62
112.541 28.440001 21.886 61
112.576 28.464001 21.962 58
112.629 28.490999 22.042 43
112.673 28.514 22.118 46
112.632 28.514999 22.177 47
112.67 28.534 22.250999 39
112.696 28.549 22.320999 40
112.75 28.572001 22.393999 44
112.742 28.576 22.455999 32
112.85 28.608 22.540001 28
112.875 28.618999 22.604 26
112.894 28.624001 22.671 24
112.866 28.618 22.725 29
112.84 28.613001 22.777 28
112.885 28.622999 22.844 28
112.821 28.604 22.888 25
112.904 28.622 22.958 27
112.939 28.625 23.02 27
112.989 28.631001 23.084 25
112.994 28.624001 23.138 28
112.911 28.593 23.173 29
112.91 28.584 23.221001 33
112.872 28.559999 23.266001 27
112.87 28.548 23.312 27
113.026 28.573 23.392 27
112.914 28.528 23.416 26
112.959 28.521999 23.472 28
112.953 28.502001 23.516001 27
112.999 28.496 23.566 29
112.973 28.469 23.604 29
112.947 28.440001 23.641001 31
112.962 28.42 23.684999 31
113.001 28.407 23.73 31
112.972 28.372999 23.763 29
113.012 28.356001 23.809 31
112.905 28.299999 23.823 30
113.071 28.312 23.893999 29
113.06 28.281 23.924 29
113.028 28.24 23.951 32
113.165 28.240999 24.011999 28
0 0 0 0
0 0 0 0
0 0 0 0
0 0 0 0
0 0 0 0
0 0 0 0
0 0 0 0
0 0 0 0
0 0 0 0
0 0 0 0
0 0 0 0
0 0 0 0
0 0 0 0
0 0 0 0
0 0 0 0
0 0 0 0
0 0 0 0
0 0 0 0
0 0 0 0
0 0 0 23
113.242 27.278999 24.451 29
113.224 27.215 24.455999 25
0 0 0 0
0 0 0 0
0 0 0 0
0 0 0 0
0 0 0 0
0 0 0 23
0 0 0 0
0 0 0 0
0 0 0 0
0 0 0 23
0 0 0 0
0 0 0 0
0 0 0 0
0 0 0 0
0 0 0 0
0 0 0 0
0 0 0 0
0 0 0 0
0 0 0 0
0 0 0 29
113.292 25.718 24.374001 32
113.356 25.65 24.372 24
113.417 25.577999 24.368 30
113.43 25.497 24.35 26
113.493 25.423 24.343 26
113.406 25.315001 24.302999 25
113.561 25.26 24.313999 27
113.499 25.158001 24.275 30
113.554 25.075001 24.263 23
113.495 24.971001 24.221001 27
113.592 24.899 24.216 22
