# .PCD v0.7 - Point Cloud Data file format
VERSION 0.7
FIELDS x y z
SIZE 4 4 4
TYPE F F F
COUNT 1 1 1
WIDTH 1869
HEIGHT 1
VIEWPOINT 0 0 0 1 0 0 0
POINTS 1869
DATA ascii
3.658 -0.986 0.38499999
3.6570001 -0.991 0.38499999
3.6559999 -0.995 0.38499999
3.655 -0.99900001 0.38499999
3.654 -1.003 0.384
3.6570001 -1.008 0.38499999
3.651 -1.011 0.384
3.6500001 -1.015 0.384
3.6489999 -1.0190001 0.384
3.6489999 -1.023 0.384
3.652 -1.028 0.384
3.651 -1.0319999 0.384
3.6500001 -1.036 0.384
3.6530001 -1.041 0.384
3.652 -1.045 0.384
3.6470001 -1.0470001 0.38299999
3.6489999 -1.052 0.38299999
3.645 -1.054 0.382
3.6470001 -1.059 0.382
3.6429999 -1.061 0.382
3.6459999 -1.066 0.382
3.645 -1.069 0.38100001
3.6440001 -1.073 0.38100001
3.6429999 -1.076 0.38100001
3.642 -1.08 0.38
3.641 -1.0829999 0.38
3.6400001 -1.086 0.37900001
3.6389999 -1.089 0.37900001
3.638 -1.092 0.37799999
3.6370001 -1.095 0.37799999
3.6530001 -1.103 0.37900001
3.6359999 -1.102 0.37599999
3.6489999 -1.109 0.377
3.6340001 -1.107 0.375
3.6329999 -1.11 0.375
3.648 -1.118 0.37599999
3.648 -1.1210001 0.375
3.6489999 -1.124 0.375
3.648 -1.127 0.37400001
3.6470001 -1.13 0.373
3.628 -1.127 0.37
3.6440001 -1.1339999 0.37099999
3.641 -1.136 0.37
3.6440001 -1.14 0.37
3.6440001 -1.143 0.36899999
3.6429999 -1.145 0.368
3.641 -1.147 0.368
3.642 -1.15 0.36700001
3.625 -1.147 0.36399999
3.642 -1.155 0.36500001
3.625 -1.152 0.36300001
3.638 -1.158 0.36300001
3.6400001 -1.161 0.36199999
3.6359999 -1.1619999 0.361
3.6359999 -1.164 0.36000001
3.6400001 -1.168 0.36000001
3.6359999 -1.169 0.359
3.6340001 -1.17 0.35699999
3.6170001 -1.1670001 0.35499999
3.635 -1.174 0.35499999
3.6329999 -1.175 0.354
3.6300001 -1.176 0.35299999
3.6359999 -1.1799999 0.35299999
3.6329999 -1.181 0.35100001
3.6289999 -1.181 0.34999999
3.6300001 -1.183 0.34900001
3.635 -1.186 0.34799999
3.6340001 -1.188 0.347
3.615 -1.183 0.34400001
3.632 -1.1900001 0.34400001
3.6340001 -1.192 0.34400001
3.632 -1.193 0.34200001
3.631 -1.194 0.34099999
3.612 -1.189 0.338
3.628 -1.1950001 0.338
3.6259999 -1.1950001 0.33700001
3.632 -1.199 0.336
3.6270001 -1.198 0.33399999
3.6110001 -1.194 0.33199999
3.6110001 -1.1950001 0.33000001
3.628 -1.201 0.331
3.628 -1.202 0.329
3.6099999 -1.197 0.32600001
3.6099999 -1.198 0.32499999
3.6289999 -1.204 0.32499999
3.6099999 -1.199 0.322
3.6099999 -1.199 0.32100001
3.622 -1.204 0.32100001
3.6240001 -1.205 0.31900001
3.6099999 -1.201 0.317
3.6099999 -1.201 0.315
3.6099999 -1.201 0.31400001
3.6099999 -1.202 0.31200001
3.6099999 -1.202 0.31099999
3.6099999 -1.202 0.31
3.6099999 -1.202 0.308
3.6099999 -1.202 0.30700001
3.602 -1.2 0.30399999
3.6059999 -1.201 0.303
3.6029999 -1.2 0.30199999
3.6070001 -1.201 0.30000001
3.6110001 -1.202 0.29899999
3.6070001 -1.201 0.29699999
3.6070001 -1.2 0.296
3.608 -1.2 0.294
3.612 -1.201 0.29300001
3.6040001 -1.198 0.29100001
3.6040001 -1.197 0.289
3.6040001 -1.197 0.287
3.6040001 -1.196 0.28600001
3.605 -1.196 0.28400001
3.605 -1.1950001 0.28299999
3.6029999 -1.194 0.28099999
3.6059999 -1.194 0.27900001
3.6110001 -1.1950001 0.278
3.598 -1.1900001 0.27599999
3.605 -1.191 0.27399999
3.599 -1.188 0.27200001
3.608 -1.1900001 0.271
3.6029999 -1.187 0.26899999
3.5999999 -1.1849999 0.26699999
3.5999999 -1.184 0.26499999
3.5999999 -1.182 0.264
3.6010001 -1.181 0.26199999
3.6010001 -1.1799999 0.25999999
3.6040001 -1.1799999 0.259
3.602 -1.177 0.257
3.6040001 -1.176 0.255
3.6040001 -1.175 0.25400001
3.602 -1.173 0.252
3.602 -1.171 0.25
3.602 -1.169 0.248
3.6040001 -1.168 0.24600001
3.6010001 -1.165 0.244
3.6010001 -1.163 0.243
3.602 -1.1619999 0.241
3.602 -1.16 0.23899999
3.602 -1.158 0.237
3.6010001 -1.155 0.235
3.6059999 -1.155 0.234
3.595 -1.149 0.23100001
3.605 -1.15 0.23
3.5969999 -1.145 0.228
3.6010001 -1.1440001 0.226
3.598 -1.141 0.22400001
3.599 -1.1390001 0.222
3.5999999 -1.136 0.221
3.599 -1.133 0.219
3.6010001 -1.132 0.21699999
3.599 -1.128 0.215
3.5969999 -1.125 0.213
3.602 -1.124 0.211
3.5969999 -1.12 0.20900001
3.598 -1.117 0.207
3.599 -1.114 0.206
3.5999999 -1.112 0.204
3.5999999 -1.109 0.20200001
3.598 -1.105 0.2
3.5999999 -1.103 0.198
3.598 -1.099 0.19599999
3.6010001 -1.097 0.19400001
3.6010001 -1.094 0.193
3.6010001 -1.09 0.191
3.605 -1.0880001 0.189
3.6010001 -1.084 0.18700001
3.6029999 -1.081 0.185
3.598 -1.076 0.183
3.602 -1.074 0.18099999
3.602 -1.0700001 0.17900001
3.602 -1.066 0.178
3.6059999 -1.064 0.176
3.5999999 -1.059 0.17399999
3.6040001 -1.056 0.17200001
3.6010001 -1.052 0.17
3.602 -1.048 0.168
3.6029999 -1.045 0.16599999
3.6029999 -1.04 0.164
3.6040001 -1.0369999 0.163
3.602 -1.0319999 0.161
3.605 -1.029 0.15899999
3.6059999 -1.026 0.15700001
3.6070001 -1.022 0.155
3.6059999 -1.017 0.153
3.6070001 -1.013 0.152
3.6040001 -1.008 0.15000001
3.612 -1.006 0.148
3.608 -1.001 0.146
3.6099999 -0.99699998 0.14399999
3.609 -0.99199998 0.142
3.608 -0.98699999 0.141
3.609 -0.98299998 0.139
3.608 -0.97799999 0.13699999
3.609 -0.97399998 0.13500001
3.6129999 -0.97000003 0.133
3.608 -0.96399999 0.131
3.6099999 -0.95999998 0.13
3.6159999 -0.95700002 0.12800001
3.6110001 -0.95099998 0.126
3.612 -0.94599998 0.125
3.609 -0.94 0.123
3.6110001 -0.93599999 0.121
3.609 -0.93099999 0.119
3.6170001 -0.92799997 0.118
3.6070001 -0.92000002 0.116
3.6099999 -0.91600001 0.114
3.6070001 -0.91000003 0.112
3.6129999 -0.90600002 0.111
3.6070001 -0.89999998 0.109
3.6110001 -0.89499998 0.107
3.6210001 -0.89300001 0.106
3.6129999 -0.88499999 0.104
3.6099999 -0.87900001 0.102
3.6140001 -0.875 0.1
3.6170001 -0.87 0.098999999
3.6140001 -0.86400002 0.097000003
3.6140001 -0.85799998 0.094999999
3.6170001 -0.85399997 0.093999997
3.618 -0.84799999 0.092
3.619 -0.84299999 0.090999998
3.618 -0.83700001 0.089000002
3.619 -0.83200002 0.088
3.6210001 -0.82599998 0.086000003
3.622 -0.82099998 0.085000001
3.6229999 -0.815 0.082999997
3.622 -0.80900002 0.082000002
3.622 -0.80299997 0.079999998
3.6229999 -0.79799998 0.079000004
3.6229999 -0.792 0.077
3.6259999 -0.78600001 0.075999998
3.6270001 -0.77999997 0.074000001
3.625 -0.77399999 0.072999999
3.6259999 -0.76800001 0.071000002
3.6210001 -0.76099998 0.07
3.628 -0.75599998 0.068999998
3.619 -0.74800003 0.067000002
3.6270001 -0.74400002 0.066
3.6289999 -0.73799998 0.064000003
3.6340001 -0.73299998 0.063000001
3.631 -0.72600001 0.061999999
3.625 -0.71899998 0.059999999
3.6259999 -0.71200001 0.059
3.628 -0.70599997 0.057999998
3.628 -0.69999999 0.056000002
3.6300001 -0.69400001 0.055
3.631 -0.68800002 0.054000001
3.631 -0.68099999 0.052999999
3.632 -0.67500001 0.052000001
3.6340001 -0.66900003 0.050000001
3.635 -0.662 0.048999999
3.6370001 -0.65600002 0.048
3.635 -0.64899999 0.046999998
3.6400001 -0.64300001 0.046
3.6370001 -0.63599998 0.045000002
3.638 -0.63 0.044
3.6389999 -0.62300003 0.043000001
3.642 -0.61699998 0.041999999
3.6429999 -0.61000001 0.041000001
3.645 -0.60399997 0.039000001
3.6459999 -0.597 0.039000001
3.6470001 -0.58999997 0.037999999
3.6440001 -0.583 0.037
3.6470001 -0.57599998 0.035999998
3.6500001 -0.56999999 0.035
3.651 -0.56300002 0.034000002
3.652 -0.55599999 0.033
3.651 -0.54900002 0.032000002
3.652 -0.542 0.030999999
3.654 -0.53500003 0.029999999
3.6530001 -0.528 0.029999999
3.6530001 -0.52100003 0.028999999
3.658 -0.51499999 0.028000001
3.6589999 -0.50700003 0.027000001
3.6600001 -0.5 0.027000001
3.6589999 -0.493 0.026000001
3.6600001 -0.486 0.025
3.6630001 -0.479 0.025
3.661 -0.47099999 0.024
3.6589999 -0.46399999 0.023
3.661 -0.45699999 0.023
3.648 -0.44800001 0.022
3.658 -0.442 0.022
3.6559999 -0.43399999 0.021
3.661 -0.42699999 0.021
3.677 -0.42199999 0.02
3.7049999 -0.417 0.02
3.7149999 -0.41100001 0.02
0 0 0
5.7160001 -0.60900003 0.028999999
0 0 0
0 0 0
0 0 0
0 0 0
0 0 0
0 0 0
0 0 0
0 0 0
0 0 0
0 0 0
0 0 0
0 0 0
0 0 0
0 0 0
0 0 0
0 0 0
0 0 0
6.9759998 -0.484 0.029999999
0 0 0
0 0 0
0 0 0
0 0 0
0 0 0
0 0 0
0 0 0
0 0 0
0 0 0
0 0 0
0 0 0
0 0 0
0 0 0
6.8039999 -0.271 0.035999998
0 0 0
0 0 0
0 0 0
0 0 0
0 0 0
0 0 0
0 0 0
0 0 0
0 0 0
5.79 -0.107 0.039000001
5.625 -0.092 0.039000001
0 0 0
0 0 0
0 0 0
6.4039998 -0.050000001 0.050000001
6.448 -0.037 0.050999999
6.434 -0.023 0.052999999
6.803 -0.0099999998 0.057
6.8870001 0.0040000002 0.059999999
6.4819999 0.017000001 0.057999998
6.473 0.030999999 0.059
6.3790002 0.044 0.059999999
6.723 0.061000001 0.064999998
6.8790002 0.077 0.068999998
6.8649998 0.090999998 0.071000002
6.776 0.104 0.071999997
6.6869998 0.117 0.072999999
6.6059999 0.13 0.074000001
6.5219998 0.142 0.075000003
6.4039998 0.153 0.075999998
6.3660002 0.16500001 0.077
6.302 0.177 0.079000004
6.2550001 0.189 0.079999998
6.158 0.199 0.081
6.1030002 0.20999999 0.082000002
6.0539999 0.221 0.083999999
5.9499998 0.23 0.085000001
5.7729998 0.235 0.083999999
5.7270002 0.245 0.086000003
5.6739998 0.255 0.086999997
5.6950002 0.26800001 0.090000004
5.6950002 0.28 0.092
5.691 0.29100001 0.093999997
5.6900001 0.303 0.097000003
5.7140002 0.31600001 0.098999999
5.7119999 0.32800001 0.102
5.6950002 0.33899999 0.104
5.7059999 0.35100001 0.107
0 0 0
0 0 0
3.7030001 0.25099999 0.074000001
3.645 0.255 0.075000003
3.589 0.25799999 0.075000003
3.5369999 0.26199999 0.075999998
3.4920001 0.26499999 0.075999998
3.444 0.26899999 0.077
3.392 0.27200001 0.077
3.3399999 0.27399999 0.078000002
3.2980001 0.27700001 0.079000004
3.2639999 0.28099999 0.079000004
3.2190001 0.28400001 0.079999998
3.188 0.28799999 0.081
3.1500001 0.28999999 0.082000002
3.112 0.29300001 0.082000002
3.0780001 0.296 0.082999997
3.069 0.301 0.083999999
3.0610001 0.30700001 0.086000003
3.063 0.31299999 0.088
3.1229999 0.32600001 0.090999998
3.2219999 0.34200001 0.096000001
3.7379999 0.40400001 0.113
3.8199999 0.421 0.118
3.8269999 0.42899999 0.121
3.823 0.43599999 0.123
3.8340001 0.44499999 0.125
3.8280001 0.45199999 0.127
3.829 0.45899999 0.13
3.826 0.46599999 0.132
3.7980001 0.47099999 0.134
3.7579999 0.47299999 0.134
3.727 0.47600001 0.13600001
3.6960001 0.479 0.13699999
3.6670001 0.48300001 0.138
3.641 0.486 0.139
3.6170001 0.48899999 0.141
3.595 0.493 0.142
3.5650001 0.49599999 0.14300001
3.539 0.49900001 0.145
3.516 0.50300002 0.146
3.494 0.50599998 0.148
3.4679999 0.509 0.149
3.441 0.51099998 0.15000001
3.4219999 0.51499999 0.15099999
3.402 0.51800001 0.153
3.381 0.52100003 0.154
3.3629999 0.52399999 0.156
3.339 0.52700001 0.15700001
3.3150001 0.52899998 0.15800001
3.2909999 0.53100002 0.15899999
3.27 0.53399998 0.161
3.25 0.53600001 0.162
3.2320001 0.53899997 0.163
3.211 0.54100001 0.16500001
3.1930001 0.54400003 0.16599999
3.1689999 0.54500002 0.167
3.1530001 0.54799998 0.168
3.1370001 0.551 0.17
3.1110001 0.55199999 0.171
3.098 0.55500001 0.17200001
3.0810001 0.55699998 0.17399999
3.0480001 0.55599999 0.17399999
3.026 0.55699998 0.175
3.0120001 0.56 0.177
3.0009999 0.56300002 0.178
2.987 0.565 0.18000001
2.9660001 0.56699997 0.18099999
2.9549999 0.56900001 0.182
2.9319999 0.56999999 0.183
2.927 0.574 0.185
2.908 0.57499999 0.186
2.8900001 0.57599998 0.18700001
2.8789999 0.57800001 0.18799999
2.8629999 0.57999998 0.19
2.8499999 0.58200002 0.191
2.8299999 0.58200002 0.192
2.8239999 0.58499998 0.19400001
2.8110001 0.58700001 0.19499999
2.796 0.58899999 0.19599999
2.7880001 0.59100002 0.198
2.7739999 0.59299999 0.199
2.7639999 0.59500003 0.20100001
2.7490001 0.59600002 0.20200001
2.7290001 0.59500003 0.20200001
2.721 0.59799999 0.204
2.7130001 0.60000002 0.205
2.7030001 0.602 0.207
2.6889999 0.60299999 0.208
2.675 0.60399997 0.20900001
2.665 0.60500002 0.20999999
2.6559999 0.60699999 0.212
2.6489999 0.60900003 0.213
2.632 0.60900003 0.214
2.6210001 0.61000001 0.215
2.6099999 0.61199999 0.21600001
2.6070001 0.61500001 0.21799999
2.5910001 0.61400002 0.219
2.5780001 0.61500001 0.22
2.575 0.61799997 0.222
2.5639999 0.61900002 0.223
2.5539999 0.62 0.22400001
2.546 0.62099999 0.226
2.5380001 0.62300003 0.227
2.53 0.62400001 0.228
2.5209999 0.625 0.229
2.507 0.625 0.23
2.503 0.62699997 0.23199999
2.49 0.62699997 0.233
2.487 0.63 0.234
2.4719999 0.62900001 0.235
2.4690001 0.63099998 0.237
2.4619999 0.63200003 0.23800001
2.4530001 0.63300002 0.23899999
2.4449999 0.634 0.23999999
2.438 0.63499999 0.242
2.4300001 0.63599998 0.243
2.4260001 0.63800001 0.244
2.4200001 0.639 0.24600001
2.408 0.639 0.24600001
2.401 0.63999999 0.248
2.3929999 0.63999999 0.249
2.3889999 0.64200002 0.25
2.381 0.64200002 0.25099999
2.3740001 0.64300001 0.252
2.3710001 0.64499998 0.25400001
2.3610001 0.64399999 0.255
2.3570001 0.64600003 0.25600001
2.3499999 0.64600003 0.257
2.342 0.64700001 0.25799999
2.339 0.64899999 0.25999999
2.332 0.64899999 0.26100001
2.326 0.64999998 0.26199999
2.3169999 0.64899999 0.26300001
2.316 0.65100002 0.264
2.309 0.65200001 0.26499999
2.3039999 0.65200001 0.26699999
2.302 0.65399998 0.26800001
2.2909999 0.653 0.26899999
2.2950001 0.65600002 0.271
2.286 0.65600002 0.271
2.276 0.65499997 0.27200001
2.273 0.65600002 0.273
2.267 0.65700001 0.27399999
2.2620001 0.65700001 0.27500001
2.2579999 0.65799999 0.27700001
2.2539999 0.65799999 0.278
2.2509999 0.66000003 0.27900001
2.25 0.66100001 0.28099999
2.2390001 0.66000003 0.28099999
2.237 0.66100001 0.28200001
2.2360001 0.662 0.28400001
2.2349999 0.66399997 0.285
2.23 0.66399997 0.28600001
2.227 0.66399997 0.28799999
2.2190001 0.66399997 0.28799999
2.217 0.66500002 0.289
2.214 0.66500002 0.29100001
2.214 0.667 0.292
2.2079999 0.667 0.29300001
2.197 0.66500002 0.29300001
2.1989999 0.667 0.29499999
2.1889999 0.66500002 0.29499999
2.1889999 0.66600001 0.29699999
2.188 0.667 0.29800001
2.184 0.66799998 0.29899999
2.184 0.66900003 0.30000001
2.1819999 0.66900003 0.301
2.1800001 0.67000002 0.303
2.1760001 0.67000002 0.30399999
2.1760001 0.671 0.30500001
2.171 0.671 0.30599999
2.165 0.67000002 0.30599999
2.1630001 0.67000002 0.30700001
2.1600001 0.67000002 0.308
2.1619999 0.67199999 0.31
2.1600001 0.67199999 0.31099999
2.161 0.67400002 0.31299999
2.158 0.67400002 0.31299999
2.1500001 0.67199999 0.31400001
2.152 0.67299998 0.315
2.151 0.67400002 0.31600001
2.148 0.67400002 0.317
2.145 0.67400002 0.31799999
2.1440001 0.67400002 0.31900001
2.1389999 0.67299998 0.31999999
2.1400001 0.67400002 0.32100001
2.1389999 0.67500001 0.322
2.1389999 0.67500001 0.32300001
2.1359999 0.67500001 0.324
2.1359999 0.67500001 0.32499999
2.1329999 0.67500001 0.32600001
2.1329999 0.67500001 0.32699999
2.135 0.676 0.329
2.1300001 0.67500001 0.329
2.131 0.676 0.33000001
2.131 0.676 0.331
2.1289999 0.676 0.33199999
2.1329999 0.67799997 0.33399999
2.128 0.67699999 0.33399999
2.1300001 0.67699999 0.336
2.128 0.67699999 0.336
2.1300001 0.67799997 0.338
2.1229999 0.676 0.338
2.1259999 0.67699999 0.33899999
2.1259999 0.67699999 0.34
2.1259999 0.67699999 0.34099999
2.125 0.67699999 0.34200001
2.1289999 0.67799997 0.34400001
2.1289999 0.67799997 0.34400001
2.128 0.67799997 0.345
2.125 0.67699999 0.34599999
2.128 0.67799997 0.347
2.125 0.67699999 0.34799999
2.1329999 0.67900002 0.34999999
2.131 0.67799997 0.34999999
2.1329999 0.67900002 0.35100001
2.131 0.67799997 0.352
2.1329999 0.67799997 0.35299999
2.1329999 0.67799997 0.354
2.1359999 0.67900002 0.35499999
2.1300001 0.67699999 0.35499999
2.1359999 0.67799997 0.35699999
2.1359999 0.67799997 0.35800001
2.1359999 0.67699999 0.35800001
2.1359999 0.67699999 0.359
2.1389999 0.67699999 0.36000001
2.1359999 0.676 0.361
2.145 0.67799997 0.36300001
2.148 0.67799997 0.36399999
2.148 0.67799997 0.36500001
2.1489999 0.67699999 0.36500001
2.1470001 0.676 0.366
2.151 0.67699999 0.36700001
2.152 0.676 0.368
2.1570001 0.67699999 0.36899999
2.1589999 0.67699999 0.37
2.158 0.676 0.37099999
2.158 0.67500001 0.37099999
2.1630001 0.676 0.37200001
2.164 0.67500001 0.373
2.164 0.67500001 0.37400001
2.1689999 0.67500001 0.375
2.1689999 0.67400002 0.37599999
2.1689999 0.67299998 0.37599999
2.177 0.67500001 0.37799999
2.1789999 0.67400002 0.37900001
2.1789999 0.67299998 0.37900001
2.1800001 0.67199999 0.37900001
2.188 0.67400002 0.38100001
2.191 0.67299998 0.382
2.1919999 0.67199999 0.38299999
2.2 0.67400002 0.384
2.201 0.67299998 0.38499999
2.2049999 0.67299998 0.38600001
2.2090001 0.67299998 0.38699999
2.21 0.67199999 0.38699999
2.2130001 0.671 0.38800001
2.2160001 0.671 0.389
2.224 0.67199999 0.391
2.2260001 0.671 0.391
2.2279999 0.67000002 0.391
2.2349999 0.671 0.39300001
2.234 0.66900003 0.39300001
2.2390001 0.66900003 0.39399999
2.243 0.66799998 0.39500001
2.243 0.667 0.39500001
2.247 0.66600001 0.39500001
2.25 0.66500002 0.396
2.2620001 0.667 0.398
2.2639999 0.66600001 0.39899999
2.2690001 0.66600001 0.40000001
2.2690001 0.66399997 0.40000001
2.2809999 0.66600001 0.40200001
2.286 0.66500002 0.40200001
2.286 0.66299999 0.40200001
2.29 0.662 0.403
2.2980001 0.66299999 0.40400001
2.306 0.66299999 0.40599999
2.309 0.662 0.40599999
2.3139999 0.662 0.40700001
2.322 0.662 0.40799999
2.326 0.66100001 0.40799999
2.332 0.66000003 0.40900001
2.3369999 0.65899998 0.41
2.3380001 0.65799999 0.41
2.3440001 0.65700001 0.41100001
2.3540001 0.65700001 0.412
2.3559999 0.65600002 0.412
2.3640001 0.65499997 0.41299999
2.368 0.65399998 0.41299999
2.3759999 0.65399998 0.41499999
2.385 0.65399998 0.41600001
2.3889999 0.653 0.41600001
2.3929999 0.65200001 0.41600001
2.398 0.64999998 0.417
2.4070001 0.64999998 0.41800001
2.4170001 0.65100002 0.419
2.425 0.64999998 0.41999999
2.428 0.648 0.41999999
2.438 0.648 0.421
2.444 0.64700001 0.421
2.451 0.64600003 0.42199999
2.4579999 0.64499998 0.42199999
2.4660001 0.64399999 0.42300001
2.47 0.64300001 0.42300001
2.4860001 0.64399999 0.42500001
2.493 0.64300001 0.426
2.5 0.64200002 0.426
2.5079999 0.64099997 0.42699999
2.5109999 0.639 0.426
2.527 0.63999999 0.428
2.5320001 0.63800001 0.428
2.5339999 0.63599998 0.428
2.5469999 0.63599998 0.42899999
2.5539999 0.634 0.42899999
2.5599999 0.63200003 0.42899999
2.5769999 0.634 0.43099999
2.5810001 0.63099998 0.43099999
2.5929999 0.63099998 0.43200001
2.596 0.62800002 0.43099999
2.605 0.62699997 0.43200001
2.622 0.62800002 0.433
2.6300001 0.62699997 0.43399999
2.638 0.625 0.43399999
2.648 0.62400001 0.43399999
2.6659999 0.62400001 0.43599999
2.6700001 0.62199998 0.43599999
2.681 0.62099999 0.43599999
2.687 0.61900002 0.43599999
2.6989999 0.61799997 0.43599999
2.7090001 0.616 0.43700001
2.723 0.616 0.43799999
2.733 0.61500001 0.43799999
2.7520001 0.61500001 0.43900001
2.753 0.611 0.43799999
2.7679999 0.611 0.43900001
2.7780001 0.60900003 0.43900001
2.7839999 0.60600001 0.43799999
2.799 0.60600001 0.43900001
2.813 0.60500002 0.44
2.8199999 0.60299999 0.43900001
2.8329999 0.60100001 0.44
2.8510001 0.60100001 0.44100001
2.8559999 0.59799999 0.44
2.872 0.597 0.44
2.8889999 0.59600002 0.44100001
2.8970001 0.59399998 0.44100001
2.9119999 0.59299999 0.44100001
2.924 0.59100002 0.44100001
2.938 0.58899999 0.44100001
2.95 0.58700001 0.44100001
2.9679999 0.58600003 0.442
2.98 0.58399999 0.44100001
2.994 0.583 0.44100001
3.0109999 0.58099997 0.442
3.0250001 0.579 0.442
3.049 0.579 0.44299999
3.063 0.57700002 0.44299999
3.0799999 0.57599998 0.44299999
3.0880001 0.57300001 0.442
3.109 0.57200003 0.44299999
3.125 0.56999999 0.44299999
3.145 0.56900001 0.44299999
3.1559999 0.56599998 0.442
3.171 0.56400001 0.442
3.1849999 0.56099999 0.44100001
3.1960001 0.55800003 0.44
3.221 0.55800003 0.44100001
3.2390001 0.55599999 0.44100001
3.2539999 0.55299997 0.44
3.2720001 0.551 0.44
3.2939999 0.55000001 0.44
3.3110001 0.54699999 0.44
3.335 0.546 0.44
3.3540001 0.54400003 0.44
3.3759999 0.542 0.43900001
3.3929999 0.53899997 0.43799999
3.4070001 0.53600001 0.43700001
3.4230001 0.53299999 0.43599999
3.447 0.53100002 0.43599999
3.4679999 0.52899998 0.43599999
3.4979999 0.528 0.43599999
3.5109999 0.52399999 0.435
3.529 0.52100003 0.433
3.553 0.51899999 0.433
3.5739999 0.51599997 0.43200001
3.5969999 0.51300001 0.43099999
3.6210001 0.51099998 0.43099999
3.6429999 0.50800002 0.43000001
3.668 0.50599998 0.42899999
3.691 0.50300002 0.428
3.717 0.5 0.42699999
3.734 0.49599999 0.426
3.76 0.49399999 0.42500001
3.7809999 0.49000001 0.42300001
3.8069999 0.48800001 0.42199999
3.829 0.484 0.41999999
3.859 0.48199999 0.41999999
3.8900001 0.479 0.419
3.8929999 0.47299999 0.41499999
3.8940001 0.46700001 0.41100001
3.892 0.46000001 0.40700001
3.888 0.45300001 0.40200001
3.8900001 0.447 0.398
3.8859999 0.44 0.39300001
3.8829999 0.43399999 0.38800001
3.8139999 0.41999999 0.377
3.2869999 0.35600001 0.32100001
3.2119999 0.34299999 0.31
3.1099999 0.32699999 0.29699999
3.1110001 0.322 0.29300001
3.109 0.31600001 0.28999999
3.109 0.31099999 0.28600001
3.122 0.30700001 0.28299999
3.1359999 0.30399999 0.28099999
3.171 0.30199999 0.28
3.197 0.29899999 0.27900001
3.2309999 0.29699999 0.278
3.2620001 0.294 0.27700001
3.2969999 0.292 0.27599999
3.329 0.28999999 0.27399999
3.359 0.287 0.27200001
3.4059999 0.285 0.27200001
3.4330001 0.28200001 0.27000001
3.493 0.28099999 0.27000001
3.6229999 0.285 0.27599999
3.701 0.28600001 0.27700001
3.7539999 0.28400001 0.27599999
3.803 0.28099999 0.27500001
3.835 0.27700001 0.27200001
3.836 0.271 0.26699999
3.8340001 0.26499999 0.26199999
3.819 0.257 0.25600001
3.819 0.25099999 0.25099999
3.812 0.245 0.245
3.8080001 0.23800001 0.23999999
3.8039999 0.23199999 0.235
3.8080001 0.226 0.23
3.809 0.22 0.22400001
3.8169999 0.214 0.22
3.832 0.20900001 0.215
3.8410001 0.20299999 0.211
3.8499999 0.198 0.206
3.852 0.192 0.20100001
3.8659999 0.186 0.19599999
0 0 0
0 0 0
0 0 0
0 0 0
0 0 0
5.9660001 0.23100001 0.252
6.0110002 0.22400001 0.245
6.0560002 0.21600001 0.23800001
6.1160002 0.208 0.23199999
6.1550002 0.2 0.22400001
6.2150002 0.193 0.21699999
6.2729998 0.185 0.20999999
6.3210001 0.176 0.20200001
6.3790002 0.168 0.19499999
6.4039998 0.15899999 0.186
6.4809999 0.15099999 0.17900001
6.5279999 0.142 0.17
6.5209999 0.132 0.16
6.6030002 0.124 0.152
6.6690001 0.115 0.14399999
6.717 0.106 0.13500001
6.7839999 0.096000001 0.126
6.8860002 0.088 0.117
6.9130001 0.078000002 0.107
6.8990002 0.067000002 0.096000001
6.7090001 0.055 0.082999997
6.3730001 0.043000001 0.068999998
6.447 0.034000002 0.059999999
6.5180001 0.025 0.050999999
6.8850002 0.016000001 0.043000001
6.4530001 0.0060000001 0.029999999
6.3800001 -0.0020000001 0.02
6.3660002 -0.011 0.0099999998
6.3569999 -0.021 0
6.5409999 -0.030999999 -0.0099999998
6.5599999 -0.039999999 -0.02
6.4229999 -0.048 -0.029999999
0 0 0
0 0 0
0 0 0
0 0 0
0 0 0
5.6820002 -0.090999998 -0.081
5.6849999 -0.097999997 -0.090000004
5.7249999 -0.107 -0.1
5.6479998 -0.113 -0.108
5.6259999 -0.12 -0.116
5.6370001 -0.12800001 -0.126
5.6739998 -0.13699999 -0.13600001
5.6430001 -0.14399999 -0.14399999
5.645 -0.152 -0.154
5.6240001 -0.15800001 -0.162
5.6550002 -0.167 -0.17299999
5.6290002 -0.17299999 -0.18099999
5.6259999 -0.18099999 -0.19
5.6339998 -0.18799999 -0.2
5.6360002 -0.19599999 -0.20900001
5.6110001 -0.20200001 -0.21699999
5.664 -0.211 -0.229
5.7189999 -0.22 -0.23999999
5.677 -0.226 -0.248
5.6700001 -0.233 -0.257
5.691 -0.241 -0.26800001
5.6950002 -0.248 -0.27700001
5.6989999 -0.255 -0.287
5.6929998 -0.26199999 -0.296
0 0 0
0 0 0
0 0 0
0 0 0
0 0 0
0 0 0
0 0 0
0 0 0
5.6030002 -0.31900001 -0.37599999
5.6030002 -0.32499999 -0.38499999
5.6669998 -0.33500001 -0.39899999
5.5780001 -0.33700001 -0.40200001
5.6659999 -0.34799999 -0.41800001
5.5710001 -0.34900001 -0.421
5.5469999 -0.354 -0.428
5.5679998 -0.361 -0.43900001
5.5739999 -0.368 -0.449
5.5640001 -0.373 -0.458
5.5669999 -0.38 -0.46799999
5.5430002 -0.384 -0.47499999
5.5510001 -0.391 -0.48500001
8.9720001 -0.64099997 -0.79900002
8.9390001 -0.64899999 -0.81099999
8.9530001 -0.65899998 -0.82800001
8.9499998 -0.66799998 -0.84299999
8.9440002 -0.67699999 -0.85699999
5.5689998 -0.42699999 -0.54299998
5.5500002 -0.43099999 -0.55000001
5.5339999 -0.43599999 -0.55800003
5.5489998 -0.44299999 -0.56900001
5.5320001 -0.447 -0.57700002
5.5320001 -0.45199999 -0.58600003
5.5409999 -0.45899999 -0.59600002
5.5310001 -0.463 -0.60500002
5.5209999 -0.46799999 -0.61299998
5.5479999 -0.47600001 -0.625
5.5339999 -0.47999999 -0.63300002
5.5500002 -0.486 -0.64399999
5.5310001 -0.49000001 -0.65100002
5.5300002 -0.495 -0.66000003
5.52 -0.49900001 -0.66799998
5.527 -0.505 -0.67799997
5.5229998 -0.50999999 -0.68699998
5.5009999 -0.51300001 -0.69300002
5.5040002 -0.51800001 -0.70300001
5.5050001 -0.523 -0.71200001
5.493 -0.52700001 -0.72000003
5.4990001 -0.53200001 -0.73000002
5.5100002 -0.53799999 -0.74000001
5.4899998 -0.54000002 -0.74699998
5.4879999 -0.54500002 -0.755
5.4910002 -0.55000001 -0.76499999
5.4959998 -0.55500001 -0.77499998
5.4819999 -0.55800003 -0.78200001
5.4759998 -0.56199998 -0.79000002
5.4759998 -0.56599998 -0.79900002
5.4910002 -0.57200003 -0.81
5.4749999 -0.57499999 -0.81599998
5.4629998 -0.57800001 -0.82300001
5.4549999 -0.58099997 -0.83099997
5.4699998 -0.58700001 -0.84200001
5.454 -0.58899999 -0.84899998
5.4559999 -0.59399998 -0.85799998
5.428 -0.59500003 -0.86199999
5.448 -0.60100001 -0.87400001
5.4489999 -0.60500002 -0.88300002
5.4419999 -0.60799998 -0.88999999
5.4429998 -0.61199999 -0.89899999
5.4330001 -0.61500001 -0.90600002
5.4310002 -0.61799997 -0.91500002
5.4099998 -0.61900002 -0.91900003
5.427 -0.625 -0.93099999
5.427 -0.62900001 -0.94
5.4169998 -0.63099998 -0.94599998
5.4109998 -0.634 -0.95300001
5.4120002 -0.63700002 -0.96200001
5.408 -0.63999999 -0.97000003
5.3990002 -0.64300001 -0.97600001
5.401 -0.64600003 -0.98500001
5.402 -0.64999998 -0.99299997
5.3990002 -0.65200001 -1.001
5.3909998 -0.65499997 -1.008
5.3730001 -0.65600002 -1.013
5.381 -0.66000003 -1.022
5.3800001 -0.66299999 -1.03
0 0 0
0 0 0
0 0 0
0 0 0
0 0 0
0 0 0
0 0 0
0 0 0
0 0 0
0 0 0
0 0 0
0 0 0
0 0 0
0 0 0
0 0 0
0 0 0
3.503 -0.461 -0.75700003
3.5 -0.46200001 -0.76099998
3.4990001 -0.463 -0.76499999
3.493 -0.46399999 -0.76899999
3.49 -0.465 -0.773
3.4890001 -0.46599999 -0.77700001
3.487 -0.46700001 -0.78200001
3.4890001 -0.46799999 -0.787
3.4879999 -0.47 -0.79100001
3.487 -0.47099999 -0.79500002
3.49 -0.472 -0.801
3.4820001 -0.472 -0.80299997
3.4809999 -0.47299999 -0.80800003
3.4820001 -0.47499999 -0.81199998
3.48 -0.47600001 -0.81699997
3.48 -0.477 -0.82099998
3.4760001 -0.477 -0.824
3.477 -0.47799999 -0.829
3.4809999 -0.47999999 -0.83399999
3.4760001 -0.47999999 -0.83700001
3.474 -0.48100001 -0.84100002
3.4779999 -0.48199999 -0.84600002
3.473 -0.48199999 -0.84899998
3.4690001 -0.48300001 -0.852
3.4679999 -0.48300001 -0.85600001
3.467 -0.484 -0.86000001
3.4690001 -0.48500001 -0.86400002
3.4679999 -0.486 -0.86799997
3.4660001 -0.486 -0.87199998
3.4649999 -0.48699999 -0.87599999
3.4649999 -0.48699999 -0.87900001
3.461 -0.48699999 -0.88200003
3.4649999 -0.48800001 -0.88700002
3.4619999 -0.48800001 -0.88999999
3.461 -0.48899999 -0.89399999
3.46 -0.48899999 -0.89700001
3.4560001 -0.48899999 -0.89999998
3.4619999 -0.49000001 -0.90499997
3.4630001 -0.491 -0.90899998
3.4560001 -0.491 -0.91100001
3.4590001 -0.491 -0.91500002
3.4579999 -0.49200001 -0.91799998
3.457 -0.49200001 -0.921
3.4519999 -0.491 -0.92400002
3.451 -0.49200001 -0.92699999
3.457 -0.493 -0.93199998
3.4579999 -0.493 -0.935
3.4530001 -0.49200001 -0.93699998
3.4549999 -0.493 -0.94099998
3.451 -0.49200001 -0.94300002
3.4489999 -0.49200001 -0.94599998
3.451 -0.493 -0.94999999
3.4489999 -0.49200001 -0.95200002
3.451 -0.493 -0.95599997
3.447 -0.49200001 -0.958
3.4489999 -0.493 -0.96100003
3.4460001 -0.49200001 -0.963
3.447 -0.49200001 -0.96600002
3.447 -0.49200001 -0.96899998
3.4430001 -0.49200001 -0.97100002
3.448 -0.49200001 -0.97500002
3.4419999 -0.491 -0.97600001
3.4430001 -0.491 -0.97899997
3.4449999 -0.491 -0.98199999
3.4400001 -0.49000001 -0.98400003
3.444 -0.49000001 -0.98699999
3.444 -0.49000001 -0.99000001
3.4449999 -0.49000001 -0.99299997
3.4419999 -0.48899999 -0.99400002
3.4419999 -0.48899999 -0.99699998
3.4430001 -0.48899999 -0.99900001
3.441 -0.48800001 -1.001
3.444 -0.48800001 -1.0039999
3.4430001 -0.48699999 -1.006
3.441 -0.486 -1.008
3.4419999 -0.486 -1.01
3.4400001 -0.48500001 -1.012
3.438 -0.484 -1.013
3.441 -0.484 -1.016
3.4400001 -0.484 -1.018
3.4400001 -0.48300001 -1.02
3.438 -0.48199999 -1.021
3.4389999 -0.48199999 -1.023
3.437 -0.48100001 -1.024
3.4360001 -0.47999999 -1.026
3.438 -0.479 -1.028
3.438 -0.479 -1.03
3.4349999 -0.477 -1.031
3.437 -0.477 -1.033
3.437 -0.47600001 -1.034
3.4400001 -0.47600001 -1.0369999
3.4419999 -0.47499999 -1.039
3.4400001 -0.47400001 -1.039
3.4360001 -0.472 -1.04
3.441 -0.472 -1.043
3.4430001 -0.472 -1.044
3.4449999 -0.47099999 -1.046
3.448 -0.47 -1.048
3.4519999 -0.47 -1.051
3.4530001 -0.46900001 -1.052
3.4590001 -0.46900001 -1.0549999
3.457 -0.46700001 -1.0549999
3.4590001 -0.46700001 -1.057
3.4590001 -0.465 -1.058
3.4649999 -0.465 -1.061
3.473 -0.465 -1.064
3.4749999 -0.46399999 -1.0650001
3.48 -0.463 -1.068
3.4790001 -0.46200001 -1.068
3.4790001 -0.461 -1.069
3.473 -0.45899999 -1.067
3.4760001 -0.458 -1.069
3.4790001 -0.45699999 -1.0700001
3.454 -0.45199999 -1.063
0 0 0
0 0 0
5.289 -0.68599999 -1.63
5.2979999 -0.685 -1.633
5.2870002 -0.68199998 -1.63
5.2690001 -0.67699999 -1.625
5.2789998 -0.676 -1.628
5.2779999 -0.67400002 -1.628
8.8710003 -1.1289999 -2.7360001
8.8760004 -1.126 -2.7379999
8.8850002 -1.123 -2.74
8.8769999 -1.118 -2.7379999
8.8809996 -1.114 -2.7390001
5.276 -0.66000003 -1.626
5.2849998 -0.65799999 -1.6289999
5.2839999 -0.65600002 -1.628
5.2979999 -0.65499997 -1.632
5.2849998 -0.65100002 -1.627
5.3080001 -0.65100002 -1.6339999
5.3070002 -0.648 -1.633
5.2779999 -0.64200002 -1.623
5.2989998 -0.64200002 -1.6289999
5.2820001 -0.63700002 -1.622
5.2670002 -0.63300002 -1.617
5.2680001 -0.63 -1.6160001
5.2909999 -0.63 -1.622
5.2800002 -0.62599999 -1.617
5.2930002 -0.625 -1.62
5.2909999 -0.62199998 -1.618
5.2969999 -0.62 -1.619
5.2919998 -0.616 -1.6160001
5.2839999 -0.61199999 -1.612
5.3039999 -0.61199999 -1.6160001
5.3039999 -0.60900003 -1.614
5.3239999 -0.60799998 -1.618
5.2849998 -0.60000002 -1.605
5.3060002 -0.60000002 -1.609
5.29 -0.59500003 -1.602
5.2969999 -0.59299999 -1.602
5.3070002 -0.59100002 -1.603
5.3200002 -0.58899999 -1.605
5.2979999 -0.58399999 -1.596
5.302 -0.58099997 -1.595
5.3260002 -0.57999998 -1.6
5.2989998 -0.574 -1.589
5.3080001 -0.57200003 -1.589
5.3080001 -0.56900001 -1.587
5.2880001 -0.56300002 -1.5779999
5.303 -0.56199998 -1.579
0 0 0
0 0 0
0 0 0
0 0 0
0 0 0
0 0 0
5.3070002 -0.53899997 -1.559
5.3049998 -0.53500003 -1.5549999
5.3299999 -0.53399998 -1.559
5.3109999 -0.52899998 -1.55
5.3099999 -0.52499998 -1.546
5.3239999 -0.523 -1.5470001
5.3260002 -0.51999998 -1.544
5.3249998 -0.51599997 -1.54
5.3119998 -0.51200002 -1.5319999
5.3200002 -0.509 -1.53
5.3140001 -0.505 -1.525
5.3239999 -0.50199997 -1.523
5.3239999 -0.49900001 -1.5190001
5.3299999 -0.495 -1.517
5.3270001 -0.49200001 -1.512
5.348 -0.49000001 -1.513
0 0 0
0 0 0
5.3429999 -0.47799999 -1.499
5.3600001 -0.47600001 -1.499
5.3649998 -0.47299999 -1.495
5.348 -0.46799999 -1.4859999
5.3470001 -0.46399999 -1.4809999
5.3509998 -0.461 -1.477
5.3639998 -0.458 -1.476
5.375 -0.45500001 -1.474
5.3629999 -0.44999999 -1.465
5.3660002 -0.447 -1.461
5.355 -0.442 -1.4529999
5.3649998 -0.43900001 -1.45
5.3839998 -0.43700001 -1.45
5.3720002 -0.43200001 -1.441
5.3850002 -0.43000001 -1.439
5.3800001 -0.42500001 -1.432
5.362 -0.41999999 -1.4220001
5.3730001 -0.417 -1.42
5.3470001 -0.41100001 -1.4069999
9.0710001 -0.69099998 -2.3770001
8.9309998 -0.67500001 -2.3299999
8.7340002 -0.653 -2.27
8.6630001 -0.64200002 -2.2420001
8.6370001 -0.634 -2.2249999
8.6660004 -0.63 -2.223
8.6569996 -0.62300003 -2.21
8.6750002 -0.61799997 -2.2049999
8.7930002 -0.62 -2.2249999
8.816 -0.61500001 -2.22
5.3639998 -0.37 -1.344
5.3909998 -0.368 -1.345
5.3759999 -0.36300001 -1.334
5.3969998 -0.361 -1.3329999
5.3930001 -0.35699999 -1.325
5.4029999 -0.35299999 -1.321
5.3990002 -0.34900001 -1.313
5.3909998 -0.345 -1.304
5.3930001 -0.34099999 -1.298
5.4050002 -0.338 -1.294
5.395 -0.33399999 -1.284
5.3889999 -0.329 -1.275
5.3959999 -0.32600001 -1.27
5.3979998 -0.322 -1.263
5.4050002 -0.31900001 -1.258
5.4229999 -0.31600001 -1.2539999
5.4089999 -0.31099999 -1.244
5.4109998 -0.30700001 -1.237
5.4200001 -0.30399999 -1.2309999
5.4239998 -0.30000001 -1.225
5.4320002 -0.29699999 -1.219
5.4229999 -0.29300001 -1.209
5.4180002 -0.289 -1.2
5.415 -0.28400001 -1.192
5.4229999 -0.28099999 -1.186
5.4130001 -0.27700001 -1.176
5.4109998 -0.273 -1.1670001
5.4530001 -0.271 -1.168
5.4489999 -0.26699999 -1.159
5.46 -0.264 -1.153
5.4380002 -0.259 -1.14
5.461 -0.25600001 -1.137
5.4390001 -0.252 -1.124
5.4460001 -0.248 -1.117
5.4510002 -0.245 -1.11
5.4619999 -0.241 -1.103
5.454 -0.237 -1.0930001
5.4650002 -0.234 -1.087
5.4559999 -0.23 -1.077
5.4580002 -0.226 -1.068
5.4650002 -0.223 -1.061
5.473 -0.22 -1.053
5.4499998 -0.215 -1.04
5.4569998 -0.212 -1.033
5.4629998 -0.208 -1.025
5.474 -0.205 -1.018
5.4759998 -0.20100001 -1.0089999
5.4879999 -0.198 -1.002
5.4840002 -0.19499999 -0.99199998
5.5019999 -0.192 -0.98699999
5.5170002 -0.189 -0.98000002
5.5289998 -0.185 -0.97299999
0 0 0
0 0 0
5.5970001 -0.177 -0.95599997
5.5510001 -0.17200001 -0.93800002
5.4850001 -0.16599999 -0.917
5.586 -0.16599999 -0.92500001
0 0 0
5.552 -0.15800001 -0.89999998
0 0 0
0 0 0
0 0 0
0 0 0
5.599 -0.14300001 -0.85699999
5.5489998 -0.138 -0.83999997
5.5089998 -0.134 -0.824
5.5370002 -0.131 -0.81800002
5.5339999 -0.12800001 -0.80699998
5.5300002 -0.125 -0.79699999
5.494 -0.121 -0.78100002
5.507 -0.118 -0.773
5.5079999 -0.115 -0.76300001
5.5419998 -0.112 -0.75700003
0 0 0
0 0 0
0 0 0
0 0 0
0 0 0
0 0 0
0 0 0
0 0 0
0 0 0
0 0 0
0 0 0
0 0 0
0 0 0
0 0 0
0 0 0
0 0 0
0 0 0
0 0 0
0 0 0
0 0 0
0 0 0
0 0 0
0 0 0
0 0 0
0 0 0
0 0 0
0 0 0
0 0 0
0 0 0
0 0 0
0 0 0
0 0 0
0 0 0
0 0 0
0 0 0
0 0 0
0 0 0
0 0 0
0 0 0
0 0 0
0 0 0
0 0 0
0 0 0
0 0 0
0 0 0
0 0 0
0 0 0
0 0 0
5.678 0.003 -0.221
5.6900001 0.0040000002 -0.20999999
5.6960001 0.0060000001 -0.198
5.6399999 0.0070000002 -0.184
0 0 0
0 0 0
0 0 0
0 0 0
0 0 0
0 0 0
0 0 0
0 0 0
0 0 0
0 0 0
6.46 0.025 -0.061000001
6.3920002 0.026000001 -0.046999998
6.3569999 0.027000001 -0.033
6.3460002 0.028000001 -0.018999999
6.4219999 0.028999999 -0.0060000001
6.5349998 0.030999999 0.0070000002
6.4840002 0.030999999 0.021
6.3990002 0.032000002 0.034000002
6.3449998 0.032000002 0.046999998
6.3540001 0.033 0.061000001
6.7849998 0.035999998 0.079000004
6.7919998 0.037 0.093999997
6.7119999 0.037999999 0.107
6.7129998 0.037999999 0.121
6.6750002 0.039000001 0.13500001
6.6279998 0.039000001 0.148
6.6069999 0.039000001 0.162
6.5949998 0.039999999 0.176
6.559 0.039999999 0.18799999
6.506 0.039999999 0.20100001
6.4619999 0.039999999 0.213
6.4109998 0.039999999 0.22499999
6.3759999 0.039999999 0.237
6.336 0.039999999 0.25
6.29 0.039999999 0.26100001
6.2529998 0.039999999 0.273
0 0 0
3.878 0.025 0.186
3.8770001 0.025 0.19400001
3.8469999 0.025 0.20100001
3.826 0.024 0.208
3.8180001 0.024 0.215
3.7939999 0.024 0.222
3.7809999 0.024 0.229
3.77 0.024 0.237
3.777 0.023 0.245
3.7739999 0.023 0.25299999
3.7809999 0.023 0.26100001
3.7820001 0.023 0.26899999
3.7920001 0.023 0.278
3.7920001 0.022 0.28600001
3.7909999 0.022 0.294
3.79 0.022 0.30199999
3.79 0.021 0.31
3.7909999 0.021 0.31799999
3.8069999 0.02 0.32699999
3.812 0.02 0.33500001
3.8139999 0.02 0.34299999
3.813 0.018999999 0.35100001
3.8180001 0.017999999 0.36000001
3.822 0.017999999 0.368
3.8210001 0.017000001 0.37599999
3.8280001 0.017000001 0.38499999
3.825 0.016000001 0.39199999
3.8199999 0.015 0.40000001
3.8329999 0.015 0.40900001
3.832 0.014 0.417
3.8329999 0.013 0.42500001
3.835 0.013 0.433
3.8340001 0.012 0.44
3.8399999 0.011 0.449
3.835 0.0099999998 0.456
3.8369999 0.0089999996 0.46399999
3.8399999 0.0089999996 0.472
3.8429999 0.0080000004 0.47999999
3.842 0.0070000002 0.48800001
3.842 0.0060000001 0.49599999
3.8429999 0.0049999999 0.50400001
3.849 0.0040000002 0.51200002
3.846 0.003 0.51899999
3.852 0.0020000001 0.528
3.8529999 0.001 0.53600001
3.8529999 0 0.54400003
3.855 0 0.55199999
3.858 -0.001 0.55900002
3.8559999 -0.003 0.56699997
3.858 -0.0040000002 0.57499999
3.8599999 -0.0049999999 0.58200002
3.8559999 -0.0060000001 0.58899999
3.8640001 -0.0070000002 0.59799999
3.8640001 -0.0080000004 0.60600001
3.8659999 -0.0099999998 0.61400002
3.865 -0.011 0.62099999
3.8640001 -0.012 0.62800002
3.8710001 -0.014 0.63700002
3.8699999 -0.015 0.64399999
3.869 -0.016000001 0.65100002
3.878 -0.017999999 0.66000003
3.8740001 -0.018999999 0.667
3.8759999 -0.021 0.67400002
3.875 -0.022 0.68099999
3.8770001 -0.024 0.68900001
3.881 -0.025 0.69700003
3.8789999 -0.027000001 0.704
3.8840001 -0.028000001 0.71200001
3.8800001 -0.029999999 0.71899998
3.8859999 -0.030999999 0.727
3.8829999 -0.033 0.73299998
3.8870001 -0.034000002 0.741
3.8859999 -0.035999998 0.74800003
3.888 -0.037999999 0.755
3.8859999 -0.039000001 0.76200002
3.8929999 -0.041000001 0.76999998
3.888 -0.043000001 0.77600002
3.885 -0.044 0.78299999
3.878 -0.046 0.78799999
3.869 -0.046999998 0.79299998
3.8499999 -0.048999999 0.796
3.8410001 -0.050999999 0.801
3.822 -0.052000001 0.80299997
3.8099999 -0.054000001 0.80800003
3.796 -0.055 0.81099999
3.777 -0.057 0.81400001
3.7690001 -0.057999998 0.81800002
3.7539999 -0.059999999 0.82200003
3.7349999 -0.061000001 0.824
3.727 -0.063000001 0.82800001
3.6989999 -0.064000003 0.82800001
3.6789999 -0.066 0.82999998
3.6719999 -0.067000002 0.83399999
3.6570001 -0.068999998 0.83700001
3.6440001 -0.07 0.83999997
3.635 -0.071999997 0.84399998
3.619 -0.074000001 0.84600002
3.6059999 -0.075000003 0.84899998
3.598 -0.077 0.852
3.585 -0.078000002 0.85500002
3.5739999 -0.079999998 0.85799998
3.559 -0.081 0.86000001
3.549 -0.082999997 0.86299998
3.536 -0.085000001 0.866
3.5280001 -0.086000003 0.86900002
3.506 -0.088 0.86900002
3.503 -0.089000002 0.87400001
3.493 -0.090999998 0.87699997
3.483 -0.093000002 0.87900001
3.477 -0.093999997 0.88300002
3.4579999 -0.096000001 0.88300002
3.4519999 -0.097000003 0.88700002
3.4419999 -0.098999999 0.889
3.434 -0.1 0.89200002
3.4230001 -0.102 0.89499998
3.415 -0.104 0.89700001
3.408 -0.105 0.89999998
3.392 -0.107 0.90100002
3.382 -0.108 0.903
3.3770001 -0.11 0.90600002
3.3610001 -0.111 0.90700001
3.3599999 -0.113 0.91100001
3.346 -0.115 0.912
3.335 -0.116 0.91299999
3.3299999 -0.118 0.917
3.3210001 -0.119 0.91900003
3.313 -0.121 0.921
3.3 -0.122 0.921
3.296 -0.124 0.92500001
3.2850001 -0.126 0.926
3.2750001 -0.127 0.92699999
3.267 -0.12899999 0.92900002
3.257 -0.13 0.93000001
3.2539999 -0.132 0.93300003
3.2490001 -0.133 0.93599999
3.2390001 -0.13500001 0.93699998
3.2309999 -0.13600001 0.93900001
3.224 -0.138 0.94
3.2179999 -0.14 0.94199997
3.21 -0.141 0.94400001
3.204 -0.14300001 0.94599998
3.194 -0.14399999 0.94700003
3.1889999 -0.146 0.949
3.187 -0.147 0.95200002
3.175 -0.149 0.95099998
3.1719999 -0.15000001 0.954
3.168 -0.152 0.95599997
3.1630001 -0.154 0.958
3.152 -0.155 0.958
3.1429999 -0.156 0.95899999
3.135 -0.15800001 0.95999998
3.131 -0.15899999 0.96200001
3.1240001 -0.161 0.963
3.119 -0.162 0.96399999
3.108 -0.164 0.96399999
3.1029999 -0.16500001 0.96499997
3.1010001 -0.167 0.96700001
3.0999999 -0.168 0.97000003
3.089 -0.17 0.97000003
3.082 -0.171 0.97000003
3.0810001 -0.17299999 0.97299999
3.069 -0.17399999 0.972
3.0680001 -0.175 0.97399998
3.0580001 -0.177 0.97399998
3.059 -0.178 0.97600001
3.056 -0.18000001 0.97799999
3.053 -0.182 0.98000002
3.043 -0.183 0.97899997
3.036 -0.184 0.97899997
3.0350001 -0.186 0.98100001
3.0320001 -0.18700001 0.98199999
3.033 -0.189 0.98500001
3.0239999 -0.19 0.98500001
3.0179999 -0.191 0.98500001
3.013 -0.193 0.986
3.01 -0.19400001 0.986
3.0079999 -0.19599999 0.98799998
3.0020001 -0.197 0.98799998
3.0009999 -0.199 0.99000001
2.9949999 -0.2 0.99000001
2.997 -0.20200001 0.99199998
2.9920001 -0.20299999 0.99199998
2.9909999 -0.205 0.99400002
2.9860001 -0.206 0.99400002
2.9849999 -0.207 0.995
2.9809999 -0.20900001 0.99599999
2.9779999 -0.20999999 0.99699998
2.9760001 -0.211 0.99699998
2.974 -0.213 0.99800003
2.9719999 -0.214 0.99900001
2.973 -0.21600001 1.001
2.9649999 -0.21699999 1
2.9590001 -0.21799999 0.99900001
2.954 -0.219 0.99900001
2.9590001 -0.221 1.002
2.9560001 -0.222 1.002
2.95 -0.223 1.001
2.947 -0.22499999 1.001
2.95 -0.226 1.0039999
2.9460001 -0.228 1.003
2.944 -0.229 1.0039999
2.937 -0.23 1.002
2.9449999 -0.23199999 1.006
2.9349999 -0.23199999 1.0039999
2.9330001 -0.234 1.0039999
2.9349999 -0.235 1.005
2.934 -0.237 1.006
2.931 -0.23800001 1.006
2.931 -0.23899999 1.006
2.9289999 -0.241 1.006
2.927 -0.242 1.006
2.9300001 -0.243 1.008
2.9260001 -0.244 1.007
2.9260001 -0.24600001 1.007
2.9260001 -0.24699999 1.008
2.9260001 -0.248 1.008
2.924 -0.25 1.008
2.925 -0.25099999 1.0089999
2.925 -0.252 1.0089999
2.925 -0.25299999 1.0089999
2.925 -0.255 1.0089999
2.924 -0.25600001 1.01
2.924 -0.257 1.01
2.9219999 -0.25799999 1.0089999
2.9230001 -0.25999999 1.0089999
2.9230001 -0.26100001 1.0089999
2.927 -0.26199999 1.011
2.924 -0.26300001 1.01
2.924 -0.264 1.0089999
2.9260001 -0.266 1.01
2.924 -0.26699999 1.0089999
2.921 -0.26800001 1.008
2.924 -0.26899999 1.008
2.924 -0.27000001 1.008
2.924 -0.271 1.008
2.927 -0.273 1.0089999
2.9260001 -0.27399999 1.008
2.9289999 -0.27500001 1.008
2.9300001 -0.27599999 1.008
2.9300001 -0.27700001 1.007
2.9300001 -0.278 1.007
2.9349999 -0.28 1.008
2.9349999 -0.28099999 1.007
2.9349999 -0.28200001 1.006
2.9360001 -0.28299999 1.006
2.9400001 -0.28400001 1.006
2.9400001 -0.285 1.006
2.9400001 -0.28600001 1.005
2.951 -0.28799999 1.007
2.9460001 -0.289 1.005
2.951 -0.28999999 1.006
2.954 -0.29100001 1.006
2.9549999 -0.292 1.005
2.9560001 -0.29300001 1.0039999
2.96 -0.294 1.0039999
2.96 -0.29499999 1.003
2.9660001 -0.29699999 1.003
2.9679999 -0.29800001 1.003
2.9719999 -0.29899999 1.003
2.9719999 -0.30000001 1.001
2.9719999 -0.301 1
2.974 -0.301 0.99900001
2.977 -0.30199999 0.99800003
2.98 -0.30399999 0.99800003
2.9849999 -0.30500001 0.99800003
2.9860001 -0.30599999 0.99699998
2.9879999 -0.30700001 0.99599999
2.9909999 -0.30700001 0.995
2.9960001 -0.30899999 0.995
3.0009999 -0.31 0.99400002
2.997 -0.31 0.991
3.0020001 -0.31099999 0.991
3.0079999 -0.31200001 0.991
3.0050001 -0.31299999 0.98799998
3.016 -0.31400001 0.99000001
3.0220001 -0.31600001 0.98900002
3.0239999 -0.31600001 0.98799998
3.0320001 -0.31799999 0.98799998
3.0320001 -0.31799999 0.986
3.0350001 -0.31900001 0.98500001
3.04 -0.31999999 0.98400003
3.0409999 -0.31999999 0.98199999
3.0439999 -0.32100001 0.98100001
3.059 -0.32300001 0.98299998
3.0569999 -0.32300001 0.98000002
3.0599999 -0.324 0.97899997
3.0650001 -0.32499999 0.97799999
3.073 -0.32600001 0.97799999
3.0769999 -0.32699999 0.97600001
3.0840001 -0.32800001 0.97600001
3.0929999 -0.329 0.97600001
3.092 -0.329 0.97299999
3.1040001 -0.331 0.97399998
3.105 -0.331 0.97100002
3.1140001 -0.333 0.97100002
3.1210001 -0.33399999 0.97000003
3.1259999 -0.33399999 0.96899998
3.1259999 -0.33399999 0.96600002
3.1340001 -0.33500001 0.96499997
3.1429999 -0.33700001 0.96499997
3.1489999 -0.33700001 0.96399999
3.1570001 -0.338 0.963
3.161 -0.33899999 0.96100003
3.168 -0.34 0.95999998
3.177 -0.34099999 0.95899999
3.181 -0.34099999 0.95700002
3.1860001 -0.34200001 0.95499998
3.1949999 -0.34299999 0.954
3.1989999 -0.34299999 0.95200002
3.2030001 -0.34299999 0.94999999
3.211 -0.34400001 0.94800001
3.2149999 -0.34400001 0.94599998
3.2249999 -0.345 0.94499999
3.2349999 -0.34599999 0.94400001
3.2409999 -0.347 0.94199997
3.2460001 -0.347 0.94
3.256 -0.34799999 0.93900001
3.2650001 -0.34900001 0.93800002
3.2690001 -0.34900001 0.935
3.28 -0.34999999 0.93400002
3.2920001 -0.35100001 0.93300003
3.2980001 -0.35100001 0.93099999
3.3039999 -0.35100001 0.92900002
3.3169999 -0.352 0.92799997
3.319 -0.352 0.92400002
3.336 -0.35299999 0.92500001
3.3410001 -0.35299999 0.92199999
3.3469999 -0.354 0.91900003
3.358 -0.354 0.91799998
3.3659999 -0.35499999 0.91600001
3.372 -0.35499999 0.91299999
3.3829999 -0.35499999 0.91100001
3.3929999 -0.35600001 0.90899998
3.4030001 -0.35600001 0.90799999
3.4159999 -0.35699999 0.90600002
3.418 -0.35699999 0.90200001
3.4289999 -0.35699999 0.89999998
3.4400001 -0.35699999 0.898
3.448 -0.35800001 0.89499998
3.454 -0.35699999 0.89200002
3.4560001 -0.35699999 0.88800001
3.477 -0.35800001 0.88800001
3.4809999 -0.35800001 0.884
3.49 -0.35800001 0.88099998
3.5050001 -0.35800001 0.88
3.5190001 -0.359 0.87800002
3.5250001 -0.359 0.875
3.539 -0.359 0.87300003
3.55 -0.359 0.87
3.562 -0.359 0.86799997
3.5739999 -0.359 0.86500001
3.585 -0.36000001 0.86299998
3.5910001 -0.359 0.85900003
3.6010001 -0.359 0.85600001
3.6240001 -0.36000001 0.85600001
3.6300001 -0.359 0.85100001
3.642 -0.359 0.84899998
3.6489999 -0.359 0.84500003
3.665 -0.359 0.84200001
3.6830001 -0.359 0.84100002
3.688 -0.35800001 0.83600003
3.704 -0.359 0.83399999
3.7320001 -0.36000001 0.83399999
3.7409999 -0.359 0.82999998
3.756 -0.359 0.82800001
3.77 -0.359 0.82499999
3.7809999 -0.35800001 0.82099998
3.7920001 -0.35800001 0.81699997
3.8099999 -0.35800001 0.815
3.826 -0.35800001 0.81199998
3.839 -0.35699999 0.80800003
3.848 -0.35600001 0.80400002
3.8499999 -0.35499999 0.79799998
3.8440001 -0.352 0.79000002
3.8469999 -0.35100001 0.78399998
3.8510001 -0.34900001 0.77899998
3.845 -0.347 0.77100003
3.846 -0.345 0.76499999
3.8410001 -0.34200001 0.75700003
3.839 -0.34 0.75
3.8380001 -0.338 0.74400002
3.8380001 -0.336 0.73699999
3.8440001 -0.33500001 0.73199999
3.8410001 -0.33199999 0.72399998
3.8340001 -0.33000001 0.71600002
3.835 -0.32699999 0.70999998
3.8380001 -0.32499999 0.704
3.832 -0.32300001 0.69599998
3.8380001 -0.32100001 0.69
3.8340001 -0.31900001 0.68300003
3.835 -0.31600001 0.67699999
3.832 -0.31400001 0.66900003
3.8280001 -0.31099999 0.662
3.832 -0.30899999 0.65600002
3.8299999 -0.30599999 0.64899999
3.825 -0.30399999 0.64099997
3.826 -0.301 0.63499999
3.8239999 -0.29800001 0.62800002
3.819 -0.296 0.62
3.8199999 -0.29300001 0.61299998
3.822 -0.29100001 0.60699999
3.8199999 -0.28799999 0.60000002
3.819 -0.285 0.59299999
3.8180001 -0.28200001 0.58600003
3.8199999 -0.28 0.579
3.8199999 -0.27700001 0.57200003
3.819 -0.27399999 0.565
3.8150001 -0.271 0.55800003
3.816 -0.26899999 0.551
3.819 -0.266 0.54400003
3.8099999 -0.26199999 0.53600001
3.8110001 -0.259 0.52899998
3.819 -0.257 0.52399999
3.809 -0.25299999 0.51499999
3.812 -0.25099999 0.509
3.812 -0.248 0.50199997
3.812 -0.244 0.495
3.8139999 -0.242 0.48800001
3.8099999 -0.23800001 0.48100001
3.813 -0.235 0.47400001
3.8069999 -0.23199999 0.46599999
3.8069999 -0.229 0.45899999
3.7909999 -0.22400001 0.45100001
3.8050001 -0.222 0.44499999
3.79 -0.21799999 0.43700001
3.79 -0.215 0.43000001
3.7920001 -0.211 0.42300001
3.7909999 -0.208 0.41600001
3.79 -0.205 0.40900001
3.7909999 -0.20100001 0.40200001
3.7920001 -0.198 0.39500001
3.7839999 -0.19400001 0.38699999
3.78 -0.19 0.38
3.78 -0.18700001 0.373
3.7809999 -0.183 0.366
3.777 -0.17900001 0.359
3.7780001 -0.176 0.352
3.7750001 -0.17200001 0.345
3.7739999 -0.168 0.33700001
3.78 -0.16500001 0.331
3.773 -0.161 0.324
3.779 -0.15800001 0.317
3.7750001 -0.154 0.31
3.7720001 -0.15000001 0.303
3.773 -0.146 0.296
3.766 -0.142 0.28799999
3.7679999 -0.138 0.28200001
3.763 -0.134 0.27399999
3.766 -0.13 0.26800001
3.757 -0.126 0.25999999
3.756 -0.122 0.25299999
3.7609999 -0.118 0.24699999
3.7590001 -0.114 0.23999999
3.7539999 -0.11 0.23199999
3.7709999 -0.106 0.227
3.8010001 -0.103 0.222
3.813 -0.098999999 0.215
3.8180001 -0.094999999 0.20900001
3.8429999 -0.090999998 0.20299999
3.8640001 -0.088 0.197
3.859 -0.082999997 0.19
3.859 -0.079000004 0.183
0 0 0
6.2579999 -0.114 0.27500001
6.2849998 -0.107 0.264
6.21 -0.098999999 0.25
6.158 -0.090999998 0.237
6.1820002 -0.083999999 0.227
6.3800001 -0.079000004 0.223
6.4260001 -0.071999997 0.212
6.4889998 -0.064999998 0.20299999
6.5440001 -0.057999998 0.193
6.5809999 -0.050000001 0.182
6.6139998 -0.041999999 0.17200001
6.6659999 -0.035 0.161
6.684 -0.027000001 0.15000001
6.723 -0.018999999 0.139
6.7649999 -0.0099999998 0.12800001
6.7880001 -0.0020000001 0.116
6.8720002 0.0049999999 0.106
6.8829999 0.014 0.093999997
6.8969998 0.023 0.082000002
6.842 0.030999999 0.07
6.4390001 0.037 0.054000001
6.362 0.045000002 0.043000001
0 0 0
6.7719998 0.064999998 0.022
6.967 0.075999998 0.011
6.9369998 0.085000001 0
6.842 0.092 -0.012
6.7870002 0.1 -0.023
6.7820001 0.109 -0.035
6.7449999 0.117 -0.046
6.7129998 0.126 -0.057
6.21 0.124 -0.063000001
6.1030002 0.13 -0.071999997
5.9510002 0.13500001 -0.081
5.8889999 0.142 -0.090000004
5.8670001 0.149 -0.098999999
6.3099999 0.169 -0.117
5.928 0.16599999 -0.119
6.296 0.185 -0.13699999
5.947 0.183 -0.139
6.23 0.2 -0.156
5.8200002 0.19499999 -0.155
5.8379998 0.20299999 -0.16500001
5.711 0.207 -0.171
5.7010002 0.214 -0.18000001
5.6960001 0.222 -0.189
