# .PCD v0.7 - Point Cloud Data file format
VERSION 0.7
FIELDS x y z intensity tag line
SIZE 4 4 4 4 1 1
TYPE F F F F U U
COUNT 1 1 1 1 1 1
WIDTH 1460
HEIGHT 1
VIEWPOINT 0 0 0 1 0 0 0
POINTS 1460
DATA ascii
3.701 -0.20100001 1.226 44 0 0
3.7 -0.20299999 1.228 44 0 0
3.7019999 -0.205 1.232 49 0 0
3.6989999 -0.207 1.233 44 0 0
3.7049999 -0.20900001 1.237 44 0 0
3.697 -0.211 1.237 52 0 0
3.6960001 -0.212 1.239 52 0 0
3.6989999 -0.215 1.242 49 0 0
3.701 -0.21699999 1.245 44 0 0
3.7019999 -0.21799999 1.247 44 0 0
3.701 -0.22 1.249 44 0 0
3.6960001 -0.222 1.25 46 0 0
3.704 -0.22400001 1.2539999 39 0 0
3.701 -0.226 1.255 47 0 0
3.6949999 -0.228 1.255 46 0 0
3.6989999 -0.23 1.258 47 0 0
3.6989999 -0.23100001 1.26 47 0 0
3.698 -0.233 1.262 47 0 0
3.6989999 -0.235 1.2640001 41 0 0
3.697 -0.237 1.2640001 47 0 0
3.694 -0.23800001 1.265 47 0 0
3.698 -0.241 1.268 41 0 0
3.7019999 -0.243 1.271 44 0 0
3.697 -0.244 1.271 41 0 0
3.697 -0.24600001 1.272 44 0 0
3.7 -0.248 1.274 44 0 0
3.6960001 -0.249 1.274 44 0 0
3.6949999 -0.25099999 1.275 41 0 0
3.694 -0.25299999 1.276 41 0 0
3.6949999 -0.25400001 1.277 44 0 0
3.694 -0.25600001 1.278 41 0 0
3.694 -0.25799999 1.279 44 0 0
3.6930001 -0.25999999 1.28 44 0 0
3.697 -0.26100001 1.2819999 44 0 0
3.6930001 -0.26300001 1.281 44 0 0
3.701 -0.26499999 1.285 42 0 0
3.6919999 -0.266 1.2819999 44 0 0
3.7 -0.26800001 1.286 47 0 0
3.6949999 -0.27000001 1.285 37 0 0
3.694 -0.271 1.285 39 0 0
3.697 -0.273 1.286 37 0 0
3.6930001 -0.27500001 1.285 39 0 0
3.6900001 -0.27599999 1.285 44 0 0
3.694 -0.278 1.286 44 0 0
3.698 -0.28 1.288 35 0 0
3.694 -0.28099999 1.2869999 37 0 0
3.694 -0.28200001 1.2869999 35 0 0
3.6900001 -0.28400001 1.286 39 0 0
3.694 -0.28600001 1.2869999 35 0 0
3.694 -0.287 1.2869999 41 0 0
3.698 -0.289 1.289 42 0 0
3.6919999 -0.28999999 1.2869999 35 0 0
3.6930001 -0.29100001 1.2869999 37 0 0
3.694 -0.29300001 1.2869999 41 0 0
3.6889999 -0.294 1.285 37 0 0
3.694 -0.296 1.286 35 0 0
3.694 -0.29699999 1.286 35 0 0
3.6889999 -0.29800001 1.284 37 0 0
3.6889999 -0.30000001 1.283 44 0 0
3.688 -0.301 1.283 44 0 0
3.694 -0.303 1.284 35 0 0
3.688 -0.30399999 1.2819999 44 0 0
3.688 -0.30500001 1.281 39 0 0
3.687 -0.30599999 1.28 41 0 0
3.6889999 -0.308 1.28 41 0 0
3.6849999 -0.30899999 1.277 41 0 0
3.6900001 -0.31 1.278 41 0 0
3.687 -0.31099999 1.276 41 0 0
3.6889999 -0.31299999 1.276 41 0 0
3.6860001 -0.31400001 1.274 41 0 0
3.6860001 -0.315 1.273 39 0 0
3.684 -0.31600001 1.271 39 0 0
3.6900001 -0.31799999 1.272 39 0 0
3.687 -0.31900001 1.27 39 0 0
3.6860001 -0.31999999 1.268 41 0 0
3.6849999 -0.32100001 1.266 44 0 0
3.6830001 -0.322 1.2640001 41 0 0
3.6900001 -0.324 1.265 39 0 0
3.684 -0.324 1.262 46 0 0
3.6889999 -0.32600001 1.262 39 0 0
3.6860001 -0.32600001 1.2589999 41 0 0
3.687 -0.32800001 1.258 44 0 0
3.6830001 -0.32800001 1.255 44 0 0
3.6860001 -0.33000001 1.2539999 44 0 0
3.684 -0.33000001 1.252 44 0 0
3.6830001 -0.331 1.25 49 0 0
3.6849999 -0.33199999 1.248 41 0 0
3.678 -0.333 1.244 43 0 0
3.6860001 -0.33399999 1.245 41 0 0
3.6789999 -0.33500001 1.24 49 0 0
3.6889999 -0.336 1.2410001 44 0 0
3.6830001 -0.33700001 1.237 44 0 0
3.684 -0.338 1.235 37 0 0
3.675 -0.338 1.23 43 0 0
3.678 -0.33899999 1.229 43 0 0
3.678 -0.34 1.227 43 0 0
3.684 -0.34099999 1.226 43 0 0
3.678 -0.34099999 1.222 43 0 0
3.6849999 -0.34299999 1.222 43 0 0
3.6789999 -0.34299999 1.217 43 0 0
3.6819999 -0.34400001 1.215 43 0 0
3.681 -0.34400001 1.212 36 0 0
3.678 -0.345 1.209 36 0 0
3.677 -0.345 1.206 41 0 0
3.6800001 -0.34599999 1.204 36 0 0
3.684 -0.347 1.202 36 0 0
3.6819999 -0.34799999 1.199 38 0 0
3.6830001 -0.34799999 1.196 38 0 0
3.6730001 -0.34799999 1.1900001 43 0 0
3.6819999 -0.34900001 1.1900001 38 0 0
3.6760001 -0.34900001 1.1849999 43 0 0
3.677 -0.34999999 1.182 43 0 0
3.6760001 -0.34999999 1.179 43 0 0
3.677 -0.35100001 1.176 43 0 0
3.681 -0.352 1.174 46 0 0
3.6760001 -0.352 1.169 43 0 0
3.6789999 -0.352 1.166 46 0 0
3.678 -0.35299999 1.163 43 0 0
3.675 -0.35299999 1.158 40 0 0
3.6800001 -0.354 1.156 43 0 0
3.6789999 -0.354 1.153 46 0 0
3.678 -0.354 1.149 40 0 0
3.678 -0.354 1.145 40 0 0
3.6789999 -0.35499999 1.142 43 0 0
3.6800001 -0.35499999 1.138 43 0 0
3.671 -0.354 1.132 48 0 0
3.6789999 -0.35499999 1.131 48 0 0
3.674 -0.35499999 1.125 43 0 0
3.6730001 -0.35499999 1.1210001 43 0 0
3.6760001 -0.35600001 1.118 43 0 0
3.675 -0.35600001 1.114 43 0 0
3.6760001 -0.35600001 1.11 43 0 0
3.6719999 -0.35499999 1.105 36 0 0
3.677 -0.35600001 1.102 36 0 0
3.674 -0.35600001 1.097 36 0 0
3.677 -0.35600001 1.094 40 0 0
3.6730001 -0.35600001 1.089 38 0 0
3.674 -0.35600001 1.085 38 0 0
3.677 -0.35600001 1.081 38 0 0
3.6600001 -0.354 1.072 37 0 0
3.6570001 -0.354 1.067 44 0 0
3.6589999 -0.354 1.063 42 0 0
3.6589999 -0.354 1.058 44 0 0
3.6630001 -0.354 1.0549999 37 0 0
3.661 -0.354 1.05 44 0 0
3.6630001 -0.35299999 1.046 42 0 0
3.664 -0.35299999 1.0420001 39 0 0
3.664 -0.35299999 1.0369999 42 0 0
3.665 -0.35299999 1.033 42 0 0
3.664 -0.352 1.028 39 0 0
3.665 -0.352 1.023 39 0 0
3.6659999 -0.352 1.0190001 39 0 0
3.6659999 -0.352 1.0140001 42 0 0
3.6659999 -0.35100001 1.0089999 42 0 0
3.6670001 -0.35100001 1.005 33 0 0
3.6619999 -0.34999999 0.99800003 39 0 0
3.6670001 -0.34999999 0.995 33 0 0
3.6630001 -0.34900001 0.98900002 39 0 0
3.661 -0.34799999 0.98299998 39 0 0
3.664 -0.34799999 0.97899997 35 0 0
3.665 -0.34799999 0.97399998 33 0 0
3.6619999 -0.347 0.96799999 39 0 0
3.661 -0.34599999 0.963 39 0 0
3.664 -0.34599999 0.958 39 0 0
3.6559999 -0.34400001 0.95099998 44 0 0
3.6570001 -0.34400001 0.94599998 46 0 0
3.6570001 -0.34299999 0.94099998 39 0 0
3.658 -0.34200001 0.93599999 39 0 0
3.6589999 -0.34200001 0.93099999 39 0 0
3.6570001 -0.34099999 0.92500001 44 0 0
3.6570001 -0.34 0.92000002 46 0 0
3.654 -0.33899999 0.91299999 41 0 0
3.655 -0.338 0.90799999 41 0 0
3.6559999 -0.33700001 0.903 41 0 0
3.655 -0.336 0.89700001 41 0 0
3.6570001 -0.33500001 0.89200002 41 0 0
3.658 -0.33500001 0.88599998 41 0 0
3.654 -0.333 0.88 36 0 0
3.655 -0.33199999 0.87400001 34 0 0
3.6570001 -0.331 0.86900002 43 0 0
3.654 -0.33000001 0.86299998 43 0 0
3.654 -0.329 0.85699999 43 0 0
3.655 -0.32800001 0.852 43 0 0
3.655 -0.32699999 0.84600002 46 0 0
3.655 -0.32600001 0.83999997 49 0 0
3.648 -0.324 0.833 70 0 0
3.648 -0.32300001 0.82700002 91 0 0
3.6389999 -0.32100001 0.81900001 103 0 0
3.641 -0.31999999 0.81300002 114 0 0
3.642 -0.31799999 0.80800003 114 0 0
3.6440001 -0.317 0.80199999 114 0 0
3.641 -0.31600001 0.796 107 0 0
3.645 -0.315 0.79100001 84 0 0
3.654 -0.31400001 0.78600001 80 0 0
3.6789999 -0.315 0.78600001 67 0 0
3.687 -0.31400001 0.78100002 68 0 0
3.6930001 -0.31299999 0.77600002 63 0 0
3.7090001 -0.31299999 0.773 44 0 0
3.733 -0.31299999 0.77200001 28 0 0
3.7420001 -0.31200001 0.76800001 22 0 0
3.7460001 -0.31099999 0.76200002 12 0 0
0 0 0 0 0 0
0 0 0 0 0 0
6.0710001 -0.49599999 1.204 15 0 0
6.1100001 -0.49700001 1.201 16 0 0
6.1589999 -0.498 1.201 16 0 0
6.1810002 -0.49700001 1.1950001 17 0 0
6.223 -0.49700001 1.192 18 0 0
6.2490001 -0.49599999 1.186 18 0 0
6.2870002 -0.49599999 1.182 19 0 0
6.3179998 -0.495 1.177 16 0 0
6.3660002 -0.495 1.175 16 0 0
6.4050002 -0.495 1.171 14 0 0
6.4489999 -0.495 1.1670001 12 0 0
6.4809999 -0.49399999 1.1619999 13 0 0
6.5149999 -0.493 1.156 13 0 0
6.5409999 -0.49200001 1.149 13 0 0
6.5780001 -0.491 1.1440001 13 0 0
6.6040001 -0.48899999 1.137 13 0 0
6.619 -0.486 1.128 13 0 0
6.618 -0.48199999 1.1160001 13 0 0
6.6560001 -0.48100001 1.11 13 0 0
6.6849999 -0.479 1.103 13 0 0
6.7610002 -0.47999999 1.103 14 0 0
6.395 -0.45100001 1.0319999 12 0 0
6.4390001 -0.44999999 1.027 12 0 0
0 0 0 0 0 0
0 0 0 0 0 0
0 0 0 0 0 0
0 0 0 0 0 0
0 0 0 0 0 0
0 0 0 0 0 0
0 0 0 0 0 0
0 0 0 0 0 0
0 0 0 0 0 0
0 0 0 0 0 0
0 0 0 0 0 0
0 0 0 0 0 0
0 0 0 0 0 0
0 0 0 0 0 0
0 0 0 0 0 0
0 0 0 0 0 0
5.6079998 -0.32600001 0.72000003 1 0 0
5.704 -0.32699999 0.722 1 0 0
5.6669998 -0.32100001 0.70599997 1 0 0
5.658 -0.31600001 0.69499999 1 0 0
5.6420002 -0.31099999 0.68199998 1 0 0
0 0 0 0 0 0
5.6199999 -0.30000001 0.65899998 1 0 0
5.598 -0.29499999 0.64600003 1 0 0
5.632 -0.292 0.639 1 0 0
0 0 0 0 0 0
5.665 -0.285 0.62199998 1 0 0
5.684 -0.28099999 0.61299998 1 0 0
5.6669998 -0.27500001 0.60100001 1 0 0
0 0 0 0 0 0
0 0 0 0 0 0
5.6890001 -0.26199999 0.57200003 1 0 0
5.6599998 -0.25600001 0.55800003 1 0 0
5.651 -0.25 0.54699999 1 0 0
0 0 0 0 0 0
0 0 0 0 0 0
0 0 0 0 0 0
0 0 0 0 0 0
0 0 0 0 0 0
0 0 0 0 0 0
0 0 0 0 0 0
0 0 0 0 0 0
0 0 0 0 0 0
0 0 0 0 0 0
0 0 0 0 0 0
0 0 0 0 0 0
0 0 0 0 0 0
0 0 0 0 0 0
0 0 0 0 0 0
0 0 0 0 0 0
9.2989998 -0.264 0.60600001 29 0 0
9.2659998 -0.25400001 0.58700001 28 0 0
9.177 -0.242 0.56400001 25 0 0
5.5929999 -0.142 0.333 1 0 0
5.5910001 -0.13600001 0.32300001 1 0 0
5.6090002 -0.131 0.31299999 1 0 0
5.5890002 -0.124 0.30199999 1 0 0
5.599 -0.119 0.292 1 0 0
5.6209998 -0.113 0.28299999 1 0 0
8.6040001 -0.16500001 0.41800001 29 0 0
8.5290003 -0.154 0.39899999 30 0 0
0 0 0 0 0 0
5.6329999 -0.090000004 0.242 1 0 0
5.618 -0.082999997 0.23100001 1 0 0
0 0 0 0 0 0
5.6139998 -0.071000002 0.211 1 0 0
5.5689998 -0.064000003 0.199 2 0 0
5.6479998 -0.059 0.192 1 0 0
0 0 0 0 0 0
0 0 0 0 0 0
0 0 0 0 0 0
5.6739998 -0.034000002 0.15099999 1 0 0
5.638 -0.027000001 0.14 1 0 0
5.6690001 -0.021 0.13 1 0 0
0 0 0 0 0 0
0 0 0 0 0 0
0 0 0 0 0 0
0 0 0 0 0 0
0 0 0 0 0 0
0 0 0 0 0 0
0 0 0 0 0 0
0 0 0 0 0 0
5.993 0.039999999 0.041999999 7 0 0
0 0 0 0 0 0
0 0 0 0 0 0
0 0 0 0 0 0
0 0 0 0 0 0
0 0 0 0 0 0
0 0 0 0 0 0
0 0 0 0 0 0
0 0 0 0 0 0
0 0 0 0 0 0
0 0 0 0 0 0
6.5580001 0.133 -0.079000004 2 0 0
6.5190001 0.14 -0.089000002 3 0 0
6.5149999 0.148 -0.1 2 0 0
6.5640001 0.15800001 -0.112 1 0 0
6.5180001 0.16500001 -0.123 1 0 0
6.4850001 0.17200001 -0.133 1 0 0
6.4689999 0.18000001 -0.14300001 1 0 0
6.3829999 0.186 -0.152 1 0 0
6.3930001 0.19499999 -0.163 1 0 0
6.381 0.20200001 -0.17299999 1 0 0
6.3309999 0.20900001 -0.183 1 0 0
6.2589998 0.215 -0.191 1 0 0
6.1529999 0.219 -0.198 1 0 0
6.1129999 0.226 -0.207 1 0 0
5.7789998 0.221 -0.205 1 0 0
5.7480001 0.227 -0.213 1 0 0
5.7319999 0.234 -0.222 1 0 0
5.6690001 0.23899999 -0.229 1 0 0
5.757 0.25099999 -0.242 10 0 0
5.6009998 0.252 -0.244 27 0 0
5.5879998 0.25799999 -0.25299999 53 0 0
5.5440001 0.264 -0.25999999 89 0 0
5.5549998 0.27200001 -0.26899999 129 0 0
5.5599999 0.28 -0.278 107 0 0
5.5570002 0.287 -0.287 101 0 0
5.5510001 0.294 -0.29499999 114 0 0
5.566 0.303 -0.30500001 108 0 0
5.5500002 0.31 -0.31299999 114 0 0
5.5510001 0.317 -0.322 114 0 0
5.5689998 0.32600001 -0.331 122 0 0
5.5500002 0.33199999 -0.33899999 114 0 0
5.5689998 0.34099999 -0.34900001 115 0 0
5.573 0.34900001 -0.35699999 115 0 0
5.5640001 0.35600001 -0.36500001 139 0 0
5.5050001 0.36000001 -0.37 128 0 0
0 0 0 0 0 0
0 0 0 0 0 0
0 0 0 0 0 0
0 0 0 0 0 0
3.5420001 0.25600001 -0.264 8 0 0
3.506 0.259 -0.26699999 8 0 0
3.47 0.26100001 -0.26899999 9 0 0
3.431 0.26300001 -0.271 9 0 0
3.3929999 0.26499999 -0.273 9 0 0
3.3670001 0.26800001 -0.27599999 9 0 0
3.3380001 0.27000001 -0.27900001 9 0 0
3.2969999 0.271 -0.28 9 0 0
3.2650001 0.273 -0.28200001 11 0 0
3.233 0.27500001 -0.28400001 11 0 0
3.1949999 0.27700001 -0.285 11 0 0
3.1760001 0.27900001 -0.28799999 13 0 0
3.152 0.28200001 -0.28999999 13 0 0
3.1210001 0.28299999 -0.29100001 11 0 0
3.086 0.285 -0.292 9 0 0
3.0539999 0.28600001 -0.294 9 0 0
3.0039999 0.28600001 -0.29300001 28 0 0
2.993 0.289 -0.296 35 0 0
2.9779999 0.292 -0.29800001 43 0 0
2.967 0.29499999 -0.301 54 0 0
2.957 0.29800001 -0.30399999 64 0 0
2.957 0.30199999 -0.308 76 0 0
2.96 0.30700001 -0.31299999 70 0 0
2.9519999 0.31 -0.31600001 65 0 0
2.9560001 0.315 -0.31999999 78 0 0
3.0309999 0.32699999 -0.33199999 68 0 0
3.079 0.33700001 -0.34099999 63 0 0
3.2219999 0.35699999 -0.361 13 0 0
3.6730001 0.41299999 -0.41600001 64 0 0
3.6700001 0.41800001 -0.421 61 0 0
3.674 0.42300001 -0.426 64 0 0
3.6730001 0.428 -0.43000001 64 0 0
3.6730001 0.43399999 -0.435 70 0 0
3.675 0.43900001 -0.44 68 0 0
3.6689999 0.44400001 -0.44299999 64 0 0
3.6760001 0.44999999 -0.449 73 0 0
3.6760001 0.45500001 -0.45300001 64 0 0
3.6659999 0.45899999 -0.456 40 0 0
3.6389999 0.461 -0.45699999 25 0 0
3.6140001 0.463 -0.458 24 0 0
3.5999999 0.46599999 -0.461 26 0 0
3.5810001 0.46900001 -0.463 24 0 0
3.5610001 0.472 -0.46399999 25 0 0
3.5409999 0.47400001 -0.46599999 24 0 0
3.52 0.47600001 -0.46700001 24 0 0
3.4990001 0.47799999 -0.46799999 24 0 0
3.484 0.48100001 -0.47 26 0 0
3.4649999 0.484 -0.47099999 25 0 0
3.444 0.486 -0.472 25 0 0
3.427 0.48800001 -0.47400001 24 0 0
3.4119999 0.491 -0.47499999 23 0 0
3.3929999 0.493 -0.47600001 24 0 0
3.3699999 0.49399999 -0.477 22 0 0
3.3559999 0.49700001 -0.47799999 23 0 0
3.3380001 0.49900001 -0.479 22 0 0
3.3280001 0.50199997 -0.48100001 26 0 0
3.303 0.50300002 -0.48100001 23 0 0
3.2880001 0.505 -0.48199999 24 0 0
3.2690001 0.50700003 -0.48300001 24 0 0
3.256 0.509 -0.484 24 0 0
3.2360001 0.51099998 -0.484 22 0 0
3.221 0.51300001 -0.48500001 24 0 0
3.2049999 0.51499999 -0.486 24 0 0
3.1860001 0.51599997 -0.486 24 0 0
3.1760001 0.51899999 -0.48800001 20 0 0
3.1619999 0.52100003 -0.48800001 24 0 0
3.151 0.523 -0.49000001 20 0 0
3.1300001 0.52399999 -0.49000001 25 0 0
3.1170001 0.52600002 -0.49000001 21 0 0
3.105 0.528 -0.491 22 0 0
3.085 0.52899998 -0.491 26 0 0
3.0680001 0.52999997 -0.491 20 0 0
3.056 0.53200001 -0.49200001 22 0 0
3.0409999 0.53399998 -0.49200001 22 0 0
3.013 0.53299999 -0.49000001 20 0 0
3.006 0.53600001 -0.491 23 0 0
2.9960001 0.53799999 -0.49200001 21 0 0
2.9790001 0.53899997 -0.49200001 20 0 0
2.964 0.54000002 -0.49200001 23 0 0
2.9579999 0.54299998 -0.49399999 22 0 0
2.9460001 0.54500002 -0.49399999 19 0 0
2.9319999 0.546 -0.49399999 22 0 0
2.9189999 0.54699999 -0.49399999 24 0 0
2.905 0.54799998 -0.49399999 21 0 0
2.8889999 0.54900002 -0.493 24 0 0
2.8800001 0.551 -0.49399999 25 0 0
2.8670001 0.55199999 -0.49399999 24 0 0
2.8540001 0.55400002 -0.49399999 24 0 0
2.845 0.55500001 -0.495 23 0 0
2.8340001 0.55699998 -0.495 24 0 0
2.822 0.55800003 -0.495 24 0 0
2.8110001 0.55900002 -0.495 25 0 0
2.8 0.56099999 -0.495 24 0 0
2.7909999 0.56199998 -0.495 23 0 0
2.7820001 0.56400001 -0.495 23 0 0
2.7679999 0.565 -0.495 23 0 0
2.7579999 0.56599998 -0.495 25 0 0
2.75 0.56800002 -0.495 24 0 0
2.7409999 0.56900001 -0.495 25 0 0
2.7320001 0.56999999 -0.495 25 0 0
2.72 0.57099998 -0.495 25 0 0
2.7079999 0.57200003 -0.49399999 27 0 0
2.6989999 0.57300001 -0.49399999 27 0 0
2.6919999 0.57499999 -0.495 25 0 0
2.681 0.57599998 -0.49399999 24 0 0
2.6760001 0.57800001 -0.495 25 0 0
2.6630001 0.57800001 -0.49399999 26 0 0
2.6500001 0.57800001 -0.493 24 0 0
2.648 0.58099997 -0.49399999 25 0 0
2.6389999 0.58200002 -0.49399999 25 0 0
2.632 0.583 -0.49399999 24 0 0
2.6240001 0.58499998 -0.49399999 23 0 0
2.612 0.58499998 -0.493 25 0 0
2.6029999 0.58600003 -0.49200001 26 0 0
2.596 0.58700001 -0.49200001 24 0 0
2.586 0.588 -0.49200001 25 0 0
2.5829999 0.58999997 -0.49200001 25 0 0
2.5710001 0.58999997 -0.491 24 0 0
2.559 0.58999997 -0.49000001 23 0 0
2.553 0.59100002 -0.49000001 25 0 0
2.55 0.59299999 -0.49000001 25 0 0
2.5380001 0.59299999 -0.48899999 25 0 0
2.5320001 0.59399998 -0.48899999 25 0 0
2.5220001 0.59399998 -0.48800001 25 0 0
2.52 0.597 -0.48899999 25 0 0
2.5109999 0.597 -0.48800001 25 0 0
2.503 0.59799999 -0.48699999 25 0 0
2.4979999 0.59899998 -0.48699999 26 0 0
2.494 0.60000002 -0.48699999 26 0 0
2.4860001 0.60100001 -0.486 26 0 0
2.471 0.60000002 -0.484 24 0 0
2.47 0.602 -0.48500001 24 0 0
2.464 0.60299999 -0.48500001 23 0 0
2.457 0.60299999 -0.484 24 0 0
2.4519999 0.60399997 -0.484 25 0 0
2.45 0.60600001 -0.484 25 0 0
2.441 0.60600001 -0.48300001 23 0 0
2.4349999 0.60699999 -0.48199999 23 0 0
2.427 0.60699999 -0.48100001 24 0 0
2.421 0.60799998 -0.48100001 22 0 0
2.4170001 0.60900003 -0.47999999 23 0 0
2.411 0.60900003 -0.47999999 22 0 0
2.404 0.61000001 -0.479 23 0 0
2.402 0.611 -0.479 24 0 0
2.3970001 0.61199999 -0.47799999 23 0 0
2.388 0.61199999 -0.477 24 0 0
2.3859999 0.61299998 -0.477 24 0 0
2.378 0.61299998 -0.47600001 22 0 0
2.375 0.61400002 -0.47600001 23 0 0
2.3670001 0.61400002 -0.47400001 23 0 0
2.362 0.61500001 -0.47400001 21 0 0
2.355 0.61500001 -0.47299999 21 0 0
2.3540001 0.616 -0.47299999 23 0 0
2.3499999 0.61699998 -0.472 22 0 0
2.345 0.61699998 -0.47099999 23 0 0
2.342 0.61799997 -0.47099999 22 0 0
2.3369999 0.61900002 -0.47 24 0 0
2.336 0.62 -0.47 24 0 0
2.3310001 0.62 -0.46900001 23 0 0
2.3239999 0.62 -0.46799999 23 0 0
2.3210001 0.62099999 -0.46700001 23 0 0
2.316 0.62099999 -0.46700001 22 0 0
2.316 0.62300003 -0.46700001 23 0 0
2.313 0.62300003 -0.46599999 23 0 0
2.302 0.62199998 -0.46399999 23 0 0
2.302 0.62300003 -0.46399999 23 0 0
2.2980001 0.62400001 -0.463 24 0 0
2.296 0.625 -0.46200001 24 0 0
2.2869999 0.62300003 -0.46000001 23 0 0
2.286 0.625 -0.46000001 23 0 0
2.2839999 0.625 -0.46000001 24 0 0
2.2809999 0.62599999 -0.45899999 23 0 0
2.2809999 0.62699997 -0.45899999 23 0 0
2.279 0.62800002 -0.458 23 0 0
2.273 0.62699997 -0.45699999 22 0 0
2.2679999 0.62699997 -0.456 24 0 0
2.2690001 0.62900001 -0.45500001 24 0 0
2.26 0.62699997 -0.45300001 23 0 0
2.26 0.62800002 -0.45300001 24 0 0
2.257 0.62900001 -0.45199999 23 0 0
2.256 0.62900001 -0.45199999 24 0 0
2.247 0.62800002 -0.44999999 22 0 0
2.2490001 0.62900001 -0.44999999 22 0 0
2.2479999 0.63 -0.449 22 0 0
2.244 0.63 -0.44800001 23 0 0
2.237 0.62900001 -0.44600001 22 0 0
2.24 0.63 -0.44600001 22 0 0
2.2409999 0.63200003 -0.44600001 23 0 0
2.2390001 0.63200003 -0.44499999 22 0 0
2.2349999 0.63200003 -0.44400001 23 0 0
2.233 0.63200003 -0.44299999 22 0 0
2.234 0.63300002 -0.442 23 0 0
2.2320001 0.63300002 -0.44100001 22 0 0
2.23 0.63300002 -0.44 24 0 0
2.2279999 0.63300002 -0.43900001 24 0 0
2.2219999 0.63200003 -0.43799999 22 0 0
2.2219999 0.63300002 -0.43700001 22 0 0
2.2190001 0.63300002 -0.43599999 22 0 0
2.2190001 0.63300002 -0.435 22 0 0
2.2219999 0.634 -0.435 22 0 0
2.217 0.634 -0.433 22 0 0
2.2190001 0.63499999 -0.433 22 0 0
2.2160001 0.634 -0.43099999 23 0 0
2.2190001 0.63599998 -0.43099999 22 0 0
2.2160001 0.63499999 -0.43000001 23 0 0
2.2160001 0.63599998 -0.42899999 23 0 0
2.2160001 0.63599998 -0.428 23 0 0
2.2130001 0.63499999 -0.42699999 22 0 0
2.214 0.63599998 -0.426 22 0 0
2.21 0.63499999 -0.42399999 22 0 0
2.2130001 0.63599998 -0.42399999 22 0 0
2.21 0.63599998 -0.42300001 22 0 0
2.207 0.63499999 -0.421 23 0 0
2.2090001 0.63599998 -0.41999999 22 0 0
2.2049999 0.63499999 -0.419 22 0 0
2.2060001 0.63499999 -0.41800001 22 0 0
2.2119999 0.63700002 -0.41800001 22 0 0
2.2079999 0.63599998 -0.41600001 23 0 0
2.2060001 0.63499999 -0.41499999 22 0 0
2.2090001 0.63599998 -0.414 23 0 0
2.214 0.63800001 -0.414 22 0 0
2.2090001 0.63599998 -0.412 23 0 0
2.2060001 0.63499999 -0.41100001 22 0 0
2.207 0.63499999 -0.41 22 0 0
2.211 0.63599998 -0.40900001 21 0 0
2.21 0.63599998 -0.40799999 23 0 0
2.214 0.63700002 -0.40700001 22 0 0
2.211 0.63599998 -0.40599999 22 0 0
2.214 0.63700002 -0.405 22 0 0
2.214 0.63599998 -0.40400001 21 0 0
2.217 0.63700002 -0.403 22 0 0
2.2179999 0.63700002 -0.40200001 22 0 0
2.2149999 0.63599998 -0.40000001 22 0 0
2.2190001 0.63599998 -0.39899999 22 0 0
2.2179999 0.63599998 -0.398 22 0 0
2.217 0.63499999 -0.396 21 0 0
2.22 0.63499999 -0.39500001 22 0 0
2.224 0.63599998 -0.39500001 22 0 0
2.2219999 0.63499999 -0.39300001 21 0 0
2.223 0.63499999 -0.39199999 23 0 0
2.227 0.63499999 -0.391 22 0 0
2.2279999 0.63499999 -0.38999999 21 0 0
2.23 0.63499999 -0.389 22 0 0
2.2290001 0.634 -0.38699999 21 0 0
2.2290001 0.63300002 -0.38600001 21 0 0
2.2320001 0.63300002 -0.38499999 22 0 0
2.233 0.63300002 -0.38299999 21 0 0
2.243 0.63499999 -0.384 22 0 0
2.243 0.634 -0.382 22 0 0
2.244 0.634 -0.38100001 22 0 0
2.2479999 0.634 -0.38 22 0 0
2.247 0.63300002 -0.37799999 21 0 0
2.2490001 0.63300002 -0.377 22 0 0
2.2509999 0.63200003 -0.375 21 0 0
2.2550001 0.63200003 -0.37400001 22 0 0
2.2550001 0.63200003 -0.373 22 0 0
2.2579999 0.63099998 -0.37099999 23 0 0
2.256 0.63 -0.36899999 22 0 0
2.263 0.63099998 -0.36899999 21 0 0
2.2639999 0.63 -0.36700001 21 0 0
2.2690001 0.63 -0.366 21 0 0
2.2750001 0.63099998 -0.366 23 0 0
2.277 0.63 -0.36399999 22 0 0
2.277 0.62900001 -0.36199999 22 0 0
2.2809999 0.62900001 -0.361 23 0 0
2.29 0.63 -0.361 22 0 0
2.293 0.62900001 -0.359 22 0 0
2.2950001 0.62900001 -0.35800001 22 0 0
2.2980001 0.62800002 -0.35699999 22 0 0
2.302 0.62800002 -0.35499999 22 0 0
2.3039999 0.62699997 -0.354 23 0 0
2.316 0.62900001 -0.35299999 24 0 0
2.313 0.62699997 -0.35100001 22 0 0
2.3210001 0.62699997 -0.34999999 23 0 0
2.3210001 0.62599999 -0.34900001 23 0 0
2.322 0.62400001 -0.347 23 0 0
2.332 0.625 -0.34599999 22 0 0
2.3380001 0.625 -0.345 23 0 0
2.342 0.625 -0.34400001 23 0 0
2.345 0.62400001 -0.34200001 23 0 0
2.348 0.62300003 -0.34 24 0 0
2.3559999 0.62300003 -0.33899999 23 0 0
2.359 0.62199998 -0.338 24 0 0
2.3599999 0.62099999 -0.336 24 0 0
2.365 0.62 -0.33399999 22 0 0
2.372 0.62 -0.333 22 0 0
2.3789999 0.62 -0.33199999 23 0 0
2.3859999 0.62 -0.331 23 0 0
2.391 0.61900002 -0.329 23 0 0
2.395 0.61799997 -0.32800001 23 0 0
2.4000001 0.61799997 -0.32600001 23 0 0
2.4089999 0.61799997 -0.32499999 24 0 0
2.4130001 0.61699998 -0.324 24 0 0
2.418 0.616 -0.322 23 0 0
2.4219999 0.61500001 -0.31999999 23 0 0
2.4300001 0.61500001 -0.31900001 23 0 0
2.4300001 0.61299998 -0.317 23 0 0
2.4430001 0.61299998 -0.31600001 23 0 0
2.447 0.61199999 -0.315 22 0 0
2.4579999 0.61299998 -0.31400001 23 0 0
2.4619999 0.611 -0.31200001 22 0 0
2.4660001 0.61000001 -0.31 23 0 0
2.474 0.60900003 -0.308 21 0 0
2.484 0.60900003 -0.30700001 23 0 0
2.4890001 0.60799998 -0.30599999 23 0 0
2.493 0.60600001 -0.30399999 23 0 0
2.503 0.60699999 -0.30199999 23 0 0
2.516 0.60699999 -0.30199999 25 0 0
2.5280001 0.60699999 -0.301 25 0 0
2.53 0.60500002 -0.29800001 24 0 0
2.536 0.60399997 -0.29699999 24 0 0
2.543 0.60299999 -0.29499999 24 0 0
2.5510001 0.602 -0.29300001 24 0 0
2.559 0.60100001 -0.292 24 0 0
2.563 0.59899998 -0.28999999 24 0 0
2.575 0.59899998 -0.28799999 24 0 0
2.582 0.59799999 -0.287 24 0 0
2.5880001 0.59600002 -0.285 23 0 0
2.6040001 0.597 -0.28400001 24 0 0
2.615 0.59600002 -0.28299999 25 0 0
2.6229999 0.59500003 -0.28099999 25 0 0
2.6289999 0.59299999 -0.27900001 24 0 0
2.6370001 0.59200001 -0.27700001 25 0 0
2.6470001 0.59100002 -0.27500001 23 0 0
2.6589999 0.58999997 -0.27399999 24 0 0
2.6700001 0.58899999 -0.27200001 24 0 0
2.6800001 0.588 -0.271 24 0 0
2.6930001 0.588 -0.26899999 25 0 0
2.697 0.58499998 -0.26699999 25 0 0
2.7060001 0.58399999 -0.26499999 23 0 0
2.717 0.583 -0.26300001 23 0 0
2.7260001 0.58099997 -0.26199999 24 0 0
2.7420001 0.58099997 -0.25999999 21 0 0
2.7539999 0.57999998 -0.259 22 0 0
2.763 0.57800001 -0.257 21 0 0
2.7750001 0.57700002 -0.255 22 0 0
2.7839999 0.57499999 -0.25299999 21 0 0
2.799 0.57499999 -0.252 20 0 0
2.809 0.57300001 -0.25 21 0 0
2.8169999 0.57099998 -0.248 22 0 0
2.8329999 0.56999999 -0.24600001 23 0 0
2.8429999 0.56800002 -0.244 21 0 0
2.8540001 0.56699997 -0.242 23 0 0
2.872 0.56599998 -0.241 22 0 0
2.8789999 0.56400001 -0.23800001 22 0 0
2.8929999 0.56199998 -0.236 23 0 0
2.9119999 0.56199998 -0.235 24 0 0
2.921 0.55900002 -0.233 23 0 0
2.9389999 0.55800003 -0.23100001 21 0 0
2.951 0.55599999 -0.229 22 0 0
2.9660001 0.55500001 -0.227 21 0 0
2.983 0.55400002 -0.226 22 0 0
2.997 0.55199999 -0.22400001 21 0 0
3.0090001 0.55000001 -0.222 21 0 0
3.0250001 0.54799998 -0.22 21 0 0
3.0369999 0.546 -0.21799999 19 0 0
3.0699999 0.54699999 -0.21699999 19 0 0
3.082 0.54400003 -0.215 19 0 0
3.0999999 0.54299998 -0.213 22 0 0
3.1110001 0.54000002 -0.20999999 23 0 0
3.1359999 0.54000002 -0.20900001 18 0 0
3.1500001 0.537 -0.207 21 0 0
3.1670001 0.53500003 -0.205 20 0 0
3.1830001 0.53299999 -0.20299999 20 0 0
3.204 0.53100002 -0.20100001 22 0 0
3.217 0.528 -0.198 22 0 0
3.23 0.52499998 -0.19599999 22 0 0
3.257 0.52399999 -0.19400001 22 0 0
3.2709999 0.52100003 -0.192 23 0 0
3.2939999 0.51999998 -0.19 22 0 0
3.319 0.51800001 -0.18799999 22 0 0
3.336 0.51499999 -0.186 19 0 0
3.359 0.51300001 -0.184 22 0 0
3.3789999 0.51099998 -0.182 21 0 0
3.3989999 0.50800002 -0.17900001 21 0 0
3.4159999 0.505 -0.177 20 0 0
3.438 0.50300002 -0.175 21 0 0
3.457 0.5 -0.17299999 20 0 0
3.483 0.498 -0.171 20 0 0
3.5020001 0.49399999 -0.168 22 0 0
3.5309999 0.49200001 -0.16599999 23 0 0
3.5480001 0.48899999 -0.164 23 0 0
3.5680001 0.48500001 -0.161 24 0 0
3.5940001 0.48300001 -0.15899999 23 0 0
3.6170001 0.47999999 -0.156 23 0 0
3.645 0.477 -0.154 24 0 0
3.668 0.47400001 -0.152 28 0 0
3.6930001 0.47 -0.149 52 0 0
3.6960001 0.46399999 -0.146 68 0 0
3.691 0.45699999 -0.142 62 0 0
3.694 0.45100001 -0.139 62 0 0
3.688 0.44400001 -0.13600001 58 0 0
3.6900001 0.43700001 -0.132 59 0 0
3.687 0.43000001 -0.12899999 58 0 0
3.5610001 0.40900001 -0.121 5 0 0
3.118 0.35299999 -0.103 43 0 0
3.04 0.338 -0.097999997 88 0 0
2.964 0.324 -0.093000002 150 0 0
2.971 0.31999999 -0.090000004 149 0 0
2.9719999 0.31400001 -0.088 127 0 0
2.9619999 0.308 -0.085000001 79 0 0
2.9820001 0.30399999 -0.082999997 44 0 0
3.016 0.30199999 -0.081 14 0 0
3.043 0.29899999 -0.079000004 13 0 0
3.0769999 0.29699999 -0.077 13 0 0
3.1170001 0.29499999 -0.075999998 14 0 0
3.158 0.29300001 -0.074000001 13 0 0
3.1819999 0.289 -0.071999997 11 0 0
3.2249999 0.287 -0.07 8 0 0
3.273 0.28600001 -0.068000004 8 0 0
3.306 0.28200001 -0.066 8 0 0
3.3540001 0.28 -0.064000003 8 0 0
3.3959999 0.27700001 -0.061999999 8 0 0
3.4419999 0.27399999 -0.059999999 9 0 0
3.4879999 0.271 -0.057999998 9 0 0
3.5380001 0.26800001 -0.056000002 9 0 0
3.5810001 0.26499999 -0.054000001 8 0 0
0 0 0 0 0 0
0 0 0 0 0 0
5.5120001 0.37599999 -0.07 112 0 0
5.5710001 0.36899999 -0.067000002 108 0 0
5.5640001 0.35800001 -0.061999999 122 0 0
5.5609999 0.347 -0.057999998 114 0 0
5.5739999 0.33700001 -0.054000001 115 0 0
5.559 0.32499999 -0.048999999 129 0 0
5.5960002 0.31600001 -0.045000002 116 0 0
5.5580001 0.303 -0.041000001 107 0 0
5.5749998 0.29300001 -0.037 115 0 0
5.5760002 0.28200001 -0.032000002 115 0 0
5.5669999 0.27000001 -0.028000001 64 0 0
5.612 0.26199999 -0.024 25 0 0
5.678 0.25299999 -0.021 1 0 0
6.0209999 0.257 -0.017000001 1 0 0
5.77 0.235 -0.013 1 0 0
5.8060002 0.22400001 -0.0089999996 1 0 0
6.1389999 0.22499999 -0.0049999999 1 0 0
6.2059999 0.215 -0.001 1 0 0
6.3140001 0.207 0.003 1 0 0
6.4029999 0.19599999 0.0070000002 1 0 0
6.46 0.185 0.012 1 0 0
6.5229998 0.17399999 0.016000001 1 0 0
6.52 0.161 0.021 2 0 0
6.4759998 0.146 0.025 3 0 0
6.5190001 0.134 0.028999999 4 0 0
0 0 0 0 0 0
0 0 0 0 0 0
0 0 0 0 0 0
0 0 0 0 0 0
0 0 0 0 0 0
0 0 0 0 0 0
0 0 0 0 0 0
0 0 0 0 0 0
0 0 0 0 0 0
0 0 0 0 0 0
0 0 0 0 0 0
0 0 0 0 0 0
0 0 0 0 0 0
5.6820002 -0.043000001 0.074000001 1 0 0
5.652 -0.055 0.075999998 1 0 0
5.5760002 -0.064999998 0.078000002 3 0 0
5.599 -0.077 0.082000002 1 0 0
5.6729999 -0.090000004 0.086000003 1 0 0
0 0 0 0 0 0
0 0 0 0 0 0
8.8310003 -0.19400001 0.148 32 0 0
9.0270004 -0.21699999 0.156 31 0 0
9.1520004 -0.23899999 0.162 31 0 0
9.2810001 -0.26100001 0.169 31 0 0
9.3710003 -0.28299999 0.176 28 0 0
9.3900003 -0.303 0.18000001 30 0 0
5.5739999 -0.191 0.11 1 0 0
5.5809999 -0.20299999 0.112 1 0 0
5.5749998 -0.214 0.115 1 0 0
5.5809999 -0.226 0.117 1 0 0
5.5840001 -0.237 0.12 1 0 0
5.5609999 -0.248 0.122 1 0 0
5.5770001 -0.25999999 0.125 1 0 0
5.5929999 -0.27200001 0.12800001 1 0 0
5.5900002 -0.28299999 0.13 1 0 0
5.5749998 -0.294 0.132 1 0 0
5.5640001 -0.30500001 0.134 1 0 0
5.5469999 -0.31600001 0.13600001 1 0 0
5.5489998 -0.32699999 0.138 1 0 0
5.559 -0.33899999 0.14 1 0 0
5.5560002 -0.34999999 0.142 1 0 0
9.2139997 -0.60000002 0.23999999 28 0 0
5.5560002 -0.373 0.146 1 0 0
5.552 -0.384 0.148 1 0 0
5.5679998 -0.396 0.15099999 1 0 0
5.5679998 -0.40799999 0.153 1 0 0
5.5619998 -0.419 0.154 1 0 0
5.5710001 -0.43099999 0.156 1 0 0
5.5419998 -0.44 0.15700001 1 0 0
5.5489998 -0.45199999 0.15899999 1 0 0
5.5339999 -0.46200001 0.161 2 0 0
5.5380001 -0.47299999 0.163 1 0 0
5.5339999 -0.484 0.164 1 0 0
5.5669999 -0.498 0.167 1 0 0
5.5549998 -0.509 0.168 1 0 0
5.5609999 -0.51999998 0.17 1 0 0
5.553 -0.53100002 0.171 1 0 0
5.5450001 -0.54100001 0.17200001 1 0 0
5.5430002 -0.55199999 0.17399999 1 0 0
5.5320001 -0.56199998 0.175 1 0 0
5.5359998 -0.574 0.176 1 0 0
0 0 0 0 0 0
3.6400001 -0.39199999 0.117 82 0 0
3.619 -0.39700001 0.117 113 0 0
3.5940001 -0.40099999 0.117 102 0 0
3.5880001 -0.40799999 0.118 123 0 0
3.5880001 -0.41499999 0.119 123 0 0
3.5799999 -0.421 0.119 110 0 0
3.5840001 -0.42899999 0.12 111 0 0
3.586 -0.43599999 0.121 95 0 0
3.589 -0.44400001 0.121 86 0 0
3.5840001 -0.44999999 0.122 81 0 0
3.5829999 -0.45699999 0.122 81 0 0
3.582 -0.46399999 0.123 81 0 0
3.5869999 -0.472 0.124 81 0 0
3.5869999 -0.479 0.124 83 0 0
3.5799999 -0.48500001 0.124 81 0 0
3.5829999 -0.49200001 0.125 86 0 0
3.5810001 -0.49900001 0.125 84 0 0
3.5810001 -0.50599998 0.126 86 0 0
3.5769999 -0.51200002 0.126 85 0 0
3.5780001 -0.51899999 0.126 84 0 0
3.572 -0.52499998 0.127 82 0 0
3.5769999 -0.53299999 0.127 86 0 0
3.575 -0.53899997 0.127 84 0 0
3.5710001 -0.54500002 0.12800001 81 0 0
3.5699999 -0.55199999 0.12800001 81 0 0
3.569 -0.55900002 0.12800001 81 0 0
3.5739999 -0.56599998 0.12800001 81 0 0
3.5699999 -0.57200003 0.12800001 78 0 0
3.5680001 -0.579 0.12899999 78 0 0
3.5669999 -0.58499998 0.12899999 78 0 0
3.5669999 -0.59200001 0.12899999 77 0 0
3.5650001 -0.59799999 0.12899999 78 0 0
3.5650001 -0.60500002 0.12899999 77 0 0
3.5639999 -0.611 0.12899999 77 0 0
3.5650001 -0.61799997 0.12899999 76 0 0
3.5639999 -0.625 0.12899999 76 0 0
3.563 -0.63099998 0.12899999 76 0 0
3.5599999 -0.63700002 0.12899999 75 0 0
3.5580001 -0.64300001 0.12899999 75 0 0
3.552 -0.64899999 0.12899999 71 0 0
3.5569999 -0.65600002 0.12899999 71 0 0
3.556 -0.662 0.12800001 73 0 0
3.5550001 -0.66799998 0.12800001 73 0 0
3.556 -0.67500001 0.12800001 75 0 0
3.5539999 -0.68099999 0.12800001 75 0 0
3.5569999 -0.68800002 0.12800001 79 0 0
3.552 -0.69300002 0.12800001 75 0 0
3.55 -0.699 0.127 76 0 0
3.5480001 -0.70499998 0.127 73 0 0
3.55 -0.71100003 0.127 73 0 0
3.5480001 -0.71700001 0.126 73 0 0
3.549 -0.72399998 0.126 72 0 0
3.5469999 -0.72899997 0.126 70 0 0
3.5450001 -0.73500001 0.125 71 0 0
3.546 -0.741 0.125 72 0 0
3.5469999 -0.74800003 0.125 75 0 0
3.5380001 -0.75199997 0.124 73 0 0
3.54 -0.75800002 0.124 71 0 0
3.5420001 -0.76499999 0.123 76 0 0
3.54 -0.76999998 0.123 72 0 0
3.5409999 -0.77600002 0.123 75 0 0
3.5409999 -0.78200001 0.122 75 0 0
3.539 -0.787 0.121 75 0 0
3.539 -0.79299998 0.121 75 0 0
3.543 -0.80000001 0.121 62 0 0
3.54 -0.80500001 0.12 73 0 0
3.5409999 -0.81099999 0.119 71 0 0
3.54 -0.81599998 0.119 71 0 0
3.5339999 -0.82099998 0.118 75 0 0
3.5369999 -0.82700002 0.118 71 0 0
3.529 -0.83099997 0.117 60 0 0
3.52 -0.83399999 0.116 50 0 0
3.51 -0.83700001 0.115 50 0 0
3.5109999 -0.84299999 0.114 48 0 0
3.4979999 -0.84500003 0.113 44 0 0
3.4849999 -0.847 0.112 40 0 0
3.4649999 -0.84799999 0.111 39 0 0
3.454 -0.85000002 0.11 38 0 0
3.45 -0.85500002 0.109 40 0 0
3.45 -0.86000001 0.108 29 0 0
3.4430001 -0.86299998 0.107 29 0 0
3.4389999 -0.86699998 0.106 33 0 0
3.444 -0.87300003 0.106 42 0 0
3.444 -0.87800002 0.105 42 0 0
3.447 -0.884 0.104 39 0 0
3.4519999 -0.88999999 0.103 41 0 0
3.454 -0.89600003 0.103 43 0 0
3.4519999 -0.89999998 0.102 43 0 0
3.4519999 -0.90499997 0.101 44 0 0
3.45 -0.90899998 0.1 43 0 0
3.451 -0.91399997 0.098999999 43 0 0
3.4579999 -0.921 0.097999997 45 0 0
3.4560001 -0.92500001 0.097000003 48 0 0
3.4579999 -0.93000001 0.096000001 50 0 0
3.4530001 -0.93400002 0.094999999 50 0 0
3.454 -0.93900001 0.093999997 51 0 0
3.457 -0.94400001 0.093999997 52 0 0
3.457 -0.949 0.093000002 52 0 0
3.4549999 -0.95200002 0.092 54 0 0
3.454 -0.95700002 0.090999998 54 0 0
3.45 -0.95999998 0.089000002 56 0 0
3.4530001 -0.96499997 0.088 58 0 0
3.448 -0.96799999 0.086999997 56 0 0
3.4530001 -0.97399998 0.086000003 56 0 0
3.4560001 -0.97899997 0.085000001 41 0 0
3.4530001 -0.98199999 0.083999999 44 0 0
3.4549999 -0.98699999 0.082999997 40 0 0
3.477 -0.99699998 0.082999997 52 0 0
3.494 -1.006 0.082000002 59 0 0
3.5020001 -1.013 0.081 61 0 0
3.5079999 -1.018 0.079999998 68 0 0
3.507 -1.022 0.079000004 68 0 0
3.5039999 -1.025 0.078000002 65 0 0
3.5090001 -1.031 0.077 69 0 0
3.507 -1.034 0.075000003 67 0 0
3.5039999 -1.0369999 0.074000001 66 0 0
3.503 -1.041 0.072999999 69 0 0
3.5050001 -1.045 0.071999997 69 0 0
3.4990001 -1.0470001 0.071000002 68 0 0
3.5020001 -1.052 0.068999998 67 0 0
3.5009999 -1.0549999 0.068000004 67 0 0
3.5009999 -1.058 0.067000002 69 0 0
3.5039999 -1.063 0.066 71 0 0
3.4990001 -1.0650001 0.064000003 69 0 0
3.4979999 -1.068 0.063000001 69 0 0
3.497 -1.071 0.061999999 67 0 0
3.4960001 -1.074 0.061000001 70 0 0
3.4960001 -1.077 0.059 69 0 0
3.494 -1.08 0.057999998 67 0 0
3.493 -1.0829999 0.057 67 0 0
3.4990001 -1.0880001 0.056000002 64 0 0
3.4949999 -1.09 0.054000001 64 0 0
3.497 -1.094 0.052999999 64 0 0
3.4960001 -1.096 0.052000001 64 0 0
3.4979999 -1.1 0.050000001 69 0 0
3.493 -1.101 0.048999999 63 0 0
3.494 -1.104 0.048 59 0 0
3.493 -1.107 0.046 64 0 0
3.4920001 -1.11 0.045000002 64 0 0
3.4949999 -1.113 0.044 68 0 0
3.49 -1.115 0.041999999 64 0 0
3.49 -1.117 0.041000001 64 0 0
3.493 -1.1210001 0.039999999 68 0 0
3.494 -1.124 0.037999999 67 0 0
3.4909999 -1.125 0.037 68 0 0
3.487 -1.126 0.035 64 0 0
3.4920001 -1.13 0.034000002 67 0 0
3.487 -1.131 0.033 62 0 0
3.4960001 -1.137 0.030999999 68 0 0
3.4909999 -1.137 0.029999999 66 0 0
3.49 -1.1390001 0.028999999 66 0 0
3.4890001 -1.141 0.027000001 66 0 0
3.4949999 -1.145 0.026000001 68 0 0
3.487 -1.145 0.024 64 0 0
3.493 -1.149 0.023 68 0 0
3.4809999 -1.147 0.022 63 0 0
3.4920001 -1.152 0.02 68 0 0
3.4920001 -1.154 0.018999999 68 0 0
3.4909999 -1.156 0.017000001 68 0 0
3.49 -1.1569999 0.016000001 69 0 0
3.49 -1.159 0.015 68 0 0
3.49 -1.16 0.013 68 0 0
3.4890001 -1.1619999 0.012 68 0 0
3.484 -1.1619999 0.0099999998 64 0 0
3.4820001 -1.163 0.0089999996 66 0 0
3.4820001 -1.164 0.0070000002 66 0 0
3.493 -1.169 0.0060000001 68 0 0
3.4820001 -1.1670001 0.0040000002 64 0 0
3.4860001 -1.17 0.003 68 0 0
3.4890001 -1.1720001 0.0020000001 66 0 0
3.4860001 -1.1720001 0 68 0 0
3.4849999 -1.173 0 68 0 0
3.4790001 -1.1720001 -0.0020000001 66 0 0
3.4849999 -1.175 -0.003 68 0 0
3.48 -1.174 -0.0040000002 64 0 0
3.4879999 -1.178 -0.0060000001 64 0 0
3.484 -1.178 -0.0070000002 68 0 0
3.4790001 -1.177 -0.0089999996 64 0 0
3.477 -1.177 -0.0099999998 66 0 0
3.4779999 -1.178 -0.012 64 0 0
3.4860001 -1.182 -0.013 64 0 0
3.4820001 -1.181 -0.014 68 0 0
3.477 -1.1799999 -0.016000001 64 0 0
3.4820001 -1.182 -0.017000001 68 0 0
3.4809999 -1.183 -0.018999999 67 0 0
3.4849999 -1.1849999 -0.02 64 0 0
3.477 -1.182 -0.021 64 0 0
3.4809999 -1.184 -0.023 68 0 0
3.4809999 -1.184 -0.024 68 0 0
3.4760001 -1.183 -0.026000001 64 0 0
3.4760001 -1.183 -0.027000001 64 0 0
3.4809999 -1.1849999 -0.028999999 68 0 0
3.4809999 -1.1849999 -0.029999999 68 0 0
3.4760001 -1.184 -0.030999999 64 0 0
3.4760001 -1.184 -0.033 64 0 0
3.4809999 -1.1849999 -0.034000002 68 0 0
3.4809999 -1.1849999 -0.035999998 68 0 0
3.4760001 -1.183 -0.037 64 0 0
3.4760001 -1.183 -0.037999999 64 0 0
3.4760001 -1.183 -0.039999999 64 0 0
3.4760001 -1.183 -0.041000001 64 0 0
3.477 -1.183 -0.043000001 64 0 0
3.4809999 -1.184 -0.044 68 0 0
3.477 -1.182 -0.045000002 64 0 0
3.4820001 -1.183 -0.046999998 68 0 0
3.477 -1.181 -0.048 64 0 0
3.477 -1.1799999 -0.048999999 64 0 0
3.4820001 -1.181 -0.050999999 68 0 0
3.477 -1.179 -0.052000001 63 0 0
3.4779999 -1.179 -0.052999999 64 0 0
3.483 -1.179 -0.055 68 0 0
3.4719999 -1.175 -0.056000002 62 0 0
3.4779999 -1.176 -0.057 64 0 0
3.4809999 -1.176 -0.059 62 0 0
3.4790001 -1.175 -0.059999999 64 0 0
3.4749999 -1.1720001 -0.061000001 61 0 0
3.4779999 -1.1720001 -0.063000001 64 0 0
3.483 -1.173 -0.064000003 62 0 0
3.48 -1.171 -0.064999998 64 0 0
3.4749999 -1.168 -0.067000002 62 0 0
3.4749999 -1.166 -0.068000004 62 0 0
3.4760001 -1.165 -0.068999998 62 0 0
3.4820001 -1.166 -0.071000002 64 0 0
3.4760001 -1.163 -0.071999997 62 0 0
3.4790001 -1.1619999 -0.072999999 61 0 0
3.477 -1.16 -0.074000001 62 0 0
3.4809999 -1.16 -0.075999998 64 0 0
3.477 -1.1569999 -0.077 63 0 0
3.4790001 -1.156 -0.078000002 62 0 0
3.4779999 -1.154 -0.079000004 63 0 0
3.483 -1.154 -0.081 64 0 0
3.4779999 -1.15 -0.082000002 64 0 0
3.48 -1.149 -0.082999997 63 0 0
3.4790001 -1.147 -0.083999999 64 0 0
3.48 -1.145 -0.085000001 64 0 0
3.48 -1.143 -0.086999997 64 0 0
3.4809999 -1.141 -0.088 64 0 0
3.4779999 -1.138 -0.089000002 62 0 0
3.4820001 -1.137 -0.090000004 64 0 0
3.483 -1.135 -0.090999998 64 0 0
3.4860001 -1.1339999 -0.093000002 67 0 0
3.48 -1.13 -0.093999997 67 0 0
3.4760001 -1.126 -0.094999999 66 0 0
3.48 -1.125 -0.096000001 69 0 0
3.48 -1.123 -0.097000003 69 0 0
3.48 -1.12 -0.097999997 67 0 0
3.4820001 -1.118 -0.098999999 69 0 0
3.484 -1.1160001 -0.1 67 0 0
3.48 -1.113 -0.101 69 0 0
3.484 -1.1109999 -0.103 69 0 0
3.484 -1.108 -0.104 70 0 0
3.4790001 -1.104 -0.105 65 0 0
3.4820001 -1.102 -0.106 68 0 0
3.4860001 -1.101 -0.107 67 0 0
3.487 -1.098 -0.108 70 0 0
3.4860001 -1.095 -0.109 66 0 0
3.483 -1.091 -0.11 70 0 0
3.4820001 -1.087 -0.111 66 0 0
3.4849999 -1.085 -0.112 65 0 0
3.483 -1.081 -0.113 67 0 0
3.484 -1.079 -0.114 66 0 0
3.4849999 -1.076 -0.115 66 0 0
3.4860001 -1.073 -0.116 66 0 0
3.4860001 -1.069 -0.117 67 0 0
3.4879999 -1.066 -0.118 66 0 0
3.4860001 -1.062 -0.118 66 0 0
3.4890001 -1.0599999 -0.119 67 0 0
3.49 -1.057 -0.12 67 0 0
3.4879999 -1.053 -0.121 63 0 0
3.49 -1.05 -0.122 59 0 0
3.487 -1.045 -0.123 69 0 0
3.4920001 -1.043 -0.124 66 0 0
3.4920001 -1.039 -0.125 63 0 0
3.4920001 -1.035 -0.125 67 0 0
3.49 -1.031 -0.126 70 0 0
3.4949999 -1.029 -0.127 63 0 0
3.484 -1.022 -0.127 64 0 0
3.4679999 -1.013 -0.12800001 48 0 0
3.4330001 -0.99900001 -0.127 39 0 0
3.368 -0.97600001 -0.125 25 0 0
3.349 -0.96700001 -0.125 30 0 0
3.345 -0.96100003 -0.126 26 0 0
3.3469999 -0.958 -0.126 31 0 0
3.3440001 -0.95300001 -0.127 29 0 0
3.3340001 -0.94599998 -0.127 26 0 0
3.332 -0.94199997 -0.12800001 30 0 0
3.332 -0.93800002 -0.12800001 31 0 0
3.3150001 -0.92900002 -0.12800001 33 0 0
3.3169999 -0.92500001 -0.12899999 40 0 0
3.3110001 -0.91900003 -0.12899999 46 0 0
3.3099999 -0.91500002 -0.13 52 0 0
3.3080001 -0.91000003 -0.13 43 0 0
3.3099999 -0.90600002 -0.131 38 0 0
3.303 -0.89999998 -0.131 33 0 0
3.302 -0.89499998 -0.131 33 0 0
3.299 -0.88999999 -0.132 33 0 0
3.2920001 -0.884 -0.132 40 0 0
3.2909999 -0.87900001 -0.132 42 0 0
3.293 -0.875 -0.133 43 0 0
3.2920001 -0.87 -0.133 45 0 0
3.296 -0.86699998 -0.134 45 0 0
3.289 -0.861 -0.134 44 0 0
3.286 -0.85500002 -0.134 46 0 0
3.2869999 -0.85100001 -0.134 46 0 0
3.2880001 -0.84600002 -0.13500001 47 0 0
3.2880001 -0.84200001 -0.13500001 48 0 0
3.2920001 -0.838 -0.13500001 50 0 0
3.286 -0.83200002 -0.13500001 50 0 0
3.2920001 -0.82800001 -0.13600001 51 0 0
3.293 -0.824 -0.13600001 51 0 0
3.2939999 -0.81900001 -0.13600001 45 0 0
3.2920001 -0.81400001 -0.13600001 32 0 0
3.306 -0.81199998 -0.13699999 24 0 0
3.3199999 -0.81099999 -0.138 25 0 0
3.3299999 -0.80800003 -0.138 30 0 0
3.3380001 -0.80500001 -0.139 31 0 0
3.355 -0.80400002 -0.14 32 0 0
3.365 -0.801 -0.14 33 0 0
3.375 -0.79799998 -0.141 32 0 0
3.3840001 -0.79500002 -0.141 31 0 0
3.3900001 -0.79100001 -0.141 31 0 0
3.3989999 -0.78799999 -0.142 31 0 0
3.4679999 -0.79799998 -0.145 36 0 0
3.5009999 -0.80000001 -0.146 54 0 0
3.5190001 -0.79900002 -0.147 80 0 0
3.523 -0.79400003 -0.147 81 0 0
3.5220001 -0.78799999 -0.147 82 0 0
3.5209999 -0.78200001 -0.147 79 0 0
3.5250001 -0.77700001 -0.147 80 0 0
3.5220001 -0.77100003 -0.146 80 0 0
3.53 -0.76700002 -0.147 75 0 0
3.5309999 -0.76099998 -0.147 85 0 0
3.527 -0.75400001 -0.146 83 0 0
3.527 -0.74800003 -0.146 89 0 0
3.5339999 -0.74400002 -0.146 85 0 0
3.5320001 -0.73699999 -0.146 80 0 0
3.526 -0.73000002 -0.145 70 0 0
3.52 -0.72299999 -0.14399999 79 0 0
3.5209999 -0.71700001 -0.14399999 79 0 0
3.5220001 -0.71100003 -0.14399999 82 0 0
3.5280001 -0.70599997 -0.14399999 82 0 0
3.5250001 -0.69999999 -0.14300001 94 0 0
3.5250001 -0.69300002 -0.14300001 88 0 0
3.5250001 -0.68699998 -0.142 110 0 0
3.5280001 -0.68199998 -0.142 94 0 0
3.527 -0.67500001 -0.142 94 0 0
3.5320001 -0.67000002 -0.141 88 0 0
3.5380001 -0.66500002 -0.141 82 0 0
3.5420001 -0.65899998 -0.141 85 0 0
3.5420001 -0.653 -0.14 101 0 0
3.5409999 -0.64600003 -0.139 94 0 0
3.5420001 -0.63999999 -0.139 88 0 0
3.5439999 -0.634 -0.138 101 0 0
3.5469999 -0.62800002 -0.138 101 0 0
3.5450001 -0.62099999 -0.13699999 101 0 0
3.5480001 -0.61500001 -0.13600001 101 0 0
3.5469999 -0.60900003 -0.13600001 110 0 0
3.549 -0.602 -0.13500001 94 0 0
3.552 -0.59600002 -0.134 94 0 0
3.5550001 -0.58999997 -0.133 94 0 0
3.552 -0.583 -0.133 101 0 0
3.553 -0.57700002 -0.132 94 0 0
3.553 -0.56999999 -0.131 94 0 0
3.5539999 -0.56400001 -0.13 110 0 0
3.552 -0.55699998 -0.12899999 122 0 0
3.562 -0.55199999 -0.12800001 150 0 0
3.5550001 -0.54400003 -0.127 110 0 0
3.5569999 -0.537 -0.126 110 0 0
3.5610001 -0.53100002 -0.125 101 0 0
3.5569999 -0.52399999 -0.124 94 0 0
3.563 -0.51800001 -0.123 110 0 0
3.5680001 -0.51200002 -0.122 94 0 0
3.5639999 -0.50400001 -0.121 101 0 0
3.563 -0.498 -0.12 101 0 0
3.566 -0.491 -0.119 101 0 0
3.572 -0.48500001 -0.118 94 0 0
3.5710001 -0.47799999 -0.116 101 0 0
3.572 -0.47099999 -0.115 110 0 0
3.5699999 -0.46399999 -0.114 101 0 0
3.575 -0.458 -0.113 94 0 0
3.5650001 -0.44999999 -0.111 100 0 0
3.5650001 -0.44299999 -0.11 88 0 0
3.572 -0.43700001 -0.109 94 0 0
3.572 -0.43000001 -0.107 94 0 0
3.576 -0.42399999 -0.106 94 0 0
3.579 -0.417 -0.105 101 0 0
3.5869999 -0.41100001 -0.103 111 0 0
3.6029999 -0.40599999 -0.102 124 0 0
0 0 0 0 0 0
0 0 0 0 0 0
5.4959998 -0.58700001 -0.149 4 0 0
5.506 -0.57700002 -0.147 5 0 0
5.493 -0.565 -0.14399999 6 0 0
5.4679999 -0.551 -0.141 6 0 0
5.5009999 -0.54299998 -0.139 4 0 0
5.5120001 -0.53399998 -0.13600001 3 0 0
5.5159998 -0.523 -0.134 4 0 0
5.4899998 -0.50999999 -0.131 6 0 0
5.4949999 -0.49900001 -0.12800001 8 0 0
5.5100002 -0.49000001 -0.126 6 0 0
5.5219998 -0.47999999 -0.123 4 0 0
5.52 -0.46900001 -0.12 3 0 0
5.5170002 -0.45699999 -0.117 2 0 0
5.5190001 -0.447 -0.114 2 0 0
5.5320001 -0.43700001 -0.111 2 0 0
5.54 -0.426 -0.108 2 0 0
5.5370002 -0.41499999 -0.105 1 0 0
5.5500002 -0.405 -0.102 1 0 0
5.546 -0.39399999 -0.098999999 1 0 0
5.54 -0.382 -0.096000001 1 0 0
5.5409999 -0.37099999 -0.093000002 2 0 0
5.5549998 -0.361 -0.090000004 1 0 0
5.5419998 -0.34900001 -0.086000003 1 0 0
5.5510001 -0.338 -0.082999997 1 0 0
5.5599999 -0.32800001 -0.079000004 1 0 0
5.553 -0.31600001 -0.075999998 1 0 0
5.5469999 -0.30500001 -0.071999997 1 0 0
5.5549998 -0.294 -0.068999998 1 0 0
5.5609999 -0.28400001 -0.064999998 1 0 0
5.5469999 -0.27200001 -0.061999999 1 0 0
5.5609999 -0.26100001 -0.057999998 1 0 0
5.5539999 -0.25 -0.054000001 1 0 0
5.5799999 -0.23999999 -0.050999999 1 0 0
9.059 -0.37200001 -0.077 26 0 0
9.0349998 -0.35299999 -0.07 37 0 0
9.2989998 -0.345 -0.066 26 0 0
9.4139996 -0.33000001 -0.059999999 29 0 0
9.4099998 -0.31099999 -0.054000001 29 0 0
9.3599997 -0.29100001 -0.046999998 29 0 0
9.2650003 -0.26899999 -0.039000001 29 0 0
9.1269999 -0.24699999 -0.032000002 29 0 0
9.0220003 -0.227 -0.025 29 0 0
5.5939999 -0.12899999 -0.011 1 0 0
5.5890002 -0.118 -0.0070000002 1 0 0
5.6170001 -0.107 -0.003 1 0 0
5.5380001 -0.094999999 0 1 0 0
0 0 0 0 0 0
5.5700002 -0.072999999 0.0089999996 3 0 0
5.5609999 -0.061999999 0.013 1 0 0
0 0 0 0 0 0
0 0 0 0 0 0
5.6279998 -0.028999999 0.027000001 1 0 0
5.598 -0.017999999 0.032000002 1 0 0
0 0 0 0 0 0
0 0 0 0 0 0
0 0 0 0 0 0
0 0 0 0 0 0
0 0 0 0 0 0
0 0 0 0 0 0
0 0 0 0 0 0
0 0 0 0 0 0
0 0 0 0 0 0
0 0 0 0 0 0
0 0 0 0 0 0
6.5469999 0.132 0.104 4 0 0
6.5310001 0.14399999 0.109 4 0 0
6.428 0.154 0.113 4 0 0
6.3460002 0.16500001 0.118 2 0 0
6.3260002 0.176 0.123 1 0 0
6.3060002 0.18799999 0.12899999 1 0 0
6.2649999 0.199 0.134 1 0 0
6.2280002 0.20999999 0.139 1 0 0
6.2270002 0.222 0.14399999 1 0 0
5.9130001 0.222 0.14300001 1 0 0
5.8509998 0.23100001 0.147 1 0 0
5.77 0.23899999 0.15000001 1 0 0
5.7639999 0.249 0.156 1 0 0
5.6939998 0.257 0.15899999 1 0 0
5.6350002 0.26499999 0.163 16 0 0
5.5970001 0.27399999 0.167 55 0 0
5.5669999 0.28299999 0.17200001 107 0 0
5.5689998 0.29300001 0.177 138 0 0
5.573 0.30399999 0.183 108 0 0
5.5640001 0.31400001 0.18799999 114 0 0
5.5599999 0.324 0.19400001 122 0 0
5.5560002 0.33399999 0.199 129 0 0
5.585 0.34599999 0.206 149 0 0
5.6020002 0.35800001 0.212 150 0 0
5.5970001 0.368 0.21799999 149 0 0
5.5900002 0.377 0.223 149 0 0
5.5180001 0.38299999 0.226 128 0 0
0 0 0 0 0 0
0 0 0 0 0 0
3.622 0.271 0.15899999 16 0 0
3.5780001 0.27399999 0.161 16 0 0
3.529 0.27700001 0.163 16 0 0
3.4909999 0.28 0.16500001 15 0 0
3.4489999 0.28299999 0.16599999 13 0 0
3.402 0.285 0.168 11 0 0
3.3629999 0.28799999 0.169 10 0 0
3.3239999 0.28999999 0.171 9 0 0
3.28 0.292 0.17200001 10 0 0
3.2349999 0.294 0.17299999 13 0 0
3.211 0.29800001 0.176 16 0 0
3.1789999 0.30000001 0.177 19 0 0
3.1500001 0.303 0.17900001 20 0 0
3.1229999 0.30599999 0.18099999 19 0 0
3.0799999 0.30700001 0.182 16 0 0
3.0469999 0.30899999 0.183 16 0 0
3.0150001 0.31099999 0.185 20 0 0
2.9920001 0.31400001 0.18700001 59 0 0
2.987 0.31799999 0.19 110 0 0
2.9860001 0.32300001 0.193 150 0 0
2.984 0.32800001 0.19599999 150 0 0
2.99 0.33399999 0.2 129 0 0
3.0510001 0.34599999 0.207 100 0 0
3.1070001 0.35699999 0.215 56 0 0
3.293 0.384 0.23100001 12 0 0
3.7179999 0.44 0.266 45 0 0
3.721 0.44600001 0.27000001 48 0 0
3.7219999 0.45300001 0.27399999 49 0 0
3.724 0.45899999 0.27900001 59 0 0
3.721 0.465 0.28299999 63 0 0
3.7279999 0.472 0.28799999 59 0 0
3.72 0.477 0.29100001 63 0 0
3.724 0.48300001 0.296 52 0 0
3.721 0.48899999 0.30000001 30 0 0
3.694 0.491 0.30199999 20 0 0
3.6730001 0.49399999 0.30500001 22 0 0
3.645 0.49599999 0.30700001 24 0 0
3.625 0.49900001 0.30899999 24 0 0
3.6029999 0.50199997 0.31200001 24 0 0
3.5840001 0.505 0.31400001 24 0 0
3.5669999 0.50800002 0.317 25 0 0
3.549 0.51099998 0.31900001 24 0 0
3.5320001 0.514 0.322 23 0 0
3.5090001 0.51599997 0.324 23 0 0
3.4849999 0.51800001 0.32600001 22 0 0
3.4690001 0.51999998 0.329 21 0 0
3.4489999 0.523 0.331 21 0 0
3.427 0.52399999 0.333 21 0 0
3.4219999 0.52899998 0.336 21 0 0
3.392 0.52899998 0.33700001 21 0 0
3.3840001 0.53299999 0.34099999 21 0 0
3.362 0.53399998 0.34200001 21 0 0
3.3540001 0.53799999 0.34599999 19 0 0
3.325 0.53799999 0.347 20 0 0
3.3099999 0.54100001 0.34900001 21 0 0
3.3010001 0.54400003 0.352 21 0 0
3.2709999 0.54299998 0.352 20 0 0
3.2609999 0.546 0.35499999 20 0 0
3.2449999 0.54799998 0.35699999 21 0 0
3.224 0.54900002 0.359 19 0 0
3.211 0.55199999 0.361 20 0 0
3.197 0.55299997 0.36399999 20 0 0
3.188 0.55599999 0.366 22 0 0
3.168 0.55699998 0.368 22 0 0
3.1659999 0.56099999 0.37099999 20 0 0
3.1470001 0.56199998 0.373 19 0 0
3.131 0.56300002 0.375 20 0 0
3.1159999 0.565 0.377 22 0 0
3.102 0.56599998 0.37900001 20 0 0
3.0899999 0.56800002 0.38100001 23 0 0
3.0739999 0.56900001 0.38299999 24 0 0
3.062 0.57099998 0.38499999 20 0 0
3.0480001 0.57200003 0.38699999 19 0 0
3.023 0.57099998 0.38699999 21 0 0
3.016 0.574 0.38999999 18 0 0
3.003 0.57499999 0.39199999 21 0 0
2.9909999 0.57599998 0.39399999 21 0 0
2.977 0.57700002 0.39500001 20 0 0
2.9690001 0.579 0.398 21 0 0
2.96 0.58099997 0.40000001 21 0 0
2.948 0.58200002 0.40200001 20 0 0
2.937 0.58399999 0.40400001 18 0 0
2.9230001 0.58499998 0.405 22 0 0
2.915 0.58600003 0.40799999 22 0 0
2.901 0.58700001 0.40900001 20 0 0
2.8940001 0.58899999 0.41100001 23 0 0
2.8870001 0.59100002 0.414 22 0 0
2.8729999 0.59100002 0.41499999 21 0 0
2.8610001 0.59200001 0.417 20 0 0
2.855 0.59399998 0.419 21 0 0
2.8410001 0.59399998 0.41999999 21 0 0
2.8310001 0.59500003 0.42199999 20 0 0
2.8239999 0.597 0.42399999 22 0 0
2.8139999 0.59799999 0.426 21 0 0
2.8050001 0.59899998 0.428 23 0 0
2.7969999 0.60000002 0.43000001 22 0 0
2.7909999 0.60100001 0.43200001 22 0 0
2.7839999 0.60299999 0.43399999 22 0 0
2.777 0.60399997 0.43599999 22 0 0
2.767 0.60500002 0.43799999 22 0 0
2.7590001 0.60600001 0.44 22 0 0
2.75 0.60699999 0.44100001 22 0 0
2.744 0.60799998 0.44400001 22 0 0
2.7409999 0.61000001 0.44600001 22 0 0
2.7279999 0.61000001 0.447 22 0 0
2.724 0.611 0.449 22 0 0
2.7160001 0.61199999 0.45100001 21 0 0
2.7019999 0.61199999 0.45199999 21 0 0
2.7 0.61400002 0.45500001 22 0 0
2.6860001 0.61299998 0.45500001 22 0 0
2.6849999 0.61500001 0.458 22 0 0
2.681 0.616 0.46000001 23 0 0
2.6730001 0.61699998 0.46200001 21 0 0
