# .PCD v0.7 - Point Cloud Data file format
VERSION 0.7
FIELDS x y z intensity tag line
SIZE 4 4 4 4 1 1
TYPE F F F F U U
COUNT 1 1 1 1 1 1
WIDTH 1445
HEIGHT 1
VIEWPOINT 0 0 0 1 0 0 0
POINTS 1445
DATA ascii
3.697 -0.26100001 1.244 44 0 0
3.6960001 -0.26199999 1.2410001 41 0 0
3.6960001 -0.26300001 1.239 44 0 0
3.6960001 -0.264 1.2359999 44 0 0
3.7 -0.26499999 1.235 44 0 0
3.6900001 -0.26499999 1.229 49 0 0
3.698 -0.26699999 1.229 44 0 0
3.6949999 -0.26699999 1.225 46 0 0
3.6960001 -0.26800001 1.222 41 0 0
3.688 -0.26800001 1.216 43 0 0
3.6889999 -0.26899999 1.214 43 0 0
3.6889999 -0.27000001 1.211 43 0 0
3.6900001 -0.271 1.2079999 43 0 0
3.6889999 -0.271 1.204 41 0 0
3.6900001 -0.27200001 1.202 41 0 0
3.6930001 -0.273 1.199 41 0 0
3.6919999 -0.273 1.196 34 0 0
3.6889999 -0.27399999 1.191 38 0 0
3.6900001 -0.27399999 1.188 36 0 0
3.6919999 -0.27500001 1.1849999 36 0 0
3.6900001 -0.27599999 1.181 36 0 0
3.6930001 -0.27599999 1.179 38 0 0
3.697 -0.27700001 1.176 36 0 0
3.687 -0.27700001 1.17 43 0 0
3.6989999 -0.278 1.17 34 0 0
3.691 -0.278 1.163 46 0 0
3.688 -0.27900001 1.158 43 0 0
3.687 -0.27900001 1.154 43 0 0
3.6930001 -0.28 1.152 43 0 0
3.691 -0.28 1.148 40 0 0
3.6900001 -0.28 1.1440001 43 0 0
3.6889999 -0.28099999 1.1390001 40 0 0
3.688 -0.28099999 1.135 40 0 0
3.6900001 -0.28099999 1.131 40 0 0
3.684 -0.28099999 1.125 40 0 0
3.691 -0.28200001 1.123 40 0 0
3.6919999 -0.28299999 1.119 43 0 0
3.6860001 -0.28200001 1.114 40 0 0
3.6849999 -0.28299999 1.109 43 0 0
3.6860001 -0.28299999 1.105 43 0 0
3.687 -0.28299999 1.101 43 0 0
3.6860001 -0.28299999 1.096 43 0 0
3.688 -0.28400001 1.092 40 0 0
3.6889999 -0.28400001 1.0880001 40 0 0
3.6849999 -0.28400001 1.082 36 0 0
3.6900001 -0.28400001 1.079 36 0 0
3.6919999 -0.28400001 1.075 40 0 0
3.688 -0.28400001 1.069 36 0 0
3.6860001 -0.28400001 1.064 38 0 0
3.688 -0.28400001 1.0599999 36 0 0
3.688 -0.28400001 1.0549999 38 0 0
3.674 -0.28299999 1.046 37 0 0
3.6730001 -0.28299999 1.041 37 0 0
3.6719999 -0.28299999 1.036 44 0 0
3.6760001 -0.28299999 1.0319999 37 0 0
3.6789999 -0.28299999 1.028 35 0 0
3.675 -0.28299999 1.022 39 0 0
3.677 -0.28299999 1.017 39 0 0
3.677 -0.28299999 1.012 42 0 0
3.677 -0.28200001 1.007 37 0 0
3.681 -0.28299999 1.003 39 0 0
3.671 -0.28200001 0.995 39 0 0
3.674 -0.28200001 0.991 42 0 0
3.6730001 -0.28099999 0.98500001 33 0 0
3.6760001 -0.28099999 0.98100001 33 0 0
3.671 -0.28 0.97399998 39 0 0
3.674 -0.28 0.97000003 39 0 0
3.674 -0.28 0.96399999 39 0 0
3.671 -0.27900001 0.958 37 0 0
3.6760001 -0.27900001 0.954 39 0 0
3.674 -0.27900001 0.94800001 33 0 0
3.6670001 -0.278 0.94099998 39 0 0
3.6659999 -0.27700001 0.935 41 0 0
3.668 -0.27700001 0.93000001 44 0 0
3.6670001 -0.27599999 0.92400002 41 0 0
3.668 -0.27599999 0.91900003 39 0 0
3.6670001 -0.27500001 0.91299999 39 0 0
3.6659999 -0.27399999 0.90700001 39 0 0
3.6630001 -0.27399999 0.89999998 46 0 0
3.665 -0.273 0.89499998 41 0 0
3.664 -0.27200001 0.889 39 0 0
3.664 -0.27200001 0.88300002 43 0 0
3.6619999 -0.271 0.87699997 41 0 0
3.6659999 -0.27000001 0.87199998 43 0 0
3.668 -0.27000001 0.86699998 41 0 0
3.668 -0.26899999 0.861 36 0 0
3.6700001 -0.26800001 0.85600001 41 0 0
3.671 -0.26800001 0.85000002 36 0 0
3.6670001 -0.266 0.84299999 46 0 0
3.6619999 -0.26499999 0.83600003 46 0 0
3.6570001 -0.264 0.829 74 0 0
3.6570001 -0.26300001 0.82200003 85 0 0
3.6500001 -0.26199999 0.815 107 0 0
3.6500001 -0.26100001 0.80800003 109 0 0
3.6500001 -0.25999999 0.80199999 111 0 0
3.6530001 -0.259 0.79699999 109 0 0
3.651 -0.25799999 0.79000002 96 0 0
3.658 -0.257 0.78600001 80 0 0
3.681 -0.25799999 0.78399998 67 0 0
3.6919999 -0.257 0.77999997 72 0 0
3.711 -0.257 0.778 68 0 0
3.7090001 -0.25600001 0.77100003 53 0 0
3.7390001 -0.257 0.77100003 33 0 0
3.7490001 -0.25600001 0.76599997 23 0 0
3.76 -0.25600001 0.76200002 15 0 0
3.76 -0.25400001 0.755 4 0 0
0 0 0 0 0 0
6.0749998 -0.40700001 1.199 16 0 0
6.1110001 -0.40700001 1.196 15 0 0
6.1570001 -0.40799999 1.194 16 0 0
6.1760001 -0.40700001 1.186 17 0 0
6.2270002 -0.40799999 1.1849999 18 0 0
6.263 -0.40799999 1.181 17 0 0
6.2950001 -0.40700001 1.176 17 0 0
6.3280001 -0.40700001 1.17 17 0 0
6.3660002 -0.40599999 1.166 17 0 0
6.4070001 -0.40599999 1.1619999 14 0 0
6.4510002 -0.40599999 1.158 12 0 0
6.474 -0.405 1.151 12 0 0
6.5320001 -0.40599999 1.149 12 0 0
6.5780001 -0.405 1.145 13 0 0
6.579 -0.403 1.133 13 0 0
6.6040001 -0.40099999 1.125 13 0 0
6.6110001 -0.398 1.114 13 0 0
6.6230001 -0.396 1.104 13 0 0
6.7399998 -0.40000001 1.1109999 14 0 0
6.757 -0.39700001 1.102 13 0 0
6.8200002 -0.39700001 1.099 13 0 0
6.447 -0.37200001 1.027 12 0 0
6.4850001 -0.37099999 1.021 12 0 0
0 0 0 0 0 0
6.5780001 -0.37 1.011 12 0 0
6.6329999 -0.36899999 1.007 11 0 0
0 0 0 0 0 0
0 0 0 0 0 0
0 0 0 0 0 0
0 0 0 0 0 0
0 0 0 0 0 0
0 0 0 0 0 0
0 0 0 0 0 0
0 0 0 0 0 0
0 0 0 0 0 0
0 0 0 0 0 0
5.6570001 -0.278 0.741 1 0 0
0 0 0 0 0 0
5.652 -0.271 0.71899998 1 0 0
5.658 -0.26699999 0.70899999 1 0 0
5.625 -0.26199999 0.69400001 1 0 0
5.7589998 -0.26499999 0.69999999 1 0 0
5.6550002 -0.25600001 0.67699999 1 0 0
0 0 0 0 0 0
5.6199999 -0.24699999 0.65100002 1 0 0
5.6240001 -0.243 0.63999999 1 0 0
5.6370001 -0.23999999 0.63099998 1 0 0
0 0 0 0 0 0
0 0 0 0 0 0
0 0 0 0 0 0
0 0 0 0 0 0
0 0 0 0 0 0
5.7179999 -0.21799999 0.574 1 0 0
5.651 -0.212 0.55599999 1 0 0
5.678 -0.208 0.54799998 1 0 0
5.6300001 -0.20200001 0.53200001 1 0 0
5.651 -0.199 0.52399999 1 0 0
5.6900001 -0.19599999 0.51599997 1 0 0
0 0 0 0 0 0
0 0 0 0 0 0
0 0 0 0 0 0
0 0 0 0 0 0
0 0 0 0 0 0
0 0 0 0 0 0
0 0 0 0 0 0
0 0 0 0 0 0
0 0 0 0 0 0
0 0 0 0 0 0
0 0 0 0 0 0
0 0 0 0 0 0
5.638 -0.133 0.37099999 1 0 0
5.5949998 -0.127 0.35699999 1 0 0
5.5840001 -0.122 0.34599999 1 0 0
5.6100001 -0.118 0.336 1 0 0
5.5949998 -0.112 0.32499999 1 0 0
5.6020002 -0.108 0.315 1 0 0
5.5960002 -0.102 0.30399999 1 0 0
8.7209997 -0.152 0.45699999 27 0 0
8.6420002 -0.142 0.43599999 29 0 0
8.5860004 -0.133 0.417 30 0 0
8.5150003 -0.124 0.39700001 30 0 0
5.7119999 -0.078000002 0.255 1 0 0
5.618 -0.071000002 0.23999999 1 0 0
5.5890002 -0.064999998 0.228 1 0 0
0 0 0 0 0 0
5.5939999 -0.055 0.207 1 0 0
5.5819998 -0.048999999 0.197 2 0 0
5.5970001 -0.044 0.186 2 0 0
0 0 0 0 0 0
0 0 0 0 0 0
0 0 0 0 0 0
0 0 0 0 0 0
5.6859999 -0.016000001 0.13600001 1 0 0
5.6370001 -0.0099999998 0.124 1 0 0
0 0 0 0 0 0
0 0 0 0 0 0
0 0 0 0 0 0
0 0 0 0 0 0
0 0 0 0 0 0
0 0 0 0 0 0
0 0 0 0 0 0
0 0 0 0 0 0
0 0 0 0 0 0
0 0 0 0 0 0
0 0 0 0 0 0
5.9879999 0.064000003 0 6 0 0
0 0 0 0 0 0
0 0 0 0 0 0
0 0 0 0 0 0
0 0 0 0 0 0
0 0 0 0 0 0
0 0 0 0 0 0
5.8340001 0.108 -0.075000003 2 0 0
0 0 0 0 0 0
0 0 0 0 0 0
6.6760001 0.147 -0.122 3 0 0
6.6859999 0.155 -0.134 3 0 0
6.6609998 0.162 -0.145 3 0 0
6.6020002 0.168 -0.155 4 0 0
6.5749998 0.175 -0.16599999 3 0 0
6.5869999 0.183 -0.178 1 0 0
6.46 0.18700001 -0.186 1 0 0
6.4959998 0.19599999 -0.199 1 0 0
6.4629998 0.20299999 -0.20900001 1 0 0
6.4200001 0.20900001 -0.219 1 0 0
6.3699999 0.215 -0.228 1 0 0
6.329 0.221 -0.23800001 1 0 0
6.3299999 0.229 -0.249 1 0 0
6.2750001 0.234 -0.257 1 0 0
5.8540001 0.226 -0.25 1 0 0
6.1059999 0.243 -0.271 1 0 0
6.0869999 0.25 -0.28099999 1 0 0
5.7470002 0.243 -0.27500001 1 0 0
5.7249999 0.249 -0.28400001 1 0 0
5.7059999 0.255 -0.292 1 0 0
5.6729999 0.26100001 -0.30000001 1 0 0
5.73 0.271 -0.31299999 11 0 0
5.6110001 0.27200001 -0.31600001 27 0 0
5.5840001 0.278 -0.324 53 0 0
5.5489998 0.28299999 -0.331 79 0 0
5.5339999 0.289 -0.33899999 106 0 0
5.5500002 0.29699999 -0.34900001 114 0 0
5.5450001 0.30399999 -0.35800001 129 0 0
5.5700002 0.31200001 -0.36899999 130 0 0
5.5679998 0.31900001 -0.37799999 130 0 0
5.5689998 0.32600001 -0.38699999 130 0 0
5.539 0.33199999 -0.39399999 129 0 0
5.5359998 0.338 -0.40200001 107 0 0
5.559 0.347 -0.41299999 108 0 0
5.5710001 0.35499999 -0.42300001 123 0 0
5.5409999 0.36000001 -0.42899999 138 0 0
5.5819998 0.37 -0.44100001 123 0 0
5.5669999 0.37599999 -0.449 115 0 0
5.5289998 0.38100001 -0.454 114 0 0
0 0 0 0 0 0
0 0 0 0 0 0
0 0 0 0 0 0
3.585 0.266 -0.317 9 0 0
3.5450001 0.26699999 -0.31900001 9 0 0
3.5090001 0.26899999 -0.32100001 8 0 0
3.4779999 0.271 -0.32300001 9 0 0
3.448 0.27399999 -0.32600001 9 0 0
3.411 0.27500001 -0.32699999 10 0 0
3.3699999 0.27599999 -0.329 9 0 0
3.346 0.27900001 -0.331 9 0 0
3.319 0.28099999 -0.333 9 0 0
3.2950001 0.28299999 -0.336 9 0 0
3.2609999 0.285 -0.33700001 9 0 0
3.233 0.287 -0.33899999 9 0 0
3.1919999 0.287 -0.33899999 10 0 0
3.168 0.289 -0.34099999 12 0 0
3.145 0.29100001 -0.34299999 12 0 0
3.1300001 0.294 -0.34599999 13 0 0
3.092 0.29499999 -0.34599999 12 0 0
3.069 0.29699999 -0.34799999 11 0 0
3.0350001 0.29699999 -0.34900001 11 0 0
3.017 0.30000001 -0.35100001 11 0 0
2.993 0.301 -0.352 11 0 0
2.9630001 0.30199999 -0.35299999 35 0 0
2.9530001 0.30500001 -0.35600001 62 0 0
2.951 0.30899999 -0.359 126 0 0
2.9449999 0.31200001 -0.36300001 126 0 0
2.9449999 0.31600001 -0.36700001 126 0 0
2.9430001 0.31999999 -0.37 126 0 0
2.9519999 0.32499999 -0.375 150 0 0
3.0150001 0.336 -0.38699999 88 0 0
3.0599999 0.345 -0.39700001 63 0 0
3.178 0.36300001 -0.417 17 0 0
3.654 0.42199999 -0.484 42 0 0
3.665 0.428 -0.49000001 62 0 0
3.668 0.43399999 -0.495 61 0 0
3.6689999 0.43900001 -0.5 66 0 0
3.664 0.44299999 -0.50400001 69 0 0
3.665 0.44800001 -0.509 68 0 0
3.665 0.45300001 -0.51300001 66 0 0
3.6670001 0.458 -0.51800001 69 0 0
3.6700001 0.463 -0.523 70 0 0
3.6670001 0.46799999 -0.52700001 67 0 0
3.654 0.47099999 -0.52999997 42 0 0
3.6389999 0.47400001 -0.53200001 21 0 0
3.618 0.47600001 -0.53299999 24 0 0
3.599 0.47799999 -0.53399998 25 0 0
3.5799999 0.48100001 -0.53600001 24 0 0
3.5569999 0.48199999 -0.53600001 24 0 0
3.5380001 0.48500001 -0.53799999 24 0 0
3.5220001 0.48699999 -0.53899997 23 0 0
3.5109999 0.49000001 -0.542 21 0 0
3.487 0.491 -0.542 23 0 0
3.467 0.493 -0.54299998 24 0 0
3.4560001 0.49599999 -0.54500002 24 0 0
3.434 0.498 -0.54500002 25 0 0
3.415 0.49900001 -0.546 24 0 0
3.4070001 0.50300002 -0.54799998 23 0 0
3.3940001 0.505 -0.55000001 21 0 0
3.3729999 0.50599998 -0.55000001 21 0 0
3.3570001 0.50800002 -0.551 21 0 0
3.339 0.50999999 -0.551 21 0 0
3.3280001 0.51300001 -0.55299997 22 0 0
3.316 0.51499999 -0.55400002 21 0 0
3.293 0.51599997 -0.55400002 22 0 0
3.2750001 0.51700002 -0.55400002 22 0 0
3.257 0.51800001 -0.55400002 21 0 0
3.2420001 0.51999998 -0.55500001 21 0 0
3.227 0.52200001 -0.55500001 22 0 0
3.2130001 0.52399999 -0.55599999 24 0 0
3.1960001 0.52499998 -0.55599999 23 0 0
3.184 0.52700001 -0.55699998 24 0 0
3.1700001 0.52899998 -0.55800003 24 0 0
3.1600001 0.53100002 -0.55900002 20 0 0
3.141 0.53200001 -0.55900002 22 0 0
3.1300001 0.53399998 -0.56 20 0 0
3.1159999 0.53600001 -0.56 25 0 0
3.105 0.53799999 -0.56 23 0 0
3.0929999 0.53899997 -0.56099999 18 0 0
3.0699999 0.53899997 -0.56 23 0 0
3.063 0.542 -0.56099999 24 0 0
3.052 0.54400003 -0.56199998 20 0 0
3.033 0.54400003 -0.56099999 22 0 0
3.0239999 0.546 -0.56099999 23 0 0
3.017 0.54799998 -0.56300002 22 0 0
2.9909999 0.54799998 -0.56 23 0 0
2.9820001 0.54900002 -0.56099999 21 0 0
2.9619999 0.54900002 -0.56 22 0 0
2.9530001 0.551 -0.56 21 0 0
2.948 0.55400002 -0.56199998 23 0 0
2.9330001 0.55400002 -0.56099999 21 0 0
2.921 0.55599999 -0.56099999 18 0 0
2.908 0.55699998 -0.56099999 23 0 0
2.895 0.55699998 -0.56 23 0 0
2.8900001 0.56 -0.56099999 23 0 0
2.8770001 0.56099999 -0.56099999 23 0 0
2.865 0.56199998 -0.56099999 23 0 0
2.848 0.56199998 -0.55900002 23 0 0
2.8429999 0.56400001 -0.56 23 0 0
2.832 0.565 -0.56 23 0 0
2.826 0.56699997 -0.56 22 0 0
2.8150001 0.56800002 -0.56 23 0 0
2.8039999 0.56900001 -0.56 22 0 0
2.796 0.56999999 -0.56 23 0 0
2.786 0.57099998 -0.56 24 0 0
2.7709999 0.57099998 -0.55800003 23 0 0
2.7679999 0.574 -0.55900002 23 0 0
2.7579999 0.57499999 -0.55900002 23 0 0
2.7490001 0.57599998 -0.55900002 23 0 0
2.7379999 0.57599998 -0.55800003 23 0 0
2.7309999 0.57800001 -0.55800003 24 0 0
2.7279999 0.57999998 -0.55900002 23 0 0
2.714 0.57999998 -0.55800003 24 0 0
2.7119999 0.58200002 -0.55900002 23 0 0
2.6989999 0.58200002 -0.55800003 24 0 0
2.6949999 0.58399999 -0.55800003 23 0 0
2.6800001 0.58399999 -0.55599999 24 0 0
2.6719999 0.58499998 -0.55599999 23 0 0
2.6670001 0.58600003 -0.55599999 22 0 0
2.6589999 0.58700001 -0.55599999 23 0 0
2.652 0.588 -0.55500001 25 0 0
2.6400001 0.588 -0.55400002 23 0 0
2.6359999 0.58999997 -0.55400002 24 0 0
2.628 0.59100002 -0.55400002 24 0 0
2.618 0.59100002 -0.55299997 24 0 0
2.6110001 0.59200001 -0.55199999 23 0 0
2.6070001 0.59299999 -0.55299997 24 0 0
2.5999999 0.59399998 -0.55199999 25 0 0
2.592 0.59500003 -0.551 25 0 0
2.589 0.597 -0.55199999 26 0 0
2.5829999 0.59799999 -0.551 24 0 0
2.572 0.597 -0.55000001 25 0 0
2.566 0.59799999 -0.54900002 25 0 0
2.5599999 0.59899998 -0.54900002 24 0 0
2.5539999 0.60000002 -0.54900002 26 0 0
2.55 0.60100001 -0.54799998 25 0 0
2.539 0.60100001 -0.54699999 25 0 0
2.533 0.602 -0.546 24 0 0
2.5309999 0.60299999 -0.546 25 0 0
2.523 0.60399997 -0.54500002 26 0 0
2.5179999 0.60399997 -0.54500002 25 0 0
2.5139999 0.60500002 -0.54500002 26 0 0
2.506 0.60600001 -0.54400003 25 0 0
2.4979999 0.60600001 -0.542 25 0 0
2.497 0.60699999 -0.54299998 25 0 0
2.493 0.60799998 -0.542 25 0 0
2.4849999 0.60799998 -0.54100001 26 0 0
2.48 0.60900003 -0.54000002 25 0 0
2.4779999 0.61000001 -0.54000002 27 0 0
2.4719999 0.611 -0.54000002 26 0 0
2.467 0.611 -0.53899997 27 0 0
2.461 0.61199999 -0.53799999 26 0 0
2.45 0.611 -0.53600001 25 0 0
2.4519999 0.61299998 -0.53600001 25 0 0
2.4430001 0.61199999 -0.53500003 26 0 0
2.441 0.61400002 -0.53500003 25 0 0
2.438 0.61400002 -0.53399998 25 0 0
2.434 0.61500001 -0.53299999 24 0 0
2.431 0.616 -0.53299999 25 0 0
2.4260001 0.616 -0.53200001 24 0 0
2.418 0.616 -0.52999997 23 0 0
2.414 0.616 -0.52899998 24 0 0
2.408 0.616 -0.528 23 0 0
2.4100001 0.61799997 -0.52899998 25 0 0
2.405 0.61799997 -0.52700001 23 0 0
2.401 0.61900002 -0.52700001 25 0 0
2.3929999 0.61799997 -0.52499998 23 0 0
2.3940001 0.62 -0.52499998 24 0 0
2.3889999 0.62 -0.52399999 24 0 0
2.385 0.62 -0.523 23 0 0
2.382 0.62099999 -0.52200001 23 0 0
2.3770001 0.62 -0.52100003 24 0 0
2.378 0.62199998 -0.52100003 24 0 0
2.3770001 0.62300003 -0.51999998 24 0 0
2.3670001 0.62099999 -0.51800001 22 0 0
2.3670001 0.62199998 -0.51800001 22 0 0
2.365 0.62300003 -0.51700002 23 0 0
2.3599999 0.62300003 -0.51599997 22 0 0
2.358 0.62400001 -0.51499999 22 0 0
2.3559999 0.62400001 -0.514 22 0 0
2.3510001 0.62400001 -0.51300001 21 0 0
2.3510001 0.625 -0.51200002 21 0 0
2.349 0.625 -0.51200002 22 0 0
2.349 0.62599999 -0.51099998 22 0 0
2.3410001 0.625 -0.509 22 0 0
2.3399999 0.62599999 -0.50800002 22 0 0
2.336 0.625 -0.50700003 21 0 0
2.339 0.62699997 -0.50700003 22 0 0
2.3329999 0.62599999 -0.505 22 0 0
2.332 0.62699997 -0.50400001 22 0 0
2.332 0.62699997 -0.50400001 22 0 0
2.332 0.62800002 -0.50300002 22 0 0
2.332 0.62900001 -0.50300002 22 0 0
2.3269999 0.62800002 -0.50099999 22 0 0
2.326 0.62800002 -0.5 23 0 0
2.326 0.62900001 -0.49900001 23 0 0
2.3239999 0.62900001 -0.498 22 0 0
2.326 0.63 -0.498 23 0 0
2.319 0.62900001 -0.495 22 0 0
2.323 0.63 -0.49599999 23 0 0
2.319 0.63 -0.49399999 22 0 0
2.3169999 0.63 -0.493 23 0 0
2.313 0.62900001 -0.491 22 0 0
2.3139999 0.63 -0.49000001 23 0 0
2.3150001 0.63 -0.49000001 23 0 0
2.3110001 0.63 -0.48800001 22 0 0
2.313 0.63099998 -0.48699999 22 0 0
2.3110001 0.63 -0.486 22 0 0
2.3110001 0.63099998 -0.48500001 22 0 0
2.3080001 0.63 -0.484 21 0 0
2.3110001 0.63099998 -0.48300001 22 0 0
2.306 0.63 -0.48100001 20 0 0
2.3099999 0.63099998 -0.48100001 22 0 0
2.312 0.63200003 -0.47999999 22 0 0
2.3099999 0.63200003 -0.479 22 0 0
2.3110001 0.63200003 -0.47799999 21 0 0
2.3110001 0.63200003 -0.477 21 0 0
2.309 0.63099998 -0.47499999 21 0 0
2.309 0.63200003 -0.47400001 21 0 0
2.3110001 0.63200003 -0.47299999 22 0 0
2.3080001 0.63099998 -0.47099999 20 0 0
2.3099999 0.63200003 -0.47 21 0 0
2.313 0.63200003 -0.47 21 0 0
2.3099999 0.63200003 -0.46799999 21 0 0
2.3139999 0.63200003 -0.46700001 22 0 0
2.3150001 0.63200003 -0.46599999 22 0 0
2.312 0.63099998 -0.46399999 21 0 0
2.312 0.63099998 -0.463 21 0 0
2.3150001 0.63200003 -0.46200001 22 0 0
2.3099999 0.63 -0.46000001 20 0 0
2.316 0.63200003 -0.46000001 22 0 0
2.316 0.63099998 -0.458 21 0 0
2.3169999 0.63099998 -0.45699999 22 0 0
2.3169999 0.63099998 -0.456 22 0 0
2.3180001 0.63 -0.454 22 0 0
2.322 0.63099998 -0.45300001 21 0 0
2.3269999 0.63200003 -0.45300001 21 0 0
2.325 0.63099998 -0.45100001 21 0 0
2.3239999 0.63 -0.449 20 0 0
2.329 0.63099998 -0.449 21 0 0
2.3269999 0.63 -0.447 21 0 0
2.329 0.63 -0.44499999 21 0 0
2.3299999 0.62900001 -0.44400001 21 0 0
2.3380001 0.63099998 -0.44400001 21 0 0
2.335 0.62900001 -0.442 20 0 0
2.339 0.63 -0.44100001 21 0 0
2.3340001 0.62800002 -0.43799999 20 0 0
2.3429999 0.62900001 -0.43799999 20 0 0
2.345 0.62900001 -0.43700001 21 0 0
2.346 0.62800002 -0.435 21 0 0
2.3510001 0.62900001 -0.43399999 21 0 0
2.348 0.62699997 -0.43200001 20 0 0
2.352 0.62699997 -0.43099999 21 0 0
2.3559999 0.62699997 -0.43000001 20 0 0
2.362 0.62800002 -0.42899999 20 0 0
2.359 0.62599999 -0.426 20 0 0
2.3629999 0.62599999 -0.42500001 20 0 0
2.3640001 0.625 -0.42300001 20 0 0
2.372 0.62599999 -0.42300001 21 0 0
2.372 0.625 -0.421 21 0 0
2.3770001 0.625 -0.41999999 21 0 0
2.375 0.62400001 -0.41800001 20 0 0
2.382 0.62400001 -0.417 21 0 0
2.382 0.62300003 -0.41499999 21 0 0
2.3870001 0.62300003 -0.414 22 0 0
2.392 0.62300003 -0.41299999 21 0 0
2.401 0.62400001 -0.412 23 0 0
2.4030001 0.62300003 -0.41 23 0 0
2.408 0.62300003 -0.40900001 21 0 0
2.4089999 0.62199998 -0.40700001 22 0 0
2.4100001 0.62099999 -0.405 22 0 0
2.4170001 0.62099999 -0.40400001 23 0 0
2.4230001 0.62099999 -0.403 22 0 0
2.425 0.62 -0.40099999 21 0 0
2.428 0.62 -0.39899999 21 0 0
2.4349999 0.62 -0.398 22 0 0
2.4400001 0.61900002 -0.39700001 22 0 0
2.4430001 0.61900002 -0.39500001 21 0 0
2.4430001 0.61699998 -0.39300001 22 0 0
2.4530001 0.61799997 -0.39199999 23 0 0
2.4560001 0.61699998 -0.38999999 23 0 0
2.464 0.61699998 -0.389 24 0 0
2.467 0.616 -0.38699999 22 0 0
2.474 0.616 -0.38600001 22 0 0
2.477 0.61500001 -0.384 23 0 0
2.48 0.61299998 -0.382 23 0 0
2.4909999 0.61400002 -0.38100001 23 0 0
2.497 0.61400002 -0.38 24 0 0
2.5 0.61199999 -0.37799999 23 0 0
2.51 0.61299998 -0.377 23 0 0
2.513 0.611 -0.375 22 0 0
2.5220001 0.611 -0.37400001 24 0 0
2.5250001 0.61000001 -0.37200001 24 0 0
2.5339999 0.61000001 -0.37 23 0 0
2.5350001 0.60799998 -0.368 23 0 0
2.5439999 0.60799998 -0.36700001 23 0 0
2.553 0.60799998 -0.36500001 23 0 0
2.5569999 0.60699999 -0.36300001 22 0 0
2.559 0.60500002 -0.361 22 0 0
2.572 0.60500002 -0.36000001 22 0 0
2.575 0.60399997 -0.35800001 21 0 0
2.5840001 0.60299999 -0.35699999 21 0 0
2.596 0.60399997 -0.35600001 22 0 0
2.6010001 0.602 -0.354 22 0 0
2.6140001 0.60299999 -0.352 22 0 0
2.615 0.60000002 -0.34999999 22 0 0
2.6289999 0.60100001 -0.34900001 24 0 0
2.635 0.60000002 -0.347 22 0 0
2.6440001 0.59899998 -0.345 22 0 0
2.6489999 0.59799999 -0.34299999 23 0 0
2.6630001 0.59799999 -0.34200001 23 0 0
2.6659999 0.59600002 -0.34 23 0 0
2.6819999 0.597 -0.33899999 25 0 0
2.684 0.59399998 -0.336 25 0 0
2.6960001 0.59399998 -0.33500001 23 0 0
2.698 0.59200001 -0.33199999 22 0 0
2.7079999 0.59100002 -0.331 23 0 0
2.7160001 0.58899999 -0.329 24 0 0
2.727 0.58899999 -0.32699999 22 0 0
2.7420001 0.58899999 -0.32600001 22 0 0
2.757 0.58899999 -0.32499999 21 0 0
2.7609999 0.58700001 -0.322 22 0 0
2.7709999 0.58600003 -0.31999999 22 0 0
2.7820001 0.58499998 -0.31799999 21 0 0
2.789 0.583 -0.31600001 22 0 0
2.7939999 0.57999998 -0.31400001 21 0 0
2.809 0.57999998 -0.31200001 22 0 0
2.8199999 0.579 -0.31 23 0 0
2.8299999 0.57800001 -0.308 22 0 0
2.836 0.57599998 -0.30599999 23 0 0
2.8529999 0.57499999 -0.30500001 22 0 0
2.8640001 0.574 -0.303 24 0 0
2.872 0.57200003 -0.30000001 23 0 0
2.8829999 0.57099998 -0.29800001 23 0 0
2.904 0.57099998 -0.29699999 25 0 0
2.9119999 0.56900001 -0.29499999 24 0 0
2.928 0.56800002 -0.29300001 21 0 0
2.934 0.56599998 -0.29100001 24 0 0
2.9519999 0.565 -0.289 24 0 0
2.967 0.56400001 -0.287 21 0 0
2.9809999 0.56300002 -0.285 22 0 0
2.99 0.56 -0.28299999 21 0 0
3.0050001 0.55900002 -0.28099999 18 0 0
3.0150001 0.55699998 -0.278 21 0 0
3.03 0.55599999 -0.27700001 19 0 0
3.0380001 0.55299997 -0.27399999 21 0 0
3.0699999 0.55400002 -0.273 22 0 0
3.0880001 0.55299997 -0.27200001 19 0 0
3.099 0.551 -0.26899999 23 0 0
3.1199999 0.55000001 -0.26699999 22 0 0
3.1359999 0.54900002 -0.26499999 22 0 0
3.145 0.546 -0.26300001 21 0 0
3.1670001 0.54500002 -0.26100001 20 0 0
3.1819999 0.54299998 -0.259 21 0 0
3.197 0.54100001 -0.25600001 23 0 0
3.21 0.53799999 -0.25400001 21 0 0
3.2320001 0.537 -0.252 22 0 0
3.247 0.53500003 -0.249 23 0 0
3.2579999 0.53200001 -0.24699999 22 0 0
3.279 0.52999997 -0.245 21 0 0
3.2950001 0.528 -0.242 21 0 0
3.323 0.52700001 -0.241 21 0 0
3.3369999 0.52499998 -0.23800001 20 0 0
3.362 0.523 -0.236 22 0 0
3.3800001 0.52100003 -0.234 22 0 0
3.398 0.51899999 -0.23100001 22 0 0
3.408 0.51499999 -0.228 21 0 0
3.4360001 0.514 -0.226 21 0 0
3.4549999 0.51099998 -0.22400001 21 0 0
3.477 0.509 -0.221 21 0 0
3.4949999 0.50599998 -0.219 22 0 0
3.5190001 0.50400001 -0.21699999 23 0 0
3.5409999 0.50099999 -0.214 24 0 0
3.556 0.498 -0.211 23 0 0
3.572 0.49399999 -0.208 24 0 0
3.602 0.49200001 -0.206 24 0 0
3.625 0.49000001 -0.20299999 24 0 0
3.651 0.48699999 -0.20100001 25 0 0
3.677 0.484 -0.199 41 0 0
3.6860001 0.47999999 -0.19499999 64 0 0
3.6849999 0.47400001 -0.191 74 0 0
3.6849999 0.46700001 -0.18700001 64 0 0
3.6830001 0.461 -0.183 66 0 0
3.684 0.45500001 -0.17900001 62 0 0
3.6860001 0.449 -0.176 61 0 0
3.6819999 0.442 -0.17200001 59 0 0
3.677 0.435 -0.167 65 0 0
3.1819999 0.37099999 -0.142 22 0 0
3.0599999 0.35100001 -0.133 74 0 0
2.974 0.336 -0.126 127 0 0
2.9690001 0.331 -0.123 109 0 0
2.9630001 0.32499999 -0.12 150 0 0
2.9719999 0.32100001 -0.117 109 0 0
2.967 0.315 -0.114 65 0 0
2.98 0.31099999 -0.111 37 0 0
3.02 0.31 -0.109 16 0 0
3.0450001 0.30700001 -0.107 16 0 0
3.0780001 0.30500001 -0.105 13 0 0
3.1110001 0.303 -0.103 12 0 0
3.135 0.29899999 -0.101 11 0 0
3.181 0.29800001 -0.098999999 10 0 0
3.2190001 0.296 -0.097999997 8 0 0
3.266 0.29499999 -0.096000001 8 0 0
3.3050001 0.292 -0.093999997 9 0 0
3.349 0.28999999 -0.092 9 0 0
3.3829999 0.287 -0.089000002 9 0 0
3.4260001 0.28400001 -0.086999997 10 0 0
3.4790001 0.28200001 -0.085000001 10 0 0
3.523 0.27900001 -0.082999997 10 0 0
3.572 0.27700001 -0.081 10 0 0
3.612 0.273 -0.078000002 8 0 0
0 0 0 0 0 0
5.552 0.39899999 -0.11 95 0 0
5.533 0.38800001 -0.104 128 0 0
5.5770001 0.38 -0.1 115 0 0
5.5609999 0.36899999 -0.093999997 122 0 0
5.5689998 0.359 -0.089000002 108 0 0
5.572 0.34799999 -0.083999999 139 0 0
5.5609999 0.33700001 -0.079000004 129 0 0
5.5619998 0.32699999 -0.074000001 114 0 0
5.5689998 0.317 -0.068999998 138 0 0
5.585 0.30700001 -0.064000003 130 0 0
5.5549998 0.29499999 -0.059 75 0 0
5.6030002 0.28600001 -0.055 41 0 0
5.6890001 0.28 -0.050000001 14 0 0
5.73 0.271 -0.046 1 0 0
5.7519999 0.26100001 -0.041000001 1 0 0
6.1079998 0.26499999 -0.037999999 1 0 0
6.1129999 0.25400001 -0.033 1 0 0
5.7740002 0.229 -0.026000001 1 0 0
5.816 0.219 -0.022 1 0 0
5.8959999 0.211 -0.017000001 1 0 0
6.4549999 0.21799999 -0.013 1 0 0
6.494 0.207 -0.0080000004 1 0 0
6.4689999 0.193 -0.003 1 0 0
6.5469999 0.183 0.0020000001 2 0 0
6.559 0.171 0.0070000002 2 0 0
6.5739999 0.15800001 0.012 3 0 0
0 0 0 0 0 0
0 0 0 0 0 0
0 0 0 0 0 0
0 0 0 0 0 0
0 0 0 0 0 0
0 0 0 0 0 0
0 0 0 0 0 0
0 0 0 0 0 0
0 0 0 0 0 0
0 0 0 0 0 0
0 0 0 0 0 0
5.6100001 0.001 0.061999999 1 0 0
0 0 0 0 0 0
5.6620002 -0.02 0.071000002 1 0 0
0 0 0 0 0 0
5.5749998 -0.041999999 0.078000002 3 0 0
5.6399999 -0.054000001 0.082000002 1 0 0
0 0 0 0 0 0
0 0 0 0 0 0
0 0 0 0 0 0
8.7980003 -0.155 0.153 33 0 0
8.9960003 -0.177 0.162 32 0 0
9.1120005 -0.197 0.17 32 0 0
9.2600002 -0.219 0.17900001 31 0 0
9.3549995 -0.241 0.18700001 29 0 0
9.3900003 -0.25999999 0.19400001 31 0 0
9.3909998 -0.27900001 0.2 29 0 0
5.585 -0.177 0.122 1 0 0
5.5650001 -0.18799999 0.125 1 0 0
5.5689998 -0.199 0.12899999 1 0 0
5.5770001 -0.211 0.132 1 0 0
5.573 -0.222 0.13500001 1 0 0
5.585 -0.234 0.139 1 0 0
5.592 -0.245 0.142 1 0 0
5.5650001 -0.255 0.145 1 0 0
5.5809999 -0.26699999 0.149 1 0 0
5.5809999 -0.27900001 0.152 1 0 0
5.5650001 -0.289 0.154 1 0 0
5.5760002 -0.301 0.15800001 1 0 0
5.5679998 -0.31200001 0.16 1 0 0
5.5780001 -0.32300001 0.164 1 0 0
5.572 -0.33500001 0.167 1 0 0
5.5780001 -0.34599999 0.17 1 0 0
5.5679998 -0.35699999 0.17200001 1 0 0
5.5570002 -0.36700001 0.175 1 0 0
5.5419998 -0.37799999 0.177 1 0 0
5.5679998 -0.38999999 0.18000001 1 0 0
5.5580001 -0.40099999 0.183 1 0 0
5.5689998 -0.41299999 0.186 1 0 0
5.566 -0.42399999 0.18799999 1 0 0
5.546 -0.433 0.19 1 0 0
5.5500002 -0.44499999 0.193 1 0 0
5.539 -0.45500001 0.19499999 1 0 0
5.539 -0.46599999 0.198 1 0 0
5.533 -0.477 0.2 1 0 0
5.5609999 -0.49000001 0.20299999 1 0 0
5.553 -0.50099999 0.205 1 0 0
5.5599999 -0.51200002 0.208 1 0 0
5.5229998 -0.51999998 0.20900001 1 0 0
5.579 -0.53600001 0.213 1 0 0
5.5380001 -0.54400003 0.214 1 0 0
5.54 -0.55500001 0.21600001 1 0 0
0 0 0 0 0 0
3.645 -0.37900001 0.145 50 0 0
3.6259999 -0.38499999 0.145 113 0 0
3.608 -0.38999999 0.146 103 0 0
3.596 -0.396 0.147 102 0 0
3.589 -0.40200001 0.148 123 0 0
3.5869999 -0.40900001 0.149 123 0 0
3.586 -0.41600001 0.15000001 111 0 0
3.5910001 -0.42399999 0.15099999 95 0 0
3.589 -0.43000001 0.152 84 0 0
3.5910001 -0.43799999 0.154 76 0 0
3.5899999 -0.44499999 0.155 76 0 0
3.589 -0.45100001 0.156 76 0 0
3.589 -0.458 0.15700001 80 0 0
3.5880001 -0.465 0.15800001 80 0 0
3.589 -0.472 0.15899999 79 0 0
3.5880001 -0.479 0.16 79 0 0
3.582 -0.48500001 0.16 77 0 0
3.5869999 -0.493 0.162 80 0 0
3.586 -0.5 0.162 80 0 0
3.585 -0.50700003 0.163 80 0 0
3.5829999 -0.51300001 0.164 81 0 0
3.5799999 -0.51999998 0.16500001 80 0 0
3.579 -0.52600002 0.16500001 80 0 0
3.5810001 -0.53299999 0.16599999 80 0 0
3.5799999 -0.54000002 0.167 80 0 0
3.5780001 -0.54699999 0.168 81 0 0
3.5739999 -0.55299997 0.168 76 0 0
3.5769999 -0.56 0.169 80 0 0
3.579 -0.56699997 0.17 78 0 0
3.5739999 -0.57300001 0.17 79 0 0
3.5699999 -0.579 0.171 76 0 0
3.573 -0.58600003 0.171 80 0 0
3.572 -0.59200001 0.17200001 80 0 0
3.569 -0.59899998 0.17200001 79 0 0
3.5699999 -0.60600001 0.17299999 79 0 0
3.5710001 -0.61199999 0.17299999 78 0 0
3.5680001 -0.61799997 0.17399999 79 0 0
3.566 -0.62400001 0.17399999 72 0 0
3.5680001 -0.63099998 0.175 75 0 0
3.5650001 -0.63700002 0.175 76 0 0
3.566 -0.64399999 0.175 75 0 0
3.559 -0.64899999 0.175 73 0 0
3.5639999 -0.65600002 0.176 76 0 0
3.5599999 -0.662 0.176 76 0 0
3.5610001 -0.66900003 0.176 75 0 0
3.5610001 -0.67500001 0.177 76 0 0
3.559 -0.68099999 0.177 75 0 0
3.562 -0.68800002 0.177 66 0 0
3.563 -0.69400001 0.178 71 0 0
3.5550001 -0.699 0.177 75 0 0
3.5610001 -0.70599997 0.178 71 0 0
3.559 -0.71200001 0.178 71 0 0
3.559 -0.71799999 0.178 70 0 0
3.5569999 -0.72399998 0.178 71 0 0
3.556 -0.73000002 0.178 71 0 0
3.5550001 -0.736 0.178 71 0 0
3.5510001 -0.741 0.178 70 0 0
3.553 -0.74800003 0.178 70 0 0
3.549 -0.75300002 0.178 65 0 0
3.5539999 -0.75999999 0.178 67 0 0
3.5539999 -0.76599997 0.178 71 0 0
3.5539999 -0.77200001 0.178 70 0 0
3.5469999 -0.77600002 0.178 70 0 0
3.552 -0.78299999 0.178 67 0 0
3.5510001 -0.78899997 0.178 70 0 0
3.549 -0.79400003 0.178 70 0 0
3.5480001 -0.79900002 0.177 70 0 0
3.5469999 -0.80500001 0.177 70 0 0
3.546 -0.81099999 0.177 70 0 0
3.5439999 -0.81599998 0.177 70 0 0
3.5439999 -0.82099998 0.176 69 0 0
3.539 -0.82599998 0.176 68 0 0
3.5409999 -0.83200002 0.176 70 0 0
3.5439999 -0.838 0.176 59 0 0
3.5420001 -0.84299999 0.175 63 0 0
3.5350001 -0.847 0.175 67 0 0
3.54 -0.85399997 0.175 63 0 0
3.5369999 -0.85799998 0.17399999 63 0 0
3.5380001 -0.86400002 0.17399999 66 0 0
3.5369999 -0.86900002 0.17299999 66 0 0
3.539 -0.875 0.17299999 66 0 0
3.5350001 -0.87900001 0.17299999 66 0 0
3.536 -0.88499999 0.17200001 64 0 0
3.5339999 -0.88999999 0.17200001 67 0 0
3.533 -0.89499998 0.171 65 0 0
3.53 -0.89899999 0.17 66 0 0
3.5280001 -0.90399998 0.17 66 0 0
3.529 -0.90899998 0.169 65 0 0
3.5309999 -0.91500002 0.169 65 0 0
3.5250001 -0.91799998 0.168 61 0 0
3.527 -0.92299998 0.168 64 0 0
3.526 -0.92799997 0.167 63 0 0
3.526 -0.93300003 0.167 65 0 0
3.529 -0.93900001 0.16599999 66 0 0
3.5239999 -0.94199997 0.16500001 65 0 0
3.5239999 -0.94700003 0.16500001 64 0 0
3.529 -0.95300001 0.164 63 0 0
3.5209999 -0.95599997 0.163 64 0 0
3.527 -0.96200001 0.163 63 0 0
3.526 -0.96600002 0.162 63 0 0
3.5220001 -0.97000003 0.161 61 0 0
3.5250001 -0.97500002 0.161 63 0 0
3.523 -0.97899997 0.16 59 0 0
3.526 -0.98400003 0.15899999 64 0 0
3.5150001 -0.986 0.15800001 60 0 0
3.5220001 -0.99199998 0.15800001 63 0 0
3.5190001 -0.99599999 0.156 62 0 0
3.5150001 -0.99900001 0.156 60 0 0
3.5190001 -1.0039999 0.155 63 0 0
3.52 -1.0089999 0.154 63 0 0
3.516 -1.012 0.153 63 0 0
3.5150001 -1.016 0.152 63 0 0
3.516 -1.02 0.15099999 64 0 0
3.517 -1.024 0.15099999 62 0 0
3.516 -1.028 0.15000001 62 0 0
3.5139999 -1.031 0.149 63 0 0
3.5190001 -1.0369999 0.148 66 0 0
3.5120001 -1.039 0.147 63 0 0
3.517 -1.044 0.146 66 0 0
3.51 -1.046 0.145 63 0 0
3.5150001 -1.051 0.14399999 66 0 0
3.5109999 -1.053 0.14300001 65 0 0
3.5090001 -1.057 0.142 67 0 0
3.5120001 -1.061 0.141 66 0 0
3.5039999 -1.062 0.14 64 0 0
3.51 -1.068 0.139 66 0 0
3.51 -1.071 0.138 64 0 0
3.5079999 -1.074 0.13699999 66 0 0
3.5079999 -1.077 0.13600001 64 0 0
3.507 -1.08 0.13500001 64 0 0
3.506 -1.0829999 0.134 64 0 0
3.5050001 -1.086 0.133 64 0 0
3.507 -1.09 0.132 62 0 0
3.5109999 -1.095 0.131 71 0 0
3.506 -1.096 0.12899999 62 0 0
3.507 -1.099 0.12800001 68 0 0
3.5039999 -1.102 0.127 62 0 0
3.5 -1.104 0.126 64 0 0
3.507 -1.109 0.125 66 0 0
3.5090001 -1.112 0.124 60 0 0
3.4979999 -1.1109999 0.122 64 0 0
3.5050001 -1.1160001 0.121 66 0 0
3.5050001 -1.119 0.12 64 0 0
3.5 -1.12 0.119 68 0 0
3.5050001 -1.125 0.118 64 0 0
3.5079999 -1.128 0.117 66 0 0
3.497 -1.127 0.115 61 0 0
3.5009999 -1.131 0.114 64 0 0
3.503 -1.1339999 0.113 64 0 0
3.503 -1.137 0.112 64 0 0
3.4990001 -1.138 0.11 64 0 0
3.4990001 -1.14 0.109 64 0 0
3.4979999 -1.142 0.108 65 0 0
3.497 -1.1440001 0.107 65 0 0
3.4990001 -1.147 0.106 64 0 0
3.4979999 -1.149 0.104 64 0 0
3.5020001 -1.152 0.103 64 0 0
3.497 -1.152 0.102 64 0 0
3.5009999 -1.156 0.101 64 0 0
3.494 -1.155 0.098999999 64 0 0
3.4990001 -1.159 0.097999997 65 0 0
3.4979999 -1.16 0.096000001 66 0 0
3.4949999 -1.161 0.094999999 63 0 0
3.4979999 -1.164 0.093999997 65 0 0
3.4979999 -1.166 0.093000002 64 0 0
3.4979999 -1.1670001 0.090999998 64 0 0
3.493 -1.1670001 0.090000004 63 0 0
3.494 -1.169 0.089000002 62 0 0
3.4960001 -1.171 0.086999997 64 0 0
3.4979999 -1.173 0.086000003 63 0 0
3.497 -1.175 0.085000001 63 0 0
3.4949999 -1.175 0.082999997 64 0 0
3.4949999 -1.176 0.082000002 64 0 0
3.4949999 -1.178 0.081 66 0 0
3.493 -1.178 0.079000004 65 0 0
3.497 -1.1799999 0.078000002 64 0 0
3.493 -1.181 0.077 64 0 0
3.493 -1.181 0.075000003 64 0 0
3.493 -1.182 0.074000001 64 0 0
3.493 -1.183 0.071999997 64 0 0
3.4890001 -1.183 0.071000002 63 0 0
3.4879999 -1.183 0.07 63 0 0
3.49 -1.1849999 0.068000004 61 0 0
3.4920001 -1.186 0.067000002 64 0 0
3.493 -1.187 0.066 63 0 0
3.493 -1.188 0.064000003 63 0 0
3.493 -1.189 0.063000001 63 0 0
3.4879999 -1.187 0.061000001 62 0 0
3.49 -1.189 0.059999999 65 0 0
3.493 -1.1900001 0.059 63 0 0
3.49 -1.189 0.057 67 0 0
3.4890001 -1.189 0.056000002 66 0 0
3.493 -1.191 0.055 64 0 0
3.4890001 -1.1900001 0.052999999 66 0 0
3.4920001 -1.191 0.052000001 65 0 0
3.4920001 -1.191 0.050000001 65 0 0
3.4890001 -1.1900001 0.048999999 66 0 0
3.49 -1.1900001 0.046999998 65 0 0
3.4909999 -1.191 0.046 64 0 0
3.4890001 -1.1900001 0.045000002 66 0 0
3.4890001 -1.1900001 0.043000001 66 0 0
3.4890001 -1.1900001 0.041999999 66 0 0
3.4890001 -1.1900001 0.039999999 66 0 0
3.4890001 -1.189 0.039000001 66 0 0
3.4890001 -1.189 0.037999999 66 0 0
3.4890001 -1.189 0.035999998 66 0 0
3.4890001 -1.188 0.035 66 0 0
3.4909999 -1.188 0.033 65 0 0
3.487 -1.186 0.032000002 64 0 0
3.4849999 -1.1849999 0.029999999 65 0 0
3.4879999 -1.186 0.028999999 64 0 0
3.4879999 -1.1849999 0.028000001 64 0 0
3.4860001 -1.183 0.026000001 65 0 0
3.4909999 -1.184 0.025 66 0 0
3.4909999 -1.184 0.023 66 0 0
3.4909999 -1.183 0.022 66 0 0
3.494 -1.183 0.021 64 0 0
3.4860001 -1.179 0.018999999 66 0 0
3.4879999 -1.179 0.017999999 64 0 0
3.493 -1.179 0.016000001 66 0 0
3.494 -1.178 0.015 65 0 0
3.4879999 -1.175 0.014 66 0 0
3.4890001 -1.174 0.012 65 0 0
3.4949999 -1.175 0.011 65 0 0
3.4849999 -1.17 0.0089999996 61 0 0
3.4820001 -1.168 0.0080000004 64 0 0
3.4949999 -1.171 0.0070000002 66 0 0
3.4849999 -1.166 0.0049999999 62 0 0
3.4920001 -1.1670001 0.0040000002 64 0 0
3.487 -1.164 0.003 61 0 0
3.484 -1.161 0.001 64 0 0
3.493 -1.1619999 0 64 0 0
3.493 -1.16 0 66 0 0
3.49 -1.158 -0.0020000001 68 0 0
3.4860001 -1.155 -0.003 64 0 0
3.4909999 -1.155 -0.0040000002 68 0 0
3.487 -1.151 -0.0060000001 64 0 0
3.4879999 -1.149 -0.0070000002 64 0 0
3.4879999 -1.148 -0.0080000004 64 0 0
3.493 -1.147 -0.0099999998 67 0 0
3.484 -1.142 -0.011 62 0 0
3.4879999 -1.141 -0.012 64 0 0
3.49 -1.1390001 -0.014 66 0 0
3.4960001 -1.1390001 -0.015 68 0 0
3.49 -1.135 -0.016000001 64 0 0
3.4920001 -1.133 -0.017000001 66 0 0
3.4920001 -1.131 -0.018999999 64 0 0
3.493 -1.1289999 -0.02 66 0 0
3.4909999 -1.126 -0.021 68 0 0
3.4879999 -1.122 -0.022 64 0 0
3.4920001 -1.1210001 -0.024 67 0 0
3.494 -1.118 -0.025 68 0 0
3.4909999 -1.115 -0.026000001 64 0 0
3.4949999 -1.113 -0.028000001 68 0 0
3.49 -1.109 -0.028999999 63 0 0
3.4960001 -1.108 -0.029999999 67 0 0
3.497 -1.105 -0.030999999 67 0 0
3.493 -1.101 -0.032000002 65 0 0
3.4960001 -1.099 -0.034000002 64 0 0
3.4849999 -1.0930001 -0.035 64 0 0
3.494 -1.0930001 -0.035999998 63 0 0
3.4909999 -1.089 -0.037 67 0 0
3.497 -1.087 -0.037999999 63 0 0
3.493 -1.0829999 -0.039999999 67 0 0
3.494 -1.08 -0.041000001 67 0 0
3.4960001 -1.077 -0.041999999 69 0 0
3.4960001 -1.074 -0.043000001 65 0 0
3.497 -1.0700001 -0.044 67 0 0
3.4949999 -1.066 -0.045000002 67 0 0
3.4960001 -1.063 -0.046 67 0 0
3.494 -1.059 -0.046999998 65 0 0
3.4990001 -1.057 -0.048 66 0 0
3.4960001 -1.052 -0.050000001 65 0 0
3.4979999 -1.049 -0.050999999 64 0 0
3.4960001 -1.045 -0.052000001 66 0 0
3.4960001 -1.041 -0.052999999 65 0 0
3.4979999 -1.038 -0.054000001 66 0 0
3.4979999 -1.034 -0.055 67 0 0
3.5020001 -1.0319999 -0.056000002 65 0 0
3.5 -1.027 -0.057 67 0 0
3.5 -1.023 -0.057999998 66 0 0
3.5020001 -1.02 -0.059 67 0 0
3.5020001 -1.015 -0.059999999 66 0 0
3.4949999 -1.0089999 -0.061000001 59 0 0
3.484 -1.002 -0.061999999 51 0 0
3.46 -0.991 -0.061999999 33 0 0
3.411 -0.97299999 -0.061999999 28 0 0
3.404 -0.96700001 -0.063000001 37 0 0
3.4000001 -0.96100003 -0.064000003 34 0 0
3.4030001 -0.958 -0.064999998 34 0 0
3.3959999 -0.95200002 -0.064999998 30 0 0
3.391 -0.94599998 -0.066 28 0 0
3.3929999 -0.94199997 -0.067000002 31 0 0
3.392 -0.93800002 -0.068000004 30 0 0
3.3859999 -0.93199998 -0.068000004 37 0 0
3.3770001 -0.92500001 -0.068999998 37 0 0
3.378 -0.92000002 -0.07 33 0 0
3.372 -0.91399997 -0.07 37 0 0
3.368 -0.90899998 -0.071000002 33 0 0
3.369 -0.90499997 -0.071999997 31 0 0
3.362 -0.898 -0.071999997 31 0 0
3.3610001 -0.89300001 -0.072999999 33 0 0
3.352 -0.88599998 -0.074000001 34 0 0
3.349 -0.88099998 -0.074000001 39 0 0
3.3410001 -0.87400001 -0.075000003 46 0 0
3.346 -0.87099999 -0.075000003 53 0 0
3.345 -0.866 -0.075999998 44 0 0
3.348 -0.861 -0.077 47 0 0
3.3469999 -0.85600001 -0.077 44 0 0
3.3399999 -0.85000002 -0.078000002 44 0 0
3.336 -0.84399998 -0.078000002 42 0 0
3.3399999 -0.83999997 -0.079000004 38 0 0
3.3429999 -0.83600003 -0.079000004 43 0 0
3.3410001 -0.82999998 -0.079999998 46 0 0
3.342 -0.82499999 -0.079999998 32 0 0
3.349 -0.82200003 -0.081 27 0 0
3.3540001 -0.81800002 -0.082000002 29 0 0
3.352 -0.81300002 -0.082000002 36 0 0
3.3629999 -0.81 -0.082999997 39 0 0
3.362 -0.80500001 -0.082999997 39 0 0
3.3729999 -0.80199999 -0.083999999 39 0 0
3.3789999 -0.79799998 -0.085000001 36 0 0
3.395 -0.796 -0.085000001 35 0 0
3.4119999 -0.79500002 -0.086000003 37 0 0
3.424 -0.792 -0.086999997 42 0 0
3.4360001 -0.79000002 -0.086999997 38 0 0
3.4809999 -0.79400003 -0.089000002 41 0 0
3.5090001 -0.79500002 -0.090000004 68 0 0
3.5309999 -0.79400003 -0.090999998 76 0 0
3.529 -0.78799999 -0.090999998 76 0 0
3.5250001 -0.78100002 -0.090999998 78 0 0
3.529 -0.77600002 -0.092 81 0 0
3.533 -0.77100003 -0.092 78 0 0
3.5309999 -0.76499999 -0.092 81 0 0
3.5339999 -0.759 -0.092 80 0 0
3.54 -0.755 -0.093000002 80 0 0
3.539 -0.74800003 -0.093000002 85 0 0
3.54 -0.74299997 -0.093000002 80 0 0
3.5409999 -0.73699999 -0.093000002 85 0 0
3.54 -0.73000002 -0.093000002 75 0 0
3.54 -0.72399998 -0.093000002 85 0 0
3.5380001 -0.71799999 -0.093000002 80 0 0
3.533 -0.71100003 -0.093000002 74 0 0
3.5350001 -0.70499998 -0.093000002 74 0 0
3.5339999 -0.69800001 -0.093000002 70 0 0
3.5369999 -0.69300002 -0.093000002 74 0 0
3.536 -0.68599999 -0.093000002 74 0 0
3.5339999 -0.68000001 -0.093000002 70 0 0
3.5409999 -0.67500001 -0.093000002 70 0 0
3.5420001 -0.66900003 -0.093000002 70 0 0
3.543 -0.662 -0.093000002 74 0 0
3.5439999 -0.65600002 -0.093000002 78 0 0
3.5580001 -0.65200001 -0.093000002 75 0 0
3.55 -0.64399999 -0.092 89 0 0
3.5439999 -0.63700002 -0.092 85 0 0
3.5539999 -0.63200003 -0.092 85 0 0
3.5539999 -0.625 -0.092 85 0 0
3.55 -0.61799997 -0.090999998 88 0 0
3.5510001 -0.61199999 -0.090999998 88 0 0
3.552 -0.60500002 -0.090999998 88 0 0
3.552 -0.59899998 -0.090000004 101 0 0
3.546 -0.59100002 -0.090000004 94 0 0
3.5569999 -0.58600003 -0.090000004 88 0 0
3.5550001 -0.579 -0.089000002 101 0 0
3.5539999 -0.57200003 -0.089000002 94 0 0
3.5539999 -0.56599998 -0.088 101 0 0
3.5599999 -0.56 -0.088 101 0 0
3.5580001 -0.55299997 -0.086999997 101 0 0
3.559 -0.546 -0.086999997 94 0 0
3.563 -0.54000002 -0.086000003 94 0 0
3.5650001 -0.53399998 -0.086000003 110 0 0
3.5639999 -0.52600002 -0.085000001 94 0 0
3.5669999 -0.51999998 -0.085000001 110 0 0
3.5650001 -0.51300001 -0.083999999 88 0 0
3.569 -0.50700003 -0.082999997 110 0 0
3.566 -0.49900001 -0.082999997 110 0 0
3.5680001 -0.493 -0.082000002 110 0 0
3.5710001 -0.486 -0.081 101 0 0
3.569 -0.479 -0.079999998 101 0 0
3.5669999 -0.472 -0.079999998 101 0 0
3.575 -0.46599999 -0.079000004 88 0 0
3.576 -0.45899999 -0.078000002 88 0 0
3.575 -0.45199999 -0.077 94 0 0
3.586 -0.44600001 -0.077 85 0 0
3.5799999 -0.43799999 -0.075999998 83 0 0
3.5739999 -0.43000001 -0.074000001 94 0 0
3.573 -0.42300001 -0.072999999 101 0 0
3.5780001 -0.417 -0.072999999 110 0 0
3.5780001 -0.41 -0.071999997 110 0 0
3.5829999 -0.403 -0.071000002 94 0 0
3.596 -0.39700001 -0.07 95 0 0
3.622 -0.39300001 -0.068999998 104 0 0
0 0 0 0 0 0
0 0 0 0 0 0
5.5349998 -0.56699997 -0.101 1 0 0
5.533 -0.55599999 -0.098999999 2 0 0
5.5219998 -0.54400003 -0.097000003 3 0 0
5.506 -0.53100002 -0.093999997 3 0 0
5.5019999 -0.51999998 -0.092 4 0 0
5.5040002 -0.509 -0.090000004 5 0 0
5.5180001 -0.49900001 -0.089000002 4 0 0
5.5149999 -0.48800001 -0.086000003 3 0 0
5.5170002 -0.477 -0.083999999 2 0 0
5.526 -0.46599999 -0.082000002 2 0 0
5.539 -0.456 -0.079999998 1 0 0
5.5370002 -0.44499999 -0.078000002 1 0 0
5.5430002 -0.43399999 -0.075999998 1 0 0
5.5489998 -0.42300001 -0.074000001 1 0 0
5.5419998 -0.41100001 -0.071000002 1 0 0
5.539 -0.40000001 -0.068999998 1 0 0
5.5560002 -0.38999999 -0.066 1 0 0
5.5450001 -0.37799999 -0.064000003 1 0 0
5.552 -0.36700001 -0.061000001 1 0 0
5.5380001 -0.35499999 -0.059 1 0 0
5.5479999 -0.34400001 -0.056000002 1 0 0
5.5339999 -0.33199999 -0.052999999 1 0 0
5.5450001 -0.32100001 -0.050999999 1 0 0
5.5539999 -0.31 -0.048 1 0 0
5.5599999 -0.29899999 -0.045000002 1 0 0
5.5770001 -0.289 -0.043000001 1 0 0
5.5749998 -0.27700001 -0.039999999 1 0 0
5.5650001 -0.26499999 -0.037 1 0 0
5.5910001 -0.255 -0.034000002 1 0 0
5.5580001 -0.242 -0.030999999 1 0 0
5.5570002 -0.23100001 -0.028000001 1 0 0
5.5669999 -0.22 -0.025 1 0 0
5.552 -0.208 -0.022 1 0 0
9.0550003 -0.32100001 -0.029999999 39 0 0
9.2110004 -0.30700001 -0.026000001 27 0 0
5.5949998 -0.175 -0.012 1 0 0
5.5840001 -0.163 -0.0089999996 1 0 0
9.3730001 -0.255 -0.0099999998 29 0 0
9.3000002 -0.234 -0.0040000002 29 0 0
9.1499996 -0.212 0 29 0 0
9.026 -0.191 0.0060000001 31 0 0
5.5679998 -0.106 0.0070000002 1 0 0
0 0 0 0 0 0
0 0 0 0 0 0
5.5809999 -0.071999997 0.017999999 1 0 0
5.638 -0.061000001 0.021 1 0 0
5.5689998 -0.048999999 0.025 2 0 0
0 0 0 0 0 0
5.6300001 -0.027000001 0.032000002 1 0 0
0 0 0 0 0 0
0 0 0 0 0 0
5.6459999 0.0060000001 0.044 1 0 0
0 0 0 0 0 0
0 0 0 0 0 0
0 0 0 0 0 0
0 0 0 0 0 0
5.6370001 0.063000001 0.064000003 1 0 0
0 0 0 0 0 0
0 0 0 0 0 0
0 0 0 0 0 0
0 0 0 0 0 0
0 0 0 0 0 0
0 0 0 0 0 0
6.5760002 0.16599999 0.109 2 0 0
6.4790001 0.176 0.112 2 0 0
6.368 0.186 0.115 2 0 0
6.3499999 0.198 0.12 1 0 0
6.3299999 0.20999999 0.124 1 0 0
6.2670002 0.22 0.12800001 1 0 0
5.8790002 0.21799999 0.125 1 0 0
6.2199998 0.243 0.13699999 1 0 0
5.908 0.242 0.13500001 1 0 0
5.8099999 0.25 0.138 1 0 0
5.7810001 0.25999999 0.142 1 0 0
5.744 0.26899999 0.146 1 0 0
5.8429999 0.285 0.153 9 0 0
5.6040001 0.28400001 0.15099999 19 0 0
5.5770001 0.294 0.155 71 0 0
5.559 0.30399999 0.15899999 138 0 0
5.5640001 0.315 0.164 138 0 0
5.5469999 0.32499999 0.169 107 0 0
5.573 0.33700001 0.17399999 122 0 0
5.5739999 0.34799999 0.17900001 108 0 0
5.5560002 0.35699999 0.184 121 0 0
5.599 0.37099999 0.19 123 0 0
5.5929999 0.38100001 0.19499999 123 0 0
5.592 0.39199999 0.2 150 0 0
5.447 0.39199999 0.199 117 0 0
0 0 0 0 0 0
0 0 0 0 0 0
3.5999999 0.27900001 0.141 14 0 0
3.55 0.28200001 0.14300001 15 0 0
3.5039999 0.285 0.14399999 14 0 0
3.464 0.28799999 0.146 13 0 0
3.421 0.29100001 0.147 10 0 0
3.3729999 0.29300001 0.148 6 0 0
3.3269999 0.29499999 0.149 4 0 0
3.2739999 0.296 0.15000001 4 0 0
3.2420001 0.30000001 0.152 8 0 0
3.21 0.30199999 0.153 15 0 0
3.1819999 0.30599999 0.155 16 0 0
3.1500001 0.308 0.156 17 0 0
3.118 0.31099999 0.15800001 18 0 0
3.073 0.31200001 0.15899999 16 0 0
3.0420001 0.31400001 0.16 15 0 0
3.0039999 0.31600001 0.161 29 0 0
2.983 0.31900001 0.163 65 0 0
2.9860001 0.32499999 0.16599999 110 0 0
2.9820001 0.329 0.169 150 0 0
2.9860001 0.33500001 0.17200001 150 0 0
2.993 0.34099999 0.175 150 0 0
3.076 0.35600001 0.183 82 0 0
3.2 0.37599999 0.19400001 20 0 0
3.711 0.44299999 0.229 58 0 0
3.7130001 0.449 0.23199999 48 0 0
3.7149999 0.456 0.236 48 0 0
3.7149999 0.463 0.23999999 55 0 0
3.721 0.47 0.244 46 0 0
3.7219999 0.47600001 0.248 52 0 0
3.714 0.48199999 0.252 59 0 0
3.72 0.48899999 0.25600001 52 0 0
3.7090001 0.49399999 0.259 32 0 0
3.6889999 0.49700001 0.26199999 19 0 0
3.6630001 0.5 0.26300001 21 0 0
3.6359999 0.50199997 0.26499999 24 0 0
3.6159999 0.50599998 0.26800001 24 0 0
3.5969999 0.509 0.27000001 23 0 0
3.5739999 0.51099998 0.27200001 25 0 0
3.5550001 0.51499999 0.27399999 24 0 0
3.5309999 0.51700002 0.27599999 25 0 0
3.5139999 0.51999998 0.27900001 23 0 0
3.4879999 0.52200001 0.28 22 0 0
3.4679999 0.52499998 0.28299999 22 0 0
3.448 0.52700001 0.285 22 0 0
3.431 0.52999997 0.287 22 0 0
3.414 0.53299999 0.289 20 0 0
3.3859999 0.53399998 0.28999999 21 0 0
3.3740001 0.537 0.29300001 21 0 0
3.355 0.53899997 0.29499999 22 0 0
3.3299999 0.54100001 0.296 20 0 0
3.3099999 0.542 0.29800001 20 0 0
3.2869999 0.54400003 0.30000001 21 0 0
3.2750001 0.54699999 0.30199999 20 0 0
3.2579999 0.54900002 0.30399999 21 0 0
3.2360001 0.55000001 0.30599999 20 0 0
3.223 0.55299997 0.308 21 0 0
3.2049999 0.55400002 0.31 20 0 0
3.1919999 0.55699998 0.31200001 21 0 0
3.177 0.55900002 0.31400001 22 0 0
3.1630001 0.56099999 0.31600001 17 0 0
3.142 0.56199998 0.317 21 0 0
3.131 0.565 0.31999999 20 0 0
3.112 0.56599998 0.32100001 18 0 0
3.0940001 0.56699997 0.32300001 22 0 0
3.082 0.56900001 0.32499999 24 0 0
3.0680001 0.57099998 0.32699999 21 0 0
3.052 0.57200003 0.32800001 22 0 0
3.0280001 0.57200003 0.329 20 0 0
3.013 0.57300001 0.331 21 0 0
3.0020001 0.57499999 0.333 19 0 0
2.987 0.57700002 0.33399999 20 0 0
2.977 0.579 0.336 20 0 0
2.9660001 0.58099997 0.33899999 20 0 0
2.954 0.58200002 0.34 18 0 0
2.9360001 0.583 0.34200001 19 0 0
2.924 0.58399999 0.34299999 22 0 0
2.911 0.58600003 0.345 20 0 0
2.9030001 0.588 0.347 22 0 0
2.8870001 0.588 0.34900001 22 0 0
2.8789999 0.58999997 0.35100001 21 0 0
2.8610001 0.58999997 0.352 20 0 0
2.8510001 0.59200001 0.35299999 20 0 0
2.8399999 0.59299999 0.35499999 20 0 0
2.8340001 0.59500003 0.35699999 22 0 0
2.816 0.59500003 0.35800001 21 0 0
2.8110001 0.59799999 0.361 22 0 0
2.803 0.59899998 0.36300001 21 0 0
2.789 0.59899998 0.36399999 21 0 0
2.78 0.60100001 0.366 21 0 0
2.7739999 0.60299999 0.368 22 0 0
2.767 0.60500002 0.37 21 0 0
2.7539999 0.60500002 0.37099999 23 0 0
2.7409999 0.60500002 0.37200001 22 0 0
2.74 0.60799998 0.375 22 0 0
2.7260001 0.60799998 0.37599999 21 0 0
2.7179999 0.61000001 0.37799999 23 0 0
2.7060001 0.61000001 0.37900001 24 0 0
2.697 0.611 0.38100001 23 0 0
2.6889999 0.61199999 0.382 22 0 0
2.6830001 0.61400002 0.384 22 0 0
2.678 0.61500001 0.38600001 23 0 0
2.6659999 0.61500001 0.38800001 23 0 0
2.655 0.616 0.389 23 0 0
2.6489999 0.61699998 0.391 21 0 0
2.6400001 0.61799997 0.39199999 21 0 0
2.6329999 0.61900002 0.39399999 21 0 0
2.6259999 0.62 0.396 21 0 0
2.622 0.62199998 0.398 22 0 0
2.608 0.62099999 0.398 21 0 0
2.6070001 0.62300003 0.40099999 22 0 0
2.5940001 0.62199998 0.40099999 21 0 0
2.5899999 0.62400001 0.403 21 0 0
2.589 0.62599999 0.40599999 21 0 0
2.5739999 0.625 0.40599999 21 0 0
2.569 0.62599999 0.40799999 21 0 0
2.5610001 0.62599999 0.40900001 21 0 0
2.5550001 0.62699997 0.41100001 21 0 0
2.546 0.62699997 0.412 22 0 0
2.5420001 0.62900001 0.414 22 0 0
2.539 0.63 0.41600001 23 0 0
2.533 0.63099998 0.417 22 0 0
2.5239999 0.63099998 0.41800001 22 0 0
2.5220001 0.63200003 0.41999999 22 0 0
2.5120001 0.63200003 0.421 23 0 0
2.5090001 0.63300002 0.42300001 23 0 0
2.5039999 0.634 0.42500001 23 0 0
2.503 0.63599998 0.42699999 23 0 0
2.4960001 0.63599998 0.428 23 0 0
2.484 0.63499999 0.428 21 0 0
2.4779999 0.63499999 0.43000001 21 0 0
2.4779999 0.63700002 0.43200001 21 0 0
2.47 0.63700002 0.433 21 0 0
2.4679999 0.63800001 0.435 21 0 0
2.461 0.63800001 0.43599999 22 0 0
2.457 0.639 0.43700001 21 0 0
2.45 0.63800001 0.43799999 20 0 0
2.4489999 0.63999999 0.44 20 0 0
2.4419999 0.639 0.44100001 22 0 0
2.4400001 0.64099997 0.44299999 20 0 0
2.434 0.63999999 0.44400001 21 0 0
2.427 0.63999999 0.44499999 20 0 0
2.424 0.64099997 0.447 21 0 0
2.4260001 0.64300001 0.449 20 0 0
2.415 0.64200002 0.449 20 0 0
2.4170001 0.64300001 0.45199999 20 0 0
2.4100001 0.64300001 0.45300001 21 0 0
2.4100001 0.64399999 0.45500001 21 0 0
2.402 0.64399999 0.45500001 21 0 0
2.402 0.64499998 0.45699999 21 0 0
2.398 0.64499998 0.458 21 0 0
2.398 0.64600003 0.46000001 20 0 0
2.392 0.64600003 0.461 21 0 0
2.391 0.64700001 0.463 21 0 0
2.391 0.648 0.465 21 0 0
2.388 0.648 0.46599999 22 0 0
2.3770001 0.64600003 0.46599999 21 0 0
2.3759999 0.64700001 0.46799999 21 0 0
2.3759999 0.648 0.46900001 21 0 0
2.375 0.64899999 0.47099999 21 0 0
2.372 0.64899999 0.472 22 0 0
2.372 0.64999998 0.47400001 22 0 0
2.3629999 0.64899999 0.47400001 20 0 0
2.3640001 0.64899999 0.47600001 21 0 0
2.362 0.64999998 0.477 21 0 0
2.3629999 0.65100002 0.479 21 0 0
2.3570001 0.64999998 0.47999999 20 0 0
2.3540001 0.64999998 0.48100001 21 0 0
2.3540001 0.65100002 0.48300001 21 0 0
2.3540001 0.65200001 0.484 21 0 0
2.3529999 0.65200001 0.486 21 0 0
2.352 0.65200001 0.48699999 21 0 0
2.349 0.65200001 0.48800001 21 0 0
2.3510001 0.653 0.49000001 21 0 0
2.3440001 0.65200001 0.49000001 20 0 0
2.3429999 0.65200001 0.491 20 0 0
2.339 0.65100002 0.49200001 19 0 0
2.3410001 0.653 0.49399999 19 0 0
2.342 0.653 0.49599999 20 0 0
2.3380001 0.65200001 0.49599999 19 0 0
2.3410001 0.65399998 0.49900001 20 0 0
2.339 0.653 0.49900001 20 0 0
2.3399999 0.65399998 0.50099999 20 0 0
2.3380001 0.65399998 0.50199997 20 0 0
2.3399999 0.65499997 0.50400001 20 0 0
2.339 0.65499997 0.505 20 0 0
2.3329999 0.653 0.505 20 0 0
2.3369999 0.65499997 0.50700003 21 0 0
2.3369999 0.65499997 0.50800002 21 0 0
2.3329999 0.65399998 0.509 20 0 0
2.336 0.65499997 0.51099998 20 0 0
2.3399999 0.65600002 0.51300001 20 0 0
2.332 0.65399998 0.51200002 20 0 0
2.3369999 0.65499997 0.51499999 20 0 0
2.3369999 0.65499997 0.51599997 20 0 0
2.3369999 0.65499997 0.51700002 20 0 0
2.335 0.65399998 0.51700002 20 0 0
2.336 0.65499997 0.51899999 20 0 0
2.336 0.65499997 0.51999998 20 0 0
