# .PCD v0.7 - Point Cloud Data file format
VERSION 0.7
FIELDS x y z intensity tag line
SIZE 4 4 4 4 1 1
TYPE F F F F U U
COUNT 1 1 1 1 1 1
WIDTH 1392
HEIGHT 1
VIEWPOINT 0 0 0 1 0 0 0
POINTS 1392
DATA ascii
3.7950001 -0.76899999 0.375 52 0 0
3.8050001 -0.76499999 0.37200001 46 0 0
3.8080001 -0.76099998 0.36899999 52 0 0
3.812 -0.75599998 0.366 52 0 0
3.8269999 -0.75400001 0.36399999 44 0 0
3.8329999 -0.74900001 0.36000001 53 0 0
3.8410001 -0.745 0.35800001 50 0 0
3.8499999 -0.741 0.35499999 53 0 0
3.8540001 -0.736 0.352 57 0 0
3.865 -0.73299998 0.34900001 50 0 0
3.8710001 -0.72799999 0.34599999 51 0 0
3.872 -0.72299999 0.34200001 54 0 0
3.8729999 -0.71700001 0.33899999 65 0 0
3.878 -0.71200001 0.33500001 54 0 0
3.8800001 -0.70700002 0.33199999 54 0 0
3.878 -0.69999999 0.32800001 57 0 0
3.8770001 -0.69400001 0.324 50 0 0
3.8829999 -0.68900001 0.32100001 48 0 0
3.881 -0.68300003 0.31799999 48 0 0
3.8770001 -0.676 0.31400001 47 0 0
3.881 -0.671 0.31 47 0 0
3.8789999 -0.66399997 0.30599999 45 0 0
3.878 -0.65799999 0.303 45 0 0
3.8789999 -0.65200001 0.29899999 50 0 0
3.8770001 -0.64499998 0.296 53 0 0
3.8729999 -0.63800001 0.292 44 0 0
3.882 -0.634 0.289 50 0 0
3.881 -0.62699997 0.285 53 0 0
3.8770001 -0.62 0.28099999 44 0 0
3.878 -0.61400002 0.278 44 0 0
3.8789999 -0.60699999 0.27399999 44 0 0
3.8759999 -0.60100001 0.271 42 0 0
3.8729999 -0.59399998 0.26699999 47 0 0
3.872 -0.58700001 0.26300001 39 0 0
3.8789999 -0.58200002 0.25999999 42 0 0
3.878 -0.57499999 0.257 44 0 0
3.872 -0.56699997 0.25299999 41 0 0
3.875 -0.56099999 0.25 41 0 0
3.8740001 -0.55500001 0.24600001 41 0 0
3.8770001 -0.54799998 0.243 44 0 0
3.885 -0.54299998 0.23999999 39 0 0
3.878 -0.53500003 0.236 44 0 0
3.875 -0.528 0.233 47 0 0
3.8770001 -0.52100003 0.229 50 0 0
3.8759999 -0.514 0.226 47 0 0
3.8740001 -0.50700003 0.222 47 0 0
3.878 -0.50099999 0.219 47 0 0
3.8789999 -0.49399999 0.21600001 50 0 0
3.8770001 -0.48699999 0.213 44 0 0
3.881 -0.47999999 0.20999999 47 0 0
3.8729999 -0.472 0.206 49 0 0
3.878 -0.46599999 0.20299999 44 0 0
3.875 -0.45899999 0.2 44 0 0
3.8759999 -0.45199999 0.19599999 52 0 0
3.8789999 -0.44499999 0.193 53 0 0
3.8740001 -0.43700001 0.19 46 0 0
3.881 -0.43099999 0.18700001 49 0 0
3.8789999 -0.42399999 0.184 46 0 0
3.878 -0.41600001 0.18099999 46 0 0
3.878 -0.40900001 0.177 46 0 0
3.8800001 -0.40200001 0.17399999 44 0 0
3.8800001 -0.39500001 0.171 44 0 0
3.8789999 -0.38699999 0.168 41 0 0
3.881 -0.38 0.16500001 44 0 0
3.882 -0.373 0.162 44 0 0
3.875 -0.36500001 0.15899999 52 0 0
3.8829999 -0.35800001 0.156 41 0 0
3.875 -0.34999999 0.153 49 0 0
3.8770001 -0.34299999 0.15000001 52 0 0
3.885 -0.336 0.147 41 0 0
3.8759999 -0.32800001 0.14399999 49 0 0
3.885 -0.32100001 0.141 41 0 0
3.878 -0.31299999 0.138 52 0 0
3.881 -0.30599999 0.13500001 52 0 0
3.882 -0.29800001 0.133 49 0 0
3.8800001 -0.29100001 0.13 49 0 0
3.8829999 -0.28299999 0.127 52 0 0
3.8770001 -0.27500001 0.124 46 0 0
3.881 -0.26800001 0.121 49 0 0
3.885 -0.26100001 0.119 52 0 0
3.882 -0.25299999 0.116 46 0 0
3.8829999 -0.245 0.113 49 0 0
3.8800001 -0.237 0.11 43 0 0
3.8789999 -0.23 0.108 46 0 0
3.881 -0.222 0.105 43 0 0
3.8859999 -0.215 0.103 46 0 0
3.882 -0.207 0.1 46 0 0
3.881 -0.199 0.097000003 46 0 0
3.882 -0.191 0.094999999 46 0 0
3.888 -0.184 0.093000002 43 0 0
3.8829999 -0.175 0.090000004 46 0 0
3.8829999 -0.168 0.086999997 46 0 0
3.888 -0.16 0.085000001 43 0 0
3.8889999 -0.152 0.082999997 46 0 0
3.8900001 -0.14399999 0.079999998 43 0 0
3.892 -0.13600001 0.078000002 46 0 0
3.891 -0.12800001 0.075000003 46 0 0
3.8900001 -0.12 0.072999999 43 0 0
3.8889999 -0.112 0.071000002 46 0 0
3.891 -0.105 0.068000004 49 0 0
3.892 -0.097000003 0.066 49 0 0
3.891 -0.089000002 0.064000003 46 0 0
3.891 -0.079999998 0.061999999 46 0 0
3.8859999 -0.071999997 0.059 46 0 0
3.898 -0.064999998 0.057 41 0 0
3.888 -0.056000002 0.055 49 0 0
3.895 -0.048 0.052999999 49 0 0
3.895 -0.039999999 0.050999999 52 0 0
3.888 -0.032000002 0.048999999 49 0 0
3.8929999 -0.024 0.046999998 49 0 0
3.898 -0.016000001 0.045000002 39 0 0
3.898 -0.0080000004 0.043000001 41 0 0
3.901 0 0.041000001 39 0 0
3.9030001 0.0070000002 0.039000001 41 0 0
3.9000001 0.015 0.037 41 0 0
3.9030001 0.023 0.035 37 0 0
3.895 0.030999999 0.033 49 0 0
3.904 0.039999999 0.030999999 37 0 0
3.9059999 0.048 0.029999999 37 0 0
3.9030001 0.056000002 0.028000001 44 0 0
3.904 0.064000003 0.026000001 41 0 0
3.905 0.071999997 0.024 44 0 0
3.9030001 0.079999998 0.023 44 0 0
3.904 0.089000002 0.021 44 0 0
3.9059999 0.097000003 0.018999999 44 0 0
3.908 0.105 0.017999999 44 0 0
3.9030001 0.113 0.016000001 44 0 0
3.9059999 0.121 0.014 44 0 0
3.905 0.13 0.013 44 0 0
3.905 0.138 0.011 44 0 0
3.905 0.146 0.0099999998 49 0 0
3.914 0.154 0.0080000004 44 0 0
3.9070001 0.162 0.0070000002 49 0 0
3.914 0.171 0.0060000001 47 0 0
3.9130001 0.17900001 0.0040000002 44 0 0
3.9130001 0.18700001 0.003 47 0 0
3.9100001 0.19499999 0.001 44 0 0
3.915 0.204 0 41 0 0
3.9159999 0.212 0 41 0 0
3.915 0.22 -0.001 41 0 0
3.9170001 0.228 -0.003 41 0 0
3.9159999 0.237 -0.0040000002 44 0 0
3.918 0.245 -0.0049999999 37 0 0
3.925 0.25400001 -0.0060000001 35 0 0
3.925 0.26199999 -0.0070000002 42 0 0
3.924 0.27000001 -0.0080000004 42 0 0
3.924 0.278 -0.0089999996 47 0 0
3.9230001 0.28600001 -0.011 47 0 0
3.927 0.29499999 -0.012 47 0 0
3.924 0.303 -0.013 44 0 0
3.9260001 0.31099999 -0.013 47 0 0
3.927 0.31900001 -0.014 44 0 0
3.9300001 0.32800001 -0.015 53 0 0
3.9260001 0.336 -0.016000001 53 0 0
3.921 0.34400001 -0.017000001 53 0 0
3.9289999 0.352 -0.017999999 50 0 0
3.934 0.361 -0.018999999 47 0 0
3.934 0.36899999 -0.02 47 0 0
3.9349999 0.37799999 -0.02 48 0 0
3.9389999 0.38600001 -0.021 40 0 0
3.934 0.39399999 -0.022 48 0 0
3.937 0.40200001 -0.022 42 0 0
3.9430001 0.41100001 -0.023 38 0 0
3.9419999 0.419 -0.024 38 0 0
3.944 0.42699999 -0.024 45 0 0
3.941 0.435 -0.025 45 0 0
3.944 0.44299999 -0.025 38 0 0
3.9430001 0.45100001 -0.026000001 38 0 0
3.944 0.46000001 -0.026000001 43 0 0
3.9489999 0.46799999 -0.027000001 40 0 0
3.9419999 0.47499999 -0.027000001 43 0 0
3.9460001 0.484 -0.027000001 43 0 0
3.9430001 0.49200001 -0.028000001 40 0 0
3.9130001 0.49599999 -0.028000001 22 0 0
3.8629999 0.49700001 -0.028000001 18 0 0
3.8369999 0.50099999 -0.028000001 19 0 0
3.8110001 0.50599998 -0.028000001 18 0 0
3.779 0.509 -0.028000001 20 0 0
3.7460001 0.51200002 -0.028000001 17 0 0
3.714 0.51499999 -0.028000001 19 0 0
3.688 0.51899999 -0.028000001 16 0 0
3.6600001 0.52200001 -0.028000001 16 0 0
3.628 0.52499998 -0.028000001 18 0 0
3.599 0.528 -0.028000001 17 0 0
3.569 0.53100002 -0.027000001 17 0 0
3.5439999 0.53399998 -0.027000001 17 0 0
3.5179999 0.537 -0.027000001 17 0 0
3.4909999 0.54000002 -0.027000001 18 0 0
3.4690001 0.54299998 -0.027000001 18 0 0
3.441 0.546 -0.026000001 20 0 0
3.4159999 0.54799998 -0.026000001 18 0 0
3.391 0.551 -0.026000001 18 0 0
3.375 0.55500001 -0.026000001 18 0 0
3.3440001 0.55599999 -0.025 17 0 0
3.319 0.55800003 -0.025 17 0 0
3.2939999 0.56 -0.024 16 0 0
3.2720001 0.56300002 -0.024 18 0 0
3.2390001 0.56300002 -0.024 18 0 0
3.221 0.56699997 -0.023 18 0 0
3.204 0.56999999 -0.023 18 0 0
3.1819999 0.57200003 -0.023 17 0 0
3.1630001 0.574 -0.022 18 0 0
3.1359999 0.57499999 -0.022 17 0 0
3.1229999 0.579 -0.021 18 0 0
3.1010001 0.58099997 -0.021 16 0 0
3.0840001 0.583 -0.02 19 0 0
3.056 0.583 -0.02 18 0 0
3.0380001 0.58600003 -0.018999999 17 0 0
3.0239999 0.588 -0.018999999 18 0 0
3.0020001 0.58999997 -0.017999999 17 0 0
2.9860001 0.59200001 -0.017999999 18 0 0
2.964 0.59299999 -0.017000001 18 0 0
2.9530001 0.59600002 -0.017000001 17 0 0
2.9319999 0.597 -0.016000001 19 0 0
2.9159999 0.59899998 -0.016000001 19 0 0
2.898 0.60100001 -0.015 20 0 0
2.882 0.602 -0.014 20 0 0
2.8610001 0.60299999 -0.014 19 0 0
2.8529999 0.60600001 -0.013 21 0 0
2.8380001 0.60799998 -0.013 20 0 0
2.823 0.61000001 -0.012 21 0 0
2.803 0.61000001 -0.011 19 0 0
2.7909999 0.61299998 -0.011 20 0 0
2.78 0.61500001 -0.0099999998 20 0 0
2.766 0.61699998 -0.0099999998 20 0 0
2.7539999 0.61900002 -0.0089999996 20 0 0
2.7309999 0.61900002 -0.0080000004 21 0 0
2.721 0.62099999 -0.0080000004 23 0 0
2.71 0.62300003 -0.0070000002 21 0 0
2.6949999 0.62400001 -0.0060000001 21 0 0
2.6849999 0.62599999 -0.0060000001 22 0 0
2.6659999 0.62599999 -0.0049999999 20 0 0
2.6570001 0.62800002 -0.0040000002 20 0 0
2.6440001 0.63 -0.0040000002 21 0 0
2.628 0.63 -0.003 20 0 0
2.6210001 0.63300002 -0.0020000001 21 0 0
2.6040001 0.63300002 -0.0020000001 21 0 0
2.5929999 0.634 -0.001 21 0 0
2.5769999 0.63499999 0 22 0 0
2.5739999 0.63800001 0 23 0 0
2.563 0.639 0 23 0 0
2.5510001 0.63999999 0.001 24 0 0
2.5420001 0.64200002 0.0020000001 24 0 0
2.5350001 0.64399999 0.0020000001 24 0 0
2.52 0.64399999 0.003 23 0 0
2.4979999 0.64200002 0.0040000002 22 0 0
2.4960001 0.64600003 0.0049999999 22 0 0
2.4890001 0.648 0.0049999999 23 0 0
2.471 0.64700001 0.0060000001 21 0 0
2.4660001 0.64899999 0.0070000002 22 0 0
2.451 0.64899999 0.0070000002 21 0 0
2.4489999 0.65200001 0.0080000004 21 0 0
2.4360001 0.65200001 0.0089999996 22 0 0
2.428 0.653 0.0099999998 22 0 0
2.4170001 0.65399998 0.0099999998 22 0 0
2.4070001 0.65499997 0.011 22 0 0
2.398 0.65600002 0.012 21 0 0
2.3940001 0.65799999 0.013 22 0 0
2.3800001 0.65700001 0.013 22 0 0
2.3770001 0.66000003 0.014 22 0 0
2.368 0.66100001 0.015 23 0 0
2.3570001 0.66100001 0.016000001 23 0 0
2.3529999 0.66299999 0.017000001 23 0 0
2.346 0.66399997 0.017000001 24 0 0
2.3369999 0.66399997 0.017999999 23 0 0
2.326 0.66500002 0.018999999 23 0 0
2.3210001 0.66600001 0.02 23 0 0
2.313 0.667 0.02 23 0 0
2.3080001 0.66799998 0.021 22 0 0
2.2980001 0.66799998 0.022 23 0 0
2.2909999 0.66900003 0.023 23 0 0
2.2750001 0.66799998 0.024 22 0 0
2.276 0.671 0.024 23 0 0
2.267 0.671 0.025 23 0 0
2.266 0.67299998 0.026000001 23 0 0
2.2609999 0.67400002 0.027000001 23 0 0
2.2520001 0.67500001 0.028000001 22 0 0
2.2460001 0.67500001 0.028000001 23 0 0
2.2379999 0.676 0.028999999 22 0 0
2.2320001 0.676 0.029999999 22 0 0
2.2160001 0.67400002 0.030999999 23 0 0
2.2190001 0.67699999 0.032000002 24 0 0
2.2049999 0.67500001 0.032000002 22 0 0
2.201 0.67699999 0.033 23 0 0
2.201 0.67900002 0.034000002 23 0 0
2.194 0.67900002 0.035 25 0 0
2.188 0.68000001 0.035999998 24 0 0
2.1830001 0.68099999 0.035999998 23 0 0
2.178 0.68099999 0.037 24 0 0
2.1719999 0.68199998 0.037999999 24 0 0
2.161 0.68099999 0.039000001 24 0 0
2.1559999 0.68099999 0.039000001 23 0 0
2.1600001 0.685 0.039999999 25 0 0
2.151 0.68400002 0.041000001 25 0 0
2.148 0.685 0.041999999 24 0 0
2.1459999 0.68599999 0.043000001 25 0 0
2.138 0.68599999 0.044 23 0 0
2.135 0.68699998 0.044 25 0 0
2.132 0.68800002 0.045000002 25 0 0
2.1300001 0.68900001 0.046 25 0 0
2.122 0.68800002 0.046999998 25 0 0
2.1210001 0.69 0.048 25 0 0
2.109 0.68800002 0.048 24 0 0
2.1070001 0.68900001 0.048999999 24 0 0
2.108 0.69099998 0.050000001 27 0 0
2.1029999 0.69099998 0.050999999 25 0 0
2.102 0.69199997 0.052000001 25 0 0
2.095 0.69199997 0.052999999 25 0 0
2.0929999 0.69300002 0.052999999 24 0 0
2.089 0.69300002 0.054000001 25 0 0
2.0880001 0.69400001 0.055 25 0 0
2.085 0.69499999 0.056000002 24 0 0
2.0840001 0.69599998 0.057 24 0 0
2.075 0.69499999 0.057999998 21 0 0
2.0739999 0.69599998 0.057999998 22 0 0
2.0739999 0.69700003 0.059 21 0 0
2.0680001 0.69700003 0.059999999 25 0 0
2.0669999 0.69800001 0.061000001 25 0 0
2.0669999 0.699 0.061999999 22 0 0
2.0610001 0.69800001 0.061999999 24 0 0
2.063 0.69999999 0.063000001 21 0 0
2.0539999 0.69800001 0.064000003 22 0 0
2.056 0.69999999 0.064999998 19 0 0
2.0510001 0.69999999 0.066 22 0 0
2.046 0.699 0.066 25 0 0
2.043 0.699 0.067000002 22 0 0
2.0409999 0.699 0.068000004 22 0 0
2.0369999 0.699 0.068999998 20 0 0
2.0380001 0.70099998 0.07 19 0 0
2.036 0.70099998 0.071000002 20 0 0
2.0309999 0.69999999 0.071000002 19 0 0
2.0350001 0.70300001 0.071999997 20 0 0
2.029 0.70099998 0.072999999 19 0 0
2.0250001 0.70099998 0.074000001 21 0 0
2.0250001 0.70200002 0.075000003 23 0 0
2.0280001 0.70300001 0.075999998 19 0 0
2.023 0.70300001 0.075999998 21 0 0
2.02 0.70200002 0.077 20 0 0
2.0179999 0.70200002 0.078000002 20 0 0
2.02 0.704 0.079000004 19 0 0
2.0179999 0.70300001 0.079999998 20 0 0
2.007 0.69999999 0.079999998 22 0 0
2.01 0.70200002 0.081 24 0 0
2.0139999 0.704 0.082000002 19 0 0
2.013 0.704 0.082999997 20 0 0
2.0139999 0.70499998 0.083999999 19 0 0
2.01 0.704 0.083999999 23 0 0
2.0090001 0.704 0.085000001 23 0 0
2.0039999 0.70300001 0.086000003 22 0 0
2.0079999 0.70499998 0.086999997 23 0 0
2.0039999 0.70300001 0.086999997 22 0 0
2.0050001 0.704 0.088 22 0 0
2.0009999 0.70300001 0.089000002 24 0 0
2 0.70300001 0.090000004 24 0 0
1.997 0.70200002 0.090999998 29 0 0
1.9960001 0.70200002 0.090999998 29 0 0
1.998 0.70300001 0.092 29 0 0
1.993 0.70200002 0.093000002 27 0 0
1.993 0.70200002 0.093999997 27 0 0
1.993 0.70200002 0.093999997 27 0 0
2.0050001 0.70599997 0.096000001 24 0 0
2.0050001 0.70599997 0.097000003 22 0 0
2.0039999 0.70599997 0.097000003 22 0 0
2 0.704 0.097999997 24 0 0
2.0039999 0.70599997 0.098999999 24 0 0
2 0.704 0.1 24 0 0
2.003 0.70499998 0.1 24 0 0
2.0039999 0.70499998 0.101 24 0 0
2.0050001 0.70599997 0.102 24 0 0
2.003 0.704 0.103 26 0 0
2.0020001 0.704 0.104 24 0 0
2.007 0.70599997 0.105 23 0 0
2.007 0.70499998 0.105 23 0 0
2.007 0.70499998 0.106 23 0 0
2.01 0.70599997 0.107 23 0 0
2.01 0.70499998 0.108 24 0 0
2.0139999 0.70599997 0.109 21 0 0
2.0150001 0.70599997 0.11 20 0 0
2.0150001 0.70599997 0.11 20 0 0
2.016 0.70499998 0.111 20 0 0
2.016 0.70499998 0.112 20 0 0
2.0179999 0.70499998 0.113 19 0 0
2.0209999 0.70599997 0.114 23 0 0
2.0250001 0.70599997 0.115 21 0 0
2.0250001 0.70599997 0.115 21 0 0
2.0250001 0.70499998 0.116 21 0 0
2.0250001 0.704 0.117 23 0 0
2.0309999 0.70599997 0.118 20 0 0
2.0339999 0.70599997 0.119 20 0 0
2.0339999 0.70499998 0.119 20 0 0
2.0339999 0.70499998 0.12 20 0 0
2.0409999 0.70599997 0.121 23 0 0
2.039 0.704 0.122 25 0 0
2.0420001 0.70499998 0.123 23 0 0
2.0469999 0.70499998 0.124 23 0 0
2.0480001 0.70499998 0.124 25 0 0
2.0539999 0.70599997 0.125 21 0 0
2.0569999 0.70599997 0.126 21 0 0
2.0569999 0.70499998 0.127 21 0 0
2.0580001 0.704 0.12800001 25 0 0
2.062 0.704 0.12800001 24 0 0
2.063 0.70300001 0.12899999 25 0 0
2.063 0.70200002 0.13 25 0 0
2.075 0.70499998 0.131 21 0 0
2.0739999 0.704 0.132 22 0 0
2.0769999 0.70300001 0.133 21 0 0
2.0780001 0.70200002 0.133 26 0 0
2.085 0.70300001 0.134 23 0 0
2.085 0.70200002 0.13500001 25 0 0
2.086 0.70099998 0.13600001 25 0 0
2.092 0.70099998 0.13699999 26 0 0
2.092 0.69999999 0.13699999 26 0 0
2.1010001 0.70200002 0.138 27 0 0
2.0999999 0.699 0.139 27 0 0
2.105 0.69999999 0.14 28 0 0
2.108 0.699 0.141 27 0 0
2.1110001 0.699 0.141 27 0 0
2.1129999 0.69700003 0.142 26 0 0
2.119 0.69800001 0.14300001 26 0 0
2.1229999 0.69800001 0.14399999 26 0 0
2.1270001 0.69700003 0.145 26 0 0
2.128 0.69599998 0.145 26 0 0
2.1370001 0.69700003 0.146 25 0 0
2.1400001 0.69599998 0.147 25 0 0
2.145 0.69599998 0.148 25 0 0
2.1470001 0.69400001 0.148 25 0 0
2.1530001 0.69400001 0.149 26 0 0
2.158 0.69400001 0.15000001 26 0 0
2.1630001 0.69400001 0.15099999 27 0 0
2.164 0.69199997 0.152 27 0 0
2.171 0.69199997 0.152 26 0 0
2.175 0.69099998 0.153 28 0 0
2.181 0.69099998 0.154 26 0 0
2.1819999 0.68900001 0.155 26 0 0
2.1919999 0.69 0.156 27 0 0
2.1930001 0.68800002 0.156 27 0 0
2.2030001 0.68900001 0.15700001 27 0 0
2.2049999 0.68800002 0.15800001 26 0 0
2.21 0.68699998 0.15899999 27 0 0
2.2149999 0.68599999 0.15899999 25 0 0
2.22 0.685 0.16 26 0 0
2.234 0.68699998 0.161 25 0 0
2.244 0.68800002 0.163 24 0 0
2.2449999 0.68599999 0.163 25 0 0
2.2520001 0.685 0.164 24 0 0
2.2550001 0.68400002 0.164 25 0 0
2.263 0.68300003 0.16500001 24 0 0
2.267 0.68199998 0.16599999 24 0 0
2.2709999 0.68000001 0.16599999 24 0 0
2.2839999 0.68199998 0.168 24 0 0
2.2880001 0.68000001 0.168 23 0 0
2.3 0.68099999 0.169 22 0 0
2.3050001 0.68000001 0.17 23 0 0
2.3139999 0.67900002 0.171 24 0 0
2.322 0.67900002 0.17200001 24 0 0
2.326 0.67699999 0.17200001 23 0 0
2.3340001 0.67699999 0.17299999 24 0 0
2.346 0.67699999 0.17399999 23 0 0
2.352 0.676 0.175 24 0 0
2.3570001 0.67400002 0.175 23 0 0
2.3670001 0.67400002 0.176 22 0 0
2.375 0.67299998 0.177 22 0 0
2.385 0.67299998 0.178 22 0 0
2.392 0.67199999 0.17900001 23 0 0
2.398 0.67000002 0.17900001 21 0 0
2.4059999 0.66900003 0.18000001 22 0 0
2.421 0.67000002 0.18099999 23 0 0
2.425 0.66799998 0.182 22 0 0
2.4349999 0.667 0.182 22 0 0
2.448 0.667 0.183 22 0 0
2.4549999 0.66600001 0.184 22 0 0
2.4649999 0.66500002 0.185 23 0 0
2.4749999 0.66399997 0.186 22 0 0
2.4849999 0.66299999 0.186 22 0 0
2.49 0.66100001 0.18700001 23 0 0
2.503 0.66100001 0.18799999 22 0 0
2.5150001 0.66000003 0.189 21 0 0
2.53 0.66000003 0.19 24 0 0
2.5350001 0.65799999 0.19 23 0 0
2.5510001 0.65799999 0.191 23 0 0
2.5580001 0.65600002 0.192 23 0 0
2.5639999 0.65399998 0.192 22 0 0
2.585 0.65499997 0.193 22 0 0
2.5880001 0.65200001 0.19400001 21 0 0
2.605 0.65200001 0.19499999 22 0 0
2.615 0.65100002 0.19499999 22 0 0
2.625 0.64899999 0.19599999 22 0 0
2.6389999 0.64899999 0.197 22 0 0
2.651 0.648 0.197 21 0 0
2.664 0.64600003 0.198 21 0 0
2.6730001 0.64399999 0.198 21 0 0
2.694 0.64499998 0.2 22 0 0
2.698 0.64200002 0.2 21 0 0
2.7060001 0.639 0.2 22 0 0
2.7260001 0.63999999 0.20100001 21 0 0
2.7420001 0.639 0.20200001 20 0 0
2.7550001 0.63700002 0.20299999 21 0 0
2.766 0.63499999 0.20299999 21 0 0
2.7809999 0.634 0.204 20 0 0
2.7939999 0.63300002 0.204 20 0 0
2.8010001 0.62900001 0.204 20 0 0
2.823 0.62900001 0.206 21 0 0
2.8329999 0.62699997 0.206 20 0 0
2.848 0.62599999 0.207 20 0 0
2.8599999 0.62300003 0.207 20 0 0
2.8740001 0.62099999 0.207 19 0 0
2.891 0.62 0.208 19 0 0
2.9089999 0.61900002 0.20900001 18 0 0
2.9300001 0.61900002 0.20999999 16 0 0
2.95 0.61799997 0.20999999 17 0 0
2.9579999 0.61400002 0.20999999 19 0 0
2.98 0.61299998 0.211 19 0 0
2.9920001 0.611 0.212 18 0 0
3.01 0.60900003 0.212 16 0 0
3.03 0.60799998 0.213 17 0 0
3.0469999 0.60600001 0.213 17 0 0
3.0799999 0.60699999 0.215 18 0 0
3.0940001 0.60399997 0.215 19 0 0
3.115 0.60299999 0.21600001 18 0 0
3.1359999 0.60100001 0.21600001 19 0 0
3.152 0.59899998 0.21600001 16 0 0
3.1730001 0.597 0.21699999 19 0 0
3.184 0.59299999 0.21699999 20 0 0
3.2060001 0.59200001 0.21699999 19 0 0
3.2260001 0.58899999 0.21799999 18 0 0
3.2379999 0.58600003 0.21699999 17 0 0
3.2639999 0.58499998 0.21799999 18 0 0
3.289 0.583 0.219 17 0 0
3.3099999 0.57999998 0.219 17 0 0
3.329 0.57800001 0.219 18 0 0
3.3559999 0.57599998 0.22 18 0 0
3.3740001 0.57300001 0.22 18 0 0
3.3989999 0.57099998 0.22 17 0 0
3.414 0.56699997 0.22 18 0 0
3.4419999 0.56599998 0.22 17 0 0
3.461 0.56199998 0.22 18 0 0
3.4879999 0.56 0.221 17 0 0
3.51 0.55699998 0.221 17 0 0
3.5439999 0.55599999 0.221 16 0 0
3.563 0.55199999 0.221 16 0 0
3.5899999 0.54900002 0.221 17 0 0
3.6110001 0.54500002 0.221 16 0 0
3.6470001 0.54400003 0.221 13 0 0
3.664 0.54000002 0.221 14 0 0
3.6900001 0.53600001 0.221 16 0 0
3.7119999 0.53200001 0.22 16 0 0
3.7509999 0.53100002 0.221 16 0 0
3.7809999 0.528 0.221 18 0 0
3.8110001 0.52499998 0.221 18 0 0
3.842 0.52200001 0.221 16 0 0
3.881 0.51999998 0.221 16 0 0
3.914 0.51700002 0.221 18 0 0
3.9489999 0.51300001 0.221 18 0 0
3.977 0.509 0.221 18 0 0
4.0040002 0.505 0.22 25 0 0
4.027 0.5 0.219 49 0 0
4.0240002 0.49200001 0.21699999 50 0 0
4.0209999 0.484 0.215 46 0 0
4.026 0.477 0.213 47 0 0
4.0209999 0.46799999 0.20999999 47 0 0
4.0139999 0.46000001 0.208 45 0 0
4.0170002 0.45199999 0.206 46 0 0
4.0120001 0.44400001 0.20299999 47 0 0
4.0120001 0.43599999 0.20100001 48 0 0
4.0139999 0.42899999 0.198 47 0 0
4.0139999 0.421 0.19599999 48 0 0
4.0089998 0.412 0.193 47 0 0
4.006 0.40400001 0.191 47 0 0
4.007 0.396 0.18799999 44 0 0
4.0089998 0.389 0.186 49 0 0
4.0019999 0.38 0.183 44 0 0
4.0040002 0.373 0.18099999 41 0 0
3.994 0.36399999 0.178 43 0 0
3.9909999 0.35600001 0.175 49 0 0
3.9960001 0.34799999 0.17200001 39 0 0
3.9909999 0.34 0.17 46 0 0
3.9920001 0.33199999 0.167 46 0 0
3.9909999 0.324 0.164 49 0 0
3.9790001 0.31600001 0.161 43 0 0
3.9809999 0.308 0.15800001 46 0 0
3.974 0.30000001 0.155 46 0 0
3.9760001 0.292 0.153 43 0 0
3.973 0.28400001 0.15000001 45 0 0
3.97 0.27599999 0.147 45 0 0
3.967 0.26800001 0.14399999 40 0 0
3.9679999 0.25999999 0.141 48 0 0
3.964 0.252 0.138 45 0 0
3.9649999 0.244 0.13500001 43 0 0
3.9649999 0.237 0.132 40 0 0
3.9590001 0.228 0.12800001 45 0 0
3.9619999 0.221 0.125 45 0 0
3.9579999 0.213 0.122 38 0 0
3.9530001 0.205 0.119 42 0 0
3.9519999 0.197 0.116 48 0 0
3.947 0.189 0.113 48 0 0
3.948 0.182 0.109 48 0 0
3.9430001 0.17399999 0.106 54 0 0
3.944 0.16599999 0.103 54 0 0
3.941 0.15800001 0.1 54 0 0
3.9400001 0.15000001 0.096000001 45 0 0
3.937 0.14300001 0.093000002 47 0 0
3.9330001 0.13500001 0.089000002 50 0 0
3.9300001 0.127 0.086000003 44 0 0
3.9260001 0.119 0.082000002 44 0 0
3.928 0.112 0.079000004 39 0 0
3.9260001 0.104 0.075999998 44 0 0
3.918 0.096000001 0.071999997 50 0 0
3.918 0.088 0.068999998 50 0 0
3.9159999 0.081 0.064999998 50 0 0
3.918 0.072999999 0.061999999 47 0 0
3.9100001 0.066 0.057999998 53 0 0
3.9070001 0.057999998 0.054000001 49 0 0
3.9089999 0.050999999 0.050999999 49 0 0
3.908 0.043000001 0.046999998 46 0 0
3.908 0.035999998 0.044 46 0 0
3.9030001 0.028000001 0.039999999 37 0 0
3.9059999 0.021 0.035999998 44 0 0
3.895 0.013 0.032000002 52 0 0
3.892 0.0060000001 0.028999999 49 0 0
3.888 0 0.025 49 0 0
3.8870001 -0.0080000004 0.021 46 0 0
3.892 -0.015 0.017999999 46 0 0
3.8800001 -0.022 0.014 49 0 0
3.878 -0.029999999 0.0099999998 41 0 0
3.8770001 -0.037 0.0060000001 43 0 0
3.878 -0.044 0.0020000001 43 0 0
3.8710001 -0.050999999 -0.001 52 0 0
3.8699999 -0.057999998 -0.0049999999 51 0 0
3.868 -0.066 -0.0080000004 48 0 0
3.8699999 -0.072999999 -0.012 48 0 0
3.8699999 -0.079999998 -0.016000001 43 0 0
3.865 -0.086999997 -0.02 43 0 0
3.8610001 -0.093999997 -0.024 40 0 0
3.8599999 -0.101 -0.028000001 40 0 0
3.852 -0.108 -0.032000002 42 0 0
3.8599999 -0.116 -0.035999998 40 0 0
3.8469999 -0.122 -0.039999999 45 0 0
3.8469999 -0.12899999 -0.044 45 0 0
3.845 -0.13600001 -0.048 45 0 0
3.8440001 -0.14300001 -0.052999999 45 0 0
3.8429999 -0.15000001 -0.057 48 0 0
3.8440001 -0.15700001 -0.061000001 45 0 0
3.839 -0.164 -0.064999998 42 0 0
3.836 -0.171 -0.068999998 48 0 0
3.836 -0.178 -0.072999999 48 0 0
3.832 -0.184 -0.077 42 0 0
3.812 -0.19 -0.081 42 0 0
3.8280001 -0.198 -0.086000003 51 0 0
3.8110001 -0.204 -0.090000004 42 0 0
3.8069999 -0.20999999 -0.093999997 47 0 0
3.8099999 -0.21699999 -0.097999997 39 0 0
3.8010001 -0.223 -0.102 50 0 0
3.8010001 -0.23 -0.107 57 0 0
3.799 -0.236 -0.111 47 0 0
3.7939999 -0.243 -0.115 47 0 0
3.793 -0.249 -0.119 47 0 0
3.7939999 -0.25600001 -0.124 50 0 0
3.7869999 -0.26199999 -0.12800001 53 0 0
3.7820001 -0.26800001 -0.132 49 0 0
3.786 -0.27500001 -0.13600001 50 0 0
3.783 -0.28099999 -0.141 50 0 0
3.779 -0.287 -0.145 49 0 0
3.777 -0.29300001 -0.149 44 0 0
3.7739999 -0.29899999 -0.153 46 0 0
3.77 -0.30500001 -0.15800001 44 0 0
3.7690001 -0.31200001 -0.162 41 0 0
3.7709999 -0.31799999 -0.167 46 0 0
3.7639999 -0.324 -0.171 46 0 0
3.763 -0.33000001 -0.175 46 0 0
3.756 -0.33500001 -0.18000001 56 0 0
3.7539999 -0.34099999 -0.184 52 0 0
3.75 -0.347 -0.18799999 72 0 0
3.7420001 -0.352 -0.192 92 0 0
3.7290001 -0.35699999 -0.19599999 105 0 0
3.74 -0.36399999 -0.20100001 150 0 0
3.74 -0.37 -0.206 150 0 0
3.7390001 -0.37599999 -0.20999999 150 0 0
3.733 -0.38100001 -0.214 150 0 0
3.7349999 -0.38800001 -0.219 146 0 0
3.724 -0.39199999 -0.223 105 0 0
3.7190001 -0.398 -0.227 109 0 0
3.7149999 -0.403 -0.23100001 114 0 0
3.7149999 -0.40900001 -0.236 114 0 0
3.7119999 -0.414 -0.23999999 116 0 0
3.7079999 -0.419 -0.245 121 0 0
3.7049999 -0.42500001 -0.249 124 0 0
3.7060001 -0.43000001 -0.25400001 121 0 0
3.7049999 -0.43599999 -0.25799999 105 0 0
3.7060001 -0.442 -0.26300001 86 0 0
3.7060001 -0.447 -0.26699999 73 0 0
3.707 -0.45300001 -0.27200001 64 0 0
3.707 -0.458 -0.27700001 60 0 0
3.7030001 -0.463 -0.28099999 60 0 0
3.698 -0.46799999 -0.285 58 0 0
3.701 -0.47400001 -0.28999999 60 0 0
3.6949999 -0.47799999 -0.294 59 0 0
3.697 -0.484 -0.29899999 61 0 0
3.6919999 -0.48899999 -0.303 60 0 0
3.6919999 -0.49399999 -0.308 59 0 0
3.691 -0.49900001 -0.31200001 59 0 0
3.684 -0.50300002 -0.31600001 57 0 0
3.6830001 -0.50800002 -0.32100001 57 0 0
3.6819999 -0.51300001 -0.32499999 57 0 0
3.681 -0.51800001 -0.33000001 57 0 0
3.6700001 -0.52100003 -0.333 58 0 0
3.6659999 -0.52600002 -0.338 58 0 0
3.665 -0.53100002 -0.34200001 56 0 0
3.6630001 -0.53500003 -0.34599999 59 0 0
3.661 -0.54000002 -0.35100001 58 0 0
3.658 -0.54400003 -0.35499999 59 0 0
3.6570001 -0.54900002 -0.36000001 59 0 0
3.6559999 -0.55400002 -0.36399999 59 0 0
3.655 -0.55800003 -0.368 59 0 0
3.655 -0.56300002 -0.373 61 0 0
3.651 -0.56699997 -0.377 58 0 0
3.6470001 -0.57099998 -0.38100001 60 0 0
3.6440001 -0.57499999 -0.38600001 59 0 0
3.645 -0.57999998 -0.38999999 60 0 0
3.6440001 -0.58499998 -0.39500001 60 0 0
3.642 -0.58899999 -0.39899999 61 0 0
3.6389999 -0.59299999 -0.403 62 0 0
3.638 -0.597 -0.40799999 62 0 0
3.6370001 -0.60100001 -0.412 62 0 0
3.6340001 -0.60500002 -0.41600001 63 0 0
3.632 -0.60900003 -0.421 62 0 0
3.6329999 -0.61400002 -0.42500001 62 0 0
3.619 -0.616 -0.428 60 0 0
3.625 -0.62099999 -0.433 64 0 0
3.628 -0.62599999 -0.43799999 63 0 0
3.622 -0.62900001 -0.442 66 0 0
3.6140001 -0.63200003 -0.44499999 61 0 0
3.612 -0.63499999 -0.44999999 61 0 0
3.6110001 -0.639 -0.454 61 0 0
3.609 -0.64300001 -0.458 62 0 0
3.609 -0.64700001 -0.46200001 61 0 0
3.6070001 -0.64999998 -0.46700001 62 0 0
3.605 -0.65399998 -0.47099999 62 0 0
3.6040001 -0.65799999 -0.47499999 62 0 0
3.6029999 -0.66100001 -0.479 62 0 0
3.602 -0.66500002 -0.48300001 62 0 0
3.599 -0.66799998 -0.48699999 61 0 0
3.595 -0.671 -0.491 63 0 0
3.5940001 -0.67500001 -0.495 63 0 0
3.5929999 -0.67799997 -0.49900001 63 0 0
3.592 -0.68099999 -0.50400001 63 0 0
3.5910001 -0.685 -0.50800002 63 0 0
3.5869999 -0.68800002 -0.51099998 64 0 0
3.589 -0.69099998 -0.51599997 64 0 0
3.5869999 -0.69499999 -0.51999998 63 0 0
3.5840001 -0.69700003 -0.52399999 64 0 0
3.5829999 -0.69999999 -0.528 64 0 0
3.5769999 -0.70300001 -0.53100002 63 0 0
3.575 -0.70599997 -0.53500003 64 0 0
3.5780001 -0.70999998 -0.54000002 65 0 0
3.575 -0.71200001 -0.54299998 62 0 0
3.5780001 -0.71600002 -0.54799998 63 0 0
3.5710001 -0.71799999 -0.551 64 0 0
3.5669999 -0.72000003 -0.55500001 64 0 0
3.5680001 -0.72299999 -0.55900002 64 0 0
3.5669999 -0.72600001 -0.56300002 64 0 0
3.566 -0.72899997 -0.56599998 64 0 0
3.5650001 -0.73199999 -0.56999999 64 0 0
3.559 -0.73299998 -0.57300001 60 0 0
3.5569999 -0.736 -0.57700002 60 0 0
3.559 -0.73900002 -0.58099997 65 0 0
3.5569999 -0.74199998 -0.58499998 66 0 0
3.5569999 -0.74400002 -0.58899999 64 0 0
3.552 -0.74599999 -0.59200001 68 0 0
3.552 -0.74900001 -0.59600002 65 0 0
3.5450001 -0.75 -0.59899998 64 0 0
3.543 -0.75199997 -0.602 66 0 0
3.5420001 -0.75400001 -0.60600001 66 0 0
3.546 -0.75800002 -0.61000001 68 0 0
3.54 -0.759 -0.61299998 64 0 0
3.539 -0.76200002 -0.61699998 64 0 0
3.5369999 -0.764 -0.62 66 0 0
3.533 -0.76499999 -0.62300003 61 0 0
3.5280001 -0.76599997 -0.62599999 64 0 0
3.5280001 -0.76899999 -0.63 63 0 0
3.53 -0.77100003 -0.634 68 0 0
3.5280001 -0.773 -0.63700002 67 0 0
3.5309999 -0.77600002 -0.64099997 66 0 0
3.5250001 -0.77700001 -0.64399999 62 0 0
3.529 -0.77999997 -0.648 66 0 0
3.527 -0.78100002 -0.65100002 67 0 0
3.52 -0.78200001 -0.653 64 0 0
3.5220001 -0.78399998 -0.65700001 67 0 0
3.5209999 -0.78600001 -0.66100001 67 0 0
3.52 -0.78799999 -0.66399997 67 0 0
3.5179999 -0.78899997 -0.667 68 0 0
3.5190001 -0.79100001 -0.67000002 68 0 0
3.51 -0.79100001 -0.67199999 67 0 0
3.5109999 -0.79299998 -0.676 65 0 0
3.51 -0.79500002 -0.67900002 65 0 0
3.5109999 -0.79699999 -0.68199998 64 0 0
3.507 -0.79699999 -0.685 63 0 0
3.5090001 -0.79900002 -0.68800002 64 0 0
3.5079999 -0.801 -0.69099998 64 0 0
3.5039999 -0.801 -0.69400001 67 0 0
3.506 -0.80400002 -0.69700003 64 0 0
3.5039999 -0.80400002 -0.69999999 63 0 0
3.5020001 -0.80500001 -0.70300001 66 0 0
3.4979999 -0.80599999 -0.70499998 69 0 0
3.4960001 -0.80699998 -0.708 67 0 0
3.5 -0.80900002 -0.71200001 65 0 0
3.497 -0.81 -0.71399999 67 0 0
3.4949999 -0.81 -0.71600002 69 0 0
3.494 -0.81099999 -0.71899998 69 0 0
3.503 -0.815 -0.72399998 68 0 0
3.4909999 -0.81300002 -0.72399998 67 0 0
3.4920001 -0.81400001 -0.727 69 0 0
3.4879999 -0.81400001 -0.72899997 69 0 0
3.49 -0.81599998 -0.73299998 69 0 0
3.487 -0.81599998 -0.73500001 71 0 0
3.4860001 -0.81699997 -0.73699999 69 0 0
3.484 -0.81699997 -0.74000001 70 0 0
3.487 -0.81900001 -0.74299997 69 0 0
3.4879999 -0.81999999 -0.74599999 72 0 0
3.483 -0.81900001 -0.74699998 67 0 0
3.484 -0.82099998 -0.75 70 0 0
3.483 -0.82099998 -0.75199997 71 0 0
3.48 -0.82099998 -0.75400001 72 0 0
3.4790001 -0.82099998 -0.75700003 70 0 0
3.4820001 -0.82300001 -0.75999999 70 0 0
3.477 -0.82200003 -0.76099998 71 0 0
3.4749999 -0.82200003 -0.76300001 70 0 0
3.474 -0.82200003 -0.76499999 70 0 0
3.4760001 -0.82300001 -0.76800001 71 0 0
3.4760001 -0.824 -0.76999998 72 0 0
3.474 -0.824 -0.77200001 71 0 0
3.474 -0.824 -0.77399999 71 0 0
3.473 -0.824 -0.77700001 71 0 0
3.471 -0.824 -0.778 70 0 0
3.4719999 -0.824 -0.78100002 71 0 0
3.47 -0.824 -0.78200001 70 0 0
3.47 -0.824 -0.78399998 70 0 0
3.4660001 -0.82300001 -0.78600001 67 0 0
3.471 -0.824 -0.78899997 71 0 0
3.4649999 -0.82300001 -0.78899997 68 0 0
3.4679999 -0.824 -0.792 72 0 0
3.4690001 -0.824 -0.79400003 71 0 0
3.46 -0.82200003 -0.79400003 71 0 0
3.4630001 -0.82200003 -0.796 68 0 0
3.4630001 -0.82200003 -0.79799998 68 0 0
3.4619999 -0.82200003 -0.80000001 68 0 0
3.457 -0.81999999 -0.801 69 0 0
3.46 -0.82099998 -0.80299997 67 0 0
3.4649999 -0.82200003 -0.80599999 70 0 0
3.457 -0.81999999 -0.80599999 72 0 0
3.4649999 -0.82099998 -0.80900002 70 0 0
3.4660001 -0.82099998 -0.81099999 71 0 0
3.46 -0.81900001 -0.81099999 68 0 0
3.4630001 -0.81900001 -0.81300002 71 0 0
3.454 -0.81699997 -0.81300002 70 0 0
3.457 -0.81699997 -0.815 71 0 0
3.4560001 -0.81599998 -0.81599998 72 0 0
3.4560001 -0.815 -0.81699997 72 0 0
3.461 -0.81599998 -0.81999999 74 0 0
3.4530001 -0.81400001 -0.81900001 70 0 0
3.4630001 -0.815 -0.82300001 72 0 0
3.4549999 -0.81199998 -0.82200003 72 0 0
3.4590001 -0.81300002 -0.824 76 0 0
3.4549999 -0.81099999 -0.824 72 0 0
3.4549999 -0.81 -0.82599998 72 0 0
3.461 -0.81 -0.82800001 71 0 0
3.46 -0.80900002 -0.829 74 0 0
3.4590001 -0.80800003 -0.82999998 76 0 0
3.4549999 -0.80599999 -0.82999998 72 0 0
3.4549999 -0.80500001 -0.83099997 72 0 0
3.4549999 -0.80400002 -0.83200002 72 0 0
3.4579999 -0.80400002 -0.833 74 0 0
3.4549999 -0.80199999 -0.833 72 0 0
3.4549999 -0.801 -0.83399999 72 0 0
3.4549999 -0.79900002 -0.83499998 72 0 0
3.4549999 -0.79799998 -0.83600003 72 0 0
3.4530001 -0.79699999 -0.83600003 70 0 0
3.4549999 -0.796 -0.83700001 72 0 0
3.454 -0.79400003 -0.83700001 73 0 0
3.451 -0.792 -0.83700001 73 0 0
3.4530001 -0.79100001 -0.838 74 0 0
3.46 -0.79100001 -0.83999997 76 0 0
3.4560001 -0.78899997 -0.83999997 72 0 0
3.4519999 -0.78600001 -0.83899999 73 0 0
3.46 -0.787 -0.84200001 74 0 0
3.461 -0.78500003 -0.84200001 63 0 0
3.457 -0.78299999 -0.84200001 72 0 0
3.4560001 -0.78100002 -0.84200001 70 0 0
3.4560001 -0.77899998 -0.84200001 70 0 0
3.4560001 -0.778 -0.84200001 73 0 0
3.457 -0.77600002 -0.84200001 70 0 0
3.457 -0.77399999 -0.84299999 70 0 0
3.457 -0.77200001 -0.84299999 70 0 0
3.4590001 -0.77100003 -0.84299999 69 0 0
3.461 -0.76999998 -0.84399998 67 0 0
3.4619999 -0.76800001 -0.84399998 67 0 0
3.46 -0.76499999 -0.84299999 65 0 0
3.4630001 -0.764 -0.84399998 63 0 0
3.461 -0.76200002 -0.84299999 59 0 0
3.457 -0.759 -0.84200001 68 0 0
3.46 -0.75700003 -0.84299999 70 0 0
3.461 -0.75599998 -0.84299999 70 0 0
3.461 -0.75400001 -0.84200001 70 0 0
3.4560001 -0.75 -0.84100002 70 0 0
3.46 -0.74900001 -0.84100002 73 0 0
3.4630001 -0.74699998 -0.84200001 70 0 0
3.4649999 -0.74599999 -0.84200001 72 0 0
3.461 -0.74199998 -0.83999997 73 0 0
3.4619999 -0.74000001 -0.83999997 73 0 0
3.461 -0.73799998 -0.83899999 74 0 0
3.4649999 -0.736 -0.83999997 74 0 0
3.4649999 -0.73400003 -0.83899999 74 0 0
3.464 -0.73100001 -0.838 73 0 0
3.467 -0.72899997 -0.838 74 0 0
3.4649999 -0.727 -0.83700001 73 0 0
3.4649999 -0.72399998 -0.83600003 74 0 0
3.4690001 -0.722 -0.83600003 72 0 0
3.4690001 -0.72000003 -0.83499998 74 0 0
3.467 -0.71700001 -0.83399999 74 0 0
3.4690001 -0.71399999 -0.833 75 0 0
3.471 -0.71200001 -0.833 74 0 0
3.4690001 -0.70899999 -0.83099997 74 0 0
3.471 -0.70700002 -0.83099997 75 0 0
3.471 -0.704 -0.82999998 74 0 0
3.471 -0.70099998 -0.829 74 0 0
3.473 -0.699 -0.82800001 73 0 0
3.473 -0.69599998 -0.82700002 74 0 0
3.477 -0.69400001 -0.82599998 72 0 0
3.473 -0.69 -0.824 70 0 0
3.4760001 -0.68800002 -0.82300001 73 0 0
3.4760001 -0.685 -0.82200003 74 0 0
3.4779999 -0.68300003 -0.82099998 73 0 0
3.4779999 -0.68000001 -0.81999999 74 0 0
3.4790001 -0.67699999 -0.81800002 74 0 0
3.48 -0.67400002 -0.81699997 74 0 0
3.4860001 -0.67199999 -0.81699997 72 0 0
3.4809999 -0.66799998 -0.81400001 74 0 0
3.483 -0.66600001 -0.81300002 75 0 0
3.483 -0.66299999 -0.81099999 74 0 0
3.484 -0.66000003 -0.81 74 0 0
3.4849999 -0.65700001 -0.80800003 74 0 0
3.487 -0.65399998 -0.80699998 73 0 0
3.487 -0.65100002 -0.80500001 74 0 0
3.4890001 -0.648 -0.80400002 73 0 0
3.4890001 -0.64399999 -0.80199999 74 0 0
3.49 -0.64099997 -0.80000001 74 0 0
3.4949999 -0.639 -0.79900002 73 0 0
3.4949999 -0.63599998 -0.79699999 74 0 0
3.4960001 -0.63200003 -0.79500002 74 0 0
3.4949999 -0.62900001 -0.79299998 75 0 0
3.4979999 -0.62599999 -0.79100001 74 0 0
3.497 -0.62199998 -0.78899997 73 0 0
3.4979999 -0.61900002 -0.787 73 0 0
3.5020001 -0.616 -0.78500003 73 0 0
3.5090001 -0.61400002 -0.78500003 76 0 0
3.5009999 -0.60900003 -0.78100002 75 0 0
3.5009999 -0.60600001 -0.778 74 0 0
3.5079999 -0.60299999 -0.77700001 77 0 0
3.5039999 -0.59899998 -0.77399999 73 0 0
3.5079999 -0.59600002 -0.77200001 73 0 0
3.506 -0.59200001 -0.76899999 73 0 0
3.5120001 -0.58999997 -0.76800001 72 0 0
3.513 -0.58600003 -0.76599997 72 0 0
3.5150001 -0.583 -0.76300001 72 0 0
3.516 -0.579 -0.76099998 72 0 0
3.517 -0.57599998 -0.75800002 72 0 0
3.5179999 -0.57200003 -0.75599998 72 0 0
3.5190001 -0.56900001 -0.75300002 72 0 0
3.52 -0.565 -0.75 72 0 0
3.52 -0.56099999 -0.74800003 69 0 0
3.5239999 -0.55800003 -0.74599999 63 0 0
3.5280001 -0.55500001 -0.74299997 67 0 0
3.529 -0.551 -0.74000001 68 0 0
3.5309999 -0.54799998 -0.73799998 67 0 0
3.5320001 -0.54400003 -0.73500001 67 0 0
3.533 -0.54000002 -0.73199999 67 0 0
3.5369999 -0.537 -0.73000002 70 0 0
3.5339999 -0.53299999 -0.72600001 68 0 0
3.5369999 -0.52899998 -0.72299999 67 0 0
3.5439999 -0.52600002 -0.72100002 67 0 0
3.539 -0.52200001 -0.71700001 67 0 0
3.5469999 -0.51899999 -0.71499997 69 0 0
3.5439999 -0.514 -0.71100003 70 0 0
3.5450001 -0.51099998 -0.708 70 0 0
3.5480001 -0.50700003 -0.70499998 64 0 0
3.552 -0.50300002 -0.70200002 66 0 0
3.549 -0.49900001 -0.69800001 65 0 0
3.55 -0.495 -0.69499999 65 0 0
3.552 -0.491 -0.69199997 64 0 0
3.5539999 -0.48699999 -0.68800002 64 0 0
3.562 -0.484 -0.68599999 63 0 0
3.5680001 -0.48100001 -0.68400002 64 0 0
3.5610001 -0.47600001 -0.67900002 61 0 0
3.5639999 -0.47299999 -0.67500001 66 0 0
3.569 -0.46900001 -0.67199999 82 0 0
3.5710001 -0.465 -0.66900003 82 0 0
3.5669999 -0.46000001 -0.66399997 104 0 0
3.5610001 -0.456 -0.65899998 113 0 0
3.5639999 -0.45199999 -0.65600002 97 0 0
3.566 -0.44800001 -0.65200001 113 0 0
3.566 -0.44400001 -0.648 125 0 0
3.5699999 -0.44 -0.64499998 126 0 0
3.576 -0.43700001 -0.64099997 142 0 0
3.5739999 -0.43200001 -0.63700002 114 0 0
3.579 -0.428 -0.634 142 0 0
3.5769999 -0.42399999 -0.62900001 150 0 0
3.5869999 -0.421 -0.62599999 126 0 0
3.596 -0.41800001 -0.62400001 150 0 0
3.6129999 -0.41600001 -0.62199998 128 0 0
3.6289999 -0.41299999 -0.62099999 93 0 0
3.6359999 -0.41 -0.61699998 74 0 0
3.6359999 -0.405 -0.61299998 32 0 0
0 0 0 0 0 0
5.579 -0.60900003 -0.92699999 1 0 0
5.6040001 -0.60500002 -0.92400002 1 0 0
5.5669999 -0.59500003 -0.91100001 1 0 0
5.566 -0.588 -0.903 1 0 0
5.5749998 -0.58200002 -0.89700001 1 0 0
5.5619998 -0.574 -0.88800001 1 0 0
0 0 0 0 0 0
0 0 0 0 0 0
5.6030002 -0.55800003 -0.87199998 1 0 0
5.6440001 -0.55599999 -0.87099999 1 0 0
5.6009998 -0.54500002 -0.85699999 1 0 0
5.6230001 -0.54000002 -0.852 1 0 0
0 0 0 0 0 0
0 0 0 0 0 0
0 0 0 0 0 0
0 0 0 0 0 0
0 0 0 0 0 0
0 0 0 0 0 0
0 0 0 0 0 0
0 0 0 0 0 0
0 0 0 0 0 0
0 0 0 0 0 0
0 0 0 0 0 0
0 0 0 0 0 0
0 0 0 0 0 0
0 0 0 0 0 0
0 0 0 0 0 0
0 0 0 0 0 0
0 0 0 0 0 0
0 0 0 0 0 0
0 0 0 0 0 0
0 0 0 0 0 0
0 0 0 0 0 0
0 0 0 0 0 0
0 0 0 0 0 0
6.3920002 -0.433 -0.74400002 13 0 0
6.7129998 -0.447 -0.77100003 15 0 0
6.7179999 -0.43900001 -0.76099998 15 0 0
6.6500001 -0.42699999 -0.74299997 14 0 0
6.5809999 -0.41499999 -0.72399998 13 0 0
6.5809999 -0.40700001 -0.71399999 14 0 0
6.605 -0.40099999 -0.70599997 14 0 0
6.5100002 -0.38800001 -0.685 14 0 0
6.5539999 -0.38299999 -0.67900002 14 0 0
6.513 -0.373 -0.66500002 13 0 0
6.4850001 -0.36399999 -0.65100002 13 0 0
6.473 -0.35600001 -0.639 16 0 0
6.461 -0.34799999 -0.62800002 20 0 0
6.4250002 -0.33899999 -0.61400002 25 0 0
6.3930001 -0.33000001 -0.60000002 25 0 0
6.369 -0.322 -0.58700001 23 0 0
6.3379998 -0.31299999 -0.57300001 23 0 0
6.2969999 -0.30399999 -0.55900002 22 0 0
6.2610002 -0.29499999 -0.54500002 22 0 0
6.223 -0.28600001 -0.53100002 21 0 0
6.1799998 -0.27700001 -0.51700002 1 0 0
3.848 -0.168 -0.315 7 0 0
3.8440001 -0.164 -0.308 24 0 0
3.8440001 -0.16 -0.30199999 36 0 0
3.825 -0.155 -0.294 51 0 0
3.8069999 -0.15000001 -0.28600001 84 0 0
3.7980001 -0.145 -0.278 83 0 0
3.789 -0.141 -0.271 78 0 0
3.766 -0.13600001 -0.26300001 104 0 0
3.7590001 -0.132 -0.25600001 150 0 0
3.7590001 -0.12800001 -0.249 150 0 0
3.7609999 -0.124 -0.243 150 0 0
3.76 -0.12 -0.236 150 0 0
3.7739999 -0.116 -0.23 112 0 0
3.773 -0.112 -0.223 68 0 0
3.7820001 -0.109 -0.21699999 56 0 0
3.789 -0.105 -0.211 47 0 0
3.7950001 -0.101 -0.204 47 0 0
3.7950001 -0.097000003 -0.197 47 0 0
3.7969999 -0.093000002 -0.19 53 0 0
3.796 -0.089000002 -0.183 50 0 0
3.7969999 -0.085000001 -0.177 53 0 0
3.8150001 -0.082000002 -0.17 61 0 0
3.8 -0.078000002 -0.163 56 0 0
3.8139999 -0.074000001 -0.156 53 0 0
3.823 -0.07 -0.15000001 61 0 0
3.823 -0.066 -0.142 50 0 0
3.8269999 -0.063000001 -0.13500001 61 0 0
3.8329999 -0.059 -0.12800001 47 0 0
3.829 -0.055 -0.121 61 0 0
3.845 -0.052000001 -0.115 51 0 0
3.846 -0.048 -0.107 61 0 0
3.8499999 -0.044 -0.1 51 0 0
3.8529999 -0.041000001 -0.093000002 51 0 0
3.8529999 -0.037 -0.086000003 51 0 0
3.8559999 -0.033 -0.079000004 48 0 0
3.8610001 -0.029999999 -0.071000002 48 0 0
3.8610001 -0.026000001 -0.064000003 48 0 0
3.8610001 -0.022 -0.057 48 0 0
3.865 -0.018999999 -0.048999999 48 0 0
3.8710001 -0.015 -0.041999999 48 0 0
3.8759999 -0.012 -0.035 52 0 0
3.882 -0.0080000004 -0.027000001 52 0 0
3.882 -0.0049999999 -0.02 46 0 0
3.8859999 -0.001 -0.012 52 0 0
3.8859999 0.001 -0.0049999999 52 0 0
3.8859999 0.0049999999 0.0020000001 59 0 0
3.895 0.0080000004 0.0089999996 52 0 0
3.895 0.012 0.017000001 52 0 0
3.8989999 0.015 0.024 52 0 0
3.9030001 0.017999999 0.032000002 52 0 0
3.9030001 0.022 0.039000001 52 0 0
3.905 0.025 0.046999998 52 0 0
3.918 0.028999999 0.055 47 0 0
3.915 0.032000002 0.063000001 53 0 0
3.918 0.035 0.07 47 0 0
3.921 0.037999999 0.078000002 47 0 0
3.9230001 0.041999999 0.086000003 56 0 0
3.9230001 0.045000002 0.093999997 53 0 0
3.9319999 0.048 0.102 53 0 0
3.9319999 0.050999999 0.109 57 0 0
3.934 0.054000001 0.117 53 0 0
3.937 0.057999998 0.125 44 0 0
3.941 0.061000001 0.133 61 0 0
3.9400001 0.064000003 0.141 65 0 0
3.9400001 0.067000002 0.149 65 0 0
3.951 0.07 0.15700001 61 0 0
3.951 0.072999999 0.16500001 57 0 0
3.9530001 0.075999998 0.17299999 57 0 0
3.9530001 0.079000004 0.18000001 61 0 0
3.9579999 0.082000002 0.189 51 0 0
3.9579999 0.085000001 0.19599999 51 0 0
3.967 0.088 0.205 54 0 0
3.9679999 0.090999998 0.213 45 0 0
3.9649999 0.093000002 0.22 48 0 0
3.9790001 0.097000003 0.229 51 0 0
3.9790001 0.098999999 0.237 46 0 0
3.9809999 0.102 0.245 55 0 0
3.977 0.105 0.25299999 70 0 0
3.9590001 0.107 0.259 61 0 0
3.95 0.109 0.26699999 69 0 0
3.927 0.111 0.273 60 0 0
3.908 0.113 0.28 68 0 0
3.8840001 0.115 0.28600001 67 0 0
3.872 0.117 0.29300001 55 0 0
3.8570001 0.119 0.29899999 55 0 0
3.839 0.121 0.30500001 62 0 0
3.819 0.123 0.31099999 79 0 0
3.8010001 0.124 0.317 60 0 0
3.7880001 0.126 0.324 64 0 0
3.7650001 0.12800001 0.33000001 68 0 0
3.7460001 0.12899999 0.33500001 76 0 0
3.724 0.131 0.34099999 80 0 0
3.714 0.133 0.347 82 0 0
3.6989999 0.134 0.35299999 81 0 0
3.678 0.13500001 0.359 78 0 0
3.6670001 0.13699999 0.36500001 82 0 0
3.648 0.138 0.37 81 0 0
3.631 0.14 0.37599999 81 0 0
3.615 0.141 0.382 85 0 0
3.6040001 0.142 0.38800001 83 0 0
3.5869999 0.14399999 0.39300001 80 0 0
3.573 0.145 0.398 76 0 0
3.5650001 0.146 0.405 74 0 0
3.5480001 0.147 0.41 69 0 0
3.5339999 0.149 0.41499999 68 0 0
3.5190001 0.15000001 0.41999999 77 0 0
3.5 0.15099999 0.42500001 81 0 0
3.4909999 0.152 0.43099999 76 0 0
3.474 0.153 0.43599999 80 0 0
3.461 0.154 0.44100001 75 0 0
3.4460001 0.155 0.44499999 77 0 0
3.4360001 0.156 0.45100001 76 0 0
3.4260001 0.15700001 0.456 69 0 0
3.408 0.15700001 0.461 81 0 0
3.3970001 0.15800001 0.46599999 72 0 0
3.3829999 0.15899999 0.47 77 0 0
3.365 0.15899999 0.47400001 74 0 0
3.3529999 0.16 0.479 73 0 0
3.3410001 0.161 0.484 72 0 0
3.336 0.162 0.49000001 65 0 0
3.3180001 0.162 0.49399999 75 0 0
3.306 0.163 0.498 73 0 0
3.2920001 0.164 0.50300002 70 0 0
3.279 0.164 0.50700003 70 0 0
3.2709999 0.16500001 0.51200002 70 0 0
3.2620001 0.16500001 0.51700002 67 0 0
3.2449999 0.16599999 0.51999998 58 0 0
3.234 0.16599999 0.52499998 66 0 0
3.221 0.167 0.52899998 70 0 0
3.2079999 0.167 0.53299999 65 0 0
3.194 0.167 0.537 64 0 0
3.181 0.167 0.54000002 68 0 0
3.1700001 0.168 0.54400003 68 0 0
3.1600001 0.168 0.54900002 55 0 0
3.148 0.168 0.55199999 67 0 0
3.1370001 0.169 0.55599999 66 0 0
3.1259999 0.169 0.56 66 0 0
3.1210001 0.17 0.565 58 0 0
3.102 0.169 0.56800002 61 0 0
3.0999999 0.17 0.57300001 57 0 0
3.0880001 0.17 0.57700002 60 0 0
3.076 0.17 0.57999998 60 0 0
3.0639999 0.17 0.583 66 0 0
3.053 0.17 0.58700001 76 0 0
3.0439999 0.17 0.59100002 65 0 0
3.0339999 0.17 0.59399998 69 0 0
3.0250001 0.171 0.59799999 60 0 0
3.02 0.171 0.60299999 60 0 0
3 0.17 0.60399997 68 0 0
2.9949999 0.171 0.60799998 59 0 0
2.9860001 0.171 0.61199999 63 0 0
2.98 0.171 0.616 57 0 0
2.9679999 0.171 0.61900002 63 0 0
2.96 0.171 0.62199998 71 0 0
2.9489999 0.17 0.625 79 0 0
2.9300001 0.17 0.62599999 67 0 0
2.9260001 0.17 0.63099998 70 0 0
2.918 0.17 0.634 68 0 0
2.914 0.17 0.63800001 68 0 0
2.905 0.17 0.64099997 68 0 0
2.8940001 0.17 0.64399999 66 0 0
2.8859999 0.169 0.64700001 56 0 0
2.8789999 0.169 0.64999998 59 0 0
2.872 0.169 0.65399998 63 0 0
2.8659999 0.169 0.65700001 67 0 0
2.858 0.169 0.66000003 59 0 0
2.8499999 0.169 0.66299999 58 0 0
2.8399999 0.168 0.66600001 58 0 0
2.8280001 0.168 0.667 61 0 0
2.823 0.168 0.671 66 0 0
2.8050001 0.167 0.671 67 0 0
2.803 0.167 0.67500001 69 0 0
2.8 0.167 0.67900002 65 0 0
2.796 0.167 0.68300003 65 0 0
2.7869999 0.16599999 0.685 70 0 0
2.7780001 0.16599999 0.68699998 69 0 0
2.7609999 0.16500001 0.68800002 67 0 0
2.76 0.16500001 0.69199997 67 0 0
2.757 0.16500001 0.69499999 69 0 0
2.7490001 0.164 0.69800001 67 0 0
2.7420001 0.164 0.69999999 63 0 0
2.733 0.163 0.70200002 58 0 0
2.7260001 0.163 0.70499998 66 0 0
2.7190001 0.162 0.70700002 69 0 0
2.7119999 0.162 0.70999998 68 0 0
2.7090001 0.161 0.713 72 0 0
2.7049999 0.161 0.71600002 72 0 0
2.6989999 0.161 0.71799999 61 0 0
2.687 0.16 0.71899998 73 0 0
2.6789999 0.15899999 0.72100002 67 0 0
2.6760001 0.15899999 0.72399998 67 0 0
2.6760001 0.15899999 0.72799999 65 0 0
2.6630001 0.15800001 0.72799999 72 0 0
2.658 0.15700001 0.73100001 65 0 0
2.652 0.15700001 0.73299998 73 0 0
2.6489999 0.156 0.736 71 0 0
2.6440001 0.156 0.73799998 69 0 0
2.6359999 0.155 0.74000001 70 0 0
2.6289999 0.155 0.741 70 0 0
2.6270001 0.154 0.74400002 63 0 0
2.6199999 0.153 0.74599999 76 0 0
2.6110001 0.153 0.74699998 78 0 0
2.6059999 0.152 0.74900001 73 0 0
2.598 0.15099999 0.75 67 0 0
2.5999999 0.15099999 0.75400001 69 0 0
2.5929999 0.15000001 0.75599998 71 0 0
2.589 0.15000001 0.75800002 65 0 0
2.5829999 0.149 0.759 70 0 0
2.579 0.148 0.76200002 70 0 0
2.5739999 0.148 0.76300001 68 0 0
2.5699999 0.147 0.76499999 72 0 0
2.5669999 0.147 0.76800001 72 0 0
2.5599999 0.146 0.76899999 79 0 0
2.556 0.145 0.77100003 76 0 0
2.5550001 0.145 0.773 76 0 0
2.546 0.14399999 0.77399999 71 0 0
2.5480001 0.14399999 0.778 84 0 0
2.5339999 0.142 0.77600002 66 0 0
2.5339999 0.142 0.77899998 60 0 0
2.5320001 0.141 0.78100002 66 0 0
2.527 0.141 0.78299999 59 0 0
2.5239999 0.14 0.78500003 59 0 0
2.52 0.139 0.78600001 59 0 0
2.5109999 0.138 0.787 65 0 0
2.51 0.138 0.78899997 54 0 0
2.506 0.13699999 0.79000002 59 0 0
2.5020001 0.13600001 0.792 65 0 0
2.4920001 0.13500001 0.79100001 81 0 0
2.4920001 0.134 0.79400003 81 0 0
2.4879999 0.134 0.79500002 72 0 0
2.487 0.133 0.79699999 72 0 0
2.483 0.132 0.79799998 72 0 0
2.477 0.131 0.79900002 72 0 0
2.4679999 0.13 0.79900002 79 0 0
2.467 0.13 0.801 79 0 0
2.467 0.12899999 0.80299997 79 0 0
2.4619999 0.12800001 0.80400002 76 0 0
2.461 0.127 0.80599999 74 0 0
2.461 0.127 0.80800003 76 0 0
2.4560001 0.126 0.80900002 76 0 0
2.4530001 0.125 0.81 71 0 0
2.4489999 0.124 0.81099999 76 0 0
2.448 0.124 0.81300002 62 0 0
2.447 0.123 0.81400001 62 0 0
2.4400001 0.122 0.81400001 70 0 0
2.4389999 0.121 0.81599998 56 0 0
2.4319999 0.12 0.815 75 0 0
2.431 0.119 0.81699997 70 0 0
2.428 0.118 0.81800002 75 0 0
2.421 0.117 0.81800002 79 0 0
2.421 0.117 0.81900001 79 0 0
2.4200001 0.116 0.82099998 79 0 0
2.4200001 0.115 0.82200003 79 0 0
2.4159999 0.114 0.82300001 72 0 0
2.4100001 0.113 0.82300001 79 0 0
2.4089999 0.112 0.824 76 0 0
2.408 0.112 0.82499999 76 0 0
2.402 0.111 0.82499999 85 0 0
2.402 0.11 0.82599998 85 0 0
2.398 0.109 0.82599998 82 0 0
2.3959999 0.108 0.82700002 68 0 0
2.3970001 0.107 0.829 78 0 0
2.392 0.106 0.829 68 0 0
2.391 0.105 0.82999998 68 0 0
2.391 0.105 0.83099997 68 0 0
2.3889999 0.104 0.83200002 68 0 0
2.385 0.103 0.83200002 68 0 0
2.3859999 0.102 0.833 78 0 0
2.385 0.101 0.83399999 68 0 0
2.3829999 0.1 0.83499998 67 0 0
2.3800001 0.098999999 0.83499998 75 0 0
2.3759999 0.097999997 0.83399999 87 0 0
2.3759999 0.097000003 0.83499998 77 0 0
2.3729999 0.096000001 0.83499998 77 0 0
2.3770001 0.096000001 0.838 77 0 0
2.3740001 0.094999999 0.838 77 0 0
2.3740001 0.093999997 0.83899999 77 0 0
2.372 0.093000002 0.83899999 77 0 0
2.369 0.092 0.83899999 72 0 0
2.3710001 0.090999998 0.83999997 67 0 0
2.365 0.090000004 0.83899999 76 0 0
2.3629999 0.089000002 0.83899999 80 0 0
2.3629999 0.088 0.83999997 76 0 0
2.3629999 0.088 0.83999997 80 0 0
2.3629999 0.086999997 0.84100002 80 0 0
2.362 0.086000003 0.84200001 76 0 0
2.362 0.085000001 0.84200001 76 0 0
2.362 0.083999999 0.84299999 76 0 0
2.362 0.082999997 0.84299999 76 0 0
2.3570001 0.082000002 0.84200001 74 0 0
2.3570001 0.081 0.84200001 74 0 0
2.362 0.079999998 0.84399998 76 0 0
2.3599999 0.079000004 0.84399998 83 0 0
2.3570001 0.078000002 0.84299999 74 0 0
2.3599999 0.077 0.84500003 83 0 0
2.3499999 0.075999998 0.84100002 66 0 0
2.355 0.075000003 0.84299999 64 0 0
2.3570001 0.075000003 0.84399998 74 0 0
2.359 0.074000001 0.84500003 83 0 0
2.3570001 0.072999999 0.84399998 74 0 0
2.3570001 0.071999997 0.84500003 74 0 0
2.3529999 0.071000002 0.84299999 66 0 0
2.3570001 0.07 0.84500003 74 0 0
2.3610001 0.068999998 0.84600002 76 0 0
2.3570001 0.068000004 0.84500003 74 0 0
2.355 0.067000002 0.84399998 64 0 0
2.3529999 0.066 0.84299999 66 0 0
2.362 0.064999998 0.84600002 76 0 0
2.3529999 0.064000003 0.84299999 66 0 0
2.3529999 0.063000001 0.84299999 66 0 0
2.362 0.061999999 0.84600002 76 0 0
2.359 0.061000001 0.84399998 71 0 0
2.362 0.061000001 0.84500003 76 0 0
2.3640001 0.059999999 0.84500003 67 0 0
2.362 0.059 0.84399998 76 0 0
2.362 0.057999998 0.84399998 76 0 0
2.3629999 0.057 0.84399998 80 0 0
2.3599999 0.056000002 0.84200001 71 0 0
2.3599999 0.055 0.84200001 71 0 0
2.3629999 0.054000001 0.84200001 76 0 0
2.368 0.052999999 0.84299999 67 0 0
2.368 0.052000001 0.84299999 72 0 0
2.3710001 0.050999999 0.84299999 77 0 0
2.369 0.050000001 0.84200001 72 0 0
