# .PCD v0.7 - Point Cloud Data file format
VERSION 0.7
FIELDS x y z intensity tag line
SIZE 4 4 4 4 1 1
TYPE F F F F U U
COUNT 1 1 1 1 1 1
WIDTH 1406
HEIGHT 1
VIEWPOINT 0 0 0 1 0 0 0
POINTS 1406
DATA ascii
6.6420002 0.035 -0.162 10 0 0
6.6630001 0.035 -0.176 10 0 0
6.6869998 0.035999998 -0.191 10 0 0
6.6750002 0.035999998 -0.205 10 0 0
6.6880002 0.037 -0.22 10 0 0
6.6999998 0.037 -0.234 10 0 0
6.6680002 0.037999999 -0.24699999 10 0 0
6.6680002 0.037999999 -0.26100001 9 0 0
6.6789999 0.039000001 -0.27500001 8 0 0
6.7210002 0.039999999 -0.29100001 7 0 0
6.7030001 0.041000001 -0.30500001 7 0 0
6.697 0.041999999 -0.31900001 4 0 0
6.6729999 0.041999999 -0.331 5 0 0
6.2709999 0.041000001 -0.32499999 3 0 0
6.71 0.044 -0.361 3 0 0
6.6760001 0.045000002 -0.37400001 3 0 0
6.2080002 0.043000001 -0.36000001 2 0 0
6.6009998 0.046999998 -0.39700001 2 0 0
6.0900002 0.044 -0.37900001 1 0 0
6.0830002 0.045000002 -0.391 1 0 0
6.0190001 0.046 -0.40000001 2 0 0
5.9689999 0.046999998 -0.40900001 1 0 0
5.9109998 0.046999998 -0.417 1 0 0
5.8870001 0.048 -0.42699999 1 0 0
5.9099998 0.050000001 -0.44100001 1 0 0
5.8569999 0.050999999 -0.449 1 0 0
6.1869998 0.055 -0.48699999 3 0 0
6.1149998 0.056000002 -0.49399999 6 0 0
5.7140002 0.052999999 -0.47299999 2 0 0
5.816 0.056000002 -0.49399999 1 0 0
5.835 0.057 -0.50700003 1 0 0
5.8470001 0.059 -0.51999998 1 0 0
6.2620001 0.064999998 -0.56999999 1 0 0
5.8299999 0.061999999 -0.542 1 0 0
5.8239999 0.063000001 -0.55299997 1 0 0
5.8400002 0.064999998 -0.56699997 1 0 0
5.8449998 0.067000002 -0.579 1 0 0
5.8959999 0.068999998 -0.59600002 1 0 0
5.9349999 0.071000002 -0.61199999 1 0 0
6.355 0.078000002 -0.66799998 1 0 0
5.9629998 0.075000003 -0.63800001 1 0 0
6.3800001 0.082000002 -0.69599998 1 0 0
5.973 0.079000004 -0.66299999 1 0 0
5.9860001 0.081 -0.67699999 1 0 0
6.3559999 0.088 -0.73100001 1 0 0
5.9369998 0.083999999 -0.69499999 1 0 0
5.9089999 0.086000003 -0.70300001 1 0 0
5.875 0.086999997 -0.70999998 1 0 0
5.8839998 0.090000004 -0.72299999 1 0 0
5.8899999 0.092 -0.73500001 1 0 0
6.2459998 0.1 -0.792 1 0 0
5.8839998 0.096000001 -0.75800002 1 0 0
5.855 0.097999997 -0.76499999 1 0 0
5.848 0.1 -0.77600002 1 0 0
5.8280001 0.102 -0.78399998 1 0 0
5.8260002 0.104 -0.79500002 1 0 0
5.8540001 0.107 -0.81 1 0 0
5.8319998 0.109 -0.81800002 1 0 0
5.8390002 0.111 -0.82999998 1 0 0
5.849 0.114 -0.84299999 1 0 0
5.8559999 0.116 -0.85500002 1 0 0
5.8270001 0.118 -0.861 1 0 0
5.8169999 0.12 -0.87099999 1 0 0
5.7800002 0.122 -0.87599999 1 0 0
5.7470002 0.124 -0.88200003 1 0 0
5.7379999 0.126 -0.89099997 1 0 0
5.7259998 0.12899999 -0.89999998 1 0 0
5.711 0.131 -0.90799999 1 0 0
5.6989999 0.133 -0.91600001 1 0 0
5.7080002 0.13600001 -0.92799997 1 0 0
5.698 0.138 -0.93699998 1 0 0
5.7069998 0.141 -0.949 1 0 0
5.6719999 0.14300001 -0.95300001 1 0 0
5.6630001 0.145 -0.96200001 1 0 0
5.6290002 0.147 -0.96600002 1 0 0
5.7210002 0.152 -0.99199998 1 0 0
5.6279998 0.152 -0.986 9 0 0
5.5700002 0.154 -0.986 14 0 0
5.5500002 0.156 -0.99199998 25 0 0
5.5339999 0.15800001 -0.99800003 37 0 0
5.5359998 0.161 -1.0089999 51 0 0
5.506 0.163 -1.013 65 0 0
5.4809999 0.16500001 -1.018 67 0 0
5.4819999 0.168 -1.027 80 0 0
5.4879999 0.171 -1.038 95 0 0
5.4819999 0.17299999 -1.046 115 0 0
5.4790001 0.176 -1.0549999 115 0 0
5.4889998 0.17900001 -1.066 115 0 0
5.4819999 0.182 -1.074 115 0 0
5.4850001 0.185 -1.084 115 0 0
5.4710002 0.18700001 -1.09 114 0 0
5.48 0.191 -1.101 115 0 0
5.4619999 0.193 -1.1059999 130 0 0
5.447 0.19599999 -1.112 114 0 0
5.447 0.199 -1.1210001 129 0 0
5.447 0.20200001 -1.13 129 0 0
5.4250002 0.204 -1.1339999 120 0 0
5.4569998 0.208 -1.149 138 0 0
5.4590001 0.211 -1.158 115 0 0
5.4569998 0.214 -1.166 130 0 0
5.4390001 0.21600001 -1.171 129 0 0
5.4460001 0.22 -1.181 137 0 0
5.4510002 0.223 -1.191 115 0 0
5.4439998 0.226 -1.197 122 0 0
5.4310002 0.229 -1.2029999 114 0 0
5.441 0.23199999 -1.2130001 114 0 0
5.4439998 0.235 -1.222 115 0 0
5.414 0.237 -1.224 107 0 0
5.4159999 0.241 -1.232 107 0 0
5.4310002 0.244 -1.244 107 0 0
5.4349999 0.248 -1.253 108 0 0
5.4289999 0.25099999 -1.2589999 107 0 0
5.4310002 0.25400001 -1.268 108 0 0
5.4070001 0.25600001 -1.27 107 0 0
5.4000001 0.259 -1.276 94 0 0
5.414 0.26300001 -1.2869999 107 0 0
0 0 0 0 0 0
0 0 0 0 0 0
0 0 0 0 0 0
0 0 0 0 0 0
0 0 0 0 0 0
0 0 0 0 0 0
3.5090001 0.185 -0.86799997 8 0 0
3.497 0.186 -0.86900002 7 0 0
3.4809999 0.18799999 -0.87 7 0 0
3.4590001 0.189 -0.86900002 6 0 0
3.444 0.19 -0.87 6 0 0
3.431 0.191 -0.87099999 6 0 0
3.4200001 0.193 -0.87199998 6 0 0
3.4030001 0.19400001 -0.87199998 6 0 0
3.3800001 0.19499999 -0.87099999 7 0 0
3.3610001 0.19599999 -0.87 7 0 0
3.3499999 0.197 -0.87099999 7 0 0
3.329 0.198 -0.87 7 0 0
3.3099999 0.199 -0.86900002 5 0 0
3.2639999 0.198 -0.861 3 0 0
3.1359999 0.192 -0.83099997 2 0 0
0 0 0 0 0 0
2.984 0.18700001 -0.79699999 2 0 0
2.927 0.185 -0.78600001 2 0 0
2.983 0.19 -0.80400002 2 0 0
3.0710001 0.198 -0.83099997 3 0 0
3.1470001 0.205 -0.85500002 4 0 0
3.178 0.20900001 -0.86699998 6 0 0
3.178 0.20999999 -0.87099999 7 0 0
3.168 0.212 -0.87099999 7 0 0
3.151 0.213 -0.87 7 0 0
3.1370001 0.214 -0.87 7 0 0
3.1240001 0.215 -0.86900002 7 0 0
3.1140001 0.21600001 -0.87 8 0 0
3.099 0.21699999 -0.86900002 8 0 0
3.0799999 0.21699999 -0.86699998 9 0 0
3.075 0.219 -0.86799997 9 0 0
3.0610001 0.22 -0.86699998 10 0 0
3.0350001 0.22 -0.86299998 9 0 0
3.033 0.221 -0.86500001 10 0 0
3.02 0.222 -0.86400002 9 0 0
3.0079999 0.223 -0.86400002 9 0 0
3.0009999 0.22499999 -0.86500001 8 0 0
2.9879999 0.226 -0.86299998 8 0 0
2.9649999 0.226 -0.85900003 8 0 0
2.9590001 0.227 -0.86000001 7 0 0
2.934 0.227 -0.85500002 8 0 0
2.9170001 0.227 -0.85299999 18 0 0
2.901 0.228 -0.85100001 28 0 0
2.898 0.229 -0.852 28 0 0
2.891 0.23 -0.85299999 34 0 0
2.8870001 0.23199999 -0.85399997 35 0 0
2.881 0.233 -0.85500002 35 0 0
2.872 0.234 -0.85399997 42 0 0
2.8699999 0.236 -0.85600001 45 0 0
2.862 0.237 -0.85500002 48 0 0
2.8570001 0.23800001 -0.85600001 51 0 0
2.855 0.23899999 -0.85699999 57 0 0
2.852 0.241 -0.85900003 56 0 0
2.852 0.243 -0.861 61 0 0
2.8499999 0.244 -0.86199999 64 0 0
2.852 0.24600001 -0.86500001 62 0 0
2.8510001 0.248 -0.866 62 0 0
2.848 0.249 -0.86699998 58 0 0
2.848 0.25 -0.86900002 56 0 0
2.849 0.252 -0.87099999 57 0 0
2.852 0.25400001 -0.87400001 62 0 0
2.848 0.255 -0.87400001 62 0 0
2.8540001 0.25799999 -0.87800002 68 0 0
2.8529999 0.259 -0.87900001 71 0 0
2.8870001 0.264 -0.89099997 72 0 0
2.925 0.26899999 -0.90399998 74 0 0
2.9400001 0.27200001 -0.91000003 69 0 0
2.9649999 0.27599999 -0.92000002 63 0 0
2.984 0.27900001 -0.92699999 43 0 0
3.0139999 0.28400001 -0.93800002 32 0 0
3.066 0.28999999 -0.95499998 18 0 0
3.1489999 0.30000001 -0.98299998 11 0 0
3.3900001 0.32499999 -1.0599999 4 0 0
3.5250001 0.34 -1.103 33 0 0
3.5369999 0.34299999 -1.109 52 0 0
3.5380001 0.345 -1.11 51 0 0
3.5380001 0.34599999 -1.112 51 0 0
3.5380001 0.34799999 -1.113 52 0 0
3.539 0.34999999 -1.115 53 0 0
3.536 0.352 -1.115 51 0 0
3.5369999 0.354 -1.1160001 52 0 0
3.536 0.35499999 -1.117 52 0 0
3.536 0.35699999 -1.118 52 0 0
3.5369999 0.359 -1.12 53 0 0
3.5369999 0.361 -1.12 53 0 0
3.5350001 0.36199999 -1.1210001 54 0 0
3.539 0.36500001 -1.123 55 0 0
3.5309999 0.366 -1.1210001 57 0 0
3.5350001 0.368 -1.123 53 0 0
3.5369999 0.37 -1.125 55 0 0
3.5369999 0.37099999 -1.126 55 0 0
3.5339999 0.373 -1.125 53 0 0
3.5339999 0.37400001 -1.126 53 0 0
3.539 0.37599999 -1.128 55 0 0
3.539 0.37799999 -1.128 55 0 0
3.536 0.37900001 -1.128 57 0 0
3.5420001 0.382 -1.13 59 0 0
3.5420001 0.38299999 -1.13 59 0 0
3.54 0.38499999 -1.13 60 0 0
3.536 0.38600001 -1.1289999 56 0 0
3.5320001 0.38699999 -1.128 52 0 0
3.5320001 0.38800001 -1.128 50 0 0
3.5350001 0.38999999 -1.1289999 46 0 0
3.5320001 0.391 -1.128 39 0 0
3.5309999 0.39300001 -1.128 32 0 0
3.5239999 0.39399999 -1.126 27 0 0
3.5150001 0.39399999 -1.123 24 0 0
3.503 0.39399999 -1.119 22 0 0
3.5 0.39500001 -1.118 18 0 0
3.4920001 0.396 -1.115 20 0 0
3.4909999 0.39700001 -1.114 20 0 0
3.4879999 0.398 -1.113 20 0 0
3.4820001 0.398 -1.1109999 21 0 0
3.48 0.40000001 -1.11 20 0 0
3.4690001 0.40000001 -1.1059999 21 0 0
3.4679999 0.40099999 -1.105 20 0 0
3.4619999 0.40099999 -1.102 20 0 0
3.4619999 0.403 -1.102 20 0 0
3.4549999 0.403 -1.099 20 0 0
3.451 0.40400001 -1.097 20 0 0
3.447 0.405 -1.095 21 0 0
3.4449999 0.40599999 -1.0930001 20 0 0
3.4419999 0.40599999 -1.091 20 0 0
3.4319999 0.40599999 -1.0880001 20 0 0
3.4360001 0.40799999 -1.0880001 20 0 0
3.428 0.40799999 -1.084 20 0 0
3.424 0.40900001 -1.082 19 0 0
3.4189999 0.40900001 -1.079 20 0 0
3.414 0.41 -1.077 20 0 0
3.411 0.41 -1.074 19 0 0
3.408 0.41100001 -1.072 20 0 0
3.4089999 0.412 -1.071 20 0 0
3.401 0.412 -1.068 20 0 0
3.3970001 0.41299999 -1.0650001 20 0 0
3.3959999 0.41299999 -1.063 20 0 0
3.3929999 0.414 -1.061 20 0 0
3.392 0.41499999 -1.059 20 0 0
3.388 0.41499999 -1.056 20 0 0
3.3889999 0.41600001 -1.0549999 20 0 0
3.385 0.41600001 -1.052 20 0 0
3.3870001 0.417 -1.051 20 0 0
3.3829999 0.41800001 -1.048 20 0 0
3.382 0.419 -1.046 21 0 0
3.382 0.419 -1.044 21 0 0
3.3729999 0.419 -1.04 21 0 0
3.369 0.419 -1.036 19 0 0
3.368 0.41999999 -1.034 20 0 0
3.365 0.41999999 -1.031 20 0 0
3.362 0.41999999 -1.028 19 0 0
3.362 0.421 -1.026 19 0 0
3.362 0.42199999 -1.025 19 0 0
3.3559999 0.42199999 -1.021 19 0 0
3.3559999 0.42199999 -1.018 20 0 0
3.3499999 0.42199999 -1.0140001 19 0 0
3.355 0.42300001 -1.0140001 19 0 0
3.3510001 0.42300001 -1.01 20 0 0
3.3499999 0.42300001 -1.007 20 0 0
3.346 0.42399999 -1.0039999 19 0 0
3.3469999 0.42399999 -1.002 21 0 0
3.3510001 0.42500001 -1 20 0 0
3.348 0.42500001 -0.99699998 21 0 0
3.349 0.426 -0.995 19 0 0
3.346 0.426 -0.991 20 0 0
3.345 0.426 -0.98799998 20 0 0
3.342 0.426 -0.98500001 19 0 0
3.348 0.42699999 -0.98400003 20 0 0
3.3469999 0.42699999 -0.98100001 21 0 0
3.342 0.42699999 -0.97600001 20 0 0
3.346 0.428 -0.97500002 21 0 0
3.3429999 0.42699999 -0.97100002 20 0 0
3.3440001 0.428 -0.96799999 20 0 0
3.3440001 0.428 -0.96600002 20 0 0
3.3410001 0.428 -0.96200001 19 0 0
3.3469999 0.42899999 -0.95999998 20 0 0
3.345 0.42899999 -0.95700002 20 0 0
3.3440001 0.42899999 -0.95300001 19 0 0
3.346 0.42899999 -0.95099998 20 0 0
3.345 0.42899999 -0.94700003 21 0 0
3.3410001 0.42899999 -0.94300002 20 0 0
3.345 0.42899999 -0.94099998 19 0 0
3.348 0.42899999 -0.93800002 19 0 0
3.3469999 0.42899999 -0.935 19 0 0
3.3469999 0.42899999 -0.93099999 19 0 0
3.348 0.42899999 -0.92799997 19 0 0
3.3510001 0.43000001 -0.926 19 0 0
3.3499999 0.42899999 -0.92199999 19 0 0
3.352 0.42899999 -0.91900003 19 0 0
3.355 0.43000001 -0.91600001 18 0 0
3.3529999 0.42899999 -0.912 18 0 0
3.355 0.42899999 -0.90899998 19 0 0
3.358 0.43000001 -0.90600002 18 0 0
3.3629999 0.43000001 -0.90399998 19 0 0
3.3599999 0.42899999 -0.89899999 18 0 0
3.365 0.43000001 -0.89700001 19 0 0
3.3670001 0.43000001 -0.89300001 19 0 0
3.3710001 0.43000001 -0.89099997 19 0 0
3.3729999 0.43000001 -0.88700002 18 0 0
3.3729999 0.42899999 -0.88300002 19 0 0
3.3740001 0.42899999 -0.88 19 0 0
3.382 0.43000001 -0.87800002 19 0 0
3.3840001 0.42899999 -0.87400001 19 0 0
3.3870001 0.42899999 -0.87099999 18 0 0
3.388 0.42899999 -0.86699998 18 0 0
3.392 0.42899999 -0.86400002 19 0 0
3.3889999 0.428 -0.85900003 19 0 0
3.3959999 0.428 -0.85600001 19 0 0
3.3970001 0.428 -0.852 19 0 0
3.4000001 0.428 -0.84899998 19 0 0
3.408 0.428 -0.847 19 0 0
3.404 0.42699999 -0.84100002 20 0 0
3.4119999 0.42699999 -0.83899999 20 0 0
3.414 0.42699999 -0.83499998 19 0 0
3.4189999 0.426 -0.83099997 20 0 0
3.4219999 0.426 -0.82800001 20 0 0
3.4289999 0.426 -0.82499999 21 0 0
3.438 0.426 -0.82200003 22 0 0
3.434 0.42500001 -0.81699997 20 0 0
3.4419999 0.42500001 -0.81400001 21 0 0
3.448 0.42500001 -0.81099999 21 0 0
3.448 0.42399999 -0.80599999 21 0 0
3.45 0.42300001 -0.80199999 21 0 0
3.4560001 0.42300001 -0.79799998 21 0 0
3.464 0.42300001 -0.79500002 21 0 0
3.4649999 0.42199999 -0.79100001 21 0 0
3.4660001 0.421 -0.78600001 21 0 0
3.4760001 0.42199999 -0.78299999 22 0 0
3.4779999 0.421 -0.77899998 22 0 0
3.4860001 0.421 -0.77600002 22 0 0
3.483 0.419 -0.76999998 21 0 0
3.494 0.419 -0.76700002 22 0 0
3.503 0.419 -0.764 22 0 0
3.5050001 0.41800001 -0.759 22 0 0
3.51 0.417 -0.755 23 0 0
3.5179999 0.417 -0.75199997 23 0 0
3.5280001 0.417 -0.74900001 21 0 0
3.533 0.41600001 -0.74400002 22 0 0
3.5339999 0.41499999 -0.73900002 22 0 0
3.5409999 0.414 -0.73500001 22 0 0
3.546 0.41299999 -0.73100001 23 0 0
3.5569999 0.41299999 -0.72799999 22 0 0
3.5599999 0.412 -0.72299999 22 0 0
3.5650001 0.41100001 -0.71799999 22 0 0
3.5769999 0.41100001 -0.71499997 22 0 0
3.5929999 0.41100001 -0.713 22 0 0
3.596 0.41 -0.708 22 0 0
3.599 0.40799999 -0.70300001 22 0 0
3.6070001 0.40700001 -0.699 22 0 0
3.6210001 0.40700001 -0.69599998 23 0 0
3.6300001 0.40700001 -0.69199997 30 0 0
3.638 0.40599999 -0.68800002 39 0 0
3.645 0.405 -0.68300003 47 0 0
3.6500001 0.403 -0.67799997 54 0 0
3.6570001 0.40200001 -0.67400002 61 0 0
3.6589999 0.40099999 -0.66799998 63 0 0
3.6559999 0.398 -0.662 68 0 0
3.6619999 0.39700001 -0.65700001 63 0 0
3.664 0.39500001 -0.65100002 65 0 0
3.665 0.39300001 -0.64499998 62 0 0
3.6659999 0.391 -0.63999999 60 0 0
3.6659999 0.389 -0.63300002 61 0 0
3.6589999 0.38600001 -0.62599999 56 0 0
3.665 0.38499999 -0.62099999 59 0 0
3.6719999 0.38299999 -0.616 61 0 0
3.6730001 0.38100001 -0.61000001 60 0 0
3.674 0.37900001 -0.60399997 60 0 0
3.6700001 0.37599999 -0.597 59 0 0
3.671 0.37400001 -0.59200001 59 0 0
3.675 0.373 -0.58600003 61 0 0
3.678 0.37 -0.57999998 62 0 0
3.6800001 0.368 -0.574 62 0 0
3.681 0.366 -0.56800002 62 0 0
3.6800001 0.36300001 -0.56199998 61 0 0
3.6830001 0.361 -0.55599999 62 0 0
3.6760001 0.35800001 -0.54900002 66 0 0
3.4879999 0.33700001 -0.51499999 5 0 0
3.217 0.30899999 -0.46900001 20 0 0
3.145 0.30000001 -0.45300001 26 0 0
3.0929999 0.29300001 -0.44100001 49 0 0
3.0569999 0.287 -0.43000001 90 0 0
3.039 0.28299999 -0.42199999 100 0 0
3.0039999 0.278 -0.412 131 0 0
2.973 0.273 -0.403 150 0 0
2.974 0.27000001 -0.398 150 0 0
2.9749999 0.26800001 -0.39300001 150 0 0
2.9749999 0.266 -0.38800001 150 0 0
2.974 0.264 -0.382 150 0 0
2.9749999 0.26100001 -0.377 150 0 0
2.9790001 0.259 -0.373 129 0 0
2.984 0.257 -0.368 111 0 0
2.9849999 0.255 -0.36300001 94 0 0
2.9960001 0.25400001 -0.359 62 0 0
2.994 0.25099999 -0.354 46 0 0
3.013 0.25 -0.34999999 25 0 0
3.036 0.25 -0.34799999 16 0 0
3.0510001 0.248 -0.34400001 17 0 0
3.066 0.24699999 -0.34 17 0 0
3.0829999 0.24600001 -0.33700001 18 0 0
3.112 0.245 -0.33399999 16 0 0
3.1329999 0.244 -0.331 18 0 0
3.145 0.242 -0.32699999 17 0 0
3.1700001 0.241 -0.324 19 0 0
3.1900001 0.23999999 -0.31999999 16 0 0
3.2060001 0.23800001 -0.31600001 18 0 0
3.221 0.237 -0.31200001 18 0 0
3.2409999 0.235 -0.308 15 0 0
3.2579999 0.233 -0.30399999 15 0 0
3.277 0.23199999 -0.30000001 13 0 0
3.3069999 0.23100001 -0.29699999 13 0 0
3.3340001 0.229 -0.29300001 13 0 0
3.3599999 0.228 -0.289 13 0 0
3.381 0.226 -0.285 14 0 0
3.4119999 0.22499999 -0.28200001 15 0 0
3.4330001 0.223 -0.27700001 15 0 0
3.4549999 0.221 -0.273 15 0 0
3.4849999 0.219 -0.26899999 15 0 0
3.5109999 0.21799999 -0.26499999 16 0 0
3.54 0.21600001 -0.26100001 17 0 0
3.5680001 0.214 -0.257 20 0 0
3.5940001 0.212 -0.252 22 0 0
3.6240001 0.20999999 -0.248 22 0 0
3.654 0.208 -0.243 19 0 0
3.6819999 0.206 -0.23899999 13 0 0
0 0 0 0 0 0
0 0 0 0 0 0
0 0 0 0 0 0
5.1100001 0.264 -0.29499999 124 0 0
5.6500001 0.28600001 -0.31600001 150 0 0
5.6609998 0.28099999 -0.30700001 150 0 0
5.698 0.27599999 -0.29899999 150 0 0
5.677 0.26899999 -0.28799999 150 0 0
5.6950002 0.26300001 -0.27900001 145 0 0
5.6599998 0.25600001 -0.26699999 150 0 0
5.7129998 0.25099999 -0.259 150 0 0
5.7119999 0.245 -0.249 146 0 0
5.7030001 0.23800001 -0.23899999 150 0 0
5.6830001 0.23100001 -0.228 144 0 0
5.6880002 0.22499999 -0.21799999 144 0 0
5.691 0.21799999 -0.208 150 0 0
5.6609998 0.20999999 -0.197 150 0 0
5.6849999 0.205 -0.18799999 144 0 0
5.6999998 0.199 -0.17900001 150 0 0
5.691 0.191 -0.168 88 0 0
5.75 0.18700001 -0.16 62 0 0
5.7729998 0.18000001 -0.15000001 32 0 0
5.8150001 0.175 -0.142 12 0 0
5.9450002 0.17200001 -0.13500001 8 0 0
6.0279999 0.167 -0.126 8 0 0
6.0479999 0.16 -0.116 8 0 0
6.0809999 0.154 -0.106 8 0 0
6.112 0.147 -0.096000001 8 0 0
6.1279998 0.14 -0.086000003 8 0 0
6.1599998 0.133 -0.075999998 8 0 0
6.2069998 0.126 -0.066 8 0 0
6.2480001 0.119 -0.055 8 0 0
6.283 0.112 -0.045000002 8 0 0
6.3260002 0.105 -0.035 14 0 0
6.3060002 0.096000001 -0.023 26 0 0
6.2950001 0.088 -0.013 22 0 0
0 0 0 0 0 0
3.8800001 0.044 0.0049999999 3 0 0
3.892 0.039000001 0.011 16 0 0
3.8859999 0.034000002 0.017999999 28 0 0
3.875 0.028999999 0.024 38 0 0
3.8540001 0.024 0.029999999 51 0 0
3.842 0.018999999 0.037 70 0 0
3.8310001 0.014 0.043000001 90 0 0
3.8199999 0.0089999996 0.048999999 84 0 0
3.8 0.003 0.055 78 0 0
3.79 -0.001 0.061000001 104 0 0
3.779 -0.0060000001 0.067000002 150 0 0
3.776 -0.011 0.074000001 150 0 0
3.777 -0.016000001 0.079999998 150 0 0
3.7750001 -0.021 0.086000003 150 0 0
3.7780001 -0.026000001 0.092 150 0 0
3.7909999 -0.030999999 0.098999999 82 0 0
3.7880001 -0.037 0.105 60 0 0
3.8010001 -0.041999999 0.111 50 0 0
3.799 -0.046999998 0.117 50 0 0
3.799 -0.052000001 0.123 53 0 0
3.8010001 -0.057999998 0.13 50 0 0
3.8 -0.063000001 0.13600001 53 0 0
3.799 -0.068000004 0.142 53 0 0
3.799 -0.072999999 0.148 53 0 0
3.799 -0.079000004 0.154 53 0 0
3.799 -0.083999999 0.16 50 0 0
3.799 -0.089000002 0.16500001 53 0 0
3.7969999 -0.094999999 0.171 53 0 0
3.8139999 -0.101 0.178 57 0 0
3.799 -0.105 0.183 60 0 0
3.8150001 -0.112 0.19 61 0 0
3.7980001 -0.116 0.19499999 56 0 0
3.7969999 -0.122 0.20100001 60 0 0
3.816 -0.12800001 0.207 61 0 0
3.8150001 -0.133 0.213 50 0 0
3.8169999 -0.139 0.219 50 0 0
3.8169999 -0.145 0.22499999 61 0 0
3.816 -0.15000001 0.23100001 61 0 0
3.813 -0.155 0.236 61 0 0
3.823 -0.161 0.243 40 0 0
3.8239999 -0.167 0.248 40 0 0
3.8269999 -0.17299999 0.25400001 51 0 0
3.823 -0.178 0.259 51 0 0
3.822 -0.184 0.26499999 48 0 0
3.8210001 -0.189 0.27000001 51 0 0
3.8269999 -0.19499999 0.27599999 54 0 0
3.8299999 -0.20100001 0.28200001 48 0 0
3.829 -0.207 0.28799999 48 0 0
3.8269999 -0.212 0.29300001 48 0 0
3.8280001 -0.21799999 0.29800001 51 0 0
3.8269999 -0.22400001 0.30399999 48 0 0
3.836 -0.23 0.31 48 0 0
3.832 -0.235 0.315 54 0 0
3.835 -0.241 0.32100001 45 0 0
3.8340001 -0.24699999 0.32600001 48 0 0
3.8340001 -0.25299999 0.331 45 0 0
3.8329999 -0.25799999 0.33700001 45 0 0
3.8310001 -0.264 0.34200001 48 0 0
3.8310001 -0.27000001 0.347 45 0 0
3.8299999 -0.27599999 0.352 45 0 0
3.8310001 -0.28099999 0.35699999 48 0 0
3.8340001 -0.28799999 0.36300001 43 0 0
3.8369999 -0.29300001 0.368 43 0 0
3.836 -0.29899999 0.373 43 0 0
3.835 -0.30500001 0.37799999 43 0 0
3.835 -0.31099999 0.38299999 40 0 0
3.8380001 -0.317 0.389 46 0 0
3.8329999 -0.322 0.39300001 43 0 0
3.8340001 -0.32800001 0.398 51 0 0
3.8369999 -0.33399999 0.403 46 0 0
3.8340001 -0.34 0.40799999 46 0 0
3.835 -0.34599999 0.41299999 46 0 0
3.8340001 -0.35100001 0.41800001 46 0 0
3.8310001 -0.35699999 0.42199999 51 0 0
3.835 -0.36300001 0.42699999 52 0 0
3.8340001 -0.36899999 0.43200001 52 0 0
3.832 -0.375 0.43700001 52 0 0
3.8410001 -0.38100001 0.442 49 0 0
3.8380001 -0.38699999 0.447 49 0 0
3.8410001 -0.39300001 0.45199999 49 0 0
3.836 -0.398 0.456 49 0 0
3.8369999 -0.40400001 0.46000001 52 0 0
3.842 -0.41100001 0.465 52 0 0
3.8369999 -0.41600001 0.46900001 52 0 0
3.842 -0.42199999 0.47499999 46 0 0
3.835 -0.42699999 0.47799999 52 0 0
3.836 -0.433 0.48300001 52 0 0
3.839 -0.43900001 0.48699999 46 0 0
3.839 -0.44499999 0.49200001 49 0 0
3.8369999 -0.45100001 0.49599999 52 0 0
3.836 -0.456 0.5 49 0 0
3.8369999 -0.46200001 0.505 52 0 0
3.836 -0.46799999 0.509 52 0 0
3.842 -0.47499999 0.514 39 0 0
3.839 -0.47999999 0.51700002 46 0 0
3.8429999 -0.486 0.52200001 46 0 0
3.8410001 -0.49200001 0.52600002 46 0 0
3.8399999 -0.498 0.52999997 46 0 0
3.842 -0.50400001 0.53399998 46 0 0
3.842 -0.509 0.53799999 49 0 0
3.839 -0.51499999 0.542 53 0 0
3.8380001 -0.51999998 0.546 46 0 0
3.8399999 -0.52600002 0.55000001 53 0 0
3.8440001 -0.53299999 0.55400002 53 0 0
3.8380001 -0.537 0.55699998 53 0 0
3.836 -0.54299998 0.56099999 53 0 0
3.8340001 -0.54799998 0.56400001 53 0 0
3.842 -0.55500001 0.56900001 53 0 0
3.8410001 -0.56099999 0.57300001 50 0 0
3.846 -0.56699997 0.57700002 47 0 0
3.8340001 -0.57099998 0.579 50 0 0
3.842 -0.57800001 0.58399999 44 0 0
3.8399999 -0.583 0.58700001 44 0 0
3.839 -0.58899999 0.59100002 44 0 0
3.8399999 -0.59399998 0.59399998 47 0 0
3.8440001 -0.60100001 0.59899998 50 0 0
3.8429999 -0.60600001 0.602 47 0 0
3.8429999 -0.61199999 0.60500002 47 0 0
3.842 -0.61699998 0.60900003 47 0 0
3.8410001 -0.62199998 0.61199999 50 0 0
3.8410001 -0.62800002 0.61500001 47 0 0
3.839 -0.63300002 0.61799997 50 0 0
3.8369999 -0.63800001 0.62099999 50 0 0
3.8369999 -0.64399999 0.62400001 47 0 0
3.8410001 -0.64999998 0.62800002 50 0 0
3.8329999 -0.65399998 0.63 50 0 0
3.832 -0.65899998 0.63300002 61 0 0
3.8340001 -0.66500002 0.63599998 61 0 0
3.8340001 -0.67000002 0.639 65 0 0
3.8269999 -0.67400002 0.64099997 69 0 0
3.829 -0.68000001 0.64499998 57 0 0
3.8210001 -0.68400002 0.64600003 64 0 0
3.825 -0.69 0.64999998 65 0 0
3.8180001 -0.69400001 0.65100002 64 0 0
3.812 -0.69800001 0.653 57 0 0
3.8099999 -0.70300001 0.65600002 60 0 0
3.803 -0.70700002 0.65700001 53 0 0
3.7969999 -0.71100003 0.65899998 47 0 0
3.7869999 -0.71399999 0.66000003 64 0 0
3.7809999 -0.71799999 0.66100001 52 0 0
3.7709999 -0.722 0.662 56 0 0
3.773 -0.727 0.66500002 52 0 0
3.7620001 -0.73000002 0.66600001 59 0 0
3.7620001 -0.73500001 0.66799998 59 0 0
3.7520001 -0.73799998 0.66900003 52 0 0
3.7449999 -0.741 0.67000002 52 0 0
3.7390001 -0.745 0.671 52 0 0
3.737 -0.74900001 0.67299998 51 0 0
3.7279999 -0.75300002 0.67400002 48 0 0
3.727 -0.75700003 0.676 48 0 0
3.724 -0.76200002 0.67799997 48 0 0
3.721 -0.76599997 0.68000001 48 0 0
3.7149999 -0.76899999 0.68099999 54 0 0
3.7130001 -0.773 0.68199998 54 0 0
3.7119999 -0.778 0.68400002 51 0 0
3.7049999 -0.78100002 0.685 58 0 0
3.6919999 -0.78299999 0.68400002 57 0 0
3.6849999 -0.78600001 0.685 61 0 0
3.6900001 -0.79100001 0.68800002 48 0 0
3.6819999 -0.79400003 0.68900001 61 0 0
3.681 -0.79799998 0.69 54 0 0
3.6719999 -0.801 0.69 61 0 0
3.668 -0.80500001 0.69099998 57 0 0
3.6670001 -0.80900002 0.69300002 53 0 0
3.6670001 -0.81300002 0.69499999 57 0 0
3.664 -0.81699997 0.69599998 53 0 0
3.6470001 -0.81699997 0.69400001 47 0 0
3.6459999 -0.82099998 0.69599998 47 0 0
3.645 -0.82499999 0.69700003 47 0 0
3.638 -0.82800001 0.69700003 60 0 0
3.6370001 -0.83200002 0.69800001 60 0 0
3.6359999 -0.83499998 0.69999999 56 0 0
3.6329999 -0.83899999 0.70099998 60 0 0
3.6259999 -0.84100002 0.70099998 56 0 0
3.6270001 -0.84500003 0.70200002 56 0 0
3.619 -0.847 0.70200002 59 0 0
3.622 -0.852 0.704 52 0 0
3.619 -0.85500002 0.70499998 56 0 0
3.615 -0.85799998 0.70499998 56 0 0
3.6129999 -0.861 0.70599997 59 0 0
3.6099999 -0.86500001 0.70599997 59 0 0
3.6099999 -0.86900002 0.708 59 0 0
3.608 -0.87199998 0.708 59 0 0
3.5969999 -0.87300003 0.70700002 63 0 0
3.5869999 -0.87400001 0.70599997 38 0 0
3.5610001 -0.87099999 0.70200002 3 0 0
3.5120001 -0.86299998 0.69300002 3 0 0
3.4749999 -0.85699999 0.68699998 3 0 0
3.473 -0.86000001 0.68800002 3 0 0
3.487 -0.86699998 0.69099998 3 0 0
3.5350001 -0.88200003 0.70099998 3 0 0
3.573 -0.89499998 0.70999998 43 0 0
3.586 -0.90200001 0.713 52 0 0
3.586 -0.90499997 0.71399999 59 0 0
3.5810001 -0.90700001 0.71399999 67 0 0
3.4960001 -0.889 0.69700003 3 0 0
3.369 -0.85900003 0.67299998 3 0 0
3.2880001 -0.84200001 0.65700001 3 0 0
3.2690001 -0.83999997 0.65399998 3 0 0
3.3410001 -0.861 0.66900003 3 0 0
3.3610001 -0.86900002 0.67299998 3 0 0
3.5280001 -0.91500002 0.70700002 3 0 0
3.573 -0.93000001 0.71700001 67 0 0
3.5769999 -0.93400002 0.71799999 59 0 0
3.576 -0.93699998 0.71799999 59 0 0
3.5780001 -0.94 0.71899998 55 0 0
3.572 -0.94199997 0.71799999 59 0 0
3.5710001 -0.94400001 0.71799999 59 0 0
3.573 -0.94700003 0.71799999 59 0 0
3.572 -0.94999999 0.71799999 59 0 0
3.5710001 -0.95200002 0.71899998 59 0 0
3.5780001 -0.95700002 0.72000003 63 0 0
3.5710001 -0.958 0.71899998 55 0 0
3.572 -0.96100003 0.71899998 55 0 0
3.572 -0.963 0.71899998 55 0 0
3.5739999 -0.96600002 0.71899998 67 0 0
3.576 -0.96899998 0.72000003 59 0 0
3.5780001 -0.972 0.72000003 59 0 0
3.5650001 -0.97100002 0.71799999 63 0 0
3.575 -0.97600001 0.72000003 63 0 0
3.5780001 -0.97899997 0.72000003 63 0 0
3.576 -0.98100001 0.71899998 59 0 0
3.576 -0.98299998 0.71899998 59 0 0
3.573 -0.98500001 0.71899998 59 0 0
3.5780001 -0.98799998 0.71899998 56 0 0
3.5780001 -0.99000001 0.71899998 52 0 0
3.5799999 -0.99299997 0.71899998 52 0 0
3.5780001 -0.99400002 0.71799999 56 0 0
3.5769999 -0.99599999 0.71799999 59 0 0
3.582 -0.99900001 0.71799999 56 0 0
3.5840001 -1.002 0.71799999 56 0 0
3.589 -1.005 0.71899998 56 0 0
3.585 -1.006 0.71799999 56 0 0
3.5869999 -1.008 0.71700001 49 0 0
3.5880001 -1.01 0.71700001 56 0 0
3.589 -1.012 0.71700001 56 0 0
3.5869999 -1.013 0.71600002 60 0 0
3.592 -1.016 0.71600002 53 0 0
3.592 -1.018 0.71499997 47 0 0
3.6059999 -1.023 0.71700001 53 0 0
3.592 -1.021 0.71399999 53 0 0
3.608 -1.027 0.71600002 61 0 0
3.6070001 -1.028 0.71499997 57 0 0
3.6099999 -1.03 0.71499997 57 0 0
3.6070001 -1.031 0.713 61 0 0
3.6140001 -1.034 0.71399999 50 0 0
3.6170001 -1.036 0.71399999 50 0 0
3.6170001 -1.0369999 0.713 61 0 0
3.6170001 -1.038 0.71200001 61 0 0
3.632 -1.044 0.71399999 51 0 0
3.6329999 -1.045 0.713 51 0 0
3.6329999 -1.046 0.71200001 54 0 0
3.6370001 -1.048 0.71100003 54 0 0
3.635 -1.049 0.70999998 54 0 0
3.6400001 -1.051 0.70999998 48 0 0
3.6440001 -1.053 0.70899999 48 0 0
3.6440001 -1.054 0.708 48 0 0
3.6440001 -1.054 0.70700002 48 0 0
3.6459999 -1.056 0.70599997 48 0 0
3.6470001 -1.057 0.70499998 51 0 0
3.655 -1.0599999 0.70499998 43 0 0
3.6559999 -1.0599999 0.704 52 0 0
3.6559999 -1.061 0.70300001 52 0 0
3.6630001 -1.063 0.70200002 52 0 0
3.668 -1.0650001 0.70200002 49 0 0
3.6689999 -1.066 0.69999999 52 0 0
3.677 -1.069 0.70099998 55 0 0
3.681 -1.0700001 0.69999999 52 0 0
3.681 -1.0700001 0.69800001 52 0 0
3.687 -1.072 0.69800001 52 0 0
3.688 -1.073 0.69599998 52 0 0
3.6900001 -1.074 0.69499999 59 0 0
3.6949999 -1.075 0.69400001 64 0 0
3.7 -1.076 0.69400001 53 0 0
3.7079999 -1.079 0.69300002 47 0 0
3.7090001 -1.079 0.69199997 47 0 0
3.7149999 -1.081 0.69099998 57 0 0
3.7149999 -1.081 0.68900001 57 0 0
3.7149999 -1.08 0.68699998 57 0 0
3.7260001 -1.0829999 0.68699998 53 0 0
3.7260001 -1.0829999 0.685 53 0 0
3.734 -1.085 0.685 61 0 0
3.734 -1.085 0.68300003 65 0 0
3.7379999 -1.085 0.68199998 57 0 0
3.743 -1.086 0.68099999 65 0 0
3.7460001 -1.086 0.67900002 57 0 0
3.7520001 -1.0880001 0.67799997 61 0 0
3.753 -1.087 0.676 61 0 0
3.76 -1.0880001 0.67500001 54 0 0
3.7650001 -1.089 0.67400002 58 0 0
3.7639999 -1.0880001 0.67199999 58 0 0
3.77 -1.089 0.671 51 0 0
3.7739999 -1.089 0.66900003 51 0 0
3.776 -1.089 0.667 45 0 0
3.7809999 -1.089 0.66500002 48 0 0
3.777 -1.087 0.662 48 0 0
3.78 -1.087 0.66100001 46 0 0
3.777 -1.085 0.65799999 45 0 0
3.776 -1.0829999 0.65499997 45 0 0
3.78 -1.0829999 0.65399998 48 0 0
3.776 -1.081 0.64999998 45 0 0
3.7739999 -1.079 0.648 40 0 0
3.776 -1.0779999 0.64499998 40 0 0
3.7739999 -1.076 0.64200002 40 0 0
3.7739999 -1.075 0.63999999 40 0 0
3.777 -1.074 0.63800001 45 0 0
3.776 -1.072 0.63499999 40 0 0
3.777 -1.071 0.63300002 40 0 0
3.7720001 -1.068 0.62900001 38 0 0
3.777 -1.067 0.62699997 40 0 0
3.7709999 -1.064 0.62400001 45 0 0
3.7780001 -1.064 0.62199998 40 0 0
3.773 -1.061 0.61900002 45 0 0
3.7720001 -1.058 0.616 45 0 0
3.7739999 -1.057 0.61400002 48 0 0
3.773 -1.0549999 0.611 45 0 0
3.776 -1.054 0.60799998 45 0 0
3.7709999 -1.05 0.60500002 42 0 0
3.773 -1.049 0.602 45 0 0
3.7739999 -1.0470001 0.60000002 42 0 0
3.7690001 -1.043 0.59600002 48 0 0
3.7709999 -1.0420001 0.59399998 42 0 0
3.7720001 -1.039 0.59100002 42 0 0
3.7679999 -1.036 0.58700001 47 0 0
3.77 -1.034 0.58499998 50 0 0
3.7620001 -1.029 0.57999998 42 0 0
3.694 -1.008 0.56699997 3 0 0
3.0120001 -0.81999999 0.46000001 5 0 0
2.832 -0.76899999 0.43000001 15 0 0
2.7579999 -0.74699998 0.417 30 0 0
2.7019999 -0.73000002 0.40599999 52 0 0
2.6619999 -0.71700001 0.398 60 0 0
2.5480001 -0.685 0.37900001 61 0 0
2.5439999 -0.68199998 0.37599999 66 0 0
2.5380001 -0.67799997 0.373 66 0 0
2.5350001 -0.67500001 0.37099999 59 0 0
2.529 -0.67199999 0.368 54 0 0
2.4909999 -0.66000003 0.36000001 44 0 0
2.444 -0.64499998 0.35100001 37 0 0
2.4430001 -0.64300001 0.34900001 35 0 0
2.4330001 -0.63800001 0.34599999 27 0 0
2.4360001 -0.63700002 0.34400001 21 0 0
2.461 -0.64099997 0.345 13 0 0
2.4879999 -0.64600003 0.347 9 0 0
2.493 -0.64499998 0.34599999 8 0 0
2.487 -0.64200002 0.34299999 7 0 0
2.4719999 -0.63499999 0.338 5 0 0
2.4430001 -0.62599999 0.33199999 3 0 0
0 0 0 0 0 0
0 0 0 0 0 0
2.3510001 -0.59600002 0.31400001 1 0 0
2.3529999 -0.59399998 0.31200001 1 0 0
2.3570001 -0.59299999 0.31 1 0 0
2.365 -0.59200001 0.30899999 1 0 0
2.3659999 -0.58999997 0.30700001 1 0 0
2.378 -0.59100002 0.30700001 1 0 0
3.4530001 -0.85399997 0.44299999 1 0 0
3.516 -0.866 0.44800001 1 0 0
3.4820001 -0.85399997 0.44 1 0 0
3.4890001 -0.852 0.43799999 1 0 0
3.391 -0.82499999 0.42300001 1 0 0
3.5139999 -0.85100001 0.435 1 0 0
3.4779999 -0.838 0.42699999 1 0 0
3.4749999 -0.83399999 0.42399999 1 0 0
3.3959999 -0.81099999 0.41100001 1 0 0
3.473 -0.82599998 0.417 1 0 0
3.4449999 -0.815 0.41100001 1 0 0
3.47 -0.81699997 0.41100001 1 0 0
3.529 -0.82700002 0.414 1 0 0
3.4360001 -0.801 0.40000001 1 0 0
3.474 -0.80599999 0.40099999 1 0 0
3.4630001 -0.79900002 0.39700001 1 0 0
3.494 -0.80199999 0.39700001 1 0 0
3.473 -0.79299998 0.39199999 1 0 0
3.546 -0.80599999 0.39700001 1 0 0
3.474 -0.78500003 0.38600001 1 0 0
3.497 -0.78600001 0.38499999 1 0 0
3.5139999 -0.78500003 0.384 1 0 0
3.454 -0.76700002 0.37400001 1 0 0
3.4790001 -0.76800001 0.373 1 0 0
3.4690001 -0.76200002 0.36899999 1 0 0
3.51 -0.76599997 0.37 1 0 0
3.4949999 -0.75800002 0.36500001 1 0 0
3.5009999 -0.755 0.36300001 1 0 0
3.473 -0.74400002 0.35600001 1 0 0
3.4920001 -0.74400002 0.35499999 1 0 0
3.5539999 -0.75199997 0.35800001 1 0 0
3.5439999 -0.745 0.354 1 0 0
3.507 -0.73299998 0.347 1 0 0
3.4849999 -0.72299999 0.34200001 1 0 0
3.4460001 -0.71100003 0.33500001 1 0 0
3.4960001 -0.71600002 0.336 1 0 0
3.4979999 -0.71200001 0.333 1 0 0
3.5369999 -0.71399999 0.333 1 0 0
3.4920001 -0.69999999 0.32600001 1 0 0
3.4820001 -0.69300002 0.322 1 0 0
3.4909999 -0.69 0.31999999 1 0 0
3.589 -0.704 0.32499999 1 0 0
3.704 -0.72100002 0.33199999 3 0 0
3.7160001 -0.71799999 0.33000001 3 0 0
3.5639999 -0.68400002 0.31299999 3 0 0
3.562 -0.67799997 0.31 3 0 0
3.5669999 -0.67400002 0.30700001 3 0 0
3.602 -0.67500001 0.30599999 3 0 0
3.664 -0.68099999 0.308 3 0 0
3.717 -0.685 0.30899999 4 0 0
3.743 -0.68400002 0.308 39 0 0
3.744 -0.67799997 0.30500001 39 0 0
3.76 -0.676 0.303 40 0 0
3.747 -0.667 0.29800001 39 0 0
3.744 -0.66100001 0.29499999 47 0 0
3.7490001 -0.65600002 0.292 39 0 0
3.7509999 -0.64999998 0.28799999 39 0 0
3.7479999 -0.64399999 0.285 39 0 0
3.7490001 -0.63800001 0.28099999 39 0 0
3.7449999 -0.63099998 0.278 50 0 0
3.7479999 -0.62599999 0.27500001 47 0 0
3.757 -0.62099999 0.27200001 37 0 0
3.7579999 -0.61500001 0.26899999 35 0 0
3.7479999 -0.60699999 0.26499999 47 0 0
3.75 -0.60100001 0.26100001 50 0 0
3.7479999 -0.59500003 0.25799999 47 0 0
3.7420001 -0.58700001 0.25400001 50 0 0
3.753 -0.583 0.252 47 0 0
3.7460001 -0.57499999 0.248 50 0 0
3.747 -0.56900001 0.245 47 0 0
3.7490001 -0.56300002 0.241 50 0 0
3.7479999 -0.55699998 0.23800001 47 0 0
3.7490001 -0.55000001 0.235 47 0 0
3.75 -0.54400003 0.23199999 47 0 0
3.7479999 -0.537 0.229 49 0 0
3.7479999 -0.53100002 0.22499999 49 0 0
3.7490001 -0.52499998 0.222 44 0 0
3.7479999 -0.51800001 0.219 44 0 0
3.7449999 -0.51099998 0.21600001 44 0 0
3.75 -0.505 0.213 46 0 0
3.753 -0.498 0.20999999 46 0 0
3.7479999 -0.491 0.206 46 0 0
3.7539999 -0.48500001 0.204 49 0 0
3.75 -0.47799999 0.2 46 0 0
3.7509999 -0.47099999 0.197 44 0 0
3.7579999 -0.465 0.19400001 46 0 0
3.7460001 -0.45699999 0.191 52 0 0
3.7490001 -0.45100001 0.18799999 49 0 0
3.747 -0.44299999 0.185 46 0 0
3.7460001 -0.43599999 0.182 56 0 0
3.7490001 -0.43000001 0.17900001 46 0 0
3.75 -0.42300001 0.176 46 0 0
3.753 -0.417 0.17299999 43 0 0
3.7590001 -0.41 0.17 44 0 0
3.7539999 -0.403 0.167 46 0 0
3.75 -0.39500001 0.164 46 0 0
3.75 -0.38800001 0.161 46 0 0
3.7509999 -0.38100001 0.15800001 46 0 0
3.7490001 -0.373 0.155 52 0 0
3.7490001 -0.366 0.152 49 0 0
3.756 -0.36000001 0.15000001 49 0 0
3.7509999 -0.352 0.147 49 0 0
3.7550001 -0.345 0.14399999 52 0 0
3.753 -0.338 0.141 52 0 0
3.7509999 -0.331 0.139 49 0 0
3.757 -0.324 0.13600001 52 0 0
3.7550001 -0.31600001 0.133 46 0 0
3.7579999 -0.30899999 0.131 52 0 0
3.7539999 -0.30199999 0.12800001 52 0 0
3.7620001 -0.29499999 0.125 49 0 0
3.7539999 -0.287 0.122 63 0 0
3.7550001 -0.28 0.12 67 0 0
3.753 -0.27200001 0.117 81 0 0
3.7509999 -0.264 0.114 92 0 0
3.7520001 -0.257 0.112 94 0 0
3.7490001 -0.249 0.109 97 0 0
3.7579999 -0.242 0.107 126 0 0
3.757 -0.235 0.104 150 0 0
3.7550001 -0.227 0.102 150 0 0
3.756 -0.22 0.098999999 150 0 0
3.756 -0.212 0.097000003 150 0 0
3.757 -0.205 0.094999999 150 0 0
3.7579999 -0.197 0.092 150 0 0
3.7590001 -0.19 0.090000004 150 0 0
3.7579999 -0.182 0.088 150 0 0
3.7590001 -0.17399999 0.085000001 150 0 0
3.7590001 -0.167 0.082999997 150 0 0
3.76 -0.15899999 0.081 150 0 0
3.7650001 -0.152 0.078000002 150 0 0
3.7639999 -0.14399999 0.075999998 146 0 0
3.7739999 -0.13699999 0.074000001 121 0 0
3.7739999 -0.12899999 0.071999997 111 0 0
3.7780001 -0.121 0.07 97 0 0
3.7639999 -0.113 0.067000002 89 0 0
3.7709999 -0.106 0.064999998 77 0 0
3.7750001 -0.097999997 0.063000001 72 0 0
3.7809999 -0.090000004 0.061000001 72 0 0
3.796 -0.082999997 0.059999999 73 0 0
3.8050001 -0.075000003 0.057999998 68 0 0
3.8099999 -0.068000004 0.056000002 69 0 0
3.816 -0.059999999 0.054000001 64 0 0
3.819 -0.052000001 0.052000001 73 0 0
3.8210001 -0.044 0.050000001 79 0 0
3.8280001 -0.035999998 0.048 74 0 0
3.825 -0.028000001 0.046 65 0 0
3.822 -0.02 0.044 74 0 0
3.835 -0.012 0.043000001 57 0 0
3.8329999 -0.0040000002 0.041000001 65 0 0
3.835 0.003 0.039000001 69 0 0
3.8429999 0.011 0.037 61 0 0
3.846 0.018999999 0.035999998 58 0 0
3.852 0.027000001 0.034000002 51 0 0
3.852 0.035 0.032000002 48 0 0
3.8599999 0.043000001 0.030999999 40 0 0
3.865 0.050999999 0.028999999 40 0 0
3.8610001 0.059 0.027000001 40 0 0
3.8659999 0.067000002 0.026000001 38 0 0
3.8800001 0.075999998 0.024 34 0 0
3.8829999 0.083999999 0.023 34 0 0
3.885 0.092 0.021 34 0 0
3.8900001 0.101 0.02 29 0 0
3.8959999 0.109 0.017999999 31 0 0
3.8970001 0.117 0.017000001 28 0 0
0 0 0 0 0 0
0 0 0 0 0 0
0 0 0 0 0 0
0 0 0 0 0 0
0 0 0 0 0 0
0 0 0 0 0 0
0 0 0 0 0 0
0 0 0 0 0 0
0 0 0 0 0 0
0 0 0 0 0 0
0 0 0 0 0 0
0 0 0 0 0 0
3.6989999 0.212 0 12 0 0
3.6400001 0.21600001 0 15 0 0
3.5769999 0.22 -0.001 14 0 0
3.52 0.22400001 -0.0020000001 15 0 0
3.473 0.229 -0.003 15 0 0
3.4300001 0.233 -0.0040000002 14 0 0
3.3670001 0.236 -0.0040000002 14 0 0
3.323 0.23999999 -0.0049999999 19 0 0
3.2839999 0.244 -0.0060000001 18 0 0
3.2390001 0.24699999 -0.0060000001 17 0 0
3.2060001 0.25099999 -0.0070000002 16 0 0
3.161 0.25400001 -0.0080000004 16 0 0
3.1070001 0.25600001 -0.0080000004 31 0 0
3.0869999 0.26100001 -0.0089999996 62 0 0
3.0780001 0.26699999 -0.0089999996 90 0 0
3.0780001 0.273 -0.0099999998 90 0 0
3.0799999 0.28 -0.0099999998 81 0 0
3.1849999 0.296 -0.011 65 0 0
3.381 0.32100001 -0.012 13 0 0
3.8340001 0.373 -0.015 40 0 0
3.8380001 0.38100001 -0.015 43 0 0
3.836 0.389 -0.016000001 38 0 0
3.836 0.396 -0.016000001 36 0 0
3.8399999 0.405 -0.017000001 43 0 0
3.835 0.412 -0.017000001 48 0 0
3.8329999 0.41999999 -0.017999999 43 0 0
3.8050001 0.42500001 -0.017999999 22 0 0
3.766 0.428 -0.017999999 20 0 0
3.7290001 0.43099999 -0.017999999 19 0 0
3.704 0.43599999 -0.018999999 18 0 0
3.6730001 0.44 -0.018999999 18 0 0
3.6300001 0.442 -0.018999999 20 0 0
3.609 0.447 -0.018999999 21 0 0
3.5840001 0.45100001 -0.018999999 20 0 0
3.55 0.454 -0.018999999 20 0 0
3.53 0.458 -0.018999999 19 0 0
3.494 0.461 -0.018999999 20 0 0
3.4690001 0.465 -0.018999999 19 0 0
3.4419999 0.46799999 -0.018999999 19 0 0
3.421 0.472 -0.018999999 17 0 0
3.4059999 0.47600001 -0.018999999 19 0 0
3.3770001 0.479 -0.018999999 19 0 0
3.349 0.48199999 -0.017999999 19 0 0
3.325 0.48500001 -0.017999999 19 0 0
3.296 0.48699999 -0.017999999 19 0 0
3.279 0.491 -0.017999999 18 0 0
3.253 0.49399999 -0.017999999 18 0 0
3.2290001 0.49700001 -0.017000001 19 0 0
3.2060001 0.49900001 -0.017000001 20 0 0
3.181 0.50199997 -0.017000001 18 0 0
3.164 0.505 -0.017000001 17 0 0
3.1370001 0.50700003 -0.016000001 20 0 0
3.118 0.50999999 -0.016000001 20 0 0
3.0999999 0.51300001 -0.016000001 16 0 0
3.0650001 0.51300001 -0.015 19 0 0
3.0450001 0.51599997 -0.015 18 0 0
3.023 0.51800001 -0.015 18 0 0
3.007 0.52100003 -0.014 19 0 0
2.9890001 0.523 -0.014 19 0 0
2.9719999 0.52600002 -0.014 17 0 0
2.9489999 0.52700001 -0.013 19 0 0
2.9400001 0.53100002 -0.013 20 0 0
2.9089999 0.53100002 -0.012 19 0 0
2.8940001 0.53399998 -0.012 20 0 0
2.875 0.53600001 -0.011 19 0 0
2.8559999 0.53799999 -0.011 19 0 0
2.8440001 0.54100001 -0.011 20 0 0
2.8310001 0.54400003 -0.0099999998 20 0 0
2.816 0.546 -0.0099999998 19 0 0
2.8039999 0.54900002 -0.0089999996 20 0 0
2.786 0.55000001 -0.0089999996 19 0 0
2.7709999 0.55199999 -0.0080000004 20 0 0
2.756 0.55400002 -0.0080000004 20 0 0
2.7409999 0.55599999 -0.0070000002 21 0 0
2.7260001 0.55800003 -0.0070000002 21 0 0
2.717 0.56099999 -0.0060000001 23 0 0
2.6930001 0.56099999 -0.0049999999 21 0 0
2.681 0.56300002 -0.0049999999 20 0 0
2.668 0.565 -0.0040000002 21 0 0
2.652 0.56699997 -0.0040000002 20 0 0
2.638 0.56800002 -0.003 21 0 0
2.622 0.56999999 -0.003 20 0 0
2.6110001 0.57200003 -0.0020000001 20 0 0
2.5969999 0.57300001 -0.001 20 0 0
2.585 0.57499999 -0.001 21 0 0
2.5739999 0.57700002 0 22 0 0
2.563 0.579 0 22 0 0
2.549 0.57999998 0 22 0 0
2.5339999 0.58099997 0.001 21 0 0
2.5239999 0.583 0.001 21 0 0
2.5109999 0.58399999 0.0020000001 22 0 0
2.5050001 0.58700001 0.003 22 0 0
2.4879999 0.58700001 0.003 22 0 0
2.471 0.58700001 0.0040000002 20 0 0
2.4660001 0.58999997 0.0049999999 21 0 0
2.45 0.58999997 0.0049999999 21 0 0
2.437 0.59100002 0.0060000001 21 0 0
2.4319999 0.59299999 0.0070000002 22 0 0
2.418 0.59399998 0.0070000002 21 0 0
2.411 0.59600002 0.0080000004 20 0 0
2.3989999 0.597 0.0089999996 21 0 0
2.3900001 0.59799999 0.0089999996 22 0 0
2.3789999 0.59899998 0.0099999998 24 0 0
2.369 0.60000002 0.011 22 0 0
2.3659999 0.60299999 0.011 23 0 0
2.3529999 0.60399997 0.012 23 0 0
2.348 0.60600001 0.013 24 0 0
2.3329999 0.60600001 0.013 23 0 0
2.3280001 0.60799998 0.014 22 0 0
2.319 0.60900003 0.015 24 0 0
2.302 0.60799998 0.016000001 22 0 0
2.2939999 0.60900003 0.016000001 23 0 0
2.29 0.611 0.017000001 23 0 0
2.2850001 0.61299998 0.017999999 22 0 0
2.28 0.61500001 0.017999999 22 0 0
2.266 0.61500001 0.018999999 22 0 0
2.263 0.61699998 0.02 23 0 0
2.25 0.61699998 0.021 22 0 0
2.247 0.61900002 0.021 21 0 0
2.2320001 0.61799997 0.022 23 0 0
2.2219999 0.61799997 0.023 22 0 0
2.2179999 0.62 0.024 23 0 0
2.2160001 0.62300003 0.024 23 0 0
2.2030001 0.62199998 0.025 23 0 0
2.1960001 0.62300003 0.026000001 23 0 0
2.1900001 0.62400001 0.027000001 22 0 0
2.1860001 0.62599999 0.027000001 22 0 0
2.1730001 0.625 0.028000001 22 0 0
2.171 0.62699997 0.028999999 23 0 0
2.164 0.62800002 0.029999999 23 0 0
2.1630001 0.63 0.029999999 23 0 0
2.155 0.63099998 0.030999999 23 0 0
2.1459999 0.63099998 0.032000002 24 0 0
2.1389999 0.63099998 0.033 23 0 0
2.1359999 0.63300002 0.033 24 0 0
2.131 0.634 0.034000002 25 0 0
2.122 0.634 0.035 24 0 0
2.115 0.634 0.035999998 23 0 0
2.1110001 0.63599998 0.035999998 24 0 0
2.1070001 0.63700002 0.037 24 0 0
2.1040001 0.639 0.037999999 24 0 0
2.096 0.63800001 0.039000001 23 0 0
2.0929999 0.63999999 0.039999999 21 0 0
2.086 0.63999999 0.039999999 25 0 0
2.082 0.64099997 0.041000001 24 0 0
2.0799999 0.64300001 0.041999999 22 0 0
2.073 0.64300001 0.043000001 19 0 0
2.0669999 0.64300001 0.043000001 22 0 0
2.062 0.64399999 0.044 22 0 0
2.0539999 0.64300001 0.045000002 22 0 0
2.05 0.64399999 0.046 20 0 0
2.0439999 0.64399999 0.046 23 0 0
2.043 0.64600003 0.046999998 21 0 0
2.0350001 0.64499998 0.048 19 0 0
2.03 0.64600003 0.048999999 20 0 0
2.0280001 0.64700001 0.048999999 20 0 0
2.0209999 0.64700001 0.050000001 21 0 0
2.016 0.64700001 0.050999999 21 0 0
2.006 0.64600003 0.052000001 26 0 0
2.0009999 0.64600003 0.052000001 24 0 0
2.0050001 0.64899999 0.052999999 24 0 0
2.0020001 0.64999998 0.054000001 23 0 0
1.998 0.64999998 0.055 23 0 0
1.994 0.65100002 0.056000002 20 0 0
1.989 0.65100002 0.056000002 19 0 0
1.9910001 0.653 0.057 19 0 0
1.976 0.64999998 0.057999998 24 0 0
1.975 0.65100002 0.059 18 0 0
1.972 0.65100002 0.059 16 0 0
1.973 0.653 0.059999999 20 0 0
1.97 0.65399998 0.061000001 18 0 0
1.969 0.65499997 0.061999999 18 0 0
1.966 0.65499997 0.063000001 20 0 0
1.961 0.65499997 0.063000001 19 0 0
1.9630001 0.65700001 0.064000003 19 0 0
1.957 0.65700001 0.064999998 20 0 0
1.952 0.65600002 0.066 20 0 0
1.952 0.65700001 0.067000002 20 0 0
1.948 0.65700001 0.067000002 20 0 0
1.949 0.65899998 0.068000004 16 0 0
1.942 0.65799999 0.068999998 18 0 0
1.9400001 0.65799999 0.07 16 0 0
1.939 0.65899998 0.07 16 0 0
1.937 0.65899998 0.071000002 16 0 0
1.937 0.66000003 0.071999997 16 0 0
1.931 0.66000003 0.072999999 15 0 0
1.9299999 0.66000003 0.074000001 15 0 0
1.931 0.662 0.074000001 15 0 0
1.927 0.66100001 0.075000003 18 0 0
1.925 0.66100001 0.075999998 18 0 0
1.921 0.66100001 0.077 17 0 0
1.923 0.662 0.077 17 0 0
1.924 0.66399997 0.078000002 17 0 0
1.916 0.662 0.079000004 19 0 0
1.916 0.66299999 0.079999998 19 0 0
1.914 0.66299999 0.079999998 19 0 0
1.914 0.66299999 0.081 19 0 0
1.915 0.66399997 0.082000002 19 0 0
1.91 0.66299999 0.082999997 19 0 0
1.909 0.66399997 0.083999999 17 0 0
1.906 0.66299999 0.083999999 17 0 0
1.911 0.66600001 0.085000001 16 0 0
1.908 0.66500002 0.086000003 16 0 0
1.906 0.66500002 0.086999997 15 0 0
1.906 0.66500002 0.088 16 0 0
1.9069999 0.66600001 0.089000002 16 0 0
1.905 0.66600001 0.089000002 15 0 0
1.902 0.66600001 0.090000004 16 0 0
1.902 0.66600001 0.090999998 15 0 0
1.902 0.66600001 0.092 16 0 0
1.899 0.66600001 0.092 15 0 0
1.899 0.66600001 0.093000002 15 0 0
1.899 0.66600001 0.093999997 15 0 0
1.898 0.66600001 0.093999997 19 0 0
1.893 0.66500002 0.094999999 19 0 0
1.895 0.66500002 0.096000001 18 0 0
1.895 0.66600001 0.097000003 18 0 0
1.893 0.66500002 0.097000003 18 0 0
1.898 0.667 0.097999997 15 0 0
1.8940001 0.66600001 0.098999999 19 0 0
1.8940001 0.66600001 0.1 18 0 0
1.8940001 0.66600001 0.101 19 0 0
1.901 0.66799998 0.102 15 0 0
1.8940001 0.66600001 0.102 19 0 0
1.897 0.667 0.103 18 0 0
1.901 0.66799998 0.104 16 0 0
1.8940001 0.66600001 0.104 19 0 0
1.897 0.66600001 0.105 18 0 0
1.901 0.66799998 0.106 16 0 0
1.897 0.66600001 0.107 19 0 0
1.901 0.667 0.108 16 0 0
1.901 0.667 0.108 16 0 0
1.898 0.66600001 0.109 18 0 0
1.903 0.667 0.11 16 0 0
1.901 0.66600001 0.111 17 0 0
1.906 0.66799998 0.112 15 0 0
1.901 0.66600001 0.112 17 0 0
1.904 0.66600001 0.113 17 0 0
1.909 0.667 0.114 17 0 0
1.906 0.66600001 0.114 17 0 0
1.9069999 0.66600001 0.115 16 0 0
1.9069999 0.66500002 0.116 19 0 0
1.91 0.66600001 0.117 16 0 0
1.91 0.66500002 0.117 19 0 0
1.914 0.66600001 0.118 19 0 0
1.914 0.66600001 0.119 19 0 0
1.914 0.66500002 0.12 20 0 0
1.918 0.66500002 0.12 18 0 0
1.918 0.66500002 0.121 18 0 0
1.921 0.66500002 0.122 17 0 0
1.927 0.66600001 0.123 14 0 0
1.921 0.66399997 0.123 18 0 0
1.929 0.66500002 0.124 15 0 0
1.9299999 0.66500002 0.125 15 0 0
1.9299999 0.66399997 0.126 15 0 0
1.931 0.66299999 0.126 15 0 0
1.9349999 0.66399997 0.127 16 0 0
1.934 0.66299999 0.12800001 17 0 0
1.937 0.66299999 0.12899999 17 0 0
1.9400001 0.66299999 0.13 20 0 0
1.943 0.66299999 0.13 17 0 0
1.9450001 0.662 0.131 21 0 0
1.95 0.66299999 0.132 21 0 0
1.95 0.662 0.133 20 0 0
1.951 0.66100001 0.133 21 0 0
1.951 0.66000003 0.134 23 0 0
1.956 0.66000003 0.13500001 19 0 0
1.961 0.66000003 0.13600001 20 0 0
1.956 0.65799999 0.13600001 20 0 0
1.965 0.65899998 0.13699999 20 0 0
1.967 0.65899998 0.138 20 0 0
1.9680001 0.65700001 0.138 20 0 0
1.971 0.65700001 0.139 20 0 0
1.978 0.65799999 0.14 20 0 0
1.978 0.65700001 0.141 23 0 0
1.9859999 0.65799999 0.142 20 0 0
1.988 0.65700001 0.142 20 0 0
1.994 0.65700001 0.14300001 21 0 0
1.9960001 0.65600002 0.14399999 22 0 0
1.997 0.65499997 0.14399999 24 0 0
1.997 0.65399998 0.145 25 0 0
2.003 0.65399998 0.146 25 0 0
2.006 0.653 0.146 27 0 0
2.007 0.65200001 0.147 27 0 0
2.02 0.65399998 0.148 22 0 0
2.0220001 0.653 0.149 23 0 0
2.03 0.65399998 0.15000001 20 0 0
2.036 0.65399998 0.15099999 18 0 0
2.036 0.65200001 0.15099999 23 0 0
2.0420001 0.65200001 0.152 23 0 0
2.0480001 0.65200001 0.153 19 0 0
2.05 0.65100002 0.154 20 0 0
2.056 0.65100002 0.154 25 0 0
2.0639999 0.65100002 0.155 25 0 0
2.0639999 0.64899999 0.156 25 0 0
2.073 0.64999998 0.15700001 21 0 0
2.0780001 0.64899999 0.15700001 24 0 0
2.079 0.64700001 0.15800001 24 0 0
2.0899999 0.64899999 0.15899999 22 0 0
2.092 0.64700001 0.15899999 25 0 0
2.098 0.64700001 0.16 25 0 0
2.1040001 0.64600003 0.161 25 0 0
2.108 0.64499998 0.162 26 0 0
2.109 0.64300001 0.162 26 0 0
2.1129999 0.64200002 0.163 25 0 0
2.122 0.64200002 0.164 25 0 0
2.131 0.64300001 0.16500001 26 0 0
2.1329999 0.64099997 0.16500001 25 0 0
2.1389999 0.63999999 0.16599999 25 0 0
2.1429999 0.639 0.16599999 25 0 0
2.151 0.639 0.167 24 0 0
2.158 0.63800001 0.168 25 0 0
2.1589999 0.63599998 0.168 25 0 0
2.168 0.63599998 0.169 24 0 0
2.171 0.634 0.169 24 0 0
2.1800001 0.634 0.17 23 0 0
2.187 0.63300002 0.171 23 0 0
2.1960001 0.63300002 0.17200001 24 0 0
2.2049999 0.63300002 0.17299999 23 0 0
2.2079999 0.63099998 0.17299999 23 0 0
2.2130001 0.62900001 0.17399999 22 0 0
2.227 0.63099998 0.175 24 0 0
2.227 0.62800002 0.175 24 0 0
2.2409999 0.62900001 0.176 21 0 0
2.253 0.62900001 0.177 23 0 0
2.257 0.62699997 0.178 22 0 0
2.26 0.625 0.178 22 0 0
2.2709999 0.625 0.17900001 22 0 0
2.2809999 0.62400001 0.18000001 22 0 0
2.2809999 0.62099999 0.18000001 22 0 0
2.2920001 0.62099999 0.18099999 22 0 0
2.3050001 0.62099999 0.182 24 0 0
2.309 0.61900002 0.182 24 0 0
2.319 0.61799997 0.183 23 0 0
2.3280001 0.61699998 0.183 23 0 0
2.3340001 0.61500001 0.184 22 0 0
2.3499999 0.616 0.185 22 0 0
2.358 0.61500001 0.185 24 0 0
2.3629999 0.61299998 0.186 23 0 0
2.3740001 0.61199999 0.186 22 0 0
2.385 0.611 0.18700001 22 0 0
2.3940001 0.61000001 0.18799999 20 0 0
2.398 0.60799998 0.18799999 20 0 0
2.4100001 0.60699999 0.189 21 0 0
2.4200001 0.60600001 0.189 22 0 0
2.437 0.60600001 0.19 21 0 0
2.444 0.60399997 0.191 20 0 0
2.4549999 0.60299999 0.191 21 0 0
2.461 0.60100001 0.192 20 0 0
2.477 0.60100001 0.193 22 0 0
2.4860001 0.59899998 0.193 21 0 0
2.5 0.59799999 0.19400001 22 0 0
2.506 0.59600002 0.19400001 22 0 0
2.5250001 0.59600002 0.19499999 23 0 0
2.5350001 0.59399998 0.19599999 23 0 0
2.5439999 0.59200001 0.19599999 23 0 0
2.5580001 0.59100002 0.197 23 0 0
2.5669999 0.58899999 0.197 23 0 0
2.576 0.58700001 0.197 23 0 0
2.5869999 0.58499998 0.198 23 0 0
2.6029999 0.58499998 0.198 21 0 0
2.608 0.58099997 0.198 21 0 0
2.628 0.58200002 0.199 21 0 0
2.6370001 0.579 0.199 22 0 0
2.652 0.57800001 0.2 20 0 0
2.665 0.57599998 0.20100001 21 0 0
2.6760001 0.574 0.20100001 21 0 0
2.6889999 0.57200003 0.20100001 21 0 0
2.704 0.57099998 0.20200001 20 0 0
2.7190001 0.56900001 0.20200001 21 0 0
2.7320001 0.56699997 0.20200001 20 0 0
2.7460001 0.565 0.20299999 20 0 0
2.7620001 0.56400001 0.20299999 19 0 0
2.779 0.56199998 0.204 20 0 0
2.7969999 0.56099999 0.204 19 0 0
2.806 0.55800003 0.204 19 0 0
2.8210001 0.55599999 0.205 20 0 0
2.8369999 0.55400002 0.205 20 0 0
2.8529999 0.55199999 0.205 20 0 0
2.8670001 0.55000001 0.205 19 0 0
2.8800001 0.54699999 0.205 19 0 0
2.8989999 0.546 0.206 19 0 0
2.918 0.54400003 0.206 19 0 0
2.9389999 0.542 0.207 19 0 0
2.9560001 0.54000002 0.207 17 0 0
2.9719999 0.53799999 0.207 18 0 0
2.994 0.53600001 0.208 19 0 0
3.0090001 0.53399998 0.208 17 0 0
3.026 0.53100002 0.208 17 0 0
3.0450001 0.52899998 0.208 17 0 0
3.0610001 0.52600002 0.208 18 0 0
3.095 0.52600002 0.20900001 18 0 0
3.115 0.52399999 0.20900001 16 0 0
3.132 0.52100003 0.20900001 18 0 0
