# .PCD v0.7 - Point Cloud Data file format
VERSION 0.7
FIELDS x y z intensity tag line
SIZE 4 4 4 4 1 1
TYPE F F F F U U
COUNT 1 1 1 1 1 1
WIDTH 1415
HEIGHT 1
VIEWPOINT 0 0 0 1 0 0 0
POINTS 1415
DATA ascii
1.9579999 0.63999999 -0.233 20 0 0
1.9579999 0.63999999 -0.23199999 20 0 0
1.962 0.64099997 -0.23199999 20 0 0
1.96 0.63999999 -0.23100001 20 0 0
1.9630001 0.63999999 -0.23 19 0 0
1.96 0.639 -0.229 19 0 0
1.96 0.639 -0.228 20 0 0
1.9630001 0.63999999 -0.227 20 0 0
1.96 0.63800001 -0.226 20 0 0
1.967 0.64099997 -0.226 19 0 0
1.967 0.63999999 -0.22499999 20 0 0
1.9680001 0.63999999 -0.22400001 17 0 0
1.966 0.639 -0.223 20 0 0
1.97 0.63999999 -0.222 20 0 0
1.97 0.639 -0.221 18 0 0
1.971 0.639 -0.22 22 0 0
1.972 0.639 -0.219 20 0 0
1.972 0.63800001 -0.21799999 20 0 0
1.972 0.63800001 -0.21699999 23 0 0
1.978 0.639 -0.21699999 19 0 0
1.979 0.639 -0.21600001 19 0 0
1.977 0.63700002 -0.214 19 0 0
1.979 0.63700002 -0.214 19 0 0
1.982 0.63800001 -0.213 19 0 0
1.982 0.63700002 -0.212 22 0 0
1.984 0.63700002 -0.211 20 0 0
1.99 0.63800001 -0.20999999 22 0 0
1.985 0.63499999 -0.20900001 20 0 0
1.9910001 0.63599998 -0.208 23 0 0
1.988 0.63499999 -0.207 23 0 0
1.993 0.63499999 -0.206 22 0 0
1.995 0.63499999 -0.205 22 0 0
1.998 0.63499999 -0.204 25 0 0
1.995 0.63300002 -0.20200001 23 0 0
1.9960001 0.63200003 -0.20100001 24 0 0
2.0009999 0.63300002 -0.20100001 26 0 0
2.0020001 0.63200003 -0.2 25 0 0
2.003 0.63099998 -0.198 25 0 0
2.0120001 0.63300002 -0.198 21 0 0
2.0120001 0.63200003 -0.197 22 0 0
2.0139999 0.63099998 -0.19599999 22 0 0
2.023 0.63200003 -0.19499999 18 0 0
2.026 0.63200003 -0.19499999 19 0 0
2.0250001 0.63099998 -0.193 20 0 0
2.0309999 0.63099998 -0.192 21 0 0
2.0309999 0.63 -0.191 21 0 0
2.0350001 0.63 -0.19 23 0 0
2.0439999 0.63099998 -0.19 19 0 0
2.0450001 0.63 -0.18799999 20 0 0
2.046 0.62900001 -0.18700001 19 0 0
2.046 0.62699997 -0.186 20 0 0
2.0510001 0.62699997 -0.185 22 0 0
2.056 0.62699997 -0.184 22 0 0
2.0610001 0.62699997 -0.183 20 0 0
2.0639999 0.62599999 -0.182 20 0 0
2.0699999 0.62699997 -0.18099999 21 0 0
2.075 0.62699997 -0.18000001 25 0 0
2.0799999 0.62599999 -0.17900001 22 0 0
2.0799999 0.625 -0.178 24 0 0
2.086 0.625 -0.177 21 0 0
2.0910001 0.62400001 -0.176 21 0 0
2.0929999 0.62300003 -0.175 23 0 0
2.096 0.62199998 -0.17399999 22 0 0
2.098 0.62099999 -0.17200001 22 0 0
2.1059999 0.62099999 -0.17200001 23 0 0
2.1070001 0.62 -0.17 24 0 0
2.1110001 0.61900002 -0.169 23 0 0
2.1140001 0.61799997 -0.168 23 0 0
2.118 0.61699998 -0.167 23 0 0
2.122 0.616 -0.16599999 22 0 0
2.1300001 0.616 -0.16500001 23 0 0
2.1389999 0.61699998 -0.164 23 0 0
2.1400001 0.61500001 -0.163 23 0 0
2.145 0.61400002 -0.162 21 0 0
2.152 0.61400002 -0.16 22 0 0
2.1570001 0.61299998 -0.15899999 23 0 0
2.1600001 0.61199999 -0.15800001 23 0 0
2.165 0.611 -0.15700001 22 0 0
2.1689999 0.61000001 -0.156 22 0 0
2.174 0.60900003 -0.155 23 0 0
2.1819999 0.60900003 -0.154 23 0 0
2.1860001 0.60799998 -0.152 22 0 0
2.194 0.60699999 -0.15099999 21 0 0
2.197 0.60500002 -0.15000001 23 0 0
2.211 0.60699999 -0.149 22 0 0
2.2160001 0.60600001 -0.148 22 0 0
2.2179999 0.60399997 -0.147 23 0 0
2.2260001 0.60299999 -0.146 21 0 0
2.2260001 0.60100001 -0.14399999 21 0 0
2.237 0.60100001 -0.14300001 24 0 0
2.25 0.602 -0.142 22 0 0
2.2509999 0.59899998 -0.141 22 0 0
2.26 0.59899998 -0.14 22 0 0
2.267 0.59799999 -0.139 22 0 0
2.2820001 0.59899998 -0.138 23 0 0
2.2839999 0.59600002 -0.13699999 23 0 0
2.29 0.59500003 -0.13500001 23 0 0
2.2920001 0.59299999 -0.134 22 0 0
2.299 0.59100002 -0.133 22 0 0
2.3080001 0.59100002 -0.131 23 0 0
2.3180001 0.58999997 -0.13 24 0 0
2.3269999 0.58899999 -0.12899999 22 0 0
2.3340001 0.588 -0.12800001 23 0 0
2.3399999 0.58600003 -0.127 24 0 0
2.345 0.58399999 -0.125 22 0 0
2.3599999 0.58499998 -0.124 24 0 0
2.369 0.58399999 -0.123 23 0 0
2.3729999 0.58099997 -0.122 22 0 0
2.388 0.58200002 -0.121 23 0 0
2.395 0.57999998 -0.119 22 0 0
2.402 0.57800001 -0.118 21 0 0
2.4130001 0.57800001 -0.117 22 0 0
2.418 0.57499999 -0.116 22 0 0
2.4300001 0.574 -0.114 23 0 0
2.4349999 0.57200003 -0.113 22 0 0
2.45 0.57200003 -0.112 23 0 0
2.4590001 0.56999999 -0.111 23 0 0
2.4660001 0.56800002 -0.109 22 0 0
2.4760001 0.56699997 -0.108 22 0 0
2.487 0.56599998 -0.107 23 0 0
2.4960001 0.56400001 -0.106 23 0 0
2.507 0.56300002 -0.104 23 0 0
2.517 0.56099999 -0.103 23 0 0
2.5350001 0.56099999 -0.102 24 0 0
2.5450001 0.55900002 -0.101 24 0 0
2.553 0.55699998 -0.098999999 24 0 0
2.563 0.55500001 -0.097999997 24 0 0
2.575 0.55400002 -0.097000003 24 0 0
2.5869999 0.55199999 -0.094999999 23 0 0
2.598 0.55000001 -0.093999997 23 0 0
2.6110001 0.54900002 -0.093000002 21 0 0
2.6240001 0.54699999 -0.092 23 0 0
2.6440001 0.54699999 -0.090999998 23 0 0
2.648 0.54299998 -0.089000002 23 0 0
2.6589999 0.542 -0.088 22 0 0
2.6760001 0.54000002 -0.086000003 22 0 0
2.6849999 0.53799999 -0.085000001 21 0 0
2.694 0.53500003 -0.083999999 21 0 0
2.7119999 0.53399998 -0.082000002 22 0 0
2.7279999 0.53299999 -0.081 22 0 0
2.7360001 0.52899998 -0.079999998 22 0 0
2.7520001 0.528 -0.078000002 22 0 0
2.7679999 0.52600002 -0.077 21 0 0
2.7869999 0.52499998 -0.075999998 20 0 0
2.799 0.52200001 -0.074000001 22 0 0
2.812 0.51999998 -0.072999999 21 0 0
2.829 0.51800001 -0.071999997 21 0 0
2.835 0.514 -0.07 20 0 0
2.858 0.51300001 -0.068999998 22 0 0
2.8670001 0.50999999 -0.067000002 20 0 0
2.8800001 0.50700003 -0.066 19 0 0
2.9059999 0.50599998 -0.064999998 20 0 0
2.921 0.50400001 -0.063000001 20 0 0
2.9449999 0.50199997 -0.061999999 20 0 0
2.9530001 0.498 -0.061000001 19 0 0
2.9790001 0.49700001 -0.059 17 0 0
2.997 0.495 -0.057999998 18 0 0
3.0150001 0.49200001 -0.057 20 0 0
3.0280001 0.48899999 -0.055 19 0 0
3.049 0.48699999 -0.054000001 18 0 0
3.069 0.484 -0.052000001 19 0 0
3.0969999 0.48300001 -0.050999999 19 0 0
3.118 0.47999999 -0.050000001 20 0 0
3.138 0.477 -0.048 17 0 0
3.1589999 0.47499999 -0.046999998 20 0 0
3.1819999 0.472 -0.046 16 0 0
3.204 0.46900001 -0.044 19 0 0
3.223 0.46599999 -0.043000001 20 0 0
3.237 0.46200001 -0.041000001 19 0 0
3.2579999 0.45899999 -0.039999999 18 0 0
3.2880001 0.456 -0.039000001 18 0 0
3.3050001 0.45300001 -0.037 18 0 0
3.3299999 0.44999999 -0.035999998 17 0 0
3.355 0.44600001 -0.034000002 18 0 0
3.3829999 0.44400001 -0.033 18 0 0
3.4059999 0.44 -0.030999999 20 0 0
3.4300001 0.43700001 -0.029999999 19 0 0
3.454 0.433 -0.028999999 21 0 0
3.477 0.42899999 -0.027000001 21 0 0
3.5020001 0.42500001 -0.026000001 20 0 0
3.5369999 0.42199999 -0.024 22 0 0
3.559 0.41800001 -0.023 21 0 0
3.5899999 0.414 -0.021 23 0 0
3.615 0.41 -0.02 23 0 0
3.6340001 0.405 -0.017999999 22 0 0
3.6670001 0.40099999 -0.017000001 25 0 0
3.6919999 0.39700001 -0.016000001 46 0 0
3.6919999 0.389 -0.014 59 0 0
3.698 0.382 -0.012 58 0 0
3.6949999 0.375 -0.011 58 0 0
3.694 0.36700001 -0.0089999996 57 0 0
3.6949999 0.36000001 -0.0080000004 57 0 0
3.6949999 0.35299999 -0.0060000001 58 0 0
3.2950001 0.308 -0.0040000002 10 0 0
3.0769999 0.28099999 -0.003 65 0 0
2.97 0.26499999 -0.0020000001 126 0 0
2.957 0.25799999 -0.001 83 0 0
2.9579999 0.252 0 83 0 0
2.9619999 0.24600001 0.001 75 0 0
2.97 0.241 0.0020000001 42 0 0
3.003 0.237 0.003 7 0 0
3.04 0.234 0.0040000002 7 0 0
3.0840001 0.23100001 0.0049999999 7 0 0
3.1289999 0.228 0.0060000001 9 0 0
3.1559999 0.223 0.0070000002 9 0 0
3.2049999 0.22 0.0080000004 8 0 0
3.256 0.21699999 0.0089999996 7 0 0
3.303 0.213 0.011 7 0 0
3.3440001 0.20900001 0.012 7 0 0
3.3900001 0.205 0.013 7 0 0
3.4400001 0.20100001 0.014 6 0 0
3.5039999 0.197 0.015 7 0 0
3.5610001 0.193 0.017000001 7 0 0
0 0 0 0 0 0
0 0 0 0 0 0
5.4889998 0.26300001 0.029999999 126 0 0
5.5840001 0.25600001 0.032000002 115 0 0
5.5630002 0.243 0.033 114 0 0
5.579 0.23199999 0.035 108 0 0
5.5799999 0.221 0.035999998 108 0 0
5.552 0.208 0.037 107 0 0
5.5650001 0.19599999 0.037999999 114 0 0
5.5609999 0.185 0.039000001 107 0 0
5.5679998 0.17299999 0.041000001 67 0 0
5.6139998 0.163 0.041999999 31 0 0
5.6739998 0.152 0.044 7 0 0
5.7610002 0.14300001 0.045000002 7 0 0
5.8470001 0.132 0.046999998 7 0 0
5.9200001 0.122 0.048999999 8 0 0
5.98 0.11 0.050000001 8 0 0
6.0500002 0.098999999 0.052000001 8 0 0
6.0939999 0.086999997 0.052999999 8 0 0
6.1469998 0.074000001 0.054000001 8 0 0
6.2270002 0.061999999 0.056000002 8 0 0
6.2490001 0.048999999 0.057 10 0 0
6.1129999 0.035 0.056000002 8 0 0
6.0009999 0.022 0.056000002 8 0 0
6.0599999 0.0089999996 0.057 8 0 0
0 0 0 0 0 0
0 0 0 0 0 0
0 0 0 0 0 0
0 0 0 0 0 0
5.7010002 -0.050999999 0.056000002 1 0 0
5.6370001 -0.063000001 0.056000002 1 0 0
5.5760002 -0.074000001 0.056000002 3 0 0
5.539 -0.085000001 0.056000002 2 0 0
5.5650001 -0.097000003 0.056000002 2 0 0
5.5960002 -0.11 0.057 1 0 0
5.5549998 -0.121 0.056000002 1 0 0
5.573 -0.133 0.057 1 0 0
5.6160002 -0.146 0.057 1 0 0
5.6149998 -0.15800001 0.057 1 0 0
5.5219998 -0.167 0.056000002 2 0 0
0 0 0 0 0 0
5.5960002 -0.193 0.057 1 0 0
0 0 0 0 0 0
0 0 0 0 0 0
5.5890002 -0.228 0.057 1 0 0
5.546 -0.23800001 0.056000002 1 0 0
5.552 -0.25 0.056000002 1 0 0
5.5510001 -0.26199999 0.056000002 1 0 0
5.5689998 -0.27399999 0.056000002 1 0 0
5.5430002 -0.285 0.055 1 0 0
5.5640001 -0.29800001 0.055 1 0 0
5.5580001 -0.30899999 0.054000001 1 0 0
5.5450001 -0.31999999 0.054000001 1 0 0
5.5539999 -0.33199999 0.052999999 1 0 0
5.5570002 -0.34400001 0.052999999 1 0 0
5.5539999 -0.35499999 0.052000001 1 0 0
8.8430004 -0.58399999 0.082999997 4 0 0
5.5250001 -0.37599999 0.050999999 1 0 0
8.8290005 -0.62 0.079999998 7 0 0
8.8240004 -0.63800001 0.079000004 7 0 0
5.5110002 -0.41 0.048999999 1 0 0
8.8389997 -0.676 0.077 3 0 0
5.5349998 -0.43399999 0.046999998 1 0 0
5.526 -0.44499999 0.046 1 0 0
5.5349998 -0.45699999 0.045000002 1 0 0
5.5240002 -0.46799999 0.044 1 0 0
5.5240002 -0.479 0.043000001 1 0 0
5.5310001 -0.491 0.043000001 1 0 0
5.506 -0.5 0.041000001 1 0 0
5.5079999 -0.51099998 0.039999999 1 0 0
5.507 -0.52200001 0.039000001 1 0 0
8.7770004 -0.85100001 0.061000001 26 0 0
8.7749996 -0.86799997 0.059 25 0 0
8.7860003 -0.88700002 0.057 23 0 0
5.4949999 -0.56599998 0.034000002 1 0 0
5.4980001 -0.57700002 0.033 1 0 0
5.5250001 -0.59100002 0.032000002 1 0 0
5.4959998 -0.59899998 0.030999999 1 0 0
5.5159998 -0.61199999 0.028999999 1 0 0
5.5219998 -0.62400001 0.028000001 1 0 0
5.4910002 -0.63200003 0.027000001 1 0 0
5.5100002 -0.64499998 0.025 1 0 0
5.5 -0.65499997 0.024 1 0 0
5.4959998 -0.66500002 0.022 1 0 0
5.5100002 -0.67699999 0.021 1 0 0
5.4889998 -0.68599999 0.018999999 1 0 0
5.5009999 -0.69800001 0.017000001 1 0 0
5.0100002 -0.64499998 0.014 1 0 0
3.598 -0.47 0.0089999996 76 0 0
3.5899999 -0.47600001 0.0080000004 111 0 0
3.5699999 -0.48100001 0.0070000002 94 0 0
3.556 -0.486 0.0060000001 101 0 0
3.5580001 -0.493 0.0049999999 88 0 0
3.553 -0.49900001 0.003 100 0 0
3.5510001 -0.50599998 0.0020000001 87 0 0
3.55 -0.51200002 0.001 87 0 0
3.562 -0.52100003 0 70 0 0
3.562 -0.528 0 70 0 0
3.5610001 -0.53399998 -0.0020000001 70 0 0
3.5599999 -0.54100001 -0.003 70 0 0
3.5580001 -0.54699999 -0.0040000002 65 0 0
3.5539999 -0.55299997 -0.0060000001 69 0 0
3.553 -0.56 -0.0070000002 69 0 0
3.5550001 -0.56699997 -0.0080000004 65 0 0
3.553 -0.57300001 -0.0099999998 70 0 0
3.5469999 -0.579 -0.011 72 0 0
3.5480001 -0.58499998 -0.012 65 0 0
3.55 -0.59200001 -0.014 70 0 0
3.546 -0.59799999 -0.015 69 0 0
3.5450001 -0.60399997 -0.017000001 69 0 0
3.5439999 -0.611 -0.017999999 65 0 0
3.543 -0.61699998 -0.02 69 0 0
3.536 -0.62199998 -0.021 69 0 0
3.5409999 -0.62900001 -0.023 65 0 0
3.54 -0.63499999 -0.024 74 0 0
3.523 -0.63800001 -0.025 47 0 0
3.4560001 -0.63200003 -0.026000001 28 0 0
3.346 -0.61799997 -0.027000001 37 0 0
3.3329999 -0.62199998 -0.028000001 51 0 0
3.325 -0.62599999 -0.029999999 54 0 0
3.302 -0.62699997 -0.030999999 2 0 0
0 0 0 0 0 0
0 0 0 0 0 0
0 0 0 0 0 0
1.809 -0.35600001 -0.02 3 0 0
0 0 0 0 0 0
0 0 0 0 0 0
0 0 0 0 0 0
3.227 -0.65700001 -0.043000001 2 0 0
3.1819999 -0.653 -0.043000001 2 0 0
3.016 -0.62400001 -0.043000001 2 0 0
2.908 -0.60600001 -0.043000001 2 0 0
2.868 -0.60299999 -0.043000001 1 0 0
2.4679999 -0.523 -0.039000001 1 0 0
2.3410001 -0.5 -0.037999999 2 0 0
2.3369999 -0.50199997 -0.039000001 2 0 0
2.5550001 -0.55299997 -0.044 1 0 0
2.915 -0.63599998 -0.050999999 2 0 0
2.941 -0.64600003 -0.052999999 2 0 0
2.9400001 -0.65100002 -0.055 2 0 0
2.934 -0.65399998 -0.056000002 2 0 0
2.928 -0.65700001 -0.057999998 2 0 0
2.9159999 -0.65899998 -0.059 2 0 0
2.902 -0.66000003 -0.059999999 2 0 0
2.8540001 -0.65399998 -0.061000001 1 0 0
2.823 -0.65100002 -0.061999999 1 0 0
2.651 -0.61500001 -0.059 1 0 0
2.4549999 -0.57300001 -0.056000002 1 0 0
2.4619999 -0.579 -0.057999998 1 0 0
2.45 -0.57999998 -0.059 1 0 0
2.4860001 -0.59200001 -0.061000001 1 0 0
2.484 -0.59500003 -0.061999999 1 0 0
2.494 -0.60100001 -0.064000003 1 0 0
2.4660001 -0.59799999 -0.064999998 1 0 0
2.4200001 -0.58999997 -0.064999998 1 0 0
2.3069999 -0.56599998 -0.063000001 2 0 0
2.2720001 -0.56099999 -0.063000001 2 0 0
2.2939999 -0.56900001 -0.064999998 2 0 0
2.372 -0.59200001 -0.068999998 2 0 0
2.5090001 -0.62900001 -0.074000001 1 0 0
2.4760001 -0.62400001 -0.074000001 1 0 0
2.4749999 -0.62699997 -0.075999998 1 0 0
2.4400001 -0.62199998 -0.075999998 1 0 0
2.4070001 -0.61699998 -0.075999998 1 0 0
2.3759999 -0.61199999 -0.077 2 0 0
2.3559999 -0.61000001 -0.077 2 0 0
2.355 -0.61299998 -0.079000004 2 0 0
2.3699999 -0.62 -0.081 2 0 0
2.345 -0.616 -0.081 2 0 0
2.3210001 -0.61299998 -0.082000002 2 0 0
2.3139999 -0.61400002 -0.082999997 2 0 0
2.3099999 -0.616 -0.083999999 2 0 0
2.2969999 -0.61500001 -0.085000001 2 0 0
2.286 -0.61500001 -0.086000003 2 0 0
2.2820001 -0.616 -0.086999997 2 0 0
2.2809999 -0.61900002 -0.088 2 0 0
2.2690001 -0.61799997 -0.089000002 2 0 0
2.2690001 -0.62099999 -0.090000004 2 0 0
2.2579999 -0.62099999 -0.090999998 2 0 0
2.247 -0.62 -0.092 3 0 0
2.2309999 -0.61799997 -0.093000002 2 0 0
2.2290001 -0.62 -0.093999997 3 0 0
2.2149999 -0.61900002 -0.094999999 3 0 0
2.2049999 -0.61799997 -0.094999999 3 0 0
2.2 -0.61900002 -0.096000001 3 0 0
2.198 -0.62099999 -0.097999997 3 0 0
2.1789999 -0.61799997 -0.097999997 3 0 0
2.1700001 -0.61799997 -0.098999999 3 0 0
2.1470001 -0.61400002 -0.098999999 4 0 0
2.131 -0.611 -0.1 4 0 0
2.089 -0.60100001 -0.098999999 5 0 0
2.016 -0.58200002 -0.097000003 7 0 0
1.944 -0.56300002 -0.093999997 8 0 0
1.8430001 -0.53600001 -0.090000004 8 0 0
1.817 -0.52999997 -0.090000004 10 0 0
1.816 -0.53100002 -0.090999998 9 0 0
1.812 -0.53200001 -0.092 8 0 0
1.814 -0.53399998 -0.093000002 8 0 0
1.807 -0.53399998 -0.093999997 8 0 0
1.811 -0.537 -0.094999999 7 0 0
1.809 -0.53799999 -0.096000001 7 0 0
1.8049999 -0.53799999 -0.097000003 7 0 0
1.809 -0.54100001 -0.097999997 7 0 0
1.8150001 -0.54400003 -0.098999999 9 0 0
1.818 -0.54699999 -0.101 9 0 0
1.814 -0.54699999 -0.101 10 0 0
1.818 -0.55000001 -0.103 11 0 0
1.8150001 -0.55000001 -0.104 11 0 0
1.813 -0.551 -0.105 10 0 0
1.808 -0.551 -0.105 7 0 0
1.8049999 -0.551 -0.106 7 0 0
1.7819999 -0.546 -0.106 4 0 0
1.753 -0.53799999 -0.105 3 0 0
1.728 -0.53200001 -0.104 3 0 0
1.733 -0.53399998 -0.106 3 0 0
1.7410001 -0.53799999 -0.107 4 0 0
1.751 -0.542 -0.109 4 0 0
1.763 -0.54699999 -0.111 6 0 0
1.767 -0.55000001 -0.112 5 0 0
1.773 -0.55299997 -0.113 6 0 0
1.776 -0.55500001 -0.114 5 0 0
1.778 -0.55599999 -0.115 5 0 0
1.777 -0.55699998 -0.116 5 0 0
1.779 -0.55900002 -0.117 6 0 0
1.78 -0.56 -0.118 6 0 0
1.773 -0.55900002 -0.119 6 0 0
1.7819999 -0.56300002 -0.121 6 0 0
1.778 -0.56199998 -0.121 7 0 0
1.776 -0.56300002 -0.122 7 0 0
1.783 -0.56599998 -0.123 9 0 0
1.784 -0.56699997 -0.124 9 0 0
1.777 -0.56599998 -0.125 12 0 0
1.773 -0.565 -0.126 10 0 0
1.768 -0.565 -0.126 10 0 0
1.766 -0.565 -0.127 11 0 0
1.7589999 -0.56300002 -0.127 10 0 0
1.756 -0.56300002 -0.12800001 8 0 0
1.744 -0.56 -0.12800001 6 0 0
1.739 -0.55900002 -0.12899999 6 0 0
1.756 -0.565 -0.131 5 0 0
1.762 -0.56800002 -0.132 8 0 0
1.771 -0.57099998 -0.134 10 0 0
1.775 -0.57300001 -0.13500001 10 0 0
1.778 -0.574 -0.13600001 10 0 0
1.7819999 -0.57599998 -0.13699999 12 0 0
1.783 -0.57700002 -0.138 13 0 0
1.777 -0.57599998 -0.139 14 0 0
1.776 -0.57599998 -0.139 15 0 0
1.781 -0.57800001 -0.141 14 0 0
1.7819999 -0.579 -0.142 12 0 0
1.781 -0.579 -0.142 13 0 0
1.784 -0.57999998 -0.14300001 10 0 0
1.789 -0.58200002 -0.145 10 0 0
1.789 -0.58200002 -0.145 10 0 0
1.786 -0.58200002 -0.146 9 0 0
1.783 -0.58099997 -0.147 8 0 0
1.781 -0.57999998 -0.147 8 0 0
1.777 -0.579 -0.148 8 0 0
1.772 -0.57800001 -0.148 6 0 0
1.768 -0.57700002 -0.149 6 0 0
1.768 -0.57700002 -0.149 5 0 0
1.723 -0.56199998 -0.146 5 0 0
1.714 -0.55900002 -0.146 4 0 0
1.724 -0.56300002 -0.148 4 0 0
1.692 -0.55199999 -0.146 4 0 0
1.692 -0.55199999 -0.146 4 0 0
1.688 -0.551 -0.147 3 0 0
1.689 -0.551 -0.148 3 0 0
1.698 -0.55400002 -0.149 3 0 0
1.699 -0.55400002 -0.15000001 3 0 0
1.704 -0.55599999 -0.15099999 3 0 0
1.697 -0.55299997 -0.15099999 2 0 0
1.702 -0.55500001 -0.152 2 0 0
1.712 -0.55800003 -0.154 2 0 0
1.709 -0.55699998 -0.154 2 0 0
1.724 -0.56099999 -0.156 2 0 0
1.73 -0.56300002 -0.15700001 2 0 0
1.745 -0.56800002 -0.15899999 2 0 0
1.7589999 -0.57200003 -0.161 3 0 0
1.77 -0.57499999 -0.163 3 0 0
1.781 -0.57800001 -0.16500001 4 0 0
1.776 -0.57599998 -0.16500001 5 0 0
1.7690001 -0.574 -0.16500001 5 0 0
1.786 -0.579 -0.167 6 0 0
1.739 -0.56300002 -0.163 6 0 0
1.729 -0.55900002 -0.163 7 0 0
1.734 -0.56 -0.164 8 0 0
1.747 -0.56400001 -0.16599999 8 0 0
1.745 -0.56300002 -0.16599999 7 0 0
1.756 -0.56599998 -0.168 8 0 0
1.7640001 -0.56800002 -0.169 7 0 0
1.76 -0.56599998 -0.169 7 0 0
1.7640001 -0.56699997 -0.17 7 0 0
1.757 -0.56400001 -0.17 7 0 0
1.757 -0.56300002 -0.17 8 0 0
1.758 -0.56199998 -0.171 8 0 0
1.7539999 -0.56099999 -0.171 7 0 0
1.755 -0.56 -0.17200001 9 0 0
1.752 -0.55800003 -0.17200001 7 0 0
1.758 -0.55900002 -0.17299999 7 0 0
1.755 -0.55800003 -0.17299999 7 0 0
1.756 -0.55699998 -0.17399999 6 0 0
1.752 -0.55500001 -0.17399999 7 0 0
1.75 -0.55299997 -0.17399999 7 0 0
1.738 -0.54799998 -0.17299999 6 0 0
1.737 -0.54699999 -0.17399999 6 0 0
1.729 -0.54400003 -0.17299999 6 0 0
1.729 -0.54299998 -0.17299999 6 0 0
1.7359999 -0.54400003 -0.175 6 0 0
1.729 -0.54100001 -0.17399999 6 0 0
1.727 -0.53899997 -0.17399999 6 0 0
1.726 -0.53799999 -0.175 6 0 0
1.724 -0.53600001 -0.175 6 0 0
1.733 -0.53799999 -0.176 6 0 0
1.743 -0.54000002 -0.177 5 0 0
1.7410001 -0.53799999 -0.178 6 0 0
1.738 -0.53600001 -0.178 5 0 0
1.748 -0.53799999 -0.17900001 5 0 0
1.748 -0.53600001 -0.17900001 5 0 0
1.752 -0.53600001 -0.18000001 5 0 0
1.766 -0.53899997 -0.182 5 0 0
1.772 -0.54000002 -0.182 5 0 0
1.771 -0.53799999 -0.183 5 0 0
1.767 -0.53500003 -0.182 5 0 0
1.772 -0.53600001 -0.183 5 0 0
1.762 -0.53100002 -0.182 5 0 0
1.784 -0.53600001 -0.185 5 0 0
1.763 -0.528 -0.183 5 0 0
1.756 -0.52499998 -0.182 5 0 0
1.771 -0.528 -0.184 5 0 0
1.761 -0.523 -0.183 5 0 0
1.767 -0.52399999 -0.184 5 0 0
1.752 -0.51800001 -0.183 5 0 0
1.762 -0.51899999 -0.184 5 0 0
1.755 -0.51499999 -0.183 5 0 0
1.755 -0.514 -0.183 5 0 0
1.7640001 -0.51499999 -0.184 5 0 0
1.7539999 -0.50999999 -0.184 5 0 0
1.765 -0.51200002 -0.185 5 0 0
1.766 -0.50999999 -0.185 5 0 0
1.74 -0.50099999 -0.182 5 0 0
1.743 -0.5 -0.183 6 0 0
1.743 -0.498 -0.183 5 0 0
1.749 -0.498 -0.183 5 0 0
1.749 -0.49599999 -0.183 6 0 0
1.791 -0.50599998 -0.18799999 6 0 0
1.819 -0.51200002 -0.191 5 0 0
1.837 -0.51499999 -0.193 5 0 0
1.858 -0.51999998 -0.19499999 3 0 0
1.975 -0.55000001 -0.207 3 0 0
1.961 -0.54400003 -0.206 2 0 0
1.957 -0.54100001 -0.205 2 0 0
1.969 -0.542 -0.206 2 0 0
1.956 -0.53600001 -0.205 2 0 0
1.951 -0.53200001 -0.204 2 0 0
2.0669999 -0.56199998 -0.21600001 2 0 0
2.158 -0.58399999 -0.226 2 0 0
2.1849999 -0.58899999 -0.228 2 0 0
2.174 -0.583 -0.227 3 0 0
2.164 -0.57800001 -0.226 3 0 0
2.148 -0.57099998 -0.22400001 3 0 0
2.1689999 -0.574 -0.226 3 0 0
2.1989999 -0.579 -0.229 2 0 0
2.221 -0.58200002 -0.23100001 2 0 0
2.2049999 -0.57499999 -0.229 2 0 0
2.2079999 -0.57300001 -0.229 2 0 0
2.217 -0.57300001 -0.23 2 0 0
2.2490001 -0.57800001 -0.23199999 2 0 0
2.2950001 -0.58700001 -0.237 2 0 0
2.29 -0.583 -0.236 2 0 0
2.2579999 -0.57200003 -0.23199999 2 0 0
2.2390001 -0.56400001 -0.23 2 0 0
2.2449999 -0.56300002 -0.23 2 0 0
2.286 -0.56999999 -0.234 2 0 0
2.3440001 -0.58099997 -0.23999999 2 0 0
2.3740001 -0.58499998 -0.242 1 0 0
2.3299999 -0.57099998 -0.237 2 0 0
2.2409999 -0.546 -0.228 2 0 0
2.177 -0.528 -0.221 3 0 0
2.135 -0.51499999 -0.21600001 3 0 0
2.142 -0.51300001 -0.21600001 3 0 0
2.1919999 -0.52200001 -0.221 3 0 0
2.2880001 -0.542 -0.23 2 0 0
2.3859999 -0.56199998 -0.23899999 1 0 0
2.4130001 -0.565 -0.241 1 0 0
2.4059999 -0.56 -0.23999999 1 0 0
2.4260001 -0.56099999 -0.241 1 0 0
2.3889999 -0.54900002 -0.237 1 0 0
2.4430001 -0.55800003 -0.241 1 0 0
2.4790001 -0.56199998 -0.244 1 0 0
2.4760001 -0.55800003 -0.243 1 0 0
2.3970001 -0.53600001 -0.235 1 0 0
2.398 -0.53299999 -0.234 1 0 0
2.467 -0.54500002 -0.23999999 1 0 0
2.549 -0.55900002 -0.24699999 1 0 0
2.5940001 -0.565 -0.25099999 1 0 0
2.654 -0.574 -0.25600001 1 0 0
2.701 -0.57999998 -0.259 1 0 0
2.6989999 -0.57499999 -0.25799999 1 0 0
2.6570001 -0.56199998 -0.25299999 1 0 0
2.622 -0.551 -0.249 1 0 0
2.596 -0.54100001 -0.245 1 0 0
2.5699999 -0.53200001 -0.242 1 0 0
2.302 -0.47299999 -0.21600001 2 0 0
2.253 -0.45899999 -0.20999999 2 0 0
2.2820001 -0.461 -0.212 2 0 0
2.46 -0.49399999 -0.227 1 0 0
2.9070001 -0.579 -0.26699999 2 0 0
2.941 -0.58099997 -0.26899999 2 0 0
2.882 -0.56400001 -0.26300001 1 0 0
2.8340001 -0.55000001 -0.257 1 0 0
2.5420001 -0.49000001 -0.229 1 0 0
2.4649999 -0.47099999 -0.221 1 0 0
2.322 -0.44 -0.207 2 0 0
2.1849999 -0.41 -0.19400001 3 0 0
2.0569999 -0.38299999 -0.182 4 0 0
0 0 0 0 0 0
2.0139999 -0.368 -0.176 5 0 0
0 0 0 0 0 0
2.1719999 -0.38999999 -0.18700001 3 0 0
2.8610001 -0.509 -0.245 1 0 0
3.0539999 -0.53799999 -0.25999999 46 0 0
3.0650001 -0.53500003 -0.25999999 40 0 0
3.059 -0.528 -0.257 35 0 0
3.076 -0.52600002 -0.257 38 0 0
3.069 -0.51999998 -0.255 40 0 0
3.0829999 -0.51700002 -0.25400001 36 0 0
3.0910001 -0.51300001 -0.25299999 34 0 0
3.105 -0.50999999 -0.252 27 0 0
3.1429999 -0.51099998 -0.25299999 18 0 0
3.3570001 -0.54000002 -0.26899999 17 0 0
3.4920001 -0.55500001 -0.27700001 16 0 0
3.5669999 -0.56099999 -0.28099999 70 0 0
3.5769999 -0.55699998 -0.28 64 0 0
3.5769999 -0.55000001 -0.27700001 65 0 0
3.5769999 -0.54400003 -0.27500001 66 0 0
3.5780001 -0.53799999 -0.273 66 0 0
3.5829999 -0.53299999 -0.271 65 0 0
3.5810001 -0.52600002 -0.26800001 68 0 0
3.5869999 -0.52100003 -0.266 71 0 0
3.5810001 -0.514 -0.264 83 0 0
3.5799999 -0.50700003 -0.26100001 86 0 0
3.5799999 -0.50099999 -0.259 103 0 0
3.5769999 -0.49399999 -0.25600001 123 0 0
3.576 -0.48800001 -0.25299999 102 0 0
3.5799999 -0.48199999 -0.25099999 111 0 0
3.5810001 -0.47600001 -0.248 111 0 0
3.592 -0.47099999 -0.24600001 112 0 0
3.6099999 -0.46700001 -0.245 113 0 0
3.6359999 -0.463 -0.244 72 0 0
3.6110001 -0.454 -0.23899999 3 0 0
5.6810002 -0.704 -0.373 1 0 0
5.737 -0.70099998 -0.37200001 2 0 0
5.7740002 -0.69499999 -0.37 3 0 0
0 0 0 0 0 0
0 0 0 0 0 0
5.8109999 -0.66799998 -0.35800001 2 0 0
5.8099999 -0.65700001 -0.35299999 1 0 0
5.869 -0.653 -0.352 1 0 0
5.882 -0.64399999 -0.34799999 1 0 0
5.881 -0.634 -0.34299999 2 0 0
5.8140001 -0.616 -0.33399999 2 0 0
5.9050002 -0.61500001 -0.33399999 2 0 0
5.612 -0.574 -0.31299999 1 0 0
5.9320002 -0.59600002 -0.32600001 1 0 0
5.9549999 -0.588 -0.322 1 0 0
5.994 -0.58099997 -0.31900001 1 0 0
5.5689998 -0.52899998 -0.29100001 1 0 0
5.6009998 -0.52200001 -0.28799999 1 0 0
5.5650001 -0.509 -0.28099999 1 0 0
5.5500002 -0.498 -0.27500001 1 0 0
5.5700002 -0.48899999 -0.271 1 0 0
5.5739999 -0.479 -0.266 1 0 0
5.6199999 -0.47299999 -0.26300001 1 0 0
5.6279998 -0.46399999 -0.25799999 1 0 0
5.552 -0.447 -0.249 1 0 0
5.5900002 -0.44 -0.245 1 0 0
5.638 -0.43399999 -0.242 1 0 0
5.5960002 -0.41999999 -0.235 1 0 0
5.5910001 -0.41 -0.229 1 0 0
5.5809999 -0.39899999 -0.223 1 0 0
5.6300001 -0.39199999 -0.219 1 0 0
5.6420002 -0.38299999 -0.214 1 0 0
5.6929998 -0.37599999 -0.20999999 1 0 0
8.2259998 -0.528 -0.296 2 0 0
8.3330002 -0.51999998 -0.29100001 2 0 0
8.3699999 -0.50700003 -0.28400001 3 0 0
8.4180002 -0.495 -0.27599999 3 0 0
8.5019999 -0.484 -0.27000001 2 0 0
8.5489998 -0.472 -0.26300001 2 0 0
5.5679998 -0.29699999 -0.16500001 1 0 0
8.7469997 -0.45100001 -0.25 17 0 0
5.5799999 -0.27700001 -0.154 1 0 0
5.5650001 -0.26699999 -0.147 1 0 0
5.573 -0.257 -0.141 1 0 0
5.5609999 -0.24600001 -0.13500001 1 0 0
8.8210001 -0.37599999 -0.204 4 0 0
8.9720001 -0.366 -0.198 6 0 0
0 0 0 0 0 0
0 0 0 0 0 0
0 0 0 0 0 0
5.651 -0.19 -0.098999999 1 0 0
0 0 0 0 0 0
5.5419998 -0.16599999 -0.083999999 1 0 0
5.6539998 -0.16 -0.079999998 1 0 0
0 0 0 0 0 0
5.6259999 -0.139 -0.066 1 0 0
5.631 -0.12899999 -0.059 1 0 0
5.6199999 -0.119 -0.052999999 1 0 0
5.6440001 -0.11 -0.046 1 0 0
5.566 -0.097999997 -0.039000001 1 0 0
5.5619998 -0.088 -0.032000002 1 0 0
0 0 0 0 0 0
5.6750002 -0.07 -0.018999999 1 0 0
5.8889999 -0.063000001 -0.013 1 0 0
5.8829999 -0.052000001 -0.0060000001 1 0 0
0 0 0 0 0 0
0 0 0 0 0 0
6.4250002 -0.024 0.016000001 13 0 0
6.4159999 -0.013 0.024 15 0 0
6.4450002 -0.0020000001 0.033 7 0 0
6.1869998 0.0080000004 0.039000001 8 0 0
5.9679999 0.017999999 0.045000002 8 0 0
6.026 0.028000001 0.052999999 8 0 0
6.2290001 0.039999999 0.063000001 10 0 0
6.2389998 0.050999999 0.071000002 8 0 0
6.1950002 0.061000001 0.079000004 8 0 0
6.1469998 0.071000002 0.086000003 8 0 0
6.086 0.081 0.093000002 8 0 0
6.0320001 0.090000004 0.1 8 0 0
5.9770002 0.098999999 0.107 8 0 0
5.9590001 0.109 0.115 8 0 0
5.921 0.118 0.122 9 0 0
5.9429998 0.12899999 0.13 4 0 0
5.8850002 0.13699999 0.13600001 1 0 0
5.8499999 0.146 0.14300001 1 0 0
5.6409998 0.15000001 0.146 22 0 0
5.5900002 0.15800001 0.152 45 0 0
5.5359998 0.16599999 0.15800001 88 0 0
5.5339999 0.175 0.16599999 136 0 0
5.5510001 0.184 0.17399999 113 0 0
5.54 0.193 0.18099999 120 0 0
5.5479999 0.20200001 0.189 129 0 0
5.54 0.211 0.19599999 128 0 0
5.546 0.22 0.204 137 0 0
5.5580001 0.23 0.212 114 0 0
5.5710001 0.23899999 0.22 122 0 0
5.5469999 0.24699999 0.227 114 0 0
5.4889998 0.25299999 0.23199999 134 0 0
0 0 0 0 0 0
0 0 0 0 0 0
3.5769999 0.182 0.16599999 8 0 0
3.536 0.185 0.169 9 0 0
3.497 0.189 0.17200001 9 0 0
3.444 0.191 0.175 8 0 0
3.4000001 0.19400001 0.177 8 0 0
3.359 0.197 0.18000001 8 0 0
3.3299999 0.2 0.183 8 0 0
3.2950001 0.20299999 0.186 9 0 0
3.2650001 0.206 0.189 9 0 0
3.224 0.20900001 0.191 8 0 0
3.188 0.211 0.19400001 10 0 0
3.141 0.213 0.19499999 10 0 0
3.1229999 0.21600001 0.199 13 0 0
3.098 0.219 0.20200001 12 0 0
3.0669999 0.221 0.204 12 0 0
3.0280001 0.223 0.206 11 0 0
3.01 0.226 0.20900001 11 0 0
2.9809999 0.229 0.211 12 0 0
2.947 0.23 0.213 41 0 0
2.9419999 0.234 0.21699999 62 0 0
2.9389999 0.23800001 0.221 74 0 0
2.9319999 0.242 0.22499999 77 0 0
2.934 0.24600001 0.23 90 0 0
2.9289999 0.25 0.233 123 0 0
2.9820001 0.259 0.242 85 0 0
3.0439999 0.26899999 0.252 64 0 0
3.1340001 0.28099999 0.264 28 0 0
3.5799999 0.32600001 0.30700001 5 0 0
3.658 0.338 0.31900001 67 0 0
3.658 0.34299999 0.324 64 0 0
3.6589999 0.34799999 0.33000001 65 0 0
3.658 0.35299999 0.33500001 65 0 0
3.658 0.35800001 0.34099999 64 0 0
3.6559999 0.36300001 0.34599999 65 0 0
3.6600001 0.36899999 0.352 71 0 0
3.6589999 0.373 0.35699999 76 0 0
3.6600001 0.37799999 0.36300001 78 0 0
3.6530001 0.38299999 0.368 64 0 0
3.641 0.38600001 0.37200001 38 0 0
3.6170001 0.38800001 0.375 26 0 0
3.595 0.391 0.37799999 26 0 0
3.5780001 0.39300001 0.382 26 0 0
3.563 0.396 0.38600001 25 0 0
3.5480001 0.39899999 0.389 25 0 0
3.5239999 0.40099999 0.39199999 24 0 0
3.51 0.40400001 0.396 26 0 0
3.4860001 0.40599999 0.398 24 0 0
3.47 0.40799999 0.40200001 25 0 0
3.457 0.41100001 0.405 23 0 0
3.4419999 0.41299999 0.40900001 22 0 0
3.4230001 0.41499999 0.412 21 0 0
3.404 0.417 0.41499999 21 0 0
3.388 0.419 0.41800001 22 0 0
3.3740001 0.42199999 0.421 23 0 0
3.358 0.42399999 0.42399999 24 0 0
3.3510001 0.42699999 0.428 21 0 0
3.319 0.42699999 0.42899999 21 0 0
3.312 0.43000001 0.433 21 0 0
3.29 0.43099999 0.435 22 0 0
3.2720001 0.43200001 0.43799999 22 0 0
3.2590001 0.43399999 0.44100001 23 0 0
3.2490001 0.43599999 0.44499999 21 0 0
3.2349999 0.43799999 0.447 24 0 0
3.217 0.43900001 0.44999999 22 0 0
3.2019999 0.44100001 0.45199999 23 0 0
3.1900001 0.44299999 0.45500001 23 0 0
3.1789999 0.44499999 0.45899999 21 0 0
3.1719999 0.447 0.46200001 22 0 0
3.1589999 0.449 0.465 19 0 0
3.1389999 0.449 0.46700001 23 0 0
3.128 0.45100001 0.47 20 0 0
3.1170001 0.45300001 0.47299999 19 0 0
3.1059999 0.454 0.47600001 22 0 0
3.092 0.45500001 0.47799999 24 0 0
3.076 0.456 0.47999999 20 0 0
3.073 0.45899999 0.484 20 0 0
3.0550001 0.45899999 0.486 22 0 0
3.0439999 0.461 0.48899999 22 0 0
3.0239999 0.461 0.49000001 19 0 0
3.0090001 0.461 0.49200001 21 0 0
3.0020001 0.463 0.495 21 0 0
2.99 0.46399999 0.498 21 0 0
2.983 0.46599999 0.50099999 22 0 0
2.9760001 0.46799999 0.50400001 21 0 0
2.961 0.46799999 0.50599998 20 0 0
2.9549999 0.47 0.509 19 0 0
2.9489999 0.472 0.51200002 19 0 0
2.9319999 0.472 0.51300001 23 0 0
2.921 0.47299999 0.51599997 22 0 0
2.914 0.47400001 0.51899999 21 0 0
2.9070001 0.47600001 0.52100003 24 0 0
2.8929999 0.47600001 0.523 24 0 0
2.8870001 0.477 0.52600002 23 0 0
2.875 0.47799999 0.528 24 0 0
2.865 0.479 0.52999997 23 0 0
2.859 0.47999999 0.53299999 22 0 0
2.8540001 0.48100001 0.53600001 22 0 0
2.842 0.48199999 0.53799999 21 0 0
2.8280001 0.48199999 0.53899997 21 0 0
2.826 0.484 0.54299998 21 0 0
2.8199999 0.48500001 0.54500002 22 0 0
2.8150001 0.486 0.54799998 21 0 0
2.8010001 0.486 0.54900002 22 0 0
2.7939999 0.48699999 0.55199999 21 0 0
2.7950001 0.48899999 0.55599999 22 0 0
2.783 0.48899999 0.55699998 21 0 0
2.779 0.491 0.56 21 0 0
2.7720001 0.491 0.56300002 21 0 0
2.76 0.491 0.56400001 20 0 0
2.7579999 0.493 0.56699997 21 0 0
2.753 0.49399999 0.56999999 21 0 0
2.7420001 0.49399999 0.57099998 21 0 0
2.74 0.495 0.574 22 0 0
2.7320001 0.49599999 0.57599998 21 0 0
2.7279999 0.49700001 0.579 20 0 0
2.717 0.49700001 0.57999998 20 0 0
2.714 0.498 0.583 21 0 0
2.707 0.498 0.58499998 21 0 0
2.6989999 0.498 0.58600003 22 0 0
2.6960001 0.5 0.58899999 22 0 0
2.684 0.49900001 0.58999997 23 0 0
2.681 0.5 0.59299999 23 0 0
2.6800001 0.50199997 0.59600002 23 0 0
2.6730001 0.50199997 0.59799999 23 0 0
2.6700001 0.50300002 0.60000002 22 0 0
2.6659999 0.50300002 0.60299999 22 0 0
2.6600001 0.50400001 0.60500002 23 0 0
2.6489999 0.50300002 0.60500002 23 0 0
2.6429999 0.50300002 0.60699999 21 0 0
2.6459999 0.505 0.611 23 0 0
2.638 0.505 0.61199999 22 0 0
2.6359999 0.50599998 0.61500001 23 0 0
2.6270001 0.50599998 0.616 21 0 0
2.628 0.50700003 0.61900002 22 0 0
2.6229999 0.50800002 0.62099999 22 0 0
2.6159999 0.50700003 0.62300003 21 0 0
2.615 0.50800002 0.625 21 0 0
2.6140001 0.509 0.62800002 21 0 0
2.605 0.509 0.62900001 21 0 0
2.6029999 0.509 0.63099998 22 0 0
2.602 0.50999999 0.634 22 0 0
2.596 0.50999999 0.63599998 20 0 0
2.592 0.50999999 0.63700002 21 0 0
2.586 0.50999999 0.639 22 0 0
2.5869999 0.51200002 0.64200002 22 0 0
2.582 0.51099998 0.64300001 21 0 0
2.5810001 0.51200002 0.64600003 21 0 0
2.576 0.51200002 0.64700001 22 0 0
2.5710001 0.51200002 0.64899999 21 0 0
2.5680001 0.51200002 0.65100002 21 0 0
2.572 0.514 0.65399998 22 0 0
2.566 0.51300001 0.65499997 21 0 0
2.563 0.514 0.65700001 21 0 0
2.5610001 0.514 0.65899998 21 0 0
2.55 0.51300001 0.65899998 20 0 0
2.5599999 0.51499999 0.66399997 21 0 0
2.5450001 0.51300001 0.662 21 0 0
2.5450001 0.514 0.66500002 20 0 0
2.5469999 0.51499999 0.66799998 20 0 0
2.5420001 0.514 0.66900003 20 0 0
2.5369999 0.514 0.67000002 20 0 0
2.539 0.51499999 0.67299998 21 0 0
2.5350001 0.51499999 0.67400002 21 0 0
2.5339999 0.51499999 0.676 20 0 0
2.533 0.51499999 0.67799997 20 0 0
2.5320001 0.51599997 0.68000001 20 0 0
2.5320001 0.51599997 0.68199998 20 0 0
2.527 0.51499999 0.68300003 20 0 0
2.5250001 0.51499999 0.685 20 0 0
2.5280001 0.51599997 0.68800002 20 0 0
2.526 0.51599997 0.68900001 21 0 0
2.5190001 0.51499999 0.69 19 0 0
2.5190001 0.51499999 0.69199997 19 0 0
2.5220001 0.51599997 0.69400001 20 0 0
2.5179999 0.51599997 0.69499999 19 0 0
2.523 0.51700002 0.699 21 0 0
2.523 0.51700002 0.70099998 21 0 0
2.516 0.51599997 0.70099998 21 0 0
2.513 0.51599997 0.70200002 20 0 0
2.5120001 0.51599997 0.70300001 20 0 0
2.52 0.51700002 0.70700002 21 0 0
2.5139999 0.51599997 0.70700002 21 0 0
2.5139999 0.51599997 0.70899999 21 0 0
2.517 0.51700002 0.71200001 20 0 0
2.51 0.51499999 0.71200001 20 0 0
2.51 0.51499999 0.713 20 0 0
2.5090001 0.51499999 0.71499997 20 0 0
2.5120001 0.51599997 0.71700001 19 0 0
2.5079999 0.51499999 0.71799999 20 0 0
2.5109999 0.51499999 0.72000003 19 0 0
2.51 0.51499999 0.72100002 19 0 0
2.51 0.51499999 0.72299999 19 0 0
2.51 0.51499999 0.72399998 19 0 0
2.516 0.51599997 0.727 21 0 0
2.513 0.51499999 0.72799999 20 0 0
2.5179999 0.51599997 0.73100001 20 0 0
2.513 0.51499999 0.73100001 20 0 0
2.51 0.514 0.73100001 19 0 0
2.516 0.51499999 0.73500001 20 0 0
2.516 0.514 0.736 20 0 0
2.5109999 0.51300001 0.736 19 0 0
2.5179999 0.514 0.73900002 20 0 0
2.517 0.51300001 0.74000001 20 0 0
2.5179999 0.51300001 0.741 20 0 0
2.52 0.51300001 0.74299997 19 0 0
2.52 0.51300001 0.74400002 19 0 0
2.523 0.51300001 0.74599999 19 0 0
2.5250001 0.51300001 0.74800003 19 0 0
2.5250001 0.51200002 0.74900001 19 0 0
2.5250001 0.51200002 0.75 19 0 0
2.527 0.51200002 0.75099999 19 0 0
2.536 0.51300001 0.755 21 0 0
2.527 0.51099998 0.75300002 19 0 0
2.5320001 0.51099998 0.75599998 20 0 0
2.5369999 0.51099998 0.75800002 20 0 0
2.5369999 0.50999999 0.759 20 0 0
2.5380001 0.50999999 0.75999999 20 0 0
2.54 0.50999999 0.76099998 19 0 0
2.543 0.50999999 0.76300001 20 0 0
2.5469999 0.50999999 0.764 19 0 0
2.5480001 0.509 0.76499999 19 0 0
2.5480001 0.50800002 0.76599997 19 0 0
2.553 0.50800002 0.76800001 19 0 0
2.5599999 0.509 0.77100003 20 0 0
2.5539999 0.50700003 0.76999998 19 0 0
2.559 0.50700003 0.77200001 20 0 0
2.562 0.50700003 0.773 20 0 0
2.5599999 0.505 0.773 19 0 0
2.5699999 0.50599998 0.77600002 20 0 0
2.5699999 0.505 0.77700001 20 0 0
2.572 0.505 0.778 19 0 0
2.576 0.505 0.77899998 20 0 0
2.579 0.50400001 0.77999997 20 0 0
2.579 0.50300002 0.78100002 20 0 0
2.5829999 0.50300002 0.78200001 20 0 0
2.5840001 0.50199997 0.78299999 21 0 0
2.589 0.50199997 0.78399998 20 0 0
2.596 0.50199997 0.78600001 21 0 0
2.5969999 0.50099999 0.787 20 0 0
2.602 0.50099999 0.78799999 19 0 0
2.608 0.50099999 0.79000002 20 0 0
2.609 0.5 0.79100001 20 0 0
2.6159999 0.5 0.79299998 22 0 0
2.6199999 0.49900001 0.79400003 21 0 0
2.622 0.498 0.79400003 22 0 0
2.6229999 0.49700001 0.79400003 21 0 0
2.625 0.49599999 0.79500002 22 0 0
2.6259999 0.495 0.79500002 21 0 0
2.6270001 0.49399999 0.79500002 21 0 0
2.6340001 0.49399999 0.79699999 21 0 0
2.638 0.493 0.79799998 21 0 0
2.645 0.493 0.80000001 21 0 0
2.6530001 0.493 0.80199999 21 0 0
2.6559999 0.49200001 0.80199999 20 0 0
2.661 0.491 0.80299997 20 0 0
2.6689999 0.49200001 0.80500001 21 0 0
2.671 0.49000001 0.80500001 20 0 0
2.677 0.49000001 0.80699998 20 0 0
2.681 0.48899999 0.80699998 19 0 0
2.688 0.48800001 0.80900002 20 0 0
2.6949999 0.48800001 0.81 20 0 0
2.698 0.48699999 0.81 19 0 0
2.701 0.486 0.81 19 0 0
2.704 0.48500001 0.81099999 18 0 0
2.7090001 0.484 0.81099999 19 0 0
2.7149999 0.48300001 0.81199998 19 0 0
2.723 0.48300001 0.81400001 19 0 0
2.723 0.48100001 0.81300002 19 0 0
2.734 0.48100001 0.815 19 0 0
2.7360001 0.47999999 0.815 18 0 0
2.7409999 0.479 0.815 19 0 0
2.747 0.47799999 0.81599998 19 0 0
2.7539999 0.477 0.81699997 19 0 0
2.766 0.477 0.81999999 19 0 0
2.7690001 0.47600001 0.81900001 19 0 0
2.773 0.47499999 0.81900001 18 0 0
2.78 0.47400001 0.81999999 19 0 0
2.79 0.47400001 0.82200003 19 0 0
2.793 0.472 0.82099998 18 0 0
2.8050001 0.472 0.82300001 19 0 0
2.8039999 0.47 0.82200003 18 0 0
2.816 0.47 0.824 19 0 0
2.822 0.46900001 0.824 19 0 0
2.823 0.46700001 0.82300001 19 0 0
2.832 0.46599999 0.824 19 0 0
2.839 0.465 0.824 20 0 0
2.8559999 0.46599999 0.82800001 17 0 0
2.859 0.46399999 0.82700002 17 0 0
2.868 0.463 0.82800001 18 0 0
2.8740001 0.46200001 0.82800001 18 0 0
2.882 0.461 0.82800001 19 0 0
2.891 0.46000001 0.829 19 0 0
2.8929999 0.458 0.82800001 18 0 0
2.905 0.458 0.829 20 0 0
2.911 0.456 0.829 20 0 0
2.9189999 0.45500001 0.829 19 0 0
2.931 0.45500001 0.83099997 17 0 0
2.9330001 0.45300001 0.829 18 0 0
2.9449999 0.45199999 0.83099997 18 0 0
2.954 0.45100001 0.83099997 18 0 0
2.964 0.44999999 0.83200002 18 0 0
2.9679999 0.44800001 0.83099997 17 0 0
2.9890001 0.449 0.83399999 18 0 0
2.9979999 0.44800001 0.83399999 20 0 0
3.01 0.447 0.83499998 19 0 0
3.017 0.44499999 0.83499998 19 0 0
3.026 0.44400001 0.83499998 17 0 0
3.0369999 0.44299999 0.83499998 18 0 0
3.0439999 0.44100001 0.83499998 20 0 0
3.0550001 0.44 0.83499998 19 0 0
3.063 0.43900001 0.83499998 18 0 0
3.0769999 0.43799999 0.83600003 18 0 0
3.0840001 0.43599999 0.83499998 16 0 0
3.096 0.435 0.83499998 18 0 0
3.1040001 0.43399999 0.83499998 19 0 0
3.1129999 0.43200001 0.83399999 19 0 0
3.128 0.43099999 0.83499998 19 0 0
3.132 0.42899999 0.83399999 18 0 0
3.142 0.428 0.833 17 0 0
3.1500001 0.426 0.83200002 18 0 0
3.165 0.42500001 0.833 18 0 0
3.1689999 0.42300001 0.83099997 18 0 0
3.1860001 0.42199999 0.83200002 18 0 0
3.197 0.421 0.83200002 18 0 0
3.204 0.41800001 0.83099997 18 0 0
3.223 0.41800001 0.83200002 18 0 0
3.234 0.417 0.83200002 18 0 0
3.2490001 0.41499999 0.83200002 18 0 0
3.253 0.41299999 0.829 18 0 0
3.2679999 0.412 0.82999998 17 0 0
3.2809999 0.41 0.82999998 17 0 0
3.299 0.40900001 0.82999998 19 0 0
3.3110001 0.40799999 0.82999998 19 0 0
3.322 0.40599999 0.829 17 0 0
3.332 0.40400001 0.82800001 19 0 0
3.3380001 0.40200001 0.82499999 18 0 0
3.3499999 0.40000001 0.824 19 0 0
3.3640001 0.398 0.824 20 0 0
3.3759999 0.39700001 0.82300001 20 0 0
3.395 0.39500001 0.82300001 20 0 0
3.401 0.39300001 0.82099998 20 0 0
3.4170001 0.39199999 0.81999999 20 0 0
3.428 0.38999999 0.81900001 20 0 0
3.4449999 0.38800001 0.81900001 21 0 0
3.4530001 0.38600001 0.81599998 20 0 0
3.4679999 0.384 0.815 21 0 0
3.48 0.382 0.81400001 20 0 0
3.4960001 0.38 0.81300002 21 0 0
3.5120001 0.37900001 0.81199998 21 0 0
3.5220001 0.37599999 0.81 22 0 0
3.533 0.37400001 0.80800003 21 0 0
3.55 0.373 0.80699998 22 0 0
3.5610001 0.37 0.80500001 22 0 0
3.569 0.368 0.80199999 21 0 0
3.589 0.366 0.80199999 27 0 0
3.612 0.36500001 0.80199999 43 0 0
3.605 0.361 0.796 50 0 0
3.612 0.35800001 0.792 59 0 0
3.6140001 0.35499999 0.78799999 59 0 0
3.6140001 0.35100001 0.78299999 58 0 0
3.6129999 0.34799999 0.77700001 57 0 0
3.608 0.34400001 0.77100003 53 0 0
3.615 0.34099999 0.76800001 58 0 0
3.6170001 0.338 0.76300001 57 0 0
3.618 0.33399999 0.75800002 58 0 0
3.615 0.33000001 0.75199997 61 0 0
3.6199999 0.32699999 0.74800003 58 0 0
3.6110001 0.32300001 0.741 57 0 0
3.6229999 0.32100001 0.73799998 58 0 0
3.6140001 0.31600001 0.73000002 57 0 0
3.5369999 0.30599999 0.70999998 5 0 0
3.1240001 0.26699999 0.62199998 20 0 0
3.0380001 0.257 0.60000002 52 0 0
2.99 0.25 0.58600003 88 0 0
2.9679999 0.245 0.57700002 62 0 0
2.908 0.23800001 0.56099999 93 0 0
2.902 0.235 0.55599999 124 0 0
2.904 0.23199999 0.551 147 0 0
2.898 0.229 0.546 124 0 0
2.8989999 0.226 0.54100001 124 0 0
2.902 0.223 0.537 106 0 0
2.908 0.221 0.53399998 82 0 0
2.9100001 0.219 0.52899998 64 0 0
2.918 0.21600001 0.52600002 51 0 0
2.927 0.214 0.523 29 0 0
2.947 0.213 0.52200001 13 0 0
2.97 0.212 0.52100003 13 0 0
2.99 0.211 0.51999998 12 0 0
2.997 0.208 0.51599997 12 0 0
3.0239999 0.207 0.51599997 13 0 0
3.039 0.205 0.51300001 13 0 0
3.0550001 0.204 0.51099998 13 0 0
3.075 0.20200001 0.509 14 0 0
3.089 0.2 0.50599998 13 0 0
3.1040001 0.198 0.50300002 11 0 0
3.118 0.197 0.5 9 0 0
3.1359999 0.19499999 0.498 8 0 0
3.1760001 0.19400001 0.49900001 7 0 0
3.191 0.193 0.49599999 7 0 0
3.2320001 0.192 0.49599999 8 0 0
3.247 0.19 0.493 8 0 0
3.2679999 0.18799999 0.49000001 8 0 0
3.2850001 0.186 0.48699999 9 0 0
3.3099999 0.185 0.48500001 9 0 0
3.3239999 0.183 0.48100001 9 0 0
3.349 0.18099999 0.479 9 0 0
3.369 0.17900001 0.47600001 8 0 0
3.3989999 0.178 0.47400001 9 0 0
3.4170001 0.176 0.47 8 0 0
3.4530001 0.175 0.46900001 8 0 0
3.4660001 0.17200001 0.46399999 8 0 0
3.493 0.171 0.46200001 8 0 0
3.5250001 0.169 0.46000001 8 0 0
3.552 0.167 0.45699999 8 0 0
0 0 0 0 0 0
0 0 0 0 0 0
0 0 0 0 0 0
0 0 0 0 0 0
0 0 0 0 0 0
5.4689999 0.23100001 0.64300001 119 0 0
5.5170002 0.228 0.63800001 129 0 0
5.5219998 0.22400001 0.62800002 121 0 0
5.539 0.22 0.62 138 0 0
5.5159998 0.215 0.60699999 137 0 0
5.5240002 0.211 0.597 129 0 0
5.5240002 0.206 0.58700001 129 0 0
5.5359998 0.20200001 0.57800001 121 0 0
5.5240002 0.197 0.56599998 121 0 0
5.5219998 0.193 0.55500001 129 0 0
5.5380001 0.189 0.546 121 0 0
5.5289998 0.185 0.53500003 121 0 0
5.5219998 0.18000001 0.523 121 0 0
5.5209999 0.176 0.51300001 137 0 0
5.5209999 0.17200001 0.50199997 120 0 0
5.527 0.168 0.49200001 106 0 0
5.527 0.164 0.48100001 106 0 0
5.5079999 0.15899999 0.46900001 106 0 0
5.507 0.155 0.458 106 0 0
5.5139999 0.15099999 0.447 94 0 0
5.526 0.147 0.43700001 83 0 0
5.5479999 0.14399999 0.428 75 0 0
5.5819998 0.141 0.41999999 53 0 0
5.6209998 0.138 0.41100001 35 0 0
5.5830002 0.133 0.398 21 0 0
5.6149998 0.13 0.38800001 8 0 0
5.6570001 0.127 0.38 1 0 0
5.6609998 0.123 0.36899999 1 0 0
5.71 0.12 0.361 1 0 0
5.7150002 0.116 0.34999999 1 0 0
5.9250002 0.116 0.35100001 1 0 0
5.8839998 0.112 0.336 2 0 0
5.9089999 0.108 0.32600001 3 0 0
5.9369998 0.105 0.315 5 0 0
5.9510002 0.101 0.30399999 6 0 0
5.9840002 0.097999997 0.294 6 0 0
6.0170002 0.094999999 0.28299999 5 0 0
6.0229998 0.090999998 0.271 8 0 0
6.0669999 0.088 0.26100001 7 0 0
6.0929999 0.085000001 0.249 6 0 0
6.0809999 0.081 0.237 8 0 0
6.105 0.077 0.22499999 8 0 0
6.0910001 0.074000001 0.212 8 0 0
6.0939999 0.07 0.2 8 0 0
6.0960002 0.067000002 0.18799999 8 0 0
6.1199999 0.063000001 0.176 8 0 0
6.1620002 0.059999999 0.164 8 0 0
6.1589999 0.057 0.152 8 0 0
6.1810002 0.054000001 0.14 8 0 0
6.1989999 0.050000001 0.127 8 0 0
6.2210002 0.046999998 0.115 8 0 0
6.2340002 0.044 0.102 8 0 0
6.2550001 0.041000001 0.090000004 9 0 0
6.2160001 0.037 0.075999998 10 0 0
6.0370002 0.033 0.061999999 8 0 0
6.0300002 0.029999999 0.048999999 8 0 0
6.2729998 0.028000001 0.037999999 10 0 0
6.3429999 0.025 0.025 9 0 0
6.3569999 0.022 0.012 9 0 0
6.3740001 0.018999999 0 9 0 0
6.4330001 0.016000001 -0.014 9 0 0
6.4359999 0.013 -0.027000001 9 0 0
6.4260001 0.0099999998 -0.039999999 9 0 0
6.448 0.0070000002 -0.054000001 9 0 0
6.4949999 0.0040000002 -0.068000004 8 0 0
6.4980001 0.001 -0.082000002 8 0 0
6.4840002 -0.001 -0.094999999 5 0 0
6.4289999 -0.003 -0.108 7 0 0
6.3930001 -0.0060000001 -0.12 9 0 0
6.4330001 -0.0089999996 -0.13500001 7 0 0
6.4710002 -0.011 -0.149 7 0 0
6.4790001 -0.014 -0.163 9 0 0
6.5219998 -0.017000001 -0.177 8 0 0
6.4970002 -0.018999999 -0.19 8 0 0
0 0 0 0 0 0
0 0 0 0 0 0
0 0 0 0 0 0
0 0 0 0 0 0
0 0 0 0 0 0
0 0 0 0 0 0
0 0 0 0 0 0
0 0 0 0 0 0
0 0 0 0 0 0
0 0 0 0 0 0
0 0 0 0 0 0
0 0 0 0 0 0
0 0 0 0 0 0
6.4489999 -0.048999999 -0.37599999 9 0 0
6.473 -0.050999999 -0.391 9 0 0
6.4710002 -0.052999999 -0.40400001 9 0 0
6.4229999 -0.054000001 -0.41499999 9 0 0
6.3390002 -0.055 -0.42199999 9 0 0
6.2979999 -0.057 -0.43200001 9 0 0
6.2449999 -0.057999998 -0.442 8 0 0
6.1919999 -0.059 -0.44999999 8 0 0
6.1279998 -0.059 -0.458 8 0 0
6.0570002 -0.059999999 -0.465 8 0 0
5.9829998 -0.061000001 -0.472 8 0 0
5.915 -0.061000001 -0.479 8 0 0
5.8520002 -0.061999999 -0.486 7 0 0
5.783 -0.061999999 -0.49200001 7 0 0
5.7179999 -0.063000001 -0.498 8 0 0
5.665 -0.063000001 -0.505 11 0 0
5.6069999 -0.063000001 -0.51099998 15 0 0
5.552 -0.064000003 -0.51800001 14 0 0
5.4949999 -0.064000003 -0.523 14 0 0
5.4359999 -0.064000003 -0.52899998 14 0 0
5.3839998 -0.064000003 -0.53500003 15 0 0
5.3340001 -0.064000003 -0.54100001 16 0 0
5.2810001 -0.064999998 -0.546 16 0 0
5.223 -0.064999998 -0.551 14 0 0
5.1789999 -0.064999998 -0.55599999 15 0 0
5.1269999 -0.064999998 -0.56099999 15 0 0
5.0760002 -0.064000003 -0.56599998 15 0 0
5.0320001 -0.064000003 -0.57099998 15 0 0
4.973 -0.064000003 -0.574 18 0 0
4.948 -0.064000003 -0.58099997 18 0 0
4.8889999 -0.064000003 -0.58399999 17 0 0
4.855 -0.064000003 -0.58999997 16 0 0
4.8049998 -0.064000003 -0.59299999 17 0 0
4.77 -0.063000001 -0.59799999 17 0 0
4.7249999 -0.063000001 -0.602 17 0 0
4.6830001 -0.063000001 -0.60600001 18 0 0
4.6409998 -0.061999999 -0.61000001 19 0 0
4.6069999 -0.061999999 -0.61400002 19 0 0
4.5809999 -0.061999999 -0.62 18 0 0
4.526 -0.061000001 -0.62099999 16 0 0
4.4809999 -0.061000001 -0.62400001 17 0 0
4.447 -0.059999999 -0.62800002 15 0 0
4.4089999 -0.059999999 -0.63099998 17 0 0
4.3829999 -0.059 -0.63599998 15 0 0
4.349 -0.059 -0.639 18 0 0
4.3099999 -0.059 -0.64200002 20 0 0
4.2810001 -0.057999998 -0.64600003 22 0 0
4.2470002 -0.057 -0.64899999 23 0 0
4.2199998 -0.057 -0.653 22 0 0
4.184 -0.056000002 -0.65499997 20 0 0
4.1539998 -0.056000002 -0.65799999 21 0 0
4.1279998 -0.055 -0.662 22 0 0
4.0929999 -0.054000001 -0.66399997 21 0 0
4.0689998 -0.054000001 -0.667 20 0 0
4.039 -0.052999999 -0.67000002 21 0 0
4.0110002 -0.052999999 -0.67299998 19 0 0
3.9909999 -0.052000001 -0.67699999 19 0 0
3.9590001 -0.050999999 -0.67900002 20 0 0
3.9330001 -0.050999999 -0.68099999 21 0 0
3.9089999 -0.050000001 -0.68400002 20 0 0
3.878 -0.048999999 -0.68599999 19 0 0
3.848 -0.048 -0.68800002 19 0 0
3.812 -0.048 -0.68800002 20 0 0
3.796 -0.046999998 -0.69199997 18 0 0
3.767 -0.046 -0.69400001 18 0 0
3.7460001 -0.045000002 -0.69700003 20 0 0
3.72 -0.044 -0.699 22 0 0
3.698 -0.044 -0.70099998 22 0 0
3.674 -0.043000001 -0.70300001 19 0 0
3.658 -0.041999999 -0.70599997 18 0 0
3.628 -0.041000001 -0.70700002 20 0 0
3.6099999 -0.041000001 -0.70999998 24 0 0
3.589 -0.039999999 -0.71200001 26 0 0
3.5710001 -0.039000001 -0.71499997 26 0 0
3.5510001 -0.037999999 -0.71700001 25 0 0
3.526 -0.037 -0.71799999 23 0 0
3.5050001 -0.035999998 -0.71899998 22 0 0
3.4909999 -0.035 -0.72299999 24 0 0
3.47 -0.035 -0.72399998 23 0 0
3.4519999 -0.034000002 -0.72600001 23 0 0
3.437 -0.033 -0.72899997 24 0 0
3.4130001 -0.032000002 -0.72899997 23 0 0
3.3940001 -0.030999999 -0.73100001 23 0 0
3.3770001 -0.029999999 -0.73299998 24 0 0
3.365 -0.028999999 -0.736 23 0 0
3.349 -0.028000001 -0.73799998 24 0 0
3.3269999 -0.027000001 -0.73900002 24 0 0
3.3110001 -0.026000001 -0.74000001 22 0 0
3.293 -0.026000001 -0.74199998 23 0 0
3.2739999 -0.025 -0.74299997 25 0 0
3.2550001 -0.024 -0.74400002 26 0 0
3.2409999 -0.023 -0.745 26 0 0
3.23 -0.022 -0.74800003 26 0 0
3.2179999 -0.021 -0.75 26 0 0
3.1989999 -0.02 -0.75099999 23 0 0
3.1830001 -0.018999999 -0.75199997 22 0 0
3.1700001 -0.017999999 -0.75400001 22 0 0
3.1589999 -0.017000001 -0.75599998 21 0 0
3.142 -0.016000001 -0.75599998 25 0 0
3.131 -0.015 -0.75800002 22 0 0
3.115 -0.014 -0.759 23 0 0
3.1059999 -0.013 -0.76200002 22 0 0
3.092 -0.012 -0.76300001 22 0 0
3.075 -0.011 -0.76300001 23 0 0
3.059 -0.0099999998 -0.764 22 0 0
3.0510001 -0.0089999996 -0.76599997 22 0 0
3.0320001 -0.0080000004 -0.76599997 25 0 0
3.027 -0.0080000004 -0.76899999 22 0 0
2.9960001 -0.0060000001 -0.76499999 23 0 0
2.9909999 -0.0049999999 -0.76800001 24 0 0
2.9779999 -0.0040000002 -0.76899999 24 0 0
2.9660001 -0.003 -0.76999998 22 0 0
2.96 -0.003 -0.77200001 24 0 0
2.948 -0.0020000001 -0.773 20 0 0
2.9389999 0 -0.77499998 25 0 0
2.9289999 0 -0.77600002 23 0 0
2.914 0.001 -0.77600002 24 0 0
2.8989999 0.001 -0.77600002 23 0 0
2.8900001 0.0020000001 -0.77700001 25 0 0
2.8870001 0.003 -0.77999997 23 0 0
2.872 0.0040000002 -0.77999997 25 0 0
2.8670001 0.0049999999 -0.78200001 26 0 0
2.849 0.0060000001 -0.78100002 23 0 0
2.8380001 0.0070000002 -0.78100002 23 0 0
2.8310001 0.0080000004 -0.78299999 25 0 0
2.822 0.0089999996 -0.78399998 25 0 0
2.8110001 0.0099999998 -0.78399998 25 0 0
2.803 0.012 -0.78500003 25 0 0
2.796 0.013 -0.78600001 25 0 0
2.7909999 0.014 -0.78799999 24 0 0
2.776 0.015 -0.787 24 0 0
2.7690001 0.016000001 -0.78899997 24 0 0
2.7609999 0.017000001 -0.78899997 24 0 0
2.7539999 0.017999999 -0.79100001 22 0 0
2.7449999 0.018999999 -0.79100001 24 0 0
2.7379999 0.02 -0.792 23 0 0
2.73 0.021 -0.79299998 25 0 0
2.723 0.022 -0.79400003 26 0 0
2.71 0.023 -0.79299998 26 0 0
2.7 0.024 -0.79299998 28 0 0
2.6960001 0.025 -0.79400003 28 0 0
2.688 0.026000001 -0.79500002 27 0 0
2.687 0.027000001 -0.79699999 27 0 0
2.678 0.028000001 -0.79699999 26 0 0
2.668 0.028999999 -0.79699999 26 0 0
