# .PCD v0.7 - Point Cloud Data file format
VERSION 0.7
FIELDS x y z intensity tag line
SIZE 4 4 4 4 1 1
TYPE F F F F U U
COUNT 1 1 1 1 1 1
WIDTH 1430
HEIGHT 1
VIEWPOINT 0 0 0 1 0 0 0
POINTS 1430
DATA ascii
3.2650001 -1.0650001 -0.12 100 0 0
3.267 -1.067 -0.121 92 0 0
3.266 -1.069 -0.123 92 0 0
3.2780001 -1.074 -0.125 86 0 0
3.309 -1.086 -0.127 88 0 0
3.336 -1.096 -0.13 78 0 0
3.3499999 -1.102 -0.132 67 0 0
3.3670001 -1.109 -0.134 59 0 0
3.3900001 -1.118 -0.13699999 50 0 0
3.4130001 -1.127 -0.139 42 0 0
3.421 -1.131 -0.141 35 0 0
3.437 -1.137 -0.14300001 31 0 0
3.477 -1.152 -0.147 38 0 0
3.5239999 -1.168 -0.15000001 42 0 0
3.549 -1.178 -0.153 62 0 0
3.5510001 -1.1799999 -0.155 60 0 0
3.556 -1.182 -0.156 58 0 0
3.5539999 -1.183 -0.15800001 59 0 0
3.5550001 -1.184 -0.16 58 0 0
3.5569999 -1.1849999 -0.161 58 0 0
3.5539999 -1.1849999 -0.163 59 0 0
3.5569999 -1.187 -0.164 55 0 0
3.5539999 -1.186 -0.16599999 48 0 0
3.556 -1.188 -0.167 52 0 0
3.556 -1.188 -0.169 45 0 0
3.5580001 -1.189 -0.171 55 0 0
3.5550001 -1.189 -0.17200001 58 0 0
3.556 -1.1900001 -0.17399999 52 0 0
3.5550001 -1.1900001 -0.175 48 0 0
3.5569999 -1.191 -0.177 52 0 0
3.5550001 -1.1900001 -0.178 45 0 0
3.552 -1.1900001 -0.17900001 48 0 0
3.5550001 -1.191 -0.18099999 45 0 0
3.5539999 -1.191 -0.182 48 0 0
3.5539999 -1.191 -0.184 48 0 0
3.552 -1.1900001 -0.185 48 0 0
3.5539999 -1.191 -0.18700001 48 0 0
3.556 -1.191 -0.18799999 46 0 0
3.553 -1.1900001 -0.19 55 0 0
3.553 -1.1900001 -0.191 45 0 0
3.553 -1.1900001 -0.192 58 0 0
3.5569999 -1.191 -0.19400001 52 0 0
3.553 -1.189 -0.19499999 58 0 0
3.5539999 -1.189 -0.197 48 0 0
3.5550001 -1.189 -0.198 48 0 0
3.5539999 -1.188 -0.199 48 0 0
3.5539999 -1.188 -0.20100001 48 0 0
3.552 -1.186 -0.20200001 58 0 0
3.5550001 -1.187 -0.204 45 0 0
3.5539999 -1.186 -0.205 58 0 0
3.5539999 -1.1849999 -0.206 48 0 0
3.5539999 -1.184 -0.207 58 0 0
3.553 -1.183 -0.20900001 61 0 0
3.5550001 -1.183 -0.20999999 58 0 0
3.552 -1.181 -0.211 58 0 0
3.55 -1.179 -0.212 61 0 0
3.552 -1.179 -0.214 63 0 0
3.546 -1.176 -0.215 62 0 0
3.5190001 -1.166 -0.214 37 0 0
3.4630001 -1.146 -0.212 34 0 0
3.4349999 -1.136 -0.211 33 0 0
3.4159999 -1.128 -0.211 37 0 0
3.4070001 -1.124 -0.212 42 0 0
3.3870001 -1.1160001 -0.212 50 0 0
3.3640001 -1.107 -0.211 56 0 0
3.3429999 -1.099 -0.211 67 0 0
3.329 -1.0930001 -0.211 80 0 0
3.3050001 -1.0829999 -0.211 83 0 0
3.2739999 -1.072 -0.20999999 86 0 0
3.2579999 -1.0650001 -0.20999999 108 0 0
3.2579999 -1.063 -0.211 92 0 0
3.26 -1.062 -0.212 86 0 0
3.257 -1.0599999 -0.213 91 0 0
3.257 -1.058 -0.214 80 0 0
3.263 -1.058 -0.215 78 0 0
3.2650001 -1.057 -0.21600001 73 0 0
3.2690001 -1.056 -0.21699999 52 0 0
3.2780001 -1.057 -0.219 44 0 0
3.28 -1.056 -0.22 38 0 0
3.2909999 -1.057 -0.221 26 0 0
3.299 -1.058 -0.223 23 0 0
3.309 -1.059 -0.22400001 21 0 0
3.3169999 -1.0599999 -0.226 24 0 0
3.3269999 -1.061 -0.227 25 0 0
3.3310001 -1.0599999 -0.228 25 0 0
3.339 -1.0599999 -0.229 26 0 0
3.3469999 -1.0599999 -0.23100001 26 0 0
3.348 -1.058 -0.23199999 26 0 0
3.362 -1.0599999 -0.233 27 0 0
3.3759999 -1.062 -0.235 27 0 0
3.3829999 -1.061 -0.236 23 0 0
3.388 -1.061 -0.23800001 25 0 0
3.3989999 -1.061 -0.23899999 23 0 0
3.4030001 -1.0599999 -0.23999999 23 0 0
3.4200001 -1.062 -0.242 24 0 0
3.4260001 -1.061 -0.243 24 0 0
3.4349999 -1.061 -0.244 24 0 0
3.4389999 -1.0599999 -0.245 25 0 0
3.4519999 -1.061 -0.24699999 24 0 0
3.461 -1.0599999 -0.248 24 0 0
3.467 -1.059 -0.249 24 0 0
3.484 -1.061 -0.25099999 24 0 0
3.494 -1.061 -0.252 23 0 0
3.5 -1.0599999 -0.25299999 25 0 0
3.513 -1.0599999 -0.255 26 0 0
3.527 -1.061 -0.25600001 35 0 0
3.5409999 -1.062 -0.25799999 52 0 0
3.5469999 -1.061 -0.259 66 0 0
3.5539999 -1.059 -0.25999999 76 0 0
3.549 -1.054 -0.25999999 73 0 0
3.5510001 -1.051 -0.25999999 65 0 0
3.5510001 -1.0470001 -0.26100001 60 0 0
3.5539999 -1.045 -0.26199999 61 0 0
3.5510001 -1.04 -0.26199999 62 0 0
3.556 -1.038 -0.26300001 61 0 0
3.553 -1.033 -0.26300001 62 0 0
3.5539999 -1.03 -0.26300001 62 0 0
3.5550001 -1.026 -0.26300001 62 0 0
3.5539999 -1.022 -0.264 63 0 0
3.553 -1.017 -0.264 66 0 0
3.5450001 -1.011 -0.264 60 0 0
3.5550001 -1.01 -0.26499999 66 0 0
3.5569999 -1.007 -0.26499999 62 0 0
3.5550001 -1.002 -0.26499999 64 0 0
3.55 -0.99599999 -0.26499999 60 0 0
3.5580001 -0.99400002 -0.266 64 0 0
3.55 -0.98799998 -0.26499999 62 0 0
3.553 -0.98400003 -0.26499999 60 0 0
3.5539999 -0.98000002 -0.266 60 0 0
3.553 -0.97600001 -0.266 62 0 0
3.5539999 -0.972 -0.266 62 0 0
3.556 -0.96799999 -0.266 61 0 0
3.5550001 -0.963 -0.266 61 0 0
3.556 -0.95899999 -0.266 61 0 0
3.559 -0.95499998 -0.266 62 0 0
3.5580001 -0.94999999 -0.266 61 0 0
3.5610001 -0.94599998 -0.266 62 0 0
3.5550001 -0.94 -0.266 61 0 0
3.562 -0.93699998 -0.266 61 0 0
3.563 -0.93199998 -0.266 61 0 0
3.562 -0.92799997 -0.266 63 0 0
3.5610001 -0.92299998 -0.266 60 0 0
3.563 -0.91799998 -0.266 59 0 0
3.5569999 -0.912 -0.26499999 57 0 0
3.562 -0.90799999 -0.26499999 62 0 0
3.563 -0.903 -0.26499999 62 0 0
3.5580001 -0.89700001 -0.264 60 0 0
3.5599999 -0.89200002 -0.264 59 0 0
3.5599999 -0.88800001 -0.264 60 0 0
3.556 -0.88200003 -0.26300001 57 0 0
3.562 -0.87800002 -0.264 60 0 0
3.562 -0.87300003 -0.26300001 61 0 0
3.562 -0.86699998 -0.26300001 60 0 0
3.559 -0.86199999 -0.26199999 58 0 0
3.5580001 -0.85600001 -0.26199999 61 0 0
3.5569999 -0.85100001 -0.26100001 60 0 0
3.5599999 -0.84600002 -0.26100001 61 0 0
3.5610001 -0.84100002 -0.25999999 61 0 0
3.5599999 -0.83499998 -0.25999999 60 0 0
3.5639999 -0.83099997 -0.259 61 0 0
3.5650001 -0.82599998 -0.259 61 0 0
3.5550001 -0.81800002 -0.25799999 60 0 0
3.5599999 -0.81300002 -0.257 58 0 0
3.5610001 -0.80800003 -0.257 58 0 0
3.5650001 -0.80400002 -0.25600001 62 0 0
3.5650001 -0.79799998 -0.25600001 63 0 0
3.566 -0.79299998 -0.255 63 0 0
3.563 -0.78600001 -0.25400001 59 0 0
3.563 -0.78100002 -0.25299999 61 0 0
3.5650001 -0.77600002 -0.25299999 60 0 0
3.566 -0.76999998 -0.252 61 0 0
3.562 -0.76300001 -0.25099999 65 0 0
3.5599999 -0.75700003 -0.25 65 0 0
3.5650001 -0.75300002 -0.249 64 0 0
3.566 -0.74699998 -0.249 65 0 0
3.5639999 -0.741 -0.24699999 65 0 0
3.5599999 -0.73400003 -0.24600001 63 0 0
3.5669999 -0.72899997 -0.24600001 64 0 0
3.563 -0.72299999 -0.244 63 0 0
3.5669999 -0.71799999 -0.244 59 0 0
3.5650001 -0.71100003 -0.243 59 0 0
3.563 -0.70499998 -0.241 63 0 0
3.5669999 -0.699 -0.23999999 63 0 0
3.5680001 -0.69400001 -0.23899999 63 0 0
3.5650001 -0.68699998 -0.23800001 66 0 0
3.5610001 -0.68000001 -0.237 64 0 0
3.5380001 -0.67000002 -0.234 48 0 0
3.48 -0.653 -0.229 30 0 0
3.3629999 -0.625 -0.22 28 0 0
3.3499999 -0.61699998 -0.21799999 30 0 0
3.3429999 -0.61000001 -0.21600001 27 0 0
3.3410001 -0.60299999 -0.215 36 0 0
3.335 -0.597 -0.213 37 0 0
3.335 -0.59100002 -0.212 39 0 0
3.3239999 -0.583 -0.20999999 38 0 0
3.3199999 -0.57700002 -0.208 41 0 0
3.3239999 -0.57099998 -0.207 43 0 0
3.319 -0.565 -0.206 49 0 0
3.3210001 -0.55900002 -0.204 42 0 0
3.3180001 -0.55199999 -0.20299999 44 0 0
3.3199999 -0.54699999 -0.20100001 44 0 0
3.3150001 -0.54000002 -0.199 47 0 0
3.3150001 -0.53399998 -0.198 44 0 0
3.312 -0.528 -0.19599999 52 0 0
3.313 -0.52200001 -0.19499999 52 0 0
3.3139999 -0.51599997 -0.193 52 0 0
3.3150001 -0.50999999 -0.192 50 0 0
3.316 -0.50400001 -0.19 50 0 0
3.3169999 -0.49900001 -0.189 50 0 0
3.3169999 -0.49200001 -0.18700001 44 0 0
3.3180001 -0.486 -0.185 53 0 0
3.322 -0.48100001 -0.184 47 0 0
3.3199999 -0.47499999 -0.182 44 0 0
3.322 -0.46900001 -0.18000001 34 0 0
3.3280001 -0.463 -0.17900001 24 0 0
3.348 -0.46000001 -0.178 32 0 0
3.3610001 -0.45500001 -0.177 34 0 0
3.368 -0.44999999 -0.175 36 0 0
3.378 -0.44499999 -0.17399999 28 0 0
3.395 -0.44100001 -0.17299999 33 0 0
3.411 -0.43700001 -0.17200001 32 0 0
3.4779999 -0.43900001 -0.17299999 42 0 0
3.5480001 -0.44100001 -0.17399999 47 0 0
3.576 -0.43799999 -0.17299999 77 0 0
3.575 -0.43099999 -0.171 78 0 0
3.576 -0.42500001 -0.169 70 0 0
3.5810001 -0.41800001 -0.167 75 0 0
3.5810001 -0.412 -0.16500001 80 0 0
3.576 -0.40400001 -0.162 85 0 0
3.575 -0.398 -0.16 94 0 0
3.579 -0.391 -0.15800001 88 0 0
3.5810001 -0.38499999 -0.155 85 0 0
3.579 -0.37799999 -0.153 79 0 0
3.5699999 -0.37 -0.15000001 74 0 0
3.5650001 -0.36300001 -0.147 87 0 0
3.566 -0.35600001 -0.145 88 0 0
3.5699999 -0.34999999 -0.14300001 85 0 0
3.569 -0.34299999 -0.14 84 0 0
3.569 -0.336 -0.13699999 82 0 0
3.566 -0.329 -0.13500001 87 0 0
3.572 -0.32300001 -0.132 94 0 0
3.569 -0.31600001 -0.13 93 0 0
3.573 -0.30899999 -0.127 84 0 0
3.575 -0.303 -0.124 82 0 0
3.582 -0.296 -0.122 94 0 0
3.582 -0.28999999 -0.119 94 0 0
3.5810001 -0.28299999 -0.116 88 0 0
3.5840001 -0.27599999 -0.114 94 0 0
3.582 -0.26899999 -0.111 84 0 0
3.582 -0.26199999 -0.108 88 0 0
3.5829999 -0.255 -0.105 88 0 0
3.586 -0.249 -0.102 88 0 0
3.5810001 -0.242 -0.098999999 109 0 0
3.5810001 -0.235 -0.096000001 109 0 0
3.585 -0.228 -0.093000002 101 0 0
3.5840001 -0.221 -0.090000004 94 0 0
3.5840001 -0.215 -0.086999997 101 0 0
3.582 -0.208 -0.083999999 109 0 0
3.592 -0.20100001 -0.081 94 0 0
3.5869999 -0.19400001 -0.078000002 94 0 0
3.589 -0.18700001 -0.075000003 110 0 0
3.5880001 -0.18000001 -0.071000002 94 0 0
3.589 -0.17399999 -0.068000004 94 0 0
3.589 -0.167 -0.064999998 101 0 0
3.595 -0.16 -0.061999999 88 0 0
3.5940001 -0.153 -0.059 88 0 0
3.5910001 -0.146 -0.055 88 0 0
3.5969999 -0.14 -0.052000001 94 0 0
3.595 -0.133 -0.048999999 94 0 0
3.5910001 -0.126 -0.045000002 82 0 0
3.599 -0.119 -0.041999999 88 0 0
3.5969999 -0.112 -0.037999999 88 0 0
3.598 -0.106 -0.035 82 0 0
3.5999999 -0.098999999 -0.030999999 79 0 0
3.5899999 -0.092 -0.028000001 88 0 0
3.5910001 -0.085000001 -0.024 94 0 0
3.5969999 -0.079000004 -0.021 94 0 0
3.595 -0.071999997 -0.017000001 94 0 0
3.5969999 -0.064999998 -0.014 94 0 0
3.5969999 -0.057999998 -0.0099999998 88 0 0
3.6129999 -0.052000001 -0.0060000001 111 0 0
3.6370001 -0.045000002 -0.003 84 0 0
0 0 0 0 0 0
0 0 0 0 0 0
5.5479999 -0.037999999 0.012 1 0 0
5.5510001 -0.028000001 0.017999999 1 0 0
5.5380001 -0.017999999 0.023 1 0 0
5.5450001 -0.0070000002 0.028999999 3 0 0
5.5419998 0.0020000001 0.035 4 0 0
5.5409999 0.012 0.041000001 4 0 0
5.54 0.022 0.046999998 1 0 0
5.54 0.032000002 0.052999999 1 0 0
5.5510001 0.043000001 0.059 1 0 0
5.5560002 0.052999999 0.064999998 1 0 0
5.5599999 0.063000001 0.071999997 1 0 0
5.553 0.072999999 0.078000002 1 0 0
5.5380001 0.082999997 0.083999999 1 0 0
5.5370002 0.093000002 0.090000004 1 0 0
5.5609999 0.104 0.096000001 1 0 0
5.552 0.113 0.103 1 0 0
5.5510001 0.123 0.109 2 0 0
5.552 0.134 0.115 2 0 0
5.552 0.14399999 0.122 2 0 0
5.5240002 0.153 0.127 3 0 0
5.552 0.163 0.134 2 0 0
5.5650001 0.17399999 0.141 1 0 0
5.579 0.184 0.148 1 0 0
5.559 0.193 0.154 1 0 0
5.5630002 0.20299999 0.161 1 0 0
5.5679998 0.213 0.167 1 0 0
5.54 0.222 0.17299999 1 0 0
5.5549998 0.23199999 0.18000001 1 0 0
5.5570002 0.242 0.18700001 1 0 0
5.5599999 0.252 0.19400001 1 0 0
5.5780001 0.26199999 0.20100001 1 0 0
5.5630002 0.271 0.207 1 0 0
5.5640001 0.28099999 0.214 1 0 0
5.5669999 0.29100001 0.221 1 0 0
5.5640001 0.30000001 0.228 1 0 0
5.5450001 0.30899999 0.234 1 0 0
5.5339999 0.31799999 0.23999999 1 0 0
5.5440001 0.32800001 0.24699999 1 0 0
5.5710001 0.33899999 0.25600001 1 0 0
9.2469997 0.57800001 0.43599999 26 0 0
5.5370002 0.35499999 0.26800001 1 0 0
5.5760002 0.36700001 0.27700001 1 0 0
9.3640003 0.63200003 0.477 26 0 0
5.5679998 0.38499999 0.28999999 1 0 0
5.5609999 0.39399999 0.29699999 1 0 0
5.5679998 0.40400001 0.30399999 1 0 0
5.559 0.412 0.31099999 1 0 0
8.7860003 0.66600001 0.50300002 31 0 0
8.6470003 0.67000002 0.50599998 31 0 0
8.5229998 0.67400002 0.50999999 32 0 0
5.6550002 0.456 0.345 1 0 0
5.6789999 0.46799999 0.354 1 0 0
5.5149999 0.463 0.35100001 1 0 0
5.572 0.477 0.36199999 2 0 0
0 0 0 0 0 0
0 0 0 0 0 0
0 0 0 0 0 0
5.6430001 0.51899999 0.396 1 0 0
5.6430001 0.528 0.40400001 1 0 0
0 0 0 0 0 0
0 0 0 0 0 0
0 0 0 0 0 0
0 0 0 0 0 0
0 0 0 0 0 0
0 0 0 0 0 0
5.5910001 0.58399999 0.45199999 1 0 0
5.6669998 0.60100001 0.46599999 1 0 0
0 0 0 0 0 0
0 0 0 0 0 0
0 0 0 0 0 0
0 0 0 0 0 0
0 0 0 0 0 0
0 0 0 0 0 0
0 0 0 0 0 0
0 0 0 0 0 0
6.0079999 0.71700001 0.56699997 3 0 0
5.9200001 0.71499997 0.56599998 2 0 0
5.9660001 0.72899997 0.579 1 0 0
6.4039998 0.792 0.63 1 0 0
6.4039998 0.801 0.639 1 0 0
6.3449998 0.80299997 0.64200002 1 0 0
6.2849998 0.80400002 0.64399999 1 0 0
5.8769999 0.75999999 0.61000001 1 0 0
5.8779998 0.76800001 0.61799997 1 0 0
5.8559999 0.77399999 0.62400001 1 0 0
5.8049998 0.77499998 0.62599999 1 0 0
5.7930002 0.78100002 0.63300002 1 0 0
6.0619998 0.82599998 0.671 1 0 0
5.7210002 0.787 0.64099997 1 0 0
5.6939998 0.79100001 0.64499998 1 0 0
5.6500001 0.792 0.648 1 0 0
5.6560001 0.801 0.65700001 15 0 0
5.5869999 0.79799998 0.65600002 30 0 0
5.552 0.801 0.66000003 65 0 0
5.5440001 0.80699998 0.66600001 117 0 0
5.5489998 0.815 0.67400002 142 0 0
5.5479999 0.82099998 0.68199998 125 0 0
5.5250001 0.82499999 0.68599999 124 0 0
5.5229998 0.83200002 0.69400001 124 0 0
5.5469999 0.84200001 0.704 133 0 0
5.5209999 0.84500003 0.708 132 0 0
5.5359998 0.85500002 0.71799999 150 0 0
5.5580001 0.86500001 0.72799999 141 0 0
5.552 0.87099999 0.73500001 141 0 0
5.5349998 0.875 0.74000001 125 0 0
5.5469999 0.884 0.74900001 144 0 0
5.5539999 0.89099997 0.75800002 144 0 0
5.5110002 0.89099997 0.75999999 145 0 0
5.4949999 0.89499998 0.76499999 144 0 0
0 0 0 0 0 0
0 0 0 0 0 0
0 0 0 0 0 0
3.5869999 0.60100001 0.51800001 12 0 0
3.5569999 0.60000002 0.51899999 17 0 0
3.536 0.60000002 0.52100003 20 0 0
3.5 0.59799999 0.51999998 19 0 0
3.4749999 0.59799999 0.52100003 18 0 0
3.4419999 0.59600002 0.51999998 15 0 0
3.4089999 0.59399998 0.51999998 14 0 0
3.3859999 0.59299999 0.52100003 13 0 0
3.3599999 0.59200001 0.52100003 12 0 0
3.332 0.59100002 0.52200001 12 0 0
3.302 0.58899999 0.52100003 11 0 0
3.286 0.58999997 0.523 10 0 0
3.2590001 0.588 0.523 10 0 0
3.2290001 0.58600003 0.52200001 10 0 0
3.2119999 0.58600003 0.52399999 12 0 0
3.188 0.58499998 0.52399999 13 0 0
3.165 0.58399999 0.52399999 15 0 0
3.152 0.58499998 0.52600002 16 0 0
3.1370001 0.58499998 0.528 15 0 0
3.1159999 0.58399999 0.528 16 0 0
3.098 0.58399999 0.52899998 14 0 0
3.075 0.58200002 0.52899998 15 0 0
3.056 0.58200002 0.52999997 16 0 0
3.043 0.58200002 0.53200001 17 0 0
3.013 0.579 0.52999997 16 0 0
3.0039999 0.57999998 0.53299999 19 0 0
2.9749999 0.57700002 0.53100002 24 0 0
2.9690001 0.579 0.53399998 39 0 0
2.9579999 0.579 0.53600001 54 0 0
2.95 0.57999998 0.53799999 63 0 0
2.9460001 0.58200002 0.54100001 67 0 0
2.944 0.58399999 0.54400003 87 0 0
2.941 0.58600003 0.54699999 98 0 0
2.944 0.58899999 0.551 87 0 0
2.9430001 0.59100002 0.55500001 87 0 0
2.9419999 0.59299999 0.55800003 113 0 0
2.9400001 0.59600002 0.56199998 113 0 0
2.971 0.60399997 0.57099998 101 0 0
3.016 0.616 0.583 71 0 0
3.0409999 0.62300003 0.59200001 65 0 0
3.079 0.63300002 0.60299999 51 0 0
3.1429999 0.64899999 0.61900002 24 0 0
3.29 0.68199998 0.65200001 9 0 0
3.6329999 0.75599998 0.72399998 16 0 0
3.6719999 0.76599997 0.73699999 35 0 0
3.6719999 0.76899999 0.741 42 0 0
3.668 0.77100003 0.745 47 0 0
3.671 0.77399999 0.74900001 39 0 0
3.6689999 0.77600002 0.75300002 39 0 0
3.668 0.778 0.75700003 42 0 0
3.6670001 0.78100002 0.76099998 44 0 0
3.665 0.78299999 0.76499999 44 0 0
3.6670001 0.78500003 0.76999998 37 0 0
3.6789999 0.79000002 0.77600002 42 0 0
3.678 0.792 0.77999997 42 0 0
3.677 0.79400003 0.78399998 45 0 0
3.6800001 0.79699999 0.78899997 45 0 0
3.6760001 0.79900002 0.792 45 0 0
3.675 0.801 0.796 45 0 0
3.681 0.80400002 0.801 40 0 0
3.681 0.80599999 0.80500001 40 0 0
3.681 0.80800003 0.80900002 40 0 0
3.6800001 0.81 0.81199998 48 0 0
3.6819999 0.81199998 0.81699997 43 0 0
3.6789999 0.81400001 0.81999999 43 0 0
3.6589999 0.81099999 0.81900001 35 0 0
3.6570001 0.81300002 0.82300001 33 0 0
3.6530001 0.81300002 0.82599998 27 0 0
3.6459999 0.81400001 0.82800001 21 0 0
3.6370001 0.81400001 0.82999998 20 0 0
3.6259999 0.81300002 0.83099997 20 0 0
3.619 0.81300002 0.833 19 0 0
3.612 0.81300002 0.83499998 19 0 0
3.602 0.81199998 0.83600003 17 0 0
3.5999999 0.81300002 0.83899999 17 0 0
3.5899999 0.81199998 0.83999997 17 0 0
3.5880001 0.81300002 0.84299999 16 0 0
3.579 0.81300002 0.84399998 16 0 0
3.569 0.81199998 0.84500003 18 0 0
3.5650001 0.81199998 0.84799999 18 0 0
3.5569999 0.81199998 0.84899998 18 0 0
3.5550001 0.81199998 0.852 17 0 0
3.552 0.81300002 0.85399997 17 0 0
3.5450001 0.81300002 0.85600001 17 0 0
3.5480001 0.81400001 0.86000001 17 0 0
3.5339999 0.81199998 0.85900003 17 0 0
3.5339999 0.81300002 0.86199999 16 0 0
3.527 0.81300002 0.86400002 17 0 0
3.5239999 0.81300002 0.866 17 0 0
3.526 0.81400001 0.86900002 17 0 0
3.5190001 0.81400001 0.87099999 17 0 0
3.513 0.81300002 0.87199998 16 0 0
3.5120001 0.81400001 0.875 15 0 0
3.5050001 0.81300002 0.87599999 16 0 0
3.5039999 0.81400001 0.87900001 16 0 0
3.5020001 0.81400001 0.88099998 17 0 0
3.5050001 0.815 0.884 16 0 0
3.4960001 0.81400001 0.88499999 16 0 0
3.493 0.81400001 0.88599998 17 0 0
3.493 0.81400001 0.889 16 0 0
3.4860001 0.81300002 0.88999999 17 0 0
3.4820001 0.81300002 0.89200002 18 0 0
3.483 0.81400001 0.89399999 18 0 0
3.4879999 0.815 0.898 15 0 0
3.477 0.81300002 0.898 18 0 0
3.4820001 0.815 0.90100002 18 0 0
3.473 0.81300002 0.90200001 18 0 0
3.4749999 0.81300002 0.90399998 18 0 0
3.473 0.81300002 0.90600002 18 0 0
3.474 0.81400001 0.90899998 18 0 0
3.4779999 0.815 0.912 16 0 0
3.471 0.81300002 0.912 16 0 0
3.467 0.81300002 0.91299999 18 0 0
3.47 0.81300002 0.91600001 16 0 0
3.4660001 0.81199998 0.917 17 0 0
3.4690001 0.81300002 0.92000002 16 0 0
3.471 0.81300002 0.92299998 18 0 0
3.4679999 0.81300002 0.92400002 18 0 0
3.4679999 0.81300002 0.926 18 0 0
3.4679999 0.81199998 0.92799997 18 0 0
3.4690001 0.81300002 0.93000001 18 0 0
3.47 0.81300002 0.93199998 18 0 0
3.4719999 0.81300002 0.935 17 0 0
3.4779999 0.81400001 0.93800002 16 0 0
3.473 0.81199998 0.93800002 18 0 0
3.4760001 0.81300002 0.94099998 16 0 0
3.4790001 0.81300002 0.94300002 16 0 0
3.484 0.81400001 0.94599998 15 0 0
3.477 0.81199998 0.94599998 16 0 0
3.4879999 0.81400001 0.94999999 15 0 0
3.4860001 0.81300002 0.95200002 16 0 0
3.4820001 0.81199998 0.95200002 16 0 0
3.4890001 0.81199998 0.95499998 16 0 0
3.4890001 0.81199998 0.95599997 15 0 0
3.4909999 0.81199998 0.95899999 16 0 0
3.4960001 0.81199998 0.96100003 17 0 0
3.4960001 0.81099999 0.96200001 17 0 0
3.4990001 0.81099999 0.96499997 16 0 0
3.5009999 0.81099999 0.96600002 15 0 0
3.5079999 0.81199998 0.97000003 17 0 0
3.5090001 0.81099999 0.97100002 17 0 0
3.5050001 0.80900002 0.97100002 16 0 0
3.516 0.81099999 0.97500002 17 0 0
3.52 0.81099999 0.977 17 0 0
3.5239999 0.81099999 0.97899997 17 0 0
3.527 0.81 0.98100001 17 0 0
3.5250001 0.80900002 0.98100001 17 0 0
3.533 0.81 0.98400003 18 0 0
3.533 0.80900002 0.98500001 18 0 0
3.549 0.81099999 0.99000001 16 0 0
3.546 0.80900002 0.99000001 17 0 0
3.5580001 0.81099999 0.99400002 18 0 0
3.559 0.80900002 0.995 17 0 0
3.566 0.81 0.99800003 16 0 0
3.5710001 0.80900002 1 17 0 0
3.575 0.80900002 1.001 17 0 0
3.5780001 0.80800003 1.003 16 0 0
3.5829999 0.80800003 1.005 17 0 0
3.5869999 0.80699998 1.006 17 0 0
3.599 0.80900002 1.01 18 0 0
3.608 0.80900002 1.013 18 0 0
3.609 0.80800003 1.013 18 0 0
3.625 0.81 1.018 16 0 0
3.625 0.80800003 1.018 16 0 0
3.6270001 0.80699998 1.0190001 18 0 0
3.638 0.80699998 1.022 19 0 0
3.641 0.80599999 1.023 18 0 0
3.658 0.80800003 1.028 20 0 0
3.6730001 0.81 1.0319999 23 0 0
3.674 0.80800003 1.033 28 0 0
3.6789999 0.80699998 1.034 30 0 0
3.691 0.80800003 1.0369999 35 0 0
3.6919999 0.80599999 1.0369999 41 0 0
3.697 0.80500001 1.038 39 0 0
3.6960001 0.80299997 1.038 35 0 0
3.6919999 0.80000001 1.036 44 0 0
3.694 0.79799998 1.0369999 37 0 0
3.6960001 0.796 1.0369999 35 0 0
3.698 0.79500002 1.0369999 41 0 0
3.6919999 0.79100001 1.035 35 0 0
3.6949999 0.79000002 1.035 35 0 0
3.697 0.78799999 1.035 31 0 0
3.694 0.78500003 1.033 35 0 0
3.6930001 0.78200001 1.0319999 35 0 0
3.6900001 0.77999997 1.031 35 0 0
3.698 0.77899998 1.0319999 35 0 0
3.6889999 0.77399999 1.029 37 0 0
3.688 0.77200001 1.028 41 0 0
3.6930001 0.76999998 1.029 41 0 0
3.6930001 0.76800001 1.028 41 0 0
3.6949999 0.76599997 1.027 37 0 0
3.6900001 0.76200002 1.025 39 0 0
3.691 0.75999999 1.024 39 0 0
3.668 0.75199997 1.017 20 0 0
3.3380001 0.68199998 0.92400002 8 0 0
3.1760001 0.64700001 0.87800002 19 0 0
3.1140001 0.63200003 0.86000001 35 0 0
3.075 0.62199998 0.84799999 53 0 0
3.053 0.61500001 0.84100002 56 0 0
3.0150001 0.60500002 0.82999998 69 0 0
2.9619999 0.59200001 0.81400001 92 0 0
2.9630001 0.58999997 0.81300002 83 0 0
2.961 0.58700001 0.81099999 92 0 0
2.9630001 0.58499998 0.81099999 83 0 0
2.9630001 0.583 0.80900002 92 0 0
2.9619999 0.57999998 0.80800003 92 0 0
2.9660001 0.579 0.80699998 92 0 0
2.9660001 0.57599998 0.80599999 83 0 0
2.9779999 0.57599998 0.80800003 53 0 0
2.9809999 0.57499999 0.80699998 44 0 0
2.9860001 0.57300001 0.80699998 36 0 0
2.9960001 0.57200003 0.80800003 30 0 0
3.003 0.57099998 0.80900002 22 0 0
3.0320001 0.574 0.815 18 0 0
3.05 0.57499999 0.81800002 17 0 0
3.063 0.57499999 0.81999999 16 0 0
3.0840001 0.57599998 0.824 17 0 0
3.1010001 0.57599998 0.82599998 17 0 0
3.118 0.57700002 0.829 16 0 0
3.1340001 0.57700002 0.83099997 17 0 0
3.148 0.57700002 0.833 17 0 0
3.1670001 0.57800001 0.83600003 18 0 0
3.1860001 0.57800001 0.83899999 18 0 0
3.2060001 0.579 0.84299999 17 0 0
3.223 0.579 0.84500003 16 0 0
3.2520001 0.58099997 0.85000002 16 0 0
3.3169999 0.58999997 0.86500001 15 0 0
3.4200001 0.60500002 0.88999999 19 0 0
3.4949999 0.61500001 0.90600002 17 0 0
3.5420001 0.62 0.91600001 17 0 0
3.5699999 0.62099999 0.921 20 0 0
3.612 0.625 0.92900002 25 0 0
3.635 0.62599999 0.93199998 22 0 0
3.677 0.62900001 0.94 27 0 0
3.6819999 0.62699997 0.93900001 36 0 0
3.687 0.62400001 0.93699998 40 0 0
3.6849999 0.62 0.93400002 42 0 0
3.684 0.616 0.93000001 40 0 0
3.687 0.61299998 0.92799997 36 0 0
3.6830001 0.60900003 0.92400002 36 0 0
3.6700001 0.60299999 0.91799998 37 0 0
3.684 0.602 0.91799998 38 0 0
3.6700001 0.59600002 0.912 37 0 0
3.6700001 0.59200001 0.90799999 42 0 0
3.6730001 0.58899999 0.90600002 37 0 0
3.671 0.58499998 0.90200001 44 0 0
3.6719999 0.58099997 0.89899999 44 0 0
3.6730001 0.57700002 0.89600003 42 0 0
3.6670001 0.57300001 0.89099997 39 0 0
3.674 0.56999999 0.889 57 0 0
3.6689999 0.565 0.884 60 0 0
3.668 0.56099999 0.88 73 0 0
3.6659999 0.55699998 0.87699997 78 0 0
3.664 0.55299997 0.87300003 95 0 0
3.6619999 0.54900002 0.86799997 94 0 0
3.6630001 0.54500002 0.86500001 94 0 0
3.664 0.54100001 0.861 83 0 0
3.665 0.53799999 0.85799998 94 0 0
3.664 0.53399998 0.85399997 83 0 0
3.671 0.53100002 0.852 83 0 0
3.6730001 0.52700001 0.84799999 68 0 0
3.6789999 0.52399999 0.84600002 60 0 0
3.6930001 0.52200001 0.84500003 57 0 0
3.7060001 0.51999998 0.84399998 70 0 0
3.707 0.51599997 0.83999997 70 0 0
3.7119999 0.51300001 0.83700001 70 0 0
3.7119999 0.509 0.833 74 0 0
3.7290001 0.50700003 0.833 48 0 0
3.737 0.50400001 0.82999998 38 0 0
3.7509999 0.50199997 0.829 34 0 0
3.7639999 0.49900001 0.82700002 28 0 0
3.7579999 0.495 0.82200003 21 0 0
3.7650001 0.491 0.81900001 13 0 0
3.766 0.48699999 0.81400001 6 0 0
0 0 0 0 0 0
0 0 0 0 0 0
6.0450001 0.76300001 1.286 17 0 0
6.0619998 0.75800002 1.2819999 19 0 0
6.0999999 0.75599998 1.283 22 0 0
6.1409998 0.75400001 1.283 22 0 0
6.1599998 0.75 1.28 21 0 0
6.1950002 0.74699998 1.279 22 0 0
6.2049999 0.741 1.273 22 0 0
6.2379999 0.73799998 1.272 24 0 0
6.2740002 0.736 1.271 22 0 0
6.2610002 0.727 1.261 18 0 0
6.2389998 0.71799999 1.248 15 0 0
6.2919998 0.71700001 1.25 16 0 0
6.3200002 0.713 1.247 15 0 0
6.3150001 0.70499998 1.238 13 0 0
6.3649998 0.704 1.239 13 0 0
6.4559999 0.70599997 1.248 14 0 0
6.5180001 0.70599997 1.251 15 0 0
6.546 0.70200002 1.247 15 0 0
6.553 0.69499999 1.239 15 0 0
6.598 0.69300002 1.239 16 0 0
6.5689998 0.68199998 1.224 15 0 0
6.6110001 0.67900002 1.223 15 0 0
6.651 0.676 1.221 15 0 0
6.7249999 0.676 1.225 15 0 0
6.757 0.67199999 1.221 15 0 0
6.789 0.667 1.217 17 0 0
6.7490001 0.65600002 1.2 29 0 0
6.743 0.648 1.189 40 0 0
6.6609998 0.63200003 1.165 46 0 0
6.6960001 0.62800002 1.161 49 0 0
6.671 0.61900002 1.146 44 0 0
6.704 0.61400002 1.142 38 0 0
6.3379998 0.574 1.0700001 26 0 0
0 0 0 0 0 0
0 0 0 0 0 0
0 0 0 0 0 0
0 0 0 0 0 0
5.6750002 0.48199999 0.91500002 1 0 0
0 0 0 0 0 0
5.6240001 0.465 0.889 7 0 0
5.5749998 0.45500001 0.87199998 2 0 0
0 0 0 0 0 0
5.6599998 0.44999999 0.86799997 1 0 0
5.6360002 0.442 0.85500002 1 0 0
5.6430001 0.43599999 0.847 1 0 0
5.6090002 0.428 0.833 1 0 0
5.612 0.42199999 0.824 1 0 0
5.632 0.417 0.81800002 1 0 0
5.6300001 0.41100001 0.80800003 1 0 0
5.6440001 0.40599999 0.801 1 0 0
5.552 0.39300001 0.77899998 7 0 0
5.5640001 0.38800001 0.77100003 16 0 0
5.592 0.384 0.76599997 33 0 0
5.5679998 0.37599999 0.75300002 47 0 0
5.5580001 0.36899999 0.74199998 53 0 0
5.5609999 0.36399999 0.73400003 49 0 0
5.5609999 0.35800001 0.72399998 45 0 0
5.5960002 0.354 0.71899998 45 0 0
5.5640001 0.34599999 0.70599997 48 0 0
5.619 0.34400001 0.70300001 52 0 0
5.5890002 0.336 0.69 36 0 0
5.6539998 0.33399999 0.68800002 12 0 0
5.5879998 0.32499999 0.67000002 1 0 0
0 0 0 0 0 0
5.651 0.31600001 0.65799999 1 0 0
5.6729999 0.31200001 0.64999998 1 0 0
5.6620002 0.30500001 0.639 1 0 0
5.6500001 0.29899999 0.62800002 1 0 0
5.6630001 0.294 0.61900002 1 0 0
0 0 0 0 0 0
0 0 0 0 0 0
0 0 0 0 0 0
0 0 0 0 0 0
0 0 0 0 0 0
0 0 0 0 0 0
0 0 0 0 0 0
0 0 0 0 0 0
5.645 0.242 0.52600002 1 0 0
5.5760002 0.234 0.509 1 0 0
5.7199998 0.234 0.51200002 1 0 0
0 0 0 0 0 0
0 0 0 0 0 0
5.5780001 0.212 0.46799999 1 0 0
5.579 0.207 0.45699999 1 0 0
5.599 0.20200001 0.449 1 0 0
5.5669999 0.19599999 0.43599999 1 0 0
5.5749998 0.191 0.426 1 0 0
5.5630002 0.185 0.414 1 0 0
8.9849997 0.29100001 0.653 18 0 0
8.9860001 0.28299999 0.63599998 18 0 0
8.9689999 0.27399999 0.61799997 18 0 0
8.9820004 0.266 0.602 18 0 0
8.9709997 0.25799999 0.58399999 18 0 0
5.5689998 0.155 0.352 1 0 0
5.5890002 0.15000001 0.34200001 1 0 0
5.5640001 0.145 0.33000001 1 0 0
5.5549998 0.14 0.31900001 1 0 0
5.5630002 0.13500001 0.30899999 1 0 0
5.5949998 0.131 0.30000001 1 0 0
5.5500002 0.125 0.28600001 1 0 0
5.5469999 0.12 0.27599999 1 0 0
9.3369999 0.19400001 0.44600001 31 0 0
5.579 0.111 0.255 1 0 0
5.5760002 0.106 0.245 1 0 0
5.5549998 0.101 0.233 1 0 0
5.5689998 0.097000003 0.223 1 0 0
5.559 0.092 0.211 1 0 0
5.552 0.088 0.2 1 0 0
5.5450001 0.082999997 0.189 1 0 0
5.553 0.078000002 0.178 1 0 0
5.5549998 0.074000001 0.167 1 0 0
5.553 0.07 0.156 1 0 0
5.5599999 0.064999998 0.146 1 0 0
5.5580001 0.061000001 0.13500001 1 0 0
5.5549998 0.056000002 0.124 1 0 0
5.5500002 0.052000001 0.112 1 0 0
5.553 0.048 0.101 1 0 0
5.5599999 0.044 0.090999998 1 0 0
5.5510001 0.039000001 0.079000004 1 0 0
5.5359998 0.035 0.068000004 1 0 0
5.5419998 0.030999999 0.057 1 0 0
5.5479999 0.027000001 0.046 1 0 0
5.553 0.023 0.035 1 0 0
5.5630002 0.018999999 0.024 2 0 0
5.5120001 0.015 0.012 6 0 0
5.5159998 0.011 0.001 6 0 0
5.5279999 0.0070000002 -0.0089999996 6 0 0
5.5419998 0.003 -0.02 3 0 0
5.5440001 0 -0.032000002 3 0 0
5.5380001 -0.0040000002 -0.043000001 2 0 0
5.546 -0.0070000002 -0.054000001 2 0 0
5.54 -0.011 -0.064999998 3 0 0
5.5159998 -0.015 -0.075999998 4 0 0
5.5159998 -0.017999999 -0.086999997 5 0 0
5.5279999 -0.022 -0.097999997 4 0 0
5.5180001 -0.025 -0.109 4 0 0
5.5250001 -0.028999999 -0.121 6 0 0
5.527 -0.032000002 -0.132 3 0 0
5.5079999 -0.035999998 -0.14300001 4 0 0
5.5110002 -0.039000001 -0.154 6 0 0
5.506 -0.043000001 -0.16500001 6 0 0
0 0 0 0 0 0
0 0 0 0 0 0
0 0 0 0 0 0
0 0 0 0 0 0
0 0 0 0 0 0
3.6289999 -0.041000001 -0.153 84 0 0
3.6170001 -0.041999999 -0.16 111 0 0
3.608 -0.044 -0.16599999 111 0 0
3.6010001 -0.046 -0.17299999 110 0 0
3.598 -0.048 -0.18099999 110 0 0
3.5899999 -0.050000001 -0.18700001 94 0 0
3.5880001 -0.052000001 -0.19499999 101 0 0
3.5840001 -0.054000001 -0.20200001 101 0 0
3.585 -0.055 -0.20900001 101 0 0
3.579 -0.057 -0.21600001 109 0 0
3.5829999 -0.059 -0.223 94 0 0
3.5829999 -0.061000001 -0.23 94 0 0
3.582 -0.061999999 -0.23800001 94 0 0
3.582 -0.064000003 -0.245 94 0 0
3.5769999 -0.066 -0.252 109 0 0
3.575 -0.067000002 -0.259 100 0 0
3.579 -0.068999998 -0.26699999 94 0 0
3.579 -0.071000002 -0.27399999 94 0 0
3.573 -0.071999997 -0.28099999 100 0 0
3.5739999 -0.074000001 -0.28799999 109 0 0
3.573 -0.075000003 -0.29499999 109 0 0
3.572 -0.077 -0.30199999 93 0 0
3.573 -0.078000002 -0.30899999 87 0 0
3.5810001 -0.079999998 -0.317 94 0 0
3.579 -0.081 -0.324 88 0 0
3.5769999 -0.082999997 -0.331 88 0 0
3.5769999 -0.083999999 -0.338 94 0 0
3.5739999 -0.085000001 -0.345 94 0 0
3.5780001 -0.086999997 -0.35299999 88 0 0
3.579 -0.088 -0.36000001 84 0 0
3.582 -0.089000002 -0.36700001 85 0 0
3.5810001 -0.090000004 -0.37400001 79 0 0
3.5780001 -0.092 -0.38100001 84 0 0
3.579 -0.093000002 -0.38800001 83 0 0
3.573 -0.093999997 -0.39500001 79 0 0
3.576 -0.094999999 -0.40200001 84 0 0
3.5769999 -0.096000001 -0.40900001 79 0 0
3.5769999 -0.097000003 -0.41600001 79 0 0
3.579 -0.097999997 -0.42399999 74 0 0
3.576 -0.098999999 -0.43099999 70 0 0
3.575 -0.1 -0.43700001 74 0 0
3.576 -0.101 -0.44400001 78 0 0
3.5710001 -0.102 -0.45100001 74 0 0
3.573 -0.103 -0.458 77 0 0
3.569 -0.104 -0.465 74 0 0
3.573 -0.105 -0.472 75 0 0
3.572 -0.106 -0.479 75 0 0
3.566 -0.107 -0.48500001 71 0 0
3.5699999 -0.108 -0.49200001 75 0 0
3.566 -0.108 -0.49900001 73 0 0
3.5650001 -0.109 -0.505 73 0 0
3.5669999 -0.11 -0.51200002 75 0 0
3.5669999 -0.11 -0.51899999 77 0 0
3.5680001 -0.111 -0.52600002 75 0 0
3.5669999 -0.112 -0.53299999 75 0 0
3.5599999 -0.112 -0.53899997 73 0 0
3.563 -0.113 -0.546 74 0 0
3.562 -0.114 -0.55199999 74 0 0
3.5580001 -0.114 -0.55800003 71 0 0
3.563 -0.115 -0.56599998 72 0 0
3.5639999 -0.115 -0.57300001 73 0 0
3.563 -0.116 -0.579 73 0 0
3.562 -0.116 -0.58499998 73 0 0
3.559 -0.117 -0.59200001 72 0 0
3.5599999 -0.117 -0.59799999 73 0 0
3.5599999 -0.118 -0.60500002 71 0 0
3.559 -0.118 -0.611 71 0 0
3.5539999 -0.118 -0.61699998 72 0 0
3.556 -0.119 -0.62400001 69 0 0
3.5580001 -0.119 -0.63099998 69 0 0
3.5580001 -0.119 -0.63700002 66 0 0
3.5569999 -0.12 -0.64300001 68 0 0
3.5569999 -0.12 -0.64999998 67 0 0
3.5539999 -0.12 -0.65600002 66 0 0
3.553 -0.12 -0.662 68 0 0
3.552 -0.12 -0.66799998 66 0 0
3.552 -0.12 -0.67400002 65 0 0
3.5569999 -0.121 -0.68099999 58 0 0
3.546 -0.121 -0.685 63 0 0
3.5550001 -0.121 -0.69300002 62 0 0
3.5550001 -0.121 -0.699 61 0 0
3.5539999 -0.121 -0.70499998 61 0 0
3.552 -0.121 -0.71100003 62 0 0
3.552 -0.121 -0.71700001 61 0 0
3.552 -0.121 -0.72299999 60 0 0
3.549 -0.121 -0.72899997 61 0 0
3.55 -0.121 -0.73500001 60 0 0
3.549 -0.121 -0.741 60 0 0
3.556 -0.121 -0.74800003 58 0 0
3.552 -0.121 -0.75300002 62 0 0
3.5480001 -0.121 -0.75800002 57 0 0
3.5469999 -0.121 -0.764 57 0 0
3.553 -0.121 -0.77100003 59 0 0
3.5469999 -0.12 -0.77600002 56 0 0
3.55 -0.12 -0.78200001 59 0 0
3.55 -0.12 -0.78799999 60 0 0
3.549 -0.12 -0.79299998 60 0 0
3.5469999 -0.119 -0.79900002 59 0 0
3.546 -0.119 -0.80400002 58 0 0
3.5450001 -0.119 -0.81 56 0 0
3.5469999 -0.119 -0.81599998 58 0 0
3.549 -0.118 -0.82200003 60 0 0
3.5309999 -0.117 -0.82300001 42 0 0
3.506 -0.116 -0.82300001 28 0 0
3.48 -0.115 -0.82200003 19 0 0
3.448 -0.114 -0.81999999 14 0 0
3.4189999 -0.112 -0.81800002 15 0 0
3.372 -0.11 -0.81199998 15 0 0
3.313 -0.108 -0.80299997 17 0 0
3.2520001 -0.106 -0.79299998 16 0 0
3.2160001 -0.104 -0.78899997 17 0 0
3.1889999 -0.103 -0.787 19 0 0
3.1670001 -0.101 -0.78600001 19 0 0
3.1500001 -0.1 -0.78600001 18 0 0
3.1240001 -0.098999999 -0.78399998 20 0 0
3.0999999 -0.097999997 -0.78299999 19 0 0
3.072 -0.097000003 -0.77999997 25 0 0
3.052 -0.094999999 -0.77899998 25 0 0
3.0350001 -0.093999997 -0.77899998 26 0 0
3.0150001 -0.093000002 -0.778 25 0 0
2.984 -0.092 -0.77499998 21 0 0
2.964 -0.090999998 -0.773 27 0 0
2.944 -0.089000002 -0.77200001 21 0 0
2.9300001 -0.088 -0.773 28 0 0
2.914 -0.086999997 -0.77200001 23 0 0
2.8940001 -0.086000003 -0.77100003 24 0 0
2.868 -0.085000001 -0.76800001 27 0 0
2.8540001 -0.083999999 -0.76800001 26 0 0
2.829 -0.082000002 -0.76499999 24 0 0
2.8080001 -0.081 -0.76300001 23 0 0
2.7850001 -0.079999998 -0.75999999 22 0 0
2.7690001 -0.079000004 -0.759 21 0 0
2.7539999 -0.078000002 -0.75800002 21 0 0
2.7349999 -0.077 -0.75700003 19 0 0
2.7260001 -0.075999998 -0.75800002 18 0 0
2.7079999 -0.075000003 -0.75599998 14 0 0
2.697 -0.074000001 -0.75599998 13 0 0
2.6849999 -0.072999999 -0.75599998 12 0 0
2.6589999 -0.071000002 -0.75199997 11 0 0
2.635 -0.07 -0.74800003 14 0 0
2.622 -0.068999998 -0.74699998 12 0 0
2.6099999 -0.068000004 -0.74699998 11 0 0
2.6010001 -0.067000002 -0.74699998 9 0 0
2.5899999 -0.066 -0.74699998 8 0 0
2.5810001 -0.064999998 -0.74699998 9 0 0
2.572 -0.064000003 -0.74800003 10 0 0
2.5680001 -0.064000003 -0.74900001 10 0 0
2.5569999 -0.063000001 -0.74900001 14 0 0
2.553 -0.061999999 -0.75 15 0 0
2.5420001 -0.061000001 -0.75 17 0 0
2.5369999 -0.059999999 -0.75099999 21 0 0
2.5280001 -0.059 -0.75099999 21 0 0
2.5220001 -0.057999998 -0.75199997 23 0 0
2.5139999 -0.057 -0.75199997 25 0 0
2.5120001 -0.056000002 -0.75400001 24 0 0
2.5039999 -0.055 -0.75400001 24 0 0
2.4960001 -0.054000001 -0.75400001 23 0 0
2.4860001 -0.052999999 -0.75300002 20 0 0
2.477 -0.052000001 -0.75300002 20 0 0
2.473 -0.052000001 -0.75400001 20 0 0
2.4619999 -0.050999999 -0.75300002 18 0 0
2.4619999 -0.050000001 -0.755 17 0 0
2.4489999 -0.048999999 -0.75300002 18 0 0
2.4519999 -0.048 -0.75599998 16 0 0
2.447 -0.046999998 -0.75700003 17 0 0
2.4489999 -0.046 -0.75999999 16 0 0
2.4449999 -0.045000002 -0.76099998 17 0 0
2.4400001 -0.045000002 -0.76099998 16 0 0
2.4430001 -0.044 -0.764 15 0 0
2.448 -0.043000001 -0.76800001 15 0 0
2.4489999 -0.041999999 -0.76999998 15 0 0
2.464 -0.041999999 -0.77600002 13 0 0
2.4679999 -0.041000001 -0.77899998 13 0 0
2.4779999 -0.039999999 -0.78399998 12 0 0
2.503 -0.039999999 -0.79400003 13 0 0
2.5190001 -0.039000001 -0.801 12 0 0
2.5339999 -0.037999999 -0.80800003 12 0 0
2.5610001 -0.037999999 -0.81800002 11 0 0
2.585 -0.037 -0.82800001 11 0 0
2.5999999 -0.037 -0.83399999 10 0 0
2.6170001 -0.035999998 -0.84100002 9 0 0
2.631 -0.035 -0.847 8 0 0
2.6470001 -0.034000002 -0.85399997 7 0 0
2.665 -0.034000002 -0.86199999 6 0 0
2.6919999 -0.033 -0.87199998 5 0 0
2.7160001 -0.032000002 -0.88099998 5 0 0
2.7420001 -0.032000002 -0.89099997 4 0 0
2.779 -0.030999999 -0.90499997 4 0 0
2.825 -0.029999999 -0.921 3 0 0
2.852 -0.029999999 -0.93199998 3 0 0
2.895 -0.028999999 -0.94700003 3 0 0
2.9660001 -0.028999999 -0.972 4 0 0
3.0480001 -0.028000001 -1 9 0 0
3.0880001 -0.028000001 -1.015 13 0 0
3.1110001 -0.027000001 -1.024 21 0 0
3.138 -0.026000001 -1.034 21 0 0
3.1659999 -0.025 -1.045 21 0 0
3.178 -0.023 -1.05 18 0 0
3.21 -0.023 -1.062 17 0 0
3.2349999 -0.021 -1.071 14 0 0
3.273 -0.02 -1.085 13 0 0
3.3039999 -0.018999999 -1.097 11 0 0
3.3529999 -0.017999999 -1.114 10 0 0
3.414 -0.017000001 -1.136 11 0 0
3.4660001 -0.016000001 -1.154 16 0 0
3.507 -0.015 -1.169 41 0 0
3.527 -0.014 -1.176 85 0 0
3.5380001 -0.012 -1.181 95 0 0
3.5439999 -0.011 -1.184 101 0 0
3.5469999 -0.0099999998 -1.186 107 0 0
3.55 -0.0080000004 -1.188 103 0 0
3.5569999 -0.0070000002 -1.191 105 0 0
3.5840001 -0.0049999999 -1.2 104 0 0
3.605 -0.0040000002 -1.2079999 83 0 0
3.615 -0.003 -1.212 83 0 0
3.632 -0.001 -1.2180001 57 0 0
3.6500001 0 -1.225 48 0 0
3.6700001 0.001 -1.232 38 0 0
3.7030001 0.0020000001 -1.244 26 0 0
3.721 0.0040000002 -1.25 23 0 0
3.7750001 0.0049999999 -1.268 14 0 0
3.835 0.0070000002 -1.289 18 0 0
3.8510001 0.0089999996 -1.294 20 0 0
3.859 0.0099999998 -1.2970001 19 0 0
3.859 0.012 -1.2970001 19 0 0
3.848 0.013 -1.294 18 0 0
3.8510001 0.015 -1.295 20 0 0
3.852 0.016000001 -1.295 19 0 0
3.8570001 0.017999999 -1.2970001 19 0 0
3.8529999 0.018999999 -1.295 19 0 0
3.855 0.021 -1.296 18 0 0
3.8540001 0.023 -1.295 19 0 0
3.8559999 0.024 -1.295 19 0 0
3.8599999 0.026000001 -1.296 19 0 0
3.858 0.027000001 -1.295 19 0 0
3.8599999 0.028999999 -1.295 19 0 0
3.8629999 0.029999999 -1.295 19 0 0
3.8599999 0.032000002 -1.294 19 0 0
3.8699999 0.034000002 -1.296 20 0 0
3.8699999 0.035 -1.296 20 0 0
3.872 0.037 -1.296 19 0 0
3.8710001 0.037999999 -1.294 20 0 0
3.882 0.039999999 -1.2970001 20 0 0
3.8859999 0.041000001 -1.298 19 0 0
3.888 0.043000001 -1.2970001 19 0 0
3.8929999 0.045000002 -1.298 19 0 0
3.898 0.046 -1.298 20 0 0
3.9000001 0.048 -1.298 19 0 0
3.9000001 0.048999999 -1.2970001 19 0 0
3.9059999 0.050999999 -1.2970001 18 0 0
3.9070001 0.052999999 -1.296 18 0 0
3.918 0.054000001 -1.298 20 0 0
3.9219999 0.056000002 -1.298 19 0 0
3.9289999 0.057 -1.299 20 0 0
3.9289999 0.059 -1.2970001 20 0 0
3.947 0.061000001 -1.302 20 0 0
3.944 0.061999999 -1.299 19 0 0
3.954 0.064000003 -1.301 20 0 0
3.9649999 0.066 -1.302 19 0 0
3.9619999 0.067000002 -1.299 20 0 0
3.9719999 0.068999998 -1.301 20 0 0
3.9790001 0.071000002 -1.301 20 0 0
3.993 0.071999997 -1.303 20 0 0
3.9960001 0.074000001 -1.302 20 0 0
4.0040002 0.075000003 -1.303 19 0 0
4.0139999 0.077 -1.304 19 0 0
4.0219998 0.079000004 -1.304 18 0 0
4.0349998 0.081 -1.306 17 0 0
4.0380001 0.082000002 -1.304 16 0 0
4.0479999 0.083999999 -1.3049999 16 0 0
4.0570002 0.085000001 -1.3049999 15 0 0
4.0669999 0.086999997 -1.306 15 0 0
4.0809999 0.089000002 -1.308 15 0 0
4.0879998 0.090999998 -1.307 15 0 0
4.0960002 0.092 -1.307 15 0 0
4.1020002 0.093999997 -1.306 16 0 0
4.112 0.096000001 -1.306 18 0 0
4.1269999 0.097000003 -1.308 17 0 0
4.1420002 0.098999999 -1.3099999 18 0 0
4.1599998 0.101 -1.312 18 0 0
4.1630001 0.103 -1.3099999 18 0 0
4.1789999 0.104 -1.312 16 0 0
4.191 0.106 -1.312 16 0 0
4.2049999 0.108 -1.313 15 0 0
4.2140002 0.11 -1.313 15 0 0
4.23 0.111 -1.314 16 0 0
4.2389998 0.113 -1.313 16 0 0
4.256 0.115 -1.3150001 15 0 0
4.2690001 0.117 -1.3150001 15 0 0
4.2880001 0.119 -1.317 15 0 0
4.3060002 0.121 -1.319 15 0 0
4.3319998 0.123 -1.323 14 0 0
4.3509998 0.125 -1.324 14 0 0
4.3740001 0.127 -1.327 16 0 0
4.3779998 0.12800001 -1.324 14 0 0
4.4029999 0.13 -1.327 15 0 0
4.427 0.132 -1.33 16 0 0
4.4400001 0.134 -1.33 16 0 0
4.461 0.13600001 -1.332 16 0 0
4.4770002 0.138 -1.332 16 0 0
4.4949999 0.14 -1.3329999 16 0 0
4.5149999 0.142 -1.334 15 0 0
4.5409999 0.14399999 -1.337 16 0 0
4.553 0.146 -1.336 15 0 0
4.566 0.147 -1.335 15 0 0
4.6059999 0.15000001 -1.341 15 0 0
4.6110001 0.152 -1.3380001 15 0 0
4.6479998 0.154 -1.3430001 15 0 0
4.6599998 0.156 -1.341 15 0 0
4.6960001 0.15800001 -1.346 15 0 0
4.71 0.16 -1.345 15 0 0
4.7420001 0.162 -1.349 15 0 0
4.7620001 0.164 -1.349 15 0 0
4.7870002 0.16599999 -1.35 14 0 0
4.8150001 0.169 -1.352 14 0 0
4.8410001 0.171 -1.354 14 0 0
4.8649998 0.17299999 -1.355 14 0 0
4.8940001 0.175 -1.357 13 0 0
4.928 0.177 -1.36 12 0 0
4.9450002 0.17900001 -1.359 13 0 0
4.9720001 0.18099999 -1.36 13 0 0
4.9949999 0.183 -1.36 12 0 0
5.0320001 0.186 -1.363 12 0 0
5.0799999 0.18799999 -1.37 13 0 0
5.0949998 0.19 -1.367 13 0 0
5.125 0.192 -1.369 12 0 0
5.1570001 0.19499999 -1.37 13 0 0
5.1919999 0.197 -1.373 13 0 0
5.217 0.199 -1.372 12 0 0
5.257 0.20200001 -1.375 11 0 0
5.2919998 0.204 -1.377 12 0 0
5.3280001 0.206 -1.3789999 11 0 0
5.381 0.20900001 -1.386 11 0 0
5.4029999 0.211 -1.3839999 12 0 0
5.4320002 0.213 -1.383 11 0 0
5.4640002 0.21600001 -1.3839999 9 0 0
5.473 0.21699999 -1.3789999 7 0 0
5.5320001 0.22 -1.385 7 0 0
5.5939999 0.223 -1.393 4 0 0
5.6170001 0.22499999 -1.39 5 0 0
5.664 0.228 -1.3940001 5 0 0
5.71 0.23100001 -1.396 6 0 0
5.7519999 0.233 -1.398 7 0 0
5.8049998 0.236 -1.402 8 0 0
5.822 0.23800001 -1.398 8 0 0
5.8600001 0.23999999 -1.398 8 0 0
5.908 0.242 -1.4 8 0 0
5.9660001 0.24600001 -1.405 8 0 0
6 0.248 -1.404 8 0 0
6.0419998 0.25 -1.404 8 0 0
6.0879998 0.25299999 -1.405 7 0 0
6.1259999 0.255 -1.404 9 0 0
6.198 0.25799999 -1.411 3 0 0
6.2480001 0.26100001 -1.413 1 0 0
0 0 0 0 0 0
0 0 0 0 0 0
0 0 0 0 0 0
5.6529999 0.23800001 -1.2410001 3 0 0
5.6820002 0.23899999 -1.239 1 0 0
5.6820002 0.23999999 -1.229 1 0 0
5.7259998 0.242 -1.229 2 0 0
5.7150002 0.242 -1.2180001 1 0 0
5.5599999 0.235 -1.175 1 0 0
5.559 0.235 -1.166 1 0 0
5.5209999 0.234 -1.149 1 0 0
5.8699999 0.249 -1.211 1 0 0
5.9159999 0.25099999 -1.211 1 0 0
5.5380001 0.235 -1.124 1 0 0
5.506 0.234 -1.108 1 0 0
0 0 0 0 0 0
0 0 0 0 0 0
0 0 0 0 0 0
0 0 0 0 0 0
5.5250001 0.234 -1.064 1 0 0
5.6339998 0.23899999 -1.075 1 0 0
5.4809999 0.23199999 -1.036 1 0 0
5.4770002 0.23199999 -1.026 1 0 0
5.5029998 0.233 -1.02 1 0 0
5.4569998 0.23 -1.002 1 0 0
5.4970002 0.23199999 -1 1 0 0
5.4959998 0.23100001 -0.99000001 1 0 0
8.7340002 0.36700001 -1.557 22 0 0
8.7270002 0.366 -1.54 27 0 0
5.473 0.229 -0.95599997 1 0 0
5.5029998 0.23 -0.95099998 1 0 0
5.5079999 0.23 -0.94199997 1 0 0
5.4980001 0.229 -0.93000001 1 0 0
5.4920001 0.228 -0.91900003 1 0 0
5.4920001 0.227 -0.90899998 1 0 0
5.4990001 0.227 -0.89999998 1 0 0
5.5149999 0.227 -0.89200002 1 0 0
5.513 0.226 -0.88099998 1 0 0
5.5139999 0.22499999 -0.87099999 1 0 0
5.4840002 0.223 -0.85600001 1 0 0
5.4910002 0.223 -0.847 1 0 0
5.5149999 0.223 -0.83999997 1 0 0
5.5009999 0.221 -0.82800001 1 0 0
5.506 0.221 -0.81800002 1 0 0
5.5209999 0.22 -0.81 1 0 0
5.5120001 0.219 -0.79799998 1 0 0
5.5190001 0.21799999 -0.78799999 1 0 0
5.4970002 0.21600001 -0.77499998 1 0 0
5.4840002 0.215 -0.76200002 1 0 0
5.5139999 0.215 -0.75599998 1 0 0
5.5120001 0.214 -0.745 1 0 0
5.506 0.212 -0.73400003 1 0 0
5.5120001 0.211 -0.72399998 1 0 0
5.5120001 0.20999999 -0.713 1 0 0
5.494 0.208 -0.69999999 1 0 0
5.5 0.207 -0.69 1 0 0
5.513 0.206 -0.68099999 1 0 0
5.4949999 0.204 -0.66799998 1 0 0
5.5149999 0.20299999 -0.65899998 1 0 0
5.5009999 0.20100001 -0.64700001 1 0 0
5.5079999 0.199 -0.63700002 1 0 0
5.5050001 0.198 -0.62599999 1 0 0
5.5009999 0.19599999 -0.61500001 1 0 0
5.5079999 0.19499999 -0.60399997 1 0 0
5.5019999 0.193 -0.59299999 1 0 0
5.5110002 0.191 -0.583 1 0 0
5.4850001 0.189 -0.56900001 6 0 0
5.4829998 0.18700001 -0.55800003 6 0 0
5.4949999 0.185 -0.54900002 5 0 0
5.4990001 0.184 -0.53799999 2 0 0
5.513 0.182 -0.528 1 0 0
5.5159998 0.18000001 -0.51800001 1 0 0
5.52 0.178 -0.50700003 2 0 0
5.513 0.176 -0.49599999 2 0 0
5.5089998 0.17399999 -0.484 3 0 0
5.507 0.17200001 -0.47299999 4 0 0
5.487 0.169 -0.46000001 6 0 0
5.493 0.167 -0.449 6 0 0
5.5100002 0.16500001 -0.44 3 0 0
5.4899998 0.162 -0.42699999 5 0 0
5.5159998 0.161 -0.41800001 5 0 0
5.5050001 0.15800001 -0.40599999 4 0 0
5.4809999 0.155 -0.39300001 6 0 0
5.494 0.153 -0.38299999 10 0 0
5.4910002 0.15099999 -0.37200001 16 0 0
5.4949999 0.148 -0.361 16 0 0
5.5 0.146 -0.35100001 10 0 0
5.4819999 0.14300001 -0.338 6 0 0
5.493 0.14 -0.32800001 6 0 0
5.5180001 0.138 -0.31799999 3 0 0
5.5089998 0.13500001 -0.30599999 3 0 0
5.4990001 0.132 -0.29499999 6 0 0
5.5110002 0.13 -0.28400001 7 0 0
5.4970002 0.127 -0.27200001 8 0 0
5.5050001 0.124 -0.26199999 6 0 0
5.5009999 0.121 -0.25 6 0 0
5.5180001 0.119 -0.23999999 10 0 0
5.5009999 0.115 -0.228 16 0 0
5.4959998 0.112 -0.21699999 13 0 0
5.494 0.109 -0.205 8 0 0
5.474 0.106 -0.19400001 6 0 0
5.507 0.103 -0.183 17 0 0
5.5079999 0.1 -0.17200001 15 0 0
5.4949999 0.097000003 -0.161 8 0 0
5.5219998 0.093999997 -0.15000001 6 0 0
5.5250001 0.090999998 -0.139 5 0 0
5.5289998 0.088 -0.12800001 5 0 0
5.5300002 0.083999999 -0.117 6 0 0
5.5149999 0.081 -0.106 6 0 0
5.5079999 0.077 -0.093999997 6 0 0
5.5079999 0.074000001 -0.082999997 9 0 0
5.5040002 0.07 -0.071999997 9 0 0
5.5079999 0.067000002 -0.061000001 6 0 0
5.5180001 0.063000001 -0.050000001 6 0 0
5.5190001 0.059999999 -0.039000001 6 0 0
5.5279999 0.056000002 -0.028000001 6 0 0
5.5250001 0.052000001 -0.017000001 6 0 0
5.5370002 0.048999999 -0.0060000001 3 0 0
5.5430002 0.045000002 0.0040000002 2 0 0
5.5440001 0.041000001 0.015 2 0 0
5.5339999 0.037 0.026000001 1 0 0
5.5450001 0.034000002 0.037999999 1 0 0
5.5650001 0.029999999 0.048999999 1 0 0
5.5279999 0.026000001 0.059 5 0 0
5.5440001 0.022 0.071000002 3 0 0
5.5489998 0.017999999 0.082000002 2 0 0
5.552 0.014 0.093000002 1 0 0
5.553 0.0099999998 0.104 1 0 0
5.552 0.0049999999 0.115 1 0 0
5.5479999 0.001 0.126 1 0 0
5.559 -0.0020000001 0.138 1 0 0
5.5710001 -0.0060000001 0.149 1 0 0
5.566 -0.0099999998 0.16 1 0 0
5.5419998 -0.015 0.17 1 0 0
5.5469999 -0.018999999 0.18099999 1 0 0
5.5500002 -0.023 0.192 1 0 0
5.5580001 -0.028000001 0.20299999 1 0 0
5.5599999 -0.032000002 0.214 1 0 0
5.5570002 -0.037 0.22499999 1 0 0
5.5479999 -0.041000001 0.235 1 0 0
0 0 0 0 0 0
3.645 -0.033 0.169 25 0 0
3.648 -0.035999998 0.176 56 0 0
3.652 -0.039000001 0.183 87 0 0
3.6400001 -0.041999999 0.19 104 0 0
3.635 -0.045000002 0.19599999 96 0 0
3.6210001 -0.048 0.20299999 124 0 0
3.608 -0.050999999 0.20900001 123 0 0
3.608 -0.054000001 0.21600001 111 0 0
3.6070001 -0.057 0.223 123 0 0
3.605 -0.059999999 0.229 111 0 0
3.6040001 -0.063000001 0.236 111 0 0
3.6029999 -0.066 0.243 111 0 0
3.6029999 -0.068999998 0.25 123 0 0
3.6029999 -0.072999999 0.257 111 0 0
3.6040001 -0.075999998 0.264 123 0 0
3.6029999 -0.079000004 0.271 123 0 0
3.609 -0.082999997 0.278 102 0 0
3.6059999 -0.086000003 0.28400001 111 0 0
3.6110001 -0.089000002 0.292 95 0 0
3.6129999 -0.093000002 0.29899999 89 0 0
3.6140001 -0.096000001 0.30500001 89 0 0
3.6170001 -0.1 0.31200001 86 0 0
3.6059999 -0.103 0.31799999 75 0 0
3.612 -0.106 0.32499999 69 0 0
3.6140001 -0.11 0.33199999 66 0 0
3.6199999 -0.113 0.33899999 69 0 0
3.618 -0.117 0.34599999 67 0 0
3.6170001 -0.12 0.352 67 0 0
3.619 -0.124 0.359 68 0 0
3.6210001 -0.127 0.366 70 0 0
3.615 -0.131 0.37200001 67 0 0
3.6229999 -0.134 0.37900001 63 0 0
3.6210001 -0.138 0.38499999 68 0 0
3.618 -0.141 0.39199999 70 0 0
3.622 -0.145 0.398 66 0 0
3.6210001 -0.149 0.405 66 0 0
3.6229999 -0.152 0.412 66 0 0
3.619 -0.156 0.417 66 0 0
3.6199999 -0.15899999 0.42399999 67 0 0
3.619 -0.163 0.43000001 67 0 0
3.625 -0.167 0.43700001 66 0 0
3.6210001 -0.17 0.44299999 64 0 0
3.625 -0.17399999 0.44999999 67 0 0
3.6199999 -0.178 0.45500001 64 0 0
3.6240001 -0.182 0.46200001 67 0 0
3.628 -0.185 0.46900001 63 0 0
3.6229999 -0.189 0.47400001 69 0 0
3.6229999 -0.193 0.47999999 63 0 0
3.625 -0.197 0.48699999 63 0 0
3.6259999 -0.2 0.493 64 0 0
3.625 -0.204 0.49900001 64 0 0
3.6270001 -0.208 0.505 67 0 0
3.6289999 -0.212 0.51099998 66 0 0
3.625 -0.215 0.51700002 61 0 0
3.6270001 -0.219 0.523 66 0 0
3.6270001 -0.223 0.52899998 64 0 0
3.6199999 -0.226 0.53399998 62 0 0
3.628 -0.23100001 0.54100001 62 0 0
3.635 -0.235 0.54799998 64 0 0
3.6270001 -0.23800001 0.55299997 61 0 0
3.625 -0.242 0.55800003 62 0 0
3.6300001 -0.24600001 0.56400001 64 0 0
3.625 -0.25 0.56999999 60 0 0
3.6270001 -0.25400001 0.57599998 64 0 0
3.6329999 -0.25799999 0.58200002 64 0 0
3.632 -0.26199999 0.588 64 0 0
3.628 -0.266 0.59299999 62 0 0
3.631 -0.27000001 0.59899998 63 0 0
3.6340001 -0.27399999 0.60500002 62 0 0
3.6289999 -0.278 0.61000001 63 0 0
3.628 -0.28099999 0.61500001 63 0 0
3.631 -0.28600001 0.62099999 62 0 0
3.6289999 -0.289 0.62599999 62 0 0
3.6259999 -0.29300001 0.63099998 61 0 0
3.6270001 -0.29699999 0.63700002 62 0 0
3.6259999 -0.301 0.64200002 62 0 0
3.6259999 -0.30500001 0.64700001 61 0 0
3.6240001 -0.30899999 0.65200001 61 0 0
3.6340001 -0.31299999 0.65899998 62 0 0
3.6300001 -0.317 0.66399997 64 0 0
3.632 -0.32100001 0.66900003 63 0 0
3.6329999 -0.32499999 0.67500001 62 0 0
3.6370001 -0.329 0.68099999 58 0 0
3.635 -0.333 0.685 60 0 0
3.631 -0.33700001 0.69 60 0 0
3.6289999 -0.34099999 0.69400001 61 0 0
3.6329999 -0.345 0.69999999 59 0 0
3.6329999 -0.34900001 0.70499998 61 0 0
3.631 -0.35299999 0.70999998 62 0 0
3.632 -0.35699999 0.71499997 59 0 0
3.631 -0.361 0.71899998 58 0 0
3.6289999 -0.36399999 0.72399998 59 0 0
3.6340001 -0.36899999 0.73000002 62 0 0
3.6440001 -0.37400001 0.736 60 0 0
3.6329999 -0.377 0.73900002 61 0 0
3.632 -0.38 0.74299997 61 0 0
3.635 -0.38499999 0.74900001 57 0 0
3.635 -0.389 0.75300002 56 0 0
3.638 -0.39300001 0.759 59 0 0
3.6370001 -0.39700001 0.76300001 59 0 0
3.6389999 -0.40099999 0.76800001 61 0 0
3.6370001 -0.405 0.77200001 61 0 0
3.6359999 -0.40799999 0.77600002 61 0 0
3.635 -0.412 0.78100002 61 0 0
3.638 -0.41600001 0.78600001 60 0 0
3.6389999 -0.41999999 0.79000002 58 0 0
3.6400001 -0.42500001 0.79500002 58 0 0
3.638 -0.428 0.79900002 59 0 0
3.6389999 -0.43200001 0.80299997 51 0 0
3.6429999 -0.43700001 0.80800003 48 0 0
3.6400001 -0.44 0.81199998 55 0 0
3.6370001 -0.44400001 0.815 52 0 0
3.638 -0.44800001 0.81999999 55 0 0
3.6400001 -0.45199999 0.824 55 0 0
3.6389999 -0.45500001 0.82800001 55 0 0
3.638 -0.45899999 0.83200002 55 0 0
3.6400001 -0.463 0.83600003 49 0 0
