# .PCD v0.7 - Point Cloud Data file format
VERSION 0.7
FIELDS x y z intensity
SIZE 4 4 4 4
TYPE F F F F
COUNT 1 1 1 1
WIDTH 1219
HEIGHT 1
VIEWPOINT 0 0 0 1 0 0 0
POINTS 1219
DATA ascii
3.1891418 -0.78630674 -0.30863929 20.273746
3.2235 -0.80200005 -0.28850001 42.5
2.3772783 -0.70923734 -0.33392709 2
3.0079072 -0.75444669 -0.33414075 2
3.0618308 -0.751719 -0.31423303 2
3.0905848 -0.73331153 -0.30971742 2
3.1845832 -0.72445714 -0.31751123 28.572227
3.2458248 -0.74228108 -0.30316323 43.494141
3.3190074 -0.71345139 -0.29458123 29.5
3.396193 -0.70773375 -0.32254815 27.6875
3.4683261 -0.72180015 -0.31305751 31.9375
3.5378082 -0.70990413 -0.32629329 81.408417
2.0953863 -0.64340508 -0.33821446 4
2.1489999 -0.64950001 -0.30900002 3
2.1981463 -0.66113615 -0.3381153 2.75
2.2821131 -0.68830514 -0.3093532 2.3362284
2.3584316 -0.6847772 -0.32825455 2
2.3973317 -0.66808784 -0.31991345 2
2.483011 -0.64563817 -0.29543072 1.21875
2.560812 -0.65506577 -0.29263818 1
3.0493951 -0.69380802 -0.33487269 2
3.114048 -0.68065178 -0.33465993 2
3.2097406 -0.68313885 -0.32380769 32.712265
3.237077 -0.66849005 -0.32649958 27.757378
3.3258042 -0.6858694 -0.33398652 25.75
3.3700082 -0.68782294 -0.32701206 27.625
3.4474666 -0.69833016 -0.33280677 28.5
3.5427308 -0.67957401 -0.30762881 81.211166
2.0818336 -0.58695215 -0.31733963 3
2.1532183 -0.59860086 -0.32479215 3
2.182116 -0.62068415 -0.31388199 2.5
2.277 -0.611 -0.336 2
2.3510668 -0.5731039 -0.31791514 2
2.4265599 -0.59002733 -0.31335527 2
2.4914103 -0.61347985 -0.32780203 1.1666667
3.5407524 -0.59309018 -0.32359749 89.004395
1.7386851 -0.52288771 -0.31262174 2.6541667
1.7869803 -0.52585995 -0.30605072 2.8743525
1.8280902 -0.5226562 -0.31053478 4.3433332
1.8989363 -0.51801932 -0.32274532 4
2.0142312 -0.551925 -0.34854016 6
2.112 -0.505 -0.34799999 3
2.2264185 -0.55141115 -0.28776738 3
2.2810433 -0.55197823 -0.32229483 2.25
2.3394589 -0.53548193 -0.32305324 2
2.3955889 -0.53543949 -0.31836441 2
3.556267 -0.53202975 -0.31865415 96.192673
5.0773516 -0.4992862 -0.30331516 19
5.4460001 -0.54100001 -0.324 22
5.4988537 -0.52774131 -0.32302523 6.9973478
1.7321315 -0.47423983 -0.33039081 2.9019804
1.7856642 -0.46725297 -0.3082369 2.0660748
1.8416928 -0.46929833 -0.32926753 1.722789
1.9200069 -0.42809051 -0.32070595 3
1.9990267 -0.47174555 -0.32995671 3
2.0929108 -0.46140474 -0.34943438 3
2.168 -0.44400001 -0.285 3
2.201 -0.442 -0.30399999 3
2.2882566 -0.45712042 -0.29788059 2
2.3674417 -0.4673816 -0.33722177 2
2.4678671 -0.48241338 -0.34950247 1
3.5668745 -0.44392738 -0.32111567 87.905357
3.5750527 -0.43793228 -0.30762652 84.354172
5.5029855 -0.45775202 -0.30828077 7.3492298
5.5319743 -0.42575678 -0.34366512 55
1.7721469 -0.3628467 -0.33802921 3.288959
1.8409998 -0.37833893 -0.30102363 1.3333333
2.1324999 -0.40649998 -0.33750001 3.5
2.2190554 -0.41133153 -0.28638408 3
3.5635507 -0.39877871 -0.32346588 100.67858
3.5778911 -0.38226399 -0.33222806 103.31866
5.5112057 -0.38935781 -0.3322005 4.7794805
5.5364103 -0.37069231 -0.30515528 1.625
1.8039849 -0.2995463 -0.33202499 3.5357933
1.840668 -0.33705941 -0.32199222 3.3333333
3.5680001 -0.34799999 -0.34999999 110
3.5785 -0.34099999 -0.34450001 106
5.5217638 -0.32646936 -0.29518872 3.1860564
5.5371575 -0.31292269 -0.31097212 1.7548431
9.0108709 -0.28888333 -0.31604224 33.5
9.0489998 -0.301 -0.324 16
9.1610222 -0.28144875 -0.32597008 30
5.5196981 -0.23767202 -0.32013273 4.1498671
5.5514717 -0.23886137 -0.30671293 1.0835824
9.012661 -0.27241063 -0.33126551 38.75
9.1737289 -0.27800611 -0.34103936 28
9.360877 -0.22770058 -0.31975904 28.294458
9.4134598 -0.23847131 -0.30603284 29.66276
5.521759 -0.19816583 -0.32894802 5.958333
5.5444908 -0.17982915 -0.32289475 2.6138263
9.0218239 -0.15121783 -0.32855803 30.898438
9.0696335 -0.1528694 -0.32523289 28.039062
9.1285915 -0.16783994 -0.320705 28.863281
9.2032661 -0.17203137 -0.31955996 30.911457
9.2771664 -0.18960701 -0.32164007 30.98424
9.3238955 -0.192711 -0.30255851 27.76123
9.3889999 -0.16500001 -0.301 33
5.5254998 -0.092500001 -0.30250001 1
5.5663919 -0.08736378 -0.33251792 1
5.6375999 -0.075245455 -0.29820085 1
5.6812835 -0.07627739 -0.29665637 1
9.0509996 -0.139 -0.285 35
9.1339998 -0.097999997 -0.29100001 28
9.2115002 -0.108 -0.32099998 29.5
9.2770004 -0.1085 -0.322 31.5
9.3354998 -0.111 -0.32249999 33.5
5.527791 -0.063871697 -0.29027423 1
5.578577 -0.035608165 -0.30209565 4.3632393
5.6344652 -0.058484443 -0.29732913 1
5.6922169 -0.055837296 -0.32042152 1
8.9965 -0.046999998 -0.29799998 31.5
9.0539999 -0.056000002 -0.33749998 30
5.5716 0.0098000001 -0.31260002 1
5.6299229 0.015750904 -0.33520374 1
5.7066898 0.025431486 -0.30431277 1
5.6223192 0.094614953 -0.31590676 1
5.6860104 0.089696169 -0.30826771 1
6.0003362 0.087230653 -0.30290574 7
6.058496 0.084536925 -0.32979509 3.25
6.1075268 0.088754311 -0.34981143 5
6.4801207 0.13324775 -0.30345264 7.75
6.5519233 0.12155946 -0.31807533 7.835917
6.6141233 0.11617955 -0.32276928 6.3581543
6.6882024 0.10159717 -0.33754849 3.6666667
6.739718 0.094488978 -0.32230508 5
6.8586154 0.10889015 -0.32649526 1
6.9988985 0.13573647 -0.3131972 11
7.0087805 0.13064271 -0.30452597 10.5
6.4741249 0.15125121 -0.32500893 7
6.553628 0.2004405 -0.33267564 4.9513888
6.6090317 0.20573696 -0.302679 3.7201877
6.6589394 0.2026898 -0.30903542 2.7890625
6.7426643 0.19072676 -0.32085049 2.7537978
6.8381033 0.16642132 -0.31096283 2.8561659
6.8935881 0.16354352 -0.29835415 4.5636935
6.945509 0.14792457 -0.31769058 5.125
7.050519 0.14146863 -0.30761421 8
5.7379999 0.25600001 -0.33899999 1
5.763546 0.27148318 -0.3191146 1
5.8487692 0.25797433 -0.32465744 1
5.914958 0.26681837 -0.31360587 1
5.9657388 0.25081158 -0.31905746 1
6.0890002 0.25799999 -0.338 1
6.1368189 0.2717959 -0.31695056 1
6.2094088 0.26728866 -0.3220343 1
6.28934 0.26729614 -0.33067024 1
6.333385 0.25914159 -0.31994191 1
6.3964443 0.2479763 -0.31265697 1
6.4710827 0.24794976 -0.31788868 1
6.5461259 0.2222836 -0.31636047 1.5015794
6.5995631 0.21632472 -0.30042475 2.2634549
6.6886668 0.226 -0.32333335 3
2.9834325 0.32762864 -0.31247145 48.584282
3.0435035 0.31279725 -0.31630716 30.058462
3.1023722 0.32326564 -0.32429644 10.705731
3.1837816 0.31332701 -0.30601132 9.4578066
3.2504921 0.31502533 -0.31805286 9.6091738
3.3048928 0.31051511 -0.31043804 8.0178127
3.391659 0.30359298 -0.3204717 6.4331961
3.457587 0.30386263 -0.30715334 8.852747
3.5416512 0.29667687 -0.30616874 7.9644823
3.5828171 0.29311556 -0.31365207 8.796875
5.5628314 0.33643815 -0.29900342 124.782
5.6291046 0.30643106 -0.31301659 26.558256
5.7059698 0.29258347 -0.29195035 1.0422771
5.7636995 0.28790513 -0.28538203 1
5.837955 0.30589452 -0.31261355 1
5.8860002 0.32499999 -0.317 1
6.1146965 0.28395593 -0.29907709 1
6.1975002 0.3055 -0.28549999 1
6.2588663 0.30168074 -0.32035148 1
6.3195558 0.30200002 -0.31911111 1
6.402 0.315 -0.29100001 1
2.9230001 0.35100001 -0.28099999 151
2.9751949 0.35453546 -0.30472931 127.27187
3.0313795 0.36211789 -0.32597908 93.961227
3.111424 0.37967914 -0.29568917 45.109375
3.2107193 0.39906698 -0.29571348 18
3.2342732 0.39813954 -0.31801587 15.5
3.2995 0.41100001 -0.31299999 10
3.402 0.40799999 -0.287 7
5 0.37799999 -0.315 93
5.2792273 0.3993426 -0.31423998 105.25
5.4397559 0.41813874 -0.2997925 124
5.5257034 0.40928558 -0.3218244 108.5
5.5668554 0.36531442 -0.32571641 119.84627
5.6203246 0.38418326 -0.31771195 94.666664
3.2160001 0.43399999 -0.289 22
3.4130001 0.435 -0.30599999 7
3.4579999 0.47099999 -0.31600001 6
3.5455 0.44625002 -0.32300001 5
3.5902846 0.45529956 -0.31215447 5.9375
3.6875706 0.48047805 -0.29704434 57.734921
5.1389999 0.42500001 -0.315 111
5.5229998 0.42899999 -0.28200001 120
5.5693998 0.42472628 -0.3161763 121.06944
3.0052943 0.55907118 -0.34490246 21
3.1039004 0.555264 -0.3269648 22.4375
3.2045836 0.5556668 -0.32854837 21.700274
3.2552929 0.55147314 -0.31597766 22.747061
3.3139834 0.54562575 -0.32082134 22.1772
3.3968873 0.54453796 -0.32763952 21.509357
3.4686496 0.52856076 -0.34227812 21.519566
3.5475817 0.51941085 -0.33276758 23.69911
3.6218858 0.50991738 -0.31611544 23.963516
3.6882904 0.49911937 -0.3051255 55.553814
2.4950805 0.62877357 -0.29963923 25.372396
2.5562556 0.62548578 -0.30712736 25.983452
2.6261261 0.62352663 -0.3165369 22.682669
2.6692917 0.61997002 -0.29345322 23.069529
2.7681222 0.60660374 -0.30396491 22.888941
2.8322783 0.59865898 -0.30857244 22.641907
2.9051754 0.58832985 -0.3072271 24.853691
2.9754207 0.57966065 -0.33261609 21.278362
3.056067 0.56972706 -0.33867449 20.920845
3.1015925 0.57157993 -0.30203402 21.508411
3.1785579 0.56436396 -0.33215427 20.912407
3.2394693 0.56245577 -0.31344503 23.333332
3.293 0.56 -0.31600001 23
2.078351 0.67919022 -0.30721641 24.061604
2.1566 0.6687386 -0.32822585 23.86273
2.2087717 0.66455066 -0.30280992 23.181311
2.2572446 0.65897954 -0.29538608 23.263844
2.3433399 0.65316612 -0.31159273 22.876514
2.4232605 0.64319718 -0.31196946 22.606495
2.4839528 0.63700408 -0.30252013 22.460678
2.5287735 0.63447219 -0.28995565 23.581238
2.6040001 0.63100004 -0.31533334 26
3.4835098 -1.1968207 -0.23267139 62.466663
3.473217 -1.142127 -0.25335529 52.93248
3.4964375 -1.0979544 -0.24602437 65.180923
3.5008798 -1.0592171 -0.22673498 67
3.4170001 -0.98299998 -0.278 30
3.4911084 -1.0352414 -0.23074141 66.333405
3.5042624 -1.006922 -0.24675243 65.25
3.190367 -0.93787873 -0.26711294 2
3.280426 -0.92501187 -0.24678844 26.848263
3.3010404 -0.92570359 -0.26916388 27.226562
3.3991764 -0.96962595 -0.2692332 26.444443
3.4549999 -0.97299999 -0.243 44
3.2075942 -0.87348628 -0.27011567 15.4375
3.2644577 -0.88046849 -0.26407373 39.576981
3.303 -0.89414293 -0.23342858 36.42857
3.1258144 -0.81444651 -0.264063 2
3.1911774 -0.82582408 -0.266725 16.979166
3.2682021 -0.81944877 -0.2292223 50.262836
3.2719886 -0.76085645 -0.25774315 32.136959
3.3152995 -0.74902892 -0.24400312 32.555328
3.3860569 -0.74389434 -0.2520408 35.334637
3.489728 -0.74959207 -0.2527869 43.448349
3.5430021 -0.73403478 -0.24998307 81.836258
2.323 -0.63150001 -0.27250001 2
3.2525868 -0.67725295 -0.2784586 30
3.3052499 -0.69050002 -0.27600002 31.25
3.5421557 -0.6622833 -0.239611 79.995956
1.7495911 -0.56335276 -0.2177197 3
1.7554274 -0.56780583 -0.21681193 3
2.201 -0.59100002 -0.213 3
2.293 -0.57200003 -0.223 2
2.3512053 -0.59099853 -0.25898498 2
2.4183602 -0.57714427 -0.25191569 1.75
3.5588243 -0.58482224 -0.25743949 104.43381
1.8000828 -0.52234179 -0.26287222 1.173124
1.8272375 -0.49595448 -0.22250807 1
2.0679655 -0.50093991 -0.23093559 5.5
2.1227014 -0.51558948 -0.23792262 4.125
2.217133 -0.5123812 -0.24996893 2.96875
2.2663507 -0.52109385 -0.24349299 2.5
2.3544793 -0.54408878 -0.27131182 2
3.5654399 -0.51135397 -0.24538787 111.37903
3.5746455 -0.51086658 -0.22797728 106.9
5.0165992 -0.49677402 -0.26865652 5
5.2313862 -0.51825708 -0.24397114 5
5.5146632 -0.50153232 -0.23497817 4.1778054
1.7915134 -0.46300855 -0.25270587 2.9579852
1.8322029 -0.46002764 -0.23696527 2.5854168
2.0844135 -0.46225572 -0.23362753 4.578125
2.1321902 -0.44421634 -0.24428302 3.859375
2.1981788 -0.43215209 -0.25605914 2.9921875
2.2651989 -0.47394896 -0.24972418 2
3.5654547 -0.47149965 -0.23930387 95.184967
3.5764384 -0.45463639 -0.22362188 101.14553
4.9959998 -0.472 -0.273 5
5.5204048 -0.45309213 -0.25276515 4.9605932
5.5325041 -0.43570769 -0.2365683 7.5
1.7861667 -0.40125903 -0.26166806 2.9333334
1.8352456 -0.38003004 -0.24100542 3.03056
2.1305001 -0.4165 -0.27100003 3.5
3.564517 -0.40392715 -0.25613877 107.87531
3.5811949 -0.38701841 -0.23288706 106.16583
5.5084105 -0.370426 -0.26265591 4.9761057
5.5444965 -0.36204505 -0.25523663 1.1985607
1.8152118 -0.30364722 -0.25286049 3
1.8401556 -0.34099561 -0.24674213 2.75
3.595 -0.34549999 -0.25033334 107
5.5229502 -0.32466099 -0.26226008 3.1375775
5.5566626 -0.32008907 -0.22677732 1.5020543
9.0713367 -0.28405595 -0.2439968 34
9.1914988 -0.28215232 -0.25509202 29
9.3733244 -0.28832784 -0.26430941 28
5.5220671 -0.23907469 -0.26503727 4.25
5.5628071 -0.2325893 -0.2426234 1.7002164
8.9999475 -0.26577508 -0.27566209 38
9.0508585 -0.26601827 -0.22863308 39.75
9.1049995 -0.26300001 -0.23 37
9.1911259 -0.25625712 -0.23785844 31.1875
9.2690001 -0.255 -0.22 27
9.3591461 -0.21846804 -0.24432538 26.5
9.391614 -0.23027837 -0.26345721 29.112652
5.5673814 -0.194296 -0.23773754 1.001142
8.943409 -0.15059423 -0.25224924 31.75
8.9981461 -0.16191821 -0.25646344 31.25
9.0710335 -0.15325847 -0.25928187 30.627605
9.1065998 -0.15966991 -0.25395828 31.21875
9.1895981 -0.16663161 -0.2645357 30.039062
9.2741108 -0.1973924 -0.22889125 28.546875
9.3461094 -0.19221203 -0.25019318 29.148872
9.3821611 -0.19921339 -0.24511471 31
5.5840454 -0.11511433 -0.26566252 1
5.6320586 -0.076199256 -0.2393681 1
5.6749196 -0.071526781 -0.24955748 1
8.8485861 -0.13384388 -0.24241897 28
8.9170895 -0.136522 -0.24995768 30
8.9860001 -0.138 -0.278 32
9.0772495 -0.10325 -0.24074998 30
9.1485004 -0.102 -0.237 31.5
9.2140007 -0.1305 -0.24250001 33
5.5232244 -0.022337509 -0.24572104 2
5.5807047 -0.030304167 -0.2307137 2.8171434
5.6380577 -0.048491884 -0.24297428 1
5.6759748 -0.034131333 -0.24717402 1
8.9829998 -0.07 -0.215 29
9.1079998 -0.067000002 -0.21699999 33
5.5850296 0.012526216 -0.25689808 1
5.631433 0.023797438 -0.25303692 1.3751637
5.6892624 0.041956257 -0.23874244 4
5.6276531 0.070561163 -0.23172212 7
5.6748128 0.094227172 -0.26562858 1
6.012279 0.091802172 -0.23416308 4
6.0287485 0.094201505 -0.22289893 6
6.1221237 0.094714671 -0.26042297 4
6.2628012 0.090573862 -0.27390042 5
6.4889708 0.12495179 -0.24808946 9
6.558136 0.10135713 -0.25026575 13.931641
6.6277742 0.11596039 -0.24177295 7.8984375
6.6762724 0.10905559 -0.24272028 6
6.89394 0.13214684 -0.26481074 10
5.9530001 0.20900001 -0.24600001 1
6.4320002 0.184 -0.273 3
6.4659901 0.15721557 -0.25297961 7.4722223
6.5467548 0.19294806 -0.22093694 2.8657408
6.6140747 0.2066904 -0.23843788 3.270345
6.6998682 0.19026046 -0.24998665 2.5525174
6.738368 0.18464766 -0.23358649 2.4305363
6.8336678 0.16678733 -0.26724219 3.3710938
6.8928857 0.15777861 -0.25923982 5.9861107
6.9373665 0.15698639 -0.26543462 4.5
2.9993377 0.2763626 -0.24518849 3.5
3.0285187 0.27661282 -0.2459411 2
5.7946153 0.27897191 -0.23800093 1
5.8469157 0.2604351 -0.24554111 1
5.9075627 0.26611745 -0.23195165 1
5.9634476 0.24516098 -0.22527808 1
6.1945839 0.27475715 -0.25778586 1
6.2370429 0.26961315 -0.2359634 1
6.3463945 0.26473093 -0.26821268 1
6.4014368 0.25372797 -0.24806176 1
6.4693408 0.24052355 -0.25698239 1.000012
6.5471268 0.21766979 -0.24818042 1.7925781
6.5944004 0.21846232 -0.25565842 1.34375
6.6793327 0.223 -0.23316665 3.3333333
6.73 0.22600001 -0.24250001 4
2.9266489 0.34098005 -0.24825476 151
2.9858882 0.32765663 -0.24024028 49.606224
3.0207567 0.31494337 -0.23273893 9.6700602
3.1329904 0.31133786 -0.2569643 7.3601928
3.1839736 0.30220914 -0.2668108 5.0101299
3.2464156 0.30281392 -0.24101934 5.1776376
3.336019 0.30621082 -0.24674553 8.6035786
3.3793726 0.30437413 -0.25781876 8.25
3.4697628 0.30180243 -0.25795028 8.3697195
3.5273747 0.3003355 -0.25507301 8.4375286
3.5914781 0.29713616 -0.26887119 8.4849176
5.52775 0.32075 -0.23074999 100
5.5696936 0.33752331 -0.24468113 111.45287
5.6310902 0.32485813 -0.24259709 67.617271
5.7196145 0.29588574 -0.22514416 1.3890173
5.7567334 0.29017025 -0.22687519 1.001024
5.8230782 0.29585737 -0.22880137 3
5.9419999 0.30899999 -0.26199999 1
6.1652889 0.28345913 -0.25090602 1
6.2507629 0.28080314 -0.21342231 1
6.353334 0.30966666 -0.26699999 1
6.3790002 0.31299999 -0.26199999 1
6.4700003 0.29100001 -0.24249999 1
6.5345001 0.28549999 -0.2475 2.5
2.9260921 0.3580249 -0.2470341 151
2.98314 0.36498144 -0.23222405 98.374504
3.0485642 0.3692095 -0.2293728 81.945045
3.1088815 0.37809169 -0.25988665 44.3125
3.1922889 0.39498857 -0.23746505 22.546875
3.2412295 0.40066451 -0.21536064 14.5
3.3803263 0.41623813 -0.23987225 6.5
5.1429157 0.39368191 -0.27077305 92
5.2740002 0.41 -0.229 103
5.3657584 0.40325651 -0.27196968 106
5.4894733 0.40966004 -0.24853608 120.25
5.5733929 0.38902745 -0.25775522 124.52162
3.2698479 0.43267396 -0.252525 3
3.3783698 0.42896962 -0.27514523 7
3.5017071 0.46106151 -0.27737826 4
3.5959706 0.44630694 -0.2660107 6
3.6923661 0.47316861 -0.25924939 60.451775
5.21 0.45699999 -0.248 122
5.5183191 0.42637807 -0.25054461 106.5
5.5500584 0.43181521 -0.22647154 119.49008
3.1995363 0.55828488 -0.26842028 21.118057
3.2576008 0.5564186 -0.23206095 21.87882
3.3232241 0.55045772 -0.24810567 21.444923
3.3833547 0.54339552 -0.2559745 21.269836
3.4605703 0.53123605 -0.26739013 21.299484
3.5475597 0.52302235 -0.2561374 23.582869
3.6211314 0.51750863 -0.25720894 24.42918
3.692127 0.50367856 -0.24214439 64.783257
2.5079999 0.62900001 -0.257 27
2.5726869 0.62882894 -0.23575142 25.707291
2.6145916 0.62745422 -0.2336185 23.490957
2.6975324 0.61927819 -0.24972066 23.047739
2.7683327 0.6124332 -0.22829969 22.046137
2.8561468 0.59760439 -0.23552257 23.007851
2.8877699 0.59435648 -0.23616734 22.159836
2.9776525 0.58867276 -0.25455981 21.38975
3.0290678 0.58287078 -0.24346729 20.636242
3.1084738 0.57782161 -0.2421542 20.271639
3.1791794 0.56991935 -0.23170523 22.375666
3.2439284 0.56395161 -0.23199371 23.225
3.3262 0.56479996 -0.25206667 20.933332
3.3861666 0.56183332 -0.24249998 21.5
2.0055208 0.68269843 -0.22384904 23.641172
2.0741329 0.6787324 -0.24311355 23.535118
2.1286952 0.67141354 -0.2637659 25.574522
2.205075 0.66220403 -0.26186046 24.620323
2.2840271 0.65895778 -0.27444136 21.998087
2.3382514 0.65530378 -0.26335043 23.114729
2.4348536 0.64498919 -0.25056511 23.350908
2.4804218 0.64128989 -0.24412356 23.36783
2.5499549 0.63435781 -0.2609776 23.782196
2.6189523 0.63223767 -0.21631525 24.196428
2.6955717 0.63449997 -0.23492856 25.119049
2.7577999 0.63220006 -0.23840001 21.6
3.4848509 -1.1979454 -0.18545377 62.972225
3.4911032 -1.1384554 -0.18468828 64.291534
3.5 -1.123 -0.18000001 66
3.4934583 -1.0934849 -0.1703971 63.682266
3.5022888 -1.0739225 -0.15318666 65.824997
3.4981227 -1.0317837 -0.1743872 66.500595
3.5046675 -1.0086918 -0.1616687 66.510857
3.3457103 -0.92242122 -0.16418931 27.942377
3.3892622 -0.92235029 -0.15636146 27.75742
3.448807 -0.96037936 -0.17643449 37.796394
3.5049999 -0.97541666 -0.18483333 62.333332
3.2810488 -0.85936594 -0.18474169 38.314816
3.3329887 -0.87531358 -0.1817991 38.432888
3.38919 -0.88925099 -0.1556184 34.583336
3.2832096 -0.80440348 -0.19574669 48.828835
3.3050649 -0.81285286 -0.18563773 42.25518
3.3790483 -0.77809256 -0.15041345 33.00074
3.45136 -0.7716009 -0.14548708 41
3.5197461 -0.77203143 -0.15098202 63.277779
3.2782333 -0.76352477 -0.20534241 31.166666
3.3326824 -0.74736494 -0.19962664 32.84071
3.4002044 -0.75900596 -0.18974507 32.73806
3.4550948 -0.75802594 -0.18572798 37.184898
3.5369885 -0.72986984 -0.17827602 83.090302
3.5440872 -0.65287828 -0.18095006 88.935371
2.0633335 -0.56933331 -0.18233334 5
2.1132441 -0.56620312 -0.18700942 4
3.5566752 -0.62045187 -0.16760866 94.469421
1.8093299 -0.50179029 -0.17534284 4.8518519
2.0847044 -0.52584529 -0.1985693 4.75
2.1117358 -0.50509679 -0.20183969 4.75
2.1944938 -0.49585396 -0.20559916 3
2.2924395 -0.50577426 -0.19439286 2
3.5665574 -0.53672171 -0.18575706 99.654961
3.5763054 -0.51795304 -0.18355754 107.27222
5.5159512 -0.51550078 -0.18968281 2.4463096
5.5410881 -0.50874788 -0.15592928 2.8229165
1.8115555 -0.45655558 -0.18633334 4.6111112
1.8418679 -0.46198535 -0.18209656 4.6332345
2.023 -0.47499999 -0.20900001 6
2.0670104 -0.4673214 -0.17359282 6
2.130295 -0.46774396 -0.18281253 4
2.1758428 -0.4894608 -0.20527853 3
3.5687642 -0.47436321 -0.19415992 90.242523
3.5822496 -0.44633865 -0.17150353 95.686317
5.5122714 -0.46512893 -0.18021543 3.9252241
5.5444574 -0.45442778 -0.16079697 3.1867676
1.8008702 -0.39883882 -0.20425443 3.625
1.8388735 -0.36007738 -0.20014599 4.015625
3.5683327 -0.40347502 -0.1951811 108.21875
3.5937362 -0.39458197 -0.15963759 105.25737
5.5249829 -0.38597402 -0.19785461 2.5545247
5.561049 -0.38508344 -0.17178392 1.4071059
1.8300947 -0.34460545 -0.20976244 4
5.5290632 -0.30956167 -0.19218887 2
5.5599689 -0.31413835 -0.18035242 1.1275446
9.0702267 -0.29560179 -0.19372983 31.9375
9.1205521 -0.31860539 -0.15494573 25.5
9.1934166 -0.28574076 -0.15832022 31
9.2969999 -0.28299999 -0.18700001 27
5.5629592 -0.24806859 -0.18266924 1.3892378
9.0594997 -0.26271743 -0.15822117 39.744141
9.1424999 -0.24349999 -0.183 34
9.203701 -0.27689546 -0.18671164 31
9.2480001 -0.26199999 -0.193 28
9.3609734 -0.22017226 -0.16674611 27.757812
9.406745 -0.24113958 -0.16706017 30.178429
5.5711169 -0.17638673 -0.18506464 1
9.0137062 -0.15083796 -0.19323483 29.5
9.0848179 -0.16295542 -0.18051152 28.867188
9.1465416 -0.15802936 -0.15686147 30.577637
9.2202816 -0.18785414 -0.18263651 29.443359
9.2686176 -0.18161571 -0.17273121 31.375
9.338213 -0.20003551 -0.16800833 28.496311
9.403758 -0.19636321 -0.17851368 29.375
5.5250001 -0.14 -0.18099999 1
5.5708456 -0.086312018 -0.15828933 1
5.6166611 -0.072895229 -0.18565106 1
5.6974025 -0.078300156 -0.18466412 1
8.9968777 -0.13318446 -0.18716761 28.869791
9.0602121 -0.13315603 -0.18019272 32.5625
9.1159992 -0.123 -0.1875 33
5.5915914 -0.034653582 -0.17788166 2.2019918
5.6188302 -0.022866176 -0.16320114 1.1876678
5.6813822 -0.036809385 -0.16598916 1
8.9049997 -0.063000001 -0.19599999 30
8.9925003 -0.048500001 -0.171 35
9.066 -0.059 -0.199 34
5.5844574 0.0085356291 -0.19603294 1.0148809
5.6404643 0.024673427 -0.18235366 1.0000241
5.6750617 0.031598188 -0.16867214 1
6.4877038 0.083139107 -0.15375426 41.390625
6.5685453 0.11136439 -0.17843392 11.967204
6.6283946 0.092821717 -0.16249293 25.048176
6.6980991 0.092596263 -0.15206164 25.425781
6.7329364 0.093530431 -0.17726395 10
5.864501 0.17557937 -0.15590346 1.5
5.8830619 0.2018186 -0.16075128 1
5.9905 0.20100001 -0.16 1
6.0514312 0.20153722 -0.17616165 1.25
6.1268959 0.18197215 -0.14652868 2
6.1659999 0.193 -0.17900001 3
6.4197941 0.20679578 -0.15251824 2.7916665
6.4614754 0.19813532 -0.15626791 3.075521
6.5406609 0.20185292 -0.19267771 2.625
6.6323519 0.19810838 -0.16862826 2.0234375
6.6764183 0.1869418 -0.19770083 2.8245082
6.779387 0.17632861 -0.20527136 3
6.8060236 0.17088494 -0.18625991 3
3.5450001 0.27900001 -0.197 8
3.589 0.27599999 -0.19499999 8
5.7292733 0.24501999 -0.16435072 1
5.7532887 0.23771194 -0.1611858 1
5.837635 0.24697725 -0.18256021 1
5.8950243 0.24566962 -0.18467595 1.0017362
5.9822173 0.22326615 -0.17539543 1
6.0598893 0.21692556 -0.17386085 1
6.1090002 0.27000001 -0.141 1
6.1893172 0.27767584 -0.20652789 1
6.2792211 0.24415953 -0.1698368 1
6.3485022 0.25729963 -0.20029151 1.125
6.3917804 0.24664819 -0.18216482 1.2832031
6.4954615 0.2326622 -0.17213315 1.416748
6.5295429 0.23156853 -0.18934445 1.2916666
6.6107388 0.23404494 -0.18498227 2.25
6.6810002 0.241 -0.182 2
2.9269931 0.34507945 -0.20138115 151
2.9827974 0.34320012 -0.16999619 113.30984
3.0414243 0.3313342 -0.15658851 13.31831
3.1184003 0.32666102 -0.16305161 13.924633
3.198756 0.31548101 -0.19373658 9.7265759
3.2420521 0.31773457 -0.16376829 8.3202801
3.3241684 0.3136487 -0.16197094 8.2905083
3.3891916 0.30971178 -0.17687845 9.7118788
3.4506679 0.30345553 -0.18272164 8.5147457
3.545253 0.30090231 -0.16551203 8.9814186
3.6018152 0.29792976 -0.17491452 9.06779
5.5750966 0.3374896 -0.17262407 84.269417
5.6338248 0.31267402 -0.18335626 26.897135
5.7101221 0.31132114 -0.16942936 5.2057018
5.7752705 0.29168522 -0.18510169 1.0001678
5.8295002 0.29899999 -0.17399999 1
6.1201668 0.28916666 -0.14994445 1
6.1869998 0.285 -0.147 1
2.9748533 0.3546848 -0.18908918 129.92958
3.0441854 0.37457958 -0.15209204 98.80143
3.1040764 0.38386309 -0.16598374 53.300293
3.2045376 0.39776766 -0.17296876 18.5
3.2540002 0.40674999 -0.17 12.875
3.3659999 0.40599999 -0.189 7
5.3600807 0.40978432 -0.16240127 100
5.5032773 0.39478093 -0.1469115 115.5
5.5656509 0.36177126 -0.19247854 135.51392
5.6073375 0.38121474 -0.19312382 126.72916
5.7034998 0.35550001 -0.1605 1
3.5497069 0.43180317 -0.20359334 5
3.6804018 0.47106457 -0.20021248 46.812546
5.4919672 0.42404485 -0.16534148 110.125
5.5640683 0.42716017 -0.16583067 115.07522
3.2085586 0.55522621 -0.19627886 22
3.2730546 0.55748987 -0.18125424 20.993439
3.318697 0.55377215 -0.17651026 20.174557
3.3931406 0.54523653 -0.18382876 19.680098
3.4756539 0.53409225 -0.1917973 20.545652
3.5203471 0.53364778 -0.17968675 21.977837
3.609844 0.52082419 -0.18305658 23.610016
3.6961641 0.49963802 -0.16454884 59.910431
2.5018749 0.62712991 -0.17644703 24.5
2.5823622 0.62748212 -0.199434 23.754885
2.6359627 0.62646168 -0.20317216 23.314674
2.6936028 0.62223303 -0.17109893 25.214279
2.7671089 0.6138019 -0.15649778 24.136206
2.8427093 0.60642159 -0.17050867 21.804352
2.917397 0.59997648 -0.15123746 23.587475
2.9850218 0.58923715 -0.15442599 21.415424
3.0339134 0.58202654 -0.16515014 20.528713
3.0915396 0.57971877 -0.1546675 21.234146
3.1847112 0.56816101 -0.18501395 20.487713
3.2455606 0.56330192 -0.17246801 21.429688
3.3163333 0.5810833 -0.17116666 20.333334
3.3921502 0.574 -0.167 19.65
3.4630001 0.56637502 -0.16125 21.125
3.5196667 0.5625 -0.15816668 22.5
1.9897573 0.69099361 -0.16314426 22.747671
2.0790229 0.68701982 -0.16329081 23.486153
2.1198864 0.68093348 -0.17582275 24.729187
2.2078094 0.67108721 -0.18095563 24.545357
2.2644031 0.66590184 -0.17909905 23.428711
2.3417366 0.65812981 -0.18741477 24.661106
2.3964517 0.65192944 -0.17844063 23.753206
2.4719977 0.64479476 -0.18641472 24.599966
2.5403912 0.63778824 -0.17632538 25.690496
2.6058547 0.63315707 -0.16902368 26.166666
2.697031 0.63908017 -0.14684525 24.083332
2.7692001 0.63919997 -0.15279999 23.4
2.8312502 0.63225001 -0.15425 23
2.0481212 0.70112121 -0.15451515 23.39394
3.4896278 -1.2098798 -0.10128433 62.149998
3.4933181 -1.1430677 -0.10030261 64.115677
3.5033627 -1.1336299 -0.077527851 65.25
3.4965641 -1.1100792 -0.12536724 65.426285
3.5074077 -1.0723798 -0.09691377 66.089912
3.4884179 -0.99502242 -0.12385378 54.428574
3.5114045 -1.0165854 -0.12788668 66.920464
3.3466201 -0.92279923 -0.12884292 26.125
3.3988693 -0.9180907 -0.11795338 31.049324
3.4665511 -0.96074718 -0.077283017 40.125
3.5103333 -0.97166663 -0.084666669 62.333332
3.3422399 -0.86881292 -0.12794372 36.215431
3.4036841 -0.89966756 -0.096118182 35.023697
3.3460631 -0.81966102 -0.10385752 46.411816
3.401942 -0.78190398 -0.12237644 33.125599
3.4381654 -0.77238369 -0.10477489 40.666668
3.5414631 -0.7725234 -0.095210694 72.68055
3.4136865 -0.76776922 -0.090739608 33.995369
3.463599 -0.76443261 -0.084262498 40.854992
3.5489793 -0.75342548 -0.0828899 78.713768
3.5495958 -0.66481477 -0.13021027 78.362625
3.5595512 -0.59737444 -0.12542439 82.413689
3.5747914 -0.56456983 -0.11255672 88
5.5346813 -0.56327945 -0.10318237 1
1.8037608 -0.50120676 -0.10361152 6
3.5676372 -0.53925961 -0.099395908 88.01516
3.5770702 -0.53615463 -0.083796963 83.182465
5.521287 -0.51818132 -0.093869895 1.5919596
5.5355635 -0.5232659 -0.10507171 1.670573
1.8103662 -0.46904215 -0.13383311 4
1.8253403 -0.4800964 -0.13560376 4
3.5685 -0.47479165 -0.12816668 102.83333
3.5940049 -0.44754866 -0.11179104 82.790199
5.5186362 -0.46659619 -0.13459569 4.6012673
5.5495443 -0.43922812 -0.11440973 1.0347013
1.8265765 -0.39748403 -0.13633011 4
3.5892892 -0.39422876 -0.10302935 97.26503
3.6443102 -0.36471656 -0.08550404 96
5.5734911 -0.3568539 -0.11152728 1
3.6113 -0.34439999 -0.104525 52.474998
5.5622554 -0.30248523 -0.10830306 1.1667953
9.0671091 -0.29123715 -0.092899352 28.03125
9.1100073 -0.32409304 -0.11490865 25.416668
5.5792508 -0.25346899 -0.1096536 1
5.6025829 -0.23816504 -0.090765521 1
9.0681705 -0.25762716 -0.11963406 39.375
9.1488199 -0.25675502 -0.10422463 36.0625
9.2155533 -0.25752926 -0.096242994 28.296875
9.3614998 -0.2225 -0.123 29
9.42134 -0.24108708 -0.11592805 28.050209
5.5776167 -0.18776125 -0.10301459 1
5.6066456 -0.19968018 -0.1024652 1
9.0101967 -0.15723434 -0.081528164 31.890625
9.0652657 -0.15668264 -0.084542707 29.810516
9.1118402 -0.15977371 -0.12074994 31.539062
9.2105112 -0.17840862 -0.1032208 28.90625
9.2918434 -0.18276602 -0.11480083 30.265137
9.3610468 -0.19144084 -0.12163413 30.211142
9.3945713 -0.2016028 -0.10622288 31.75
5.5743155 -0.11886755 -0.1152828 1
5.6168804 -0.074251853 -0.097408488 1
5.6801715 -0.080817319 -0.10147537 1
8.7942381 -0.11388 -0.093512759 30.25
8.8305674 -0.11271322 -0.090557486 32.8125
8.9499998 -0.108 -0.132 30
8.9854851 -0.13441554 -0.089059867 31.84375
9.0740004 -0.13600001 -0.106 32
9.2259998 -0.13 -0.077 29
9.2819996 -0.10525 -0.081499994 30.5
9.3474998 -0.12266667 -0.09883333 29.333332
9.3990002 -0.114 -0.119 32
5.5204329 -0.034587845 -0.074914396 2
5.588809 -0.013621586 -0.11171941 2.2876239
5.617198 -0.022975311 -0.10892108 2.0217061
5.7138538 -0.044714969 -0.085561141 1
5.5771437 0.0057595093 -0.098614477 1.3583333
5.6552005 0.03572017 -0.088111743 1.1250278
5.7080722 0.034055348 -0.10319283 1
5.7549524 0.039002746 -0.13638324 1
6.4390001 0.063000001 -0.105 47
6.4829998 0.066 -0.119 40
6.5240002 0.068999998 -0.134 37
5.6410003 0.090333335 -0.093333334 3
5.6989999 0.107 -0.109 1
5.8736324 0.13783368 -0.10277407 1
5.9990234 0.10679983 -0.079402193 7.75
6.0207996 0.097233236 -0.077135369 8
6.4578557 0.079095483 -0.12662125 44.90625
6.5442142 0.10628407 -0.12008063 19
6.5900993 0.087579787 -0.12590462 12.359375
6.6518393 0.091125287 -0.13755436 10
5.7804999 0.19949999 -0.10725001 1
5.8536644 0.16418964 -0.13440019 1.5
5.9332676 0.18118539 -0.11228503 2
5.9756742 0.19847801 -0.11091428 1.09375
6.0506473 0.20350137 -0.1134994 1
6.092 0.204 -0.131 2
6.2086444 0.19249678 -0.10096034 2.5
6.2952967 0.17538559 -0.083418764 1
6.3437572 0.19250511 -0.092991292 2.25
6.4111652 0.20254776 -0.12183146 2.7460938
6.4587927 0.20222512 -0.10163233 2
6.532608 0.20252988 -0.094745792 2.811198
6.6193938 0.19900662 -0.083301879 2.8251953
6.6926122 0.19451331 -0.097654939 2.6773005
6.7502656 0.17980379 -0.12311077 1.9375
6.8051672 0.17259175 -0.097724482 2.0625
5.7375741 0.23554952 -0.13323402 1
5.7731948 0.23928124 -0.11834929 1
5.8434429 0.26066735 -0.086150527 1
5.8986654 0.23292464 -0.12467602 1
5.9976034 0.23444216 -0.10882615 1
6.1238117 0.27742052 -0.097196206 1
6.2005 0.24199998 -0.109 1
6.261342 0.2464098 -0.10976052 1
6.3485613 0.26502061 -0.080827951 1
6.4114838 0.24331735 -0.10660645 1.5417887
6.4758091 0.24101932 -0.10767987 1.0000485
6.5375037 0.23343602 -0.11131626 1.1545773
6.5955 0.22325 -0.1185 2.75
2.9801991 0.34478688 -0.09109237 89.938622
3.0516658 0.33020151 -0.10575119 12.664695
3.1217084 0.32710746 -0.10405342 13.421077
3.1849778 0.32672197 -0.10805885 14.432679
3.2514224 0.3204298 -0.10378085 8.536129
3.3299854 0.31755555 -0.096145228 9.0709972
3.3822336 0.3149772 -0.084933788 10.447418
3.4670408 0.30779153 -0.11337857 9.2082129
3.53304 0.30548006 -0.09507639 11.066598
3.5862608 0.29952541 -0.10057092 8.3329163
5.5689607 0.33162022 -0.10218868 81.553802
5.6530638 0.3221944 -0.10361651 24.830868
5.699234 0.3050985 -0.12313228 7.001411
5.7776356 0.29799092 -0.097892679 1.2047164
5.8243151 0.3119365 -0.088220805 5
5.8990412 0.32411402 -0.099974498 1
6.0180001 0.303 -0.122 1
6.0414014 0.30701876 -0.097129747 1
6.1109591 0.29877862 -0.1092907 1
6.1809998 0.28768748 -0.078937501 1
6.257 0.32325 -0.094999999 1
6.4026666 0.30733332 -0.10216668 1
6.4685001 0.29425001 -0.10325 1
6.5250001 0.289 -0.1 1
2.9738081 0.35867143 -0.11755311 131.19037
3.0251102 0.3674843 -0.10770947 127.03679
3.0983758 0.38181585 -0.10348487 61.624756
3.2033472 0.39410189 -0.11831831 18.270832
3.2569203 0.39462513 -0.094775543 11.625
3.3010001 0.37849998 -0.1095 9
3.3699999 0.41800001 -0.086999997 7
5.2489252 0.40488565 -0.090683207 115
5.5143566 0.41968945 -0.11515585 99
5.57131 0.40167171 -0.095728293 115.25399
5.6089106 0.36501947 -0.08462882 112.3125
5.8455 0.36649999 -0.119 1
6.0139999 0.36199999 -0.11625 1
6.1079998 0.35800001 -0.088 1
6.1880002 0.35100001 -0.083999999 1
3.237 0.43400002 -0.116 14.5
3.312 0.421 -0.101 9
3.381 0.421 -0.098999999 7
3.5446086 0.44410828 -0.11441576 4.25
3.622 0.461 -0.088 6
3.6974182 0.47289824 -0.12476325 58.300358
3.7130711 0.46880499 -0.071636349 56
5.4429998 0.45199999 -0.132 110
5.5586042 0.42370325 -0.095130153 119.49581
5.6040001 0.433 -0.12800001 109
3.1300001 0.55900002 -0.106 18
3.1920474 0.55470777 -0.12487736 22.25
3.2775605 0.5575372 -0.11159123 20.250481
3.3238854 0.5546906 -0.088339962 21.248301
3.3838592 0.54458988 -0.099325195 21.45575
3.4720328 0.54298544 -0.081414916 20.809902
3.5116327 0.53961438 -0.079325326 21.795055
3.5990698 0.51443237 -0.083744816 22.638
3.6736689 0.51053989 -0.090443954 37.833878
3.7108858 0.49204093 -0.12694919 64
2.5782313 0.62923586 -0.10344552 23.333334
2.6228151 0.62877762 -0.12338546 22.235239
2.6993003 0.62467903 -0.11442107 24.491785
2.7557254 0.61753201 -0.12471931 23.947094
2.8382609 0.60592878 -0.12707497 22.648907
2.9057875 0.59895825 -0.13301226 24.578032
2.9651098 0.5942356 -0.13041084 22.949551
3.0392349 0.58838218 -0.10701486 21.437895
3.1122479 0.58229661 -0.10070704 22.012524
3.1847563 0.57369155 -0.094704174 19.621561
3.2539868 0.56531382 -0.086591452 21.290869
3.3048096 0.56369877 -0.10902996 21.625
1.9538854 0.6961078 -0.11045837 20.519732
2.0027332 0.69572335 -0.10590229 22.609535
2.0851984 0.68968993 -0.11840037 22.748169
2.1349499 0.68567753 -0.093203776 23.801016
2.1964202 0.67727453 -0.09625946 24.374887
2.2838678 0.66939211 -0.12328869 23.953779
2.351984 0.66108268 -0.12607956 24.762831
2.4075737 0.65189457 -0.12683269 22.890257
2.4932718 0.64522505 -0.12839353 24.015301
2.5571747 0.63827461 -0.12296811 25.180042
2.6061804 0.63438082 -0.11713111 24.800804
2.6869998 0.63125002 -0.1085 23.25
1.9705578 0.7032035 -0.090523086 20.44676
2.0598681 0.70169562 -0.12864451 23.528135
2.122154 0.70276928 -0.10184617 26.538462
3.4946663 -1.191 -0.0053333337 63.666668
3.4967523 -1.1439548 -0.042870551 65.550179
3.5070662 -1.1338886 -0.037739113 65.034882
3.4970002 -1.0973499 -0.030399999 63.400002
3.5094242 -1.0739795 -0.035281856 65.586823
3.4885559 -0.98328966 -0.035465691 48
3.5142138 -1.0197594 -0.027678361 65.919014
3.4173965 -0.92859942 -0.050247278 33.517963
3.4411006 -0.93648016 -0.04569193 38.701736
3.5086479 -0.97363496 -0.037518065 57.166664
3.3585982 -0.85619962 -0.05152043 42.333336
3.4214296 -0.85992134 -0.0345378 36.070782
3.4334922 -0.867414 -0.020587051 35.986267
3.3475304 -0.81698561 -0.058830559 39.916668
3.4187365 -0.7996133 -0.041783132 35.122391
3.4414208 -0.7878738 -0.016036993 41.884125
3.5101161 -0.77679962 -0.041134246 55.908138
3.441174 -0.76558101 -0.057439212 39.5
3.5568631 -0.72323984 -0.048025064 77.708313
3.5644276 -0.66912478 -0.011211979 78.461853
3.5713477 -0.64649463 -0.016113717 73
3.5634801 -0.61010456 -0.037125066 78.997734
3.5732059 -0.58059192 -0.039229095 81.721359
3.567698 -0.54898888 -0.049062811 91.810524
3.5806396 -0.51818264 -0.031678073 84.438423
5.5259514 -0.51043206 -0.053567953 2.6500001
5.55269 -0.51038843 -0.010173772 1.0055562
3.5900486 -0.43987894 -0.046069432 82.392204
5.5263195 -0.47319251 -0.052981533 2.5
5.5518441 -0.46234417 -0.014096528 1.0031351
3.6044462 -0.38093945 -0.034877643 93.543625
3.6440637 -0.36038813 -0.032172773 86.875
5.5627685 -0.4031752 -0.042683121 1.0111116
9.1551361 -0.36486501 -0.021762252 24
3.6224999 -0.34568751 -0.037 15.125
3.6500783 -0.34607506 -0.017635878 18.5
5.5752916 -0.30271384 -0.049245283 1.3388889
9.0448742 -0.30162501 -0.030187501 27.125
9.1040001 -0.33199999 -0.067000002 23
9.1778774 -0.28045171 -0.049035501 35
5.5787778 -0.26442689 -0.028265601 1
5.6005001 -0.241 -0.020500001 1
9.026 -0.25800002 -0.061000004 36.5
9.0502872 -0.27824676 -0.054256096 39.5
9.1541691 -0.26936027 -0.055745427 32
9.2025623 -0.25713974 -0.035126887 30
9.2841434 -0.26238653 -0.057798181 26.5
9.3478298 -0.23181254 -0.05455111 31
9.3900375 -0.23959191 -0.054443192 28.052481
5.5892239 -0.165786 -0.02841647 1
5.6011844 -0.18502021 -0.013334311 1
8.8720827 -0.14269605 -0.015898559 27
8.9460697 -0.16196297 -0.035866775 27
9.0175743 -0.15796542 -0.019668015 30.75
9.0719671 -0.1483818 -0.015174326 31.852051
9.1169167 -0.14716411 -0.039161228 31.390625
9.1947441 -0.16943809 -0.046292327 28.6875
9.2630901 -0.17482835 -0.028383913 28.617188
9.3233213 -0.19436374 -0.052647892 30.539062
9.3871536 -0.20115952 -0.037449293 27.791666
5.5876856 -0.10707542 -0.030325472 1
5.6103745 -0.099531695 -0.043040857 1
8.6739998 -0.1 -0.0020000001 29
8.6881542 -0.10994388 -0.015671533 29.75
8.7997465 -0.1164879 -0.020247007 30.09375
8.8671093 -0.12572891 -0.039665535 27.078125
8.9139814 -0.12953416 -0.03545827 30.892578
8.9906921 -0.13169916 -0.014516002 32.068359
9.0556831 -0.13225433 -0.02444523 30.078125
9.1282578 -0.11227834 -0.042457052 29
9.3614998 -0.116 -0.0040000002 27
9.3915005 -0.1275 -0.022 28
5.5271773 -0.0099097313 -0.042754851 1
5.5862474 -0.012097741 -0.028447205 1.7236342
5.6324615 -0.02435378 -0.045083657 1.1328228
5.7005873 -0.030192498 -0.040007092 1
5.749866 -0.026191287 -0.047988039 1
8.7049999 -0.045000002 -0.0089999996 34
8.7635002 -0.049999997 -0.015000001 29
8.8620005 -0.046500001 -0.01925 31
8.9890003 -0.046500001 -0.031500001 32
9.0819998 -0.068999998 -0.052999999 29
5.5779905 0.0075036376 -0.031496495 1.2474868
5.6553168 0.028596994 -0.039640807 1
5.6819234 0.036722973 -0.011436027 1
5.6415687 0.096725255 -0.027372897 1
5.687418 0.093821481 -0.017765645 1
5.9214435 0.10918926 -0.018749204 4
6.0003467 0.10024125 -0.059493601 5.9960938
6.0444999 0.106 -0.016000001 6
5.6729999 0.15099999 -0.021 1
5.8660002 0.207 -0.011 1
5.9099998 0.20999999 -0.017999999 1
5.9768553 0.17537074 -0.020044789 2.5
6.0509439 0.19673991 -0.054024503 3.375
6.3464718 0.2006925 -0.036988281 3.4375
6.4092016 0.20151597 -0.03567607 3.7717285
6.4570608 0.20457159 -0.024587886 3.328125
6.5509276 0.18670097 -0.014641591 4.984375
6.612957 0.17886746 -0.027377101 5.625
6.7638283 0.15902592 -0.061625749 2.3333335
6.8157239 0.14442098 -0.048625462 2.5
5.796248 0.27859163 -0.036380548 1
5.84025 0.27450001 -0.019125 1
5.9106588 0.23198238 -0.02127409 1
5.9743171 0.22631499 -0.034007747 1
6.1145 0.27200001 -0.058499999 1
6.2097144 0.27488875 -0.056183197 1
6.2802124 0.24640146 -0.045462683 1.5000008
6.3509493 0.23878771 -0.050084196 1.3925794
6.410502 0.24500778 -0.050839648 1.0668786
6.468184 0.22655877 -0.035978802 2.2552154
6.527607 0.22366767 -0.037532948 2.3356798
6.619 0.25799999 -0.041999999 2
2.9823475 0.34633732 -0.018548237 101.94003
3.0444767 0.33810428 -0.047368903 14.606789
3.1242461 0.33132881 -0.027653033 14.483795
3.1900835 0.33241099 -0.012963742 14.106273
3.2389948 0.32807344 -0.037946478 10.106102
3.3263588 0.32609269 -0.05210482 9.3772106
3.4017091 0.31892237 -0.041624915 10.120224
3.4627032 0.31394768 -0.042325728 12.027553
3.5135882 0.30853403 -0.039534874 12.776424
3.6157432 0.30352354 -0.030805716 12.508628
5.5761194 0.33039278 -0.047908835 97.229675
5.6328454 0.32077852 -0.056013215 30.335581
5.7180266 0.32335386 -0.043826133 2.4906135
5.7773743 0.3130005 -0.0062358696 2.7501898
5.8445525 0.31405652 -0.042578094 6
5.9051085 0.29526889 -0.053262904 1
6.0605774 0.30165166 -0.063790984 1
6.1079645 0.28769216 -0.065769091 1
6.1696444 0.28903437 -0.055866294 1
6.2556953 0.28448939 -0.024746858 1
6.3297501 0.300125 -0.027375 1
6.3769999 0.29250002 -0.023500001 1
6.4833336 0.30366668 -0.062666662 1.3333334
2.9819801 0.35663903 -0.028868781 134.21481
3.0492055 0.37592214 -0.027003203 112.48909
3.0933828 0.3734771 -0.032924432 70.619141
3.1768255 0.39344484 -0.0289446 24.53125
3.2529678 0.40539032 -0.019519698 13.875
3.296 0.405 -0.067000002 10
5.2478533 0.41310412 -0.046380032 84
5.5095 0.3985 -0.021499999 116
5.57481 0.39754927 -0.020557355 117.97237
5.6047807 0.36820287 -0.031929076 131.44444
5.698 0.35600001 -0.033 1
5.8439999 0.35299999 -0.024 1
3.257 0.421 -0.02 16
3.4170001 0.42500001 -0.052999999 6
3.45013 0.4323388 -0.04056409 5
3.539 0.44600001 -0.0089999996 5
3.572 0.44800001 -0.0070000002 4
3.6960526 0.47352421 -0.045413934 51.683369
3.7129622 0.48147082 -0.030851511 57.302082
5.4977951 0.42238235 -0.032738 110.125
5.5769868 0.42718425 -0.043505926 105.91587
3.2743843 0.55850124 -0.040218819 20.166668
3.3295174 0.55712897 -0.028016448 19.068567
3.3903093 0.55413073 -0.038731638 19.48819
3.4432182 0.54953027 -0.021150243 20.569317
3.5204315 0.54181004 -0.041917995 22.666981
3.5914173 0.52771324 -0.033240978 23.520781
3.6972165 0.51710331 -0.034034178 36.407394
3.7142 0.50278246 -0.019786246 60.70269
2.5783331 0.62833333 -0.067000002 23.333334
2.6350174 0.62479109 -0.023088474 22.699358
2.6999907 0.62497586 -0.014313902 22.92
2.7650635 0.61648422 -0.0468526 21.175758
2.8403819 0.60774463 -0.059725959 20.690443
2.8961489 0.60193396 -0.050416835 20.660534
2.9732964 0.59465313 -0.045286562 20.823076
3.0376911 0.58680546 -0.038791962 18.977077
3.1011894 0.58376545 -0.038121384 20.262123
3.1974223 0.57822871 -0.05283707 21.09343
3.2564704 0.5722146 -0.034866307 21.735077
3.3238862 0.56595063 -0.022174871 21.267361
3.3871109 0.56455553 -0.054000001 19.555555
3.4360001 0.56199998 -0.055 21
1.9462233 0.69375718 -0.043970749 19.263889
2.013674 0.69729877 -0.031390715 22.591909
2.0662279 0.69428438 -0.048366133 22.449432
2.1329033 0.68979317 -0.020538662 24.113518
2.2158339 0.67644083 -0.057435699 23.43499
2.2795527 0.67162639 -0.043914001 22.555176
2.3445315 0.66609234 -0.023800539 22.711971
2.4048309 0.65892577 -0.0096886996 20.840137
2.4893069 0.64768857 -0.012315216 22.84474
2.5510886 0.64112109 -0.016802417 23.874529
2.635067 0.63318408 -0.014003633 23.094055
2.6754026 0.63393307 -0.011787005 23.42144
2.7592499 0.63209999 -0.035349999 21.299999
2.8110001 0.63 -0.017000001 20
1.9504722 0.70763105 -0.054024156 19.853174
1.9933908 0.70309979 -0.046312757 21.155052
2.064528 0.70320892 -0.02320536 22.487038
2.1343334 0.70416665 -0.013944445 26.277779
2.1803334 0.70033336 -0.0050000004 26.333334
3.4954982 -1.1918198 0.050317451 62.031025
3.4994113 -1.1605165 0.041392107 63.266651
3.5065098 -1.158478 0.032526933 64.67366
3.4984286 -1.0891429 0.026714284 67.285713
3.5181475 -1.0806254 0.023415409 63.995121
3.5219605 -1.0132469 0.05636508 66.012459
3.4718885 -0.9278748 0.037211977 48.811104
3.5228291 -0.96342236 0.046188593 54.521149
3.4804199 -0.8683508 0.04773229 44.766521
3.5192337 -0.86284703 0.057347387 44.5
9.2969999 -0.90200001 0.055 2
3.4268723 -0.80430454 0.013776251 39.0625
3.4506216 -0.80609649 0.017889736 37.893593
3.5448043 -0.78407735 0.052268956 62.650959
3.4826794 -0.76852083 0.010107907 43
3.5540059 -0.75542563 0.060338158 71.609772
3.5650351 -0.66715622 0.042655658 73.079269
3.5711088 -0.66563356 0.054853834 73.416672
3.5655334 -0.59263545 0.02283467 76.16481
3.5766604 -0.6050458 0.03047584 76.965385
3.569 -0.5575 0.039750002 82
3.5799785 -0.54744756 0.047188498 77.283379
5.5559592 -0.51019156 0.034968507 1.000012
3.5939286 -0.45748141 0.027533548 81.145271
5.5648222 -0.46425551 0.04049249 1
3.6095197 -0.36183327 0.0071675382 101.36855
3.6427774 -0.35468125 0.012288339 47.994995
5.5758858 -0.37857518 0.016373316 1.0000085
5.6020966 -0.37269843 0.032426298 1
3.629755 -0.34827083 0.017375 24.765625
3.6461782 -0.34234881 0.058054939 68.875
5.5753751 -0.31453431 0.020071965 1.0361726
9.349 -0.285 0.0020000001 28
5.5725298 -0.25026006 0.02662202 1
5.6053338 -0.2195767 0.043545246 1
9.3659172 -0.2456668 0.034963965 27
9.4008017 -0.22198957 0.028927123 29.348446
5.5865946 -0.19408797 0.04430189 1
5.6052818 -0.18284288 0.03365666 1
8.9429998 -0.161 0.028000001 28
9.0772915 -0.16242085 0.042000264 30.436523
9.1370296 -0.15023008 0.040525418 30.5625
9.2131081 -0.15540507 0.01695157 32.25293
9.2670441 -0.17169639 0.049790923 29.533203
9.3561192 -0.19589457 0.034628451 27.721144
9.3882046 -0.19758815 0.0365429 27.791016
5.5946531 -0.10954975 0.056734804 1
5.6020002 -0.11050001 0.030999999 1
8.6604633 -0.089868844 0.051241428 30.5
8.7357769 -0.096340463 0.025587577 31.822998
8.802618 -0.12040924 0.041913964 29.859375
8.8503141 -0.1029781 0.024658471 33.0625
8.9281311 -0.11105996 0.031491358 31.527344
8.9846029 -0.12956586 0.054226551 29.453125
9.0757494 -0.12188247 0.052286591 32.125
9.1246643 -0.12777191 0.035773095 31.416666
9.1829996 -0.101 0.014 29
9.2651253 -0.11325 0.043500002 29.5
9.37325 -0.11725 0.061499998 28.25
9.3959999 -0.124 0.052999999 28
5.5140309 -0.010451343 0.033673666 2
5.5880046 -0.01026044 0.038480159 1.9389471
5.6270628 -0.0061866138 0.044450656 1.4181918
5.6959352 -0.012518193 0.048444558 1
8.6275005 -0.035499997 0.057499997 30
8.7287502 -0.035 0.029750001 31
8.7747498 -0.0515 0.046749998 29.5
8.8605003 -0.0265 0.050000001 29
8.9460001 -0.055 0.030999999 29
9.0060005 -0.044 0.065500006 28.5
9.0439997 -0.050000001 0.024 30
9.1234999 -0.065500006 0.05125 29
0 0 0 0
5.5178127 0.0088125002 0.049093749 1.84375
5.5857744 0.016208537 0.054588914 1.2694639
5.6456909 0.02603294 0.051933095 1
5.7258911 0.028410979 0.032679893 1
5.5929999 0.093000002 0.021 1
5.6518536 0.098865606 0.043375432 1
5.7136712 0.098694608 0.050271682 1
5.9204378 0.10642834 0.056343194 4.453125
5.9958735 0.10296626 0.010883705 4.9886475
6.0421162 0.08639282 0.017355412 4.953125
6.5570002 0.138 0.041999999 9
6.6000004 0.13499999 0.061500002 9
5.6760001 0.147 0.025 1
5.8607454 0.1985184 0.0082680872 1.5
5.9144998 0.193 0.028000003 1.8333334
5.9759998 0.204 0.031500001 1
6.1170001 0.18000001 0.013 5
6.1680002 0.19400001 0.001 3
6.2865653 0.19482112 0.013754824 2.875
6.3498631 0.20154822 0.0074462304 4.25
6.4112692 0.20491192 0.014469043 5.6927085
6.4938545 0.17184854 0.03954431 7.4125977
6.5313654 0.20185676 0.042520858 3.1953125
6.6060667 0.20226532 0.051942244 3.5031738
6.697031 0.19402741 0.03735387 3.0072904
6.743238 0.19954149 0.058734383 6.9858222
6.8341198 0.18743509 0.05843718 7.2881947
6.9000001 0.175 0.054499999 10
5.7350001 0.27000001 0.018999999 1
5.7859998 0.25999999 0.021 1
5.8549786 0.26561433 0.052708492 1
5.9150906 0.24625506 0.046109892 1
6.2119799 0.27519095 0.05522044 1
6.2756042 0.26910043 0.053075157 1.0000002
6.344131 0.24653858 0.029044833 1.2987076
6.377161 0.23896375 0.039281353 1.5012531
6.4780626 0.21441156 0.02499374 3.421875
6.5509186 0.22289349 0.054516342 3.0865071
6.6069641 0.22195572 0.046545852 2.90625
6.6824923 0.21848118 0.032494634 3.625
6.7627497 0.23950002 0.043750003 3.75
2.9892335 0.34682557 0.031479001 102.12744
3.0389042 0.34233773 0.035476539 14.204495
3.1023178 0.33614659 0.039912615 15.543796
3.1895285 0.33431694 0.0069397376 12.656764
3.2552726 0.31700277 0.015356891 7.1267657
3.3283663 0.32110569 0.032881603 4.2876616
3.3932285 0.32473147 0.036249518 7.8349223
3.4662354 0.31850255 0.053717256 13.829491
3.5457721 0.31126449 0.058569107 12.753887
3.5915823 0.31870621 0.04532906 14.579466
3.6421027 0.30277354 0.061762139 12
5.5599713 0.33922666 0.058486551 96.027176
5.6247301 0.31982589 0.040713873 20.559256
5.7046146 0.3118912 0.030844569 11.342478
5.7614841 0.31305003 0.033304572 1.0022788
5.8422494 0.29550573 0.040305693 1.1458334
5.906045 0.28693756 0.055376716 2.859375
6.079 0.303 0.047249999 1
6.1411791 0.29484493 0.047476552 1
6.2027712 0.28892422 0.037659466 1
6.2377996 0.28331333 0.048740819 1
6.3415003 0.3075 0.026000001 1
6.3870001 0.289 0.028000001 1
6.5250001 0.28200001 0.029999999 3
2.9917176 0.35695761 0.03522139 145.30157
3.0523469 0.37412065 0.03427022 107.13362
3.0914476 0.37736404 0.050735518 76.436447
3.1810994 0.39702687 0.030153925 27.61198
3.2391624 0.39870918 0.026306845 15.8125
3.3129807 0.40627754 0.036626279 10
3.368 0.34999999 0.0049999999 11
5.0293188 0.39502364 0.06984853 99
5.0500002 0.39700001 0.033 94
5.1304646 0.4035016 0.038773701 103
5.5180001 0.384 0.0020000001 93
5.5828085 0.39533255 0.025187854 122.77762
5.6101356 0.37403011 0.030936006 131.71875
5.7059999 0.36700001 0.017000001 1
5.744 0.35699999 0.017000001 1
6.0640001 0.36399999 0.018999999 1
6.1659999 0.35699999 0.021 1
3.4074094 0.43252105 0.019872252 6
3.4949999 0.43200001 0.055 5
3.5319824 0.44490555 0.02804108 5
3.5749676 0.45354843 0.039235946 5
3.7031505 0.47172761 0.049167167 50.634872
3.7156672 0.48230684 0.020823102 60.291378
5.1890001 0.43099999 0.011 106
5.4549999 0.426 0.048 117
5.527 0.421 0.059 120
5.5676489 0.42529941 0.040489532 126.31213
5.6051035 0.42722425 0.062876984 123
3.2800536 0.55832195 0.052919738 20.5
