# .PCD v0.7 - Point Cloud Data file format
VERSION 0.7
FIELDS x y z
SIZE 4 4 4
TYPE F F F
COUNT 1 1 1
WIDTH 1330
HEIGHT 1
VIEWPOINT 0 0 0 1 0 0 0
POINTS 1330
DATA ascii
0.0095517598 -0.082660563 0.29137594
0.010809439 -0.081832901 0.28844389
0.012043995 -0.081033833 0.28561082
0.013432798 -0.081328698 0.2866312
0.01471249 -0.080969393 0.28534368
0.016033562 -0.080878749 0.28500065
0.017273134 -0.080422625 0.28336731
0.01852675 -0.08009243 0.28217524
0.019838762 -0.080041915 0.28196573
0.021136712 -0.079944514 0.28158823
0.022425368 -0.079825506 0.28113154
0.023752913 -0.079850443 0.28117853
0.055930965 -0.078675486 0.27428925
0.057219543 -0.078658275 0.27401564
0.058699146 -0.078898586 0.27462751
0.060215086 -0.079176225 0.27535641
0.061593365 -0.079264879 0.27541524
0.062819809 -0.079158522 0.27478433
0.064342581 -0.079422288 0.27542526
0.06599234 -0.079829104 0.27654704
0.067552455 -0.080113657 0.27722943
0.069497079 -0.080834493 0.27940395
0.070932455 -0.080946974 0.27945831
0.072233751 -0.08090511 0.27896518
0.073720217 -0.081068411 0.27916425
0.075613543 -0.081665285 0.28083786
0.077514559 -0.082249388 0.28244671
0.079076752 -0.082460016 0.28275365
0.080858663 -0.082888745 0.28378943
0.082856491 -0.083520822 0.28550005
0.085039772 -0.084316038 0.28774437
0.087040186 -0.084907211 0.28926861
0.088924751 -0.08536841 0.29032797
0.090914249 -0.085914344 0.29165363
0.093386538 -0.086892717 0.29442248
0.091085128 -0.083466962 0.2822699
0.091696627 -0.082772948 0.279369
0.093318127 -0.08299765 0.27955931
0.092750393 -0.081296936 0.27326328
0.093865983 -0.081099197 0.27202249
0.092490882 -0.078785412 0.26369363
0.094115108 -0.079055302 0.26402056
0.096116014 -0.079629876 0.26535425
0.09889178 -0.080822192 0.26873115
-0.0075769913 -0.08989092 0.32233492
-0.0059833643 -0.08867491 0.31798273
-0.0044926237 -0.08868257 0.31801653
-0.0029667986 -0.087661177 0.31435826
-0.0014793604 -0.086876802 0.31154808
-1.791172e-05 -0.084257856 0.30215719
0.0014011774 -0.084392548 0.30263939
0.002784977 -0.08333572 0.29884699
0.0041611237 -0.08283408 0.29704392
0.0055314782 -0.082497671 0.29583174
0.0068849511 -0.082094871 0.29437971
0.0080272937 -0.079729617 0.28588915
0.0095380554 -0.081176907 0.29106769
0.010795223 -0.080373734 0.28817499
0.012148381 -0.080384463 0.28819859
0.013365788 -0.079584718 0.28531459
0.014696236 -0.079542376 0.28514391
0.015953615 -0.079144612 0.28369707
0.017202582 -0.07876958 0.28232941
0.018531242 -0.078786999 0.2823661
0.020960223 -0.077965938 0.2793645
0.022281248 -0.078000866 0.27945587
0.024813419 -0.077715524 0.27835673
0.055824392 -0.077226959 0.27405107
0.057103734 -0.07720089 0.27375343
0.058459394 -0.077276863 0.27380678
0.060009647 -0.077601179 0.27472764
0.06140158 -0.077711314 0.27487731
0.062669843 -0.077663608 0.27445647
0.064150549 -0.077875726 0.27494094
0.065729313 -0.078196004 0.27579266
0.067342304 -0.07854367 0.27672538
0.069283053 -0.079252869 0.27891412
0.070410922 -0.079023004 0.27778226
0.071842298 -0.079135962 0.27784163
0.073364228 -0.079342745 0.2782144
0.075352743 -0.080037743 0.28028002
0.077146582 -0.0805052 0.28152809
0.078920744 -0.080936342 0.28262913
0.080554299 -0.08121112 0.28316474
0.082466424 -0.081752904 0.28461093
0.084332153 -0.082231663 0.28581607
0.086426601 -0.082914405 0.28770727
0.088290527 -0.083357833 0.28874522
0.090791337 -0.084379308 0.29176039
0.092175335 -0.084347367 0.29111117
0.093883149 -0.084608234 0.29145548
0.094288282 -0.083704844 0.28777879
0.093835406 -0.082077533 0.28161666
0.094657727 -0.081596643 0.27939007
0.094372652 -0.080188528 0.27399078
0.094172858 -0.078891546 0.26898092
0.093393892 -0.07715214 0.26247704
0.094652325 -0.077120416 0.2617898
0.096144609 -0.077277511 0.26173848
0.096803121 -0.076769203 0.25943437
-0.0076164207 -0.088839248 0.3241151
-0.006089075 -0.088724084 0.32370219
-0.0045422041 -0.088153549 0.32162619
-0.0029701635 -0.086284831 0.31481206
-0.0014662346 -0.084658027 0.30887893
-1.8105347e-05 -0.083736531 0.30551755
0.0013852734 -0.082031645 0.2992965
0.0027750412 -0.081642061 0.29787287
0.0041545364 -0.081312239 0.29666591
0.005517384 -0.080903746 0.29517049
0.0068664243 -0.08049719 0.29368067
0.0082112653 -0.080185436 0.29253522
0.0094887456 -0.079399265 0.28965747
0.010778293 -0.078898259 0.28781855
0.012060091 -0.078458346 0.28620088
0.013330317 -0.078038782 0.28465578
0.014615026 -0.077772662 0.28366852
0.015875608 -0.077433243 0.28241211
0.017202087 -0.077442788 0.2824263
0.018482117 -0.077256784 0.28172511
0.019688465 -0.076808169 0.28006408
0.02091307 -0.076482438 0.27884877
0.022186836 -0.076364271 0.27838773
0.023499692 -0.07638628 0.27843487
0.024886275 -0.076633029 0.27929792
0.058287077 -0.075753458 0.27328399
0.059644841 -0.075832449 0.27335042
0.061224993 -0.076184794 0.27438948
0.062640786 -0.076322205 0.27464101
0.064055093 -0.076452255 0.27485287
0.065266617 -0.076339886 0.27418062
0.067190684 -0.077049032 0.2764436
0.068793051 -0.077369086 0.27729324
0.070172235 -0.077430785 0.27720159
0.071547434 -0.077485889 0.2770716
0.073202081 -0.077836126 0.27798063
0.075360022 -0.07869944 0.28070149
0.076845825 -0.078842849 0.28083473
0.078797564 -0.079451136 0.28260437
0.080624707 -0.079915278 0.28383994
0.082259782 -0.080176756 0.28433567
0.084037557 -0.080566444 0.28526616
0.085905403 -0.081028536 0.2864317
0.087804638 -0.081505075 0.28762627
0.089793898 -0.082048997 0.28903586
0.092296831 -0.083038338 0.29198858
0.09436249 -0.083610207 0.29344711
0.095473588 -0.083331846 0.29190394
0.09571559 -0.082314268 0.28776544
0.095976084 -0.081341878 0.28378496
0.09717609 -0.081182137 0.28263512
0.094726093 -0.078020595 0.27104771
0.094698019 -0.076913983 0.26662168
0.094401725 -0.075622827 0.26156652
0.094547242 -0.074715704 0.2578508
0.096798249 -0.075474471 0.25988185
-0.009447448 -0.090297908 0.33525109
-0.0076772617 -0.088017322 0.32679158
-0.0061037871 -0.087417334 0.32457009
-0.0045247185 -0.086312287 0.32047188
-0.0029511545 -0.084266312 0.31287849
-0.0014599052 -0.082850918 0.30762511
-1.7886592e-05 -0.081309922 0.30190408
0.0013829148 -0.080491364 0.29886416
0.002777393 -0.08031372 0.29820275
0.0041174735 -0.079208545 0.29409626
0.0054452727 -0.078480713 0.29138964
0.0068074442 -0.078440815 0.29123598
0.0081143025 -0.077883326 0.28915936
0.0094091799 -0.077386871 0.28730804
0.010741791 -0.077286221 0.28692481
0.012045048 -0.077020265 0.28592643
0.013249653 -0.076239921 0.28301701
0.014549837 -0.076101527 0.28248903
0.015994679 -0.076679729 0.28461921
0.017205678 -0.076134153 0.28257614
0.018455895 -0.075827703 0.2814188
0.019612636 -0.075203747 0.27908105
0.020817604 -0.07483118 0.27767423
0.022120113 -0.074832462 0.27765223
0.025826024 -0.074255854 0.27541649
0.058187172 -0.074330196 0.27308396
0.060879644 -0.074459419 0.2731272
0.062246323 -0.074544467 0.27320585
0.063596532 -0.074606724 0.27318835
0.065190002 -0.074946158 0.27417198
0.067058437 -0.075582191 0.27622426
0.068669155 -0.075908862 0.27712893
0.07010369 -0.076032124 0.2772755
0.071492724 -0.076102398 0.27721375
0.072983183 -0.076276101 0.27751327
0.074577719 -0.076550417 0.27816191
0.076449789 -0.077095017 0.27977356
0.078110538 -0.077411391 0.28053722
0.08015471 -0.078090571 0.28259462
0.082240865 -0.078787342 0.28469223
0.083778121 -0.07894405 0.2848171
0.085493088 -0.079260424 0.28549871
0.087486997 -0.079821266 0.28703895
0.089601293 -0.080472708 0.28888077
0.092317767 -0.081636608 0.29253387
0.094061121 -0.081917733 0.29299766
0.095764756 -0.08215639 0.29328969
0.096565917 -0.081625193 0.2908197
0.096994139 -0.08079873 0.28729248
0.096046105 -0.078865804 0.2798374
0.095176764 -0.077051036 0.27281711
0.095424816 -0.076178722 0.26914328
0.094811521 -0.074652091 0.26316723
0.096246228 -0.074757487 0.26294833
0.095829859 -0.073441468 0.25773412
0.09889064 -0.0747898 0.26186708
-0.0092481347 -0.086854771 0.32825187
-0.0076261591 -0.085910067 0.32468784
-0.006032519 -0.084893242 0.32084987
-0.004450012 -0.083410084 0.31524813
-0.0029196665 -0.081916533 0.3096059
-0.0014510376 -0.080914736 0.30582112
-1.7851458e-05 -0.079738118 0.30137452
0.0013815993 -0.079015501 0.29864287
0.0027578336 -0.078360438 0.29616556
0.0040880353 -0.077273801 0.29205608
0.0054238406 -0.076811567 0.29030567
0.0067715533 -0.076669499 0.28976426
0.0080723455 -0.076132379 0.28772873
0.0093669044 -0.075698622 0.28608268
0.010693378 -0.075599097 0.28569868
0.011946514 -0.075060949 0.28365576
0.013220414 -0.07474795 0.28246245
0.01456552 -0.074857898 0.28286591
0.015820729 -0.074526012 0.28159824
0.017061329 -0.074181721 0.28028208
0.018320192 -0.073960394 0.27942884
0.020821808 -0.073543884 0.27781525
0.022046268 -0.073284842 0.27681339
0.024434779 -0.072668925 0.27443311
0.060734972 -0.072989881 0.27274787
0.062072065 -0.073042259 0.27271932
0.063493706 -0.073189966 0.2730341
0.065326422 -0.073796123 0.2750442
0.066761635 -0.073938273 0.27530947
0.068258822 -0.074142277 0.27579051
0.069728561 -0.074309327 0.27611902
0.071439005 -0.074721947 0.2773436
0.072863087 -0.074825495 0.27740425
0.074322537 -0.074960999 0.27756754
0.076278247 -0.075583503 0.27951527
0.077973515 -0.075930923 0.28042543
0.07951387 -0.076118253 0.28072566
0.081930645 -0.07712435 0.28402299
0.083284125 -0.077112928 0.28355107
0.085049175 -0.077476829 0.28444043
0.086886682 -0.077894121 0.28550431
0.08931499 -0.078819752 0.28840604
0.091849208 -0.079808921 0.29151109
0.09388078 -0.080337964 0.29290837
0.095566697 -0.080559842 0.29316381
0.097366065 -0.080869414 0.29371813
0.097085625 -0.079467639 0.28804901
0.095827222 -0.077316858 0.27967629
0.095811464 -0.076215163 0.27510938
0.096821837 -0.075948976 0.27355689
0.097091794 -0.07511726 0.26996535
0.09651126 -0.073658913 0.26413125
0.099356458 -0.074819177 0.26768267
0.099449389 -0.073903605 0.26380059
-0.010943927 -0.086563848 0.33310366
-0.0092479205 -0.085314691 0.32830289
-0.0075137038 -0.083144292 0.3199558
-0.0058806734 -0.081290849 0.31282723
-0.0043556979 -0.080196477 0.30861872
-0.0028845216 -0.079497285 0.30593008
-0.001444362 -0.079116166 0.30446458
-1.7732655e-05 -0.077804774 0.29941824
0.0013768374 -0.077348702 0.29766279
0.0027597158 -0.077025279 0.29641706
0.0041019241 -0.07616324 0.29309767
0.0054375739 -0.075642347 0.29109043
0.006749175 -0.075062871 0.28885704
0.0080751311 -0.074809954 0.28787929
0.0093442518 -0.074178241 0.28544313
0.010614636 -0.073713496 0.28364846
0.01189682 -0.07342498 0.28253093
0.013232673 -0.073492326 0.28278154
0.014518621 -0.073295467 0.28201431
0.016990317 -0.072564751 0.27917907
0.020891372 -0.072482854 0.27881569
0.023206171 -0.071561784 0.27523068
0.061917648 -0.071570277 0.27230385
0.063380986 -0.071766205 0.27282146
0.064787537 -0.071891293 0.27305645
0.066444024 -0.07228338 0.27429107
0.068018354 -0.072572716 0.27512026
0.069564208 -0.072821341 0.27577946
0.071179293 -0.073131859 0.2766569
0.072743431 -0.073379703 0.27728045
0.074395098 -0.073705412 0.27818087
0.076238163 -0.074205972 0.27972221
0.07783144 -0.074450351 0.28027862
0.079374909 -0.074639611 0.28060934
0.080921732 -0.074825652 0.28090972
0.082851224 -0.075353622 0.28247327
0.084555566 -0.075663097 0.28319606
0.087306961 -0.076884799 0.28730708
0.088632099 -0.076831952 0.28663093
0.091558374 -0.078147352 0.29103363
0.093779527 -0.078830153 0.29304981
0.096122563 -0.07959348 0.29533821
0.097545333 -0.079583548 0.2947349
0.096554436 -0.077633247 0.28694317
0.097580977 -0.077337585 0.28526816
0.097810425 -0.076427415 0.28132108
0.098340034 -0.075773813 0.27831715
0.098458603 -0.074825749 0.27423239
0.099655181 -0.074711494 0.27320182
0.099966988 -0.073945813 0.26978785
0.10046069 -0.073333062 0.26693693
0.097795181 -0.070460066 0.25588399
-0.010934981 -0.084933765 0.33287778
-0.0089303162 -0.080899425 0.31707054
-0.0073321457 -0.079672493 0.31226534
-0.0058208914 -0.079013824 0.30968648
-0.0043570618 -0.078775331 0.30875382
-0.0029270214 -0.07921426 0.31047571
-0.0014276921 -0.076793179 0.30098724
-1.7663991e-05 -0.076106235 0.29829508
0.0013737946 -0.075786367 0.29704112
0.0027294059 -0.074805923 0.29319748
0.0041117566 -0.074969418 0.29383692
0.0054664151 -0.074672617 0.29267168
0.0067487834 -0.073705338 0.28887793
0.0080303093 -0.073053502 0.28631994
0.009321155 -0.072660886 0.28477728
0.01191886 -0.072234832 0.28309718
0.01447313 -0.071748562 0.28117728
0.015713189 -0.071397804 0.27979395
0.016978955 -0.071208872 0.27904347
0.018223198 -0.070963144 0.27806908
0.021928374 -0.070311211 0.27547029
0.061907787 -0.070268773 0.27250913
0.063096613 -0.070156194 0.27185401
0.064827904 -0.070639201 0.27349341
0.066392824 -0.070925526 0.27435631
0.067893177 -0.071133204 0.27490011
0.069522716 -0.071465835 0.2759113
0.071064271 -0.071697369 0.27651608
0.072469629 -0.071785569 0.27655238
0.074420311 -0.072401151 0.27860251
0.075965337 -0.072607398 0.27905869
0.07755392 -0.072847456 0.27962703
0.079143949 -0.073080704 0.28015083
0.080838837 -0.073401399 0.28099066
0.082232006 -0.073442101 0.28074008
0.085059837 -0.074742116 0.28527871
0.08683151 -0.075087555 0.28614697
0.089499652 -0.076185301 0.28985569
0.09129294 -0.076516002 0.29061931
0.093196556 -0.076927766 0.29166806
0.095792539 -0.077890202 0.29477745
0.097716324 -0.078285791 0.29571441
0.099322036 -0.078418769 0.29563826
0.09950351 -0.077439547 0.29135868
0.10022326 -0.076900907 0.28873262
0.099793106 -0.075507186 0.28289664
0.099758394 -0.074446753 0.27831578
0.10045233 -0.073951416 0.27584866
0.10090101 -0.07329113 0.27276587
0.1008742 -0.072307393 0.26848528
0.096994162 -0.068623066 0.25421172
0.093388982 -0.065225191 0.24105759
-0.010599311 -0.080815099 0.32269084
-0.0088281306 -0.078505479 0.31347144
-0.0072827246 -0.077682599 0.31018803
-0.005855117 -0.078019232 0.3115339
-0.0044252011 -0.07853841 0.31360829
-0.0029223855 -0.077636786 0.310009
-0.001433859 -0.075708933 0.30231145
-1.7631995e-05 -0.074573651 0.29777837
0.0013706005 -0.074222013 0.29637408
0.0027330052 -0.073529378 0.29360786
0.0041032787 -0.073441297 0.29325527
0.0054631536 -0.073257945 0.29252192
0.0067459466 -0.072321735 0.28878203
0.0080230804 -0.071647733 0.28608862
0.0093468893 -0.071523823 0.28559127
0.014417938 -0.070162714 0.28013957
0.016967291 -0.069853514 0.27889109
0.019420926 -0.069285348 0.27660385
0.0618545 -0.068919323 0.27250931
0.063206583 -0.068988211 0.27257103
0.066277757 -0.069502734 0.2741428
0.067734778 -0.069664337 0.27452993
0.069313101 -0.069942266 0.27536044
0.070821851 -0.070140965 0.27586344
0.072712667 -0.070703968 0.27778187
0.073940903 -0.070614077 0.27711844
0.075653389 -0.070981711 0.27823412
0.077222124 -0.071204089 0.27876213
0.078868583 -0.071489394 0.27951807
0.080347687 -0.071616031 0.2796351
0.082106739 -0.071983926 0.28067493
0.083784424 -0.072269782 0.28137419
0.086633183 -0.073540643 0.28588191
0.088151164 -0.073659778 0.28588638
0.08980649 -0.073888265 0.28629526
0.093181282 -0.075503044 0.29204544
0.095293067 -0.076061524 0.29367697
0.09738072 -0.076584585 0.29514596
0.09979751 -0.077347592 0.29751238
0.1017403 -0.077726655 0.29837587
0.1008998 -0.075998642 0.29114443
0.099484585 -0.073891781 0.28247645
0.10019416 -0.073399201 0.2799865
0.10100177 -0.072990783 0.27781209
0.10099952 -0.072015814 0.27348182
0.099816114 -0.070235364 0.26610717
0.099142812 -0.068855464 0.26027066
0.09518712 -0.065260515 0.2461008
-0.012371984 -0.081014134 0.3296679
-0.010580768 -0.0791649 0.32214472
-0.0089297602 -0.077924065 0.3170968
-0.0073983013 -0.077439487 0.31512585
-0.0058880998 -0.076991349 0.31330296
-0.0043615294 -0.075960614 0.30910909
-0.0028347909 -0.073901236 0.3007291
-0.0014127496 -0.073199227 0.29787257
0.0013726098 -0.07294064 0.29682028
0.0027551097 -0.072737761 0.29599455
0.0041015372 -0.07203716 0.29314324
0.0054532527 -0.07175754 0.29200491
0.0067637106 -0.071156017 0.28955644
0.0080838734 -0.07084047 0.28827146
0.0094229924 -0.07075759 0.28793296
0.010578048 -0.069486357 0.28275836
0.011867369 -0.069281869 0.2819241
0.018202156 -0.068278551 0.27782026
0.058702286 -0.066975161 0.27045545
0.060257412 -0.067286305 0.27153304
0.061841462 -0.067616098 0.27267316
0.063070893 -0.067552611 0.2722151
0.064317942 -0.067510158 0.27183029
0.065756835 -0.067666791 0.27223441
0.067538865 -0.0681637 0.27399251
0.069014311 -0.06833829 0.27443936
0.0705387 -0.068553962 0.27503607
0.072093748 -0.068791047 0.27570271
0.073714614 -0.069081336 0.27656576
0.075207651 -0.069243766 0.27689993
0.076965973 -0.069640607 0.27815339
0.078720629 -0.07002075 0.27932051
0.080286458 -0.070223056 0.27975887
0.081980534 -0.070529066 0.28059092
0.083557971 -0.070726469 0.28097111
0.085938841 -0.071586855 0.2839615
0.087558486 -0.071796156 0.28434512
0.089728042 -0.072443023 0.2864382
0.092404597 -0.073473372 0.29001835
0.094788924 -0.074244097 0.29254308
0.097015381 -0.074870303 0.29446998
0.09957508 -0.075731806 0.2972931
0.10149096 -0.076086037 0.29809752
0.10166599 -0.075143576 0.29380876
0.1000109 -0.072893418 0.28441602
0.10053464 -0.072271205 0.28138345
0.10159151 -0.072043866 0.27988151
0.10025371 -0.070147082 0.27189976
0.098752752 -0.068187535 0.26369807
0.097415507 -0.066390485 0.25614989
0.096281335 -0.064776145 0.24933125
0.092812777 -0.061652023 0.23674087
-0.012050902 -0.077407651 0.3211199
-0.010537103 -0.077335626 0.32082123
-0.0090543693 -0.077505574 0.32152611
-0.0074939863 -0.076946028 0.31920469
-0.0058555054 -0.075105883 0.3115707
-0.0043061124 -0.073566124 0.30518281
-0.0028558788 -0.073032014 0.30296692
-0.0014279567 -0.072577037 0.30107927
-1.7739208e-05 -0.072220698 0.29960102
0.0013580367 -0.070790805 0.29366925
0.0027302739 -0.070708252 0.29332694
0.0040860646 -0.070397623 0.29203853
0.0080821076 -0.069475137 0.28821248
0.0092677027 -0.068265162 0.28319308
0.010559783 -0.06804432 0.28227678
0.011863243 -0.067937784 0.28183448
0.013134036 -0.067684248 0.28078198
0.014355442 -0.067245521 0.27896073
0.016898828 -0.066969298 0.27781054
0.020547533 -0.066148967 0.27439412
0.021821212 -0.066113941 0.27424192
0.0503769 -0.064840861 0.26791838
0.054891735 -0.065721318 0.27118951
0.056132462 -0.065678947 0.27087456
0.058472995 -0.065442055 0.2695891
0.059702151 -0.065395668 0.26922852
0.061121199 -0.065554887 0.2697033
0.062467422 -0.065631092 0.26982468
0.064025849 -0.06592273 0.27081904
0.065411061 -0.066028088 0.27103472
0.067305602 -0.066633634 0.27328861
0.068935387 -0.066959158 0.27437767
0.07027036 -0.066991568 0.27425066
0.071643546 -0.067058563 0.27425089
0.073423713 -0.067497306 0.2757549
0.075147785 -0.067869969 0.27697048
0.076812319 -0.068176948 0.27789941
0.078473896 -0.068470933 0.27875662
0.080200739 -0.068811134 0.27978247
0.081786342 -0.069020957 0.28025863
0.083572552 -0.069390588 0.28136331
0.085276864 -0.069681555 0.28212783
0.087526515 -0.070402071 0.28460756
0.089993604 -0.071272634 0.28766567
0.092147425 -0.071872458 0.28960291
0.094252311 -0.072416775 0.2912901
0.09636461 -0.072950691 0.29290903
0.098839894 -0.073739946 0.29552478
0.10129074 -0.074488662 0.29794782
0.10177781 -0.073792487 0.29457289
0.10157038 -0.072619095 0.28929073
0.10010411 -0.070590168 0.2806108
0.10262037 -0.071386494 0.2831572
0.099628709 -0.068381168 0.27063003
0.098251924 -0.066548727 0.26277614
0.098125808 -0.0656 0.2584272
0.097123787 -0.064097553 0.25191182
0.095218413 -0.062044509 0.24326044
-0.01385312 -0.077573672 0.32818234
-0.012012769 -0.07566347 0.32009956
-0.010506219 -0.075610772 0.319875
-0.0090215951 -0.075724572 0.32035485
-0.0073559014 -0.074060746 0.31331453
-0.0057525411 -0.072351612 0.30608276
-0.0042975689 -0.071993656 0.30456737
-0.0028623585 -0.071775533 0.30364385
-0.0014404862 -0.071791351 0.30371028
-1.7700622e-05 -0.070663445 0.29893857
0.0013555749 -0.06928955 0.29312649
0.0027130698 -0.068897545 0.29146859
0.0040523964 -0.068461046 0.28962275
0.005354018 -0.067766264 0.28668445
0.0066998894 -0.067797862 0.28681928
0.0079101296 -0.066675648 0.28207308
0.0091996016 -0.06644693 0.28110689
0.013028318 -0.065834962 0.27852175
0.014317369 -0.065764092 0.27822277
0.015581041 -0.06559819 0.27752137
0.016730256 -0.065013066 0.27504581
0.018057458 -0.065153807 0.27564046
0.019271418 -0.064894438 0.27454156
0.02054774 -0.064864375 0.27441177
0.021815451 -0.064812265 0.27418756
0.04899735 -0.063426048 0.26749581
0.050392065 -0.063600175 0.26813263
0.051761433 -0.063734598 0.2685937
0.05310471 -0.063831255 0.26888692
0.054412939 -0.063882262 0.26897907
0.055239707 -0.063378558 0.26672745
0.056977402 -0.063919164 0.26886126
0.058019716 -0.063673101 0.26767576
0.059588466 -0.064002961 0.26890096
0.060956463 -0.06410794 0.26916951
0.062316746 -0.064200677 0.26937512
0.063738503 -0.064351782 0.26981336
0.065191239 -0.064527616 0.27034232
0.066240273 -0.064304784 0.26918882
0.068672493 -0.06540779 0.27356946
0.070120804 -0.065550148 0.27391419
0.071560055 -0.065679021 0.27418762
0.073326252 -0.066098005 0.27565551
0.074703857 -0.066158153 0.27561003
0.076184832 -0.066306189 0.27591449
0.077709079 -0.066486232 0.27633479
0.079829149 -0.067161545 0.2787931
0.081608452 -0.067532718 0.27996677
0.083289377 -0.067811817 0.280738
0.08527603 -0.06832701 0.28246462
0.087353297 -0.068897583 0.28439578
0.089295238 -0.069345497 0.28579596
0.091597654 -0.070055537 0.28825024
0.093757235 -0.070636764 0.29014692
0.095647454 -0.071000941 0.29112649
0.098124616 -0.071783945 0.29379591
0.1007674 -0.072664 0.29683086
0.10235748 -0.072770849 0.29668087
0.10146004 -0.071130805 0.28940335
0.10209583 -0.070595853 0.28662315
0.10028104 -0.068403795 0.27712268
0.10131021 -0.068184249 0.27562007
0.10179323 -0.067607738 0.27266863
0.10000568 -0.065557756 0.26378757
0.10062636 -0.065118812 0.26140293
0.099528037 -0.06359262 0.25466561
0.090210102 -0.056918405 0.22738698
-0.014073958 -0.077248722 0.33339995
-0.012140502 -0.074952848 0.32348764
-0.010465726 -0.073826946 0.31862509
-0.0089269215 -0.073445216 0.31697464
-0.0072046923 -0.07110104 0.30685502
-0.0057210526 -0.070529811 0.30438751
-0.00428657 -0.070386536 0.30376735
-0.0028511717 -0.07007838 0.30243611
-0.0014155231 -0.069149382 0.29842603
-1.745157e-05 -0.068288743 0.29471156
0.0013529717 -0.067786187 0.2925429
0.0027045226 -0.067319632 0.29053017
0.0053686593 -0.066605151 0.28744969
0.0066051888 -0.065515168 0.28274766
0.0079132151 -0.065380007 0.28216672
0.0091716396 -0.064932354 0.28023747
0.010449421 -0.064716674 0.27930951
0.011702968 -0.064415619 0.27801314
0.012983506 -0.064308532 0.27755392
0.014271559 -0.064254768 0.2773248
0.015427973 -0.063666739 0.27478945
0.016691785 -0.063578337 0.27441019
0.01792126 -0.063381128 0.27356082
0.019217705 -0.063431308 0.27377853
0.020498563 -0.063426964 0.27376011
0.021793587 -0.063464381 0.27392101
0.023008823 -0.063278221 0.27311569
0.049005527 -0.06217967 0.26765615
0.050414473 -0.0623677 0.26837453
0.051743284 -0.062449824 0.26862904
0.05298223 -0.062422168 0.26840314
0.054134384 -0.062295917 0.26774514
0.055195469 -0.062073004 0.26666343
0.056441329 -0.062063172 0.26648846
0.057838943 -0.062217001 0.26700625
0.059451148 -0.062590204 0.26845422
0.060772937 -0.062648483 0.26853985
0.062257145 -0.062868394 0.2693066
0.06369587 -0.063034482 0.26983035
0.065135397 -0.063194863 0.27031675
0.066557176 -0.06333217 0.27069122
0.06806083 -0.063540734 0.27135628
0.069562301 -0.063739561 0.27196512
0.071310237 -0.064152896 0.27347308
0.072751068 -0.064280115 0.27374494
0.074489906 -0.06466154 0.27508253
0.075871982 -0.064725481 0.27505234
0.07749445 -0.064988852 0.27585241
0.079631239 -0.06566757 0.27839464
0.081275143 -0.065924235 0.27912611
0.08292973 -0.066181146 0.27983874
0.084557846 -0.066409111 0.2804088
0.087021746 -0.067276098 0.28365254
0.088866763 -0.067645311 0.28477159
0.091126703 -0.068314373 0.28712755
0.093075618 -0.068733789 0.28840783
0.095234789 -0.069293834 0.29025218
0.097470969 -0.069892883 0.2922321
0.1005812 -0.071092598 0.2966904
0.10148825 -0.070723198 0.29457465
0.10188206 -0.070011377 0.29102296
0.10137048 -0.068705425 0.28500092
0.1018471 -0.06809549 0.28186592
0.10379054 -0.068469465 0.28278998
0.10494359 -0.068319038 0.28153166
0.10452258 -0.067161113 0.27612096
0.10183415 -0.064594626 0.26494405
0.10086831 -0.063171968 0.25848895
0.096011117 -0.059378244 0.24237728
-0.013934797 -0.074938759 0.33007836
-0.012037715 -0.072815917 0.32072267
-0.010542672 -0.07286635 0.32093978
-0.0088246278 -0.071135931 0.31331378
-0.0072269947 -0.069879375 0.3077755
-0.0057340311 -0.069260813 0.3050479
-0.0042823595 -0.068895936 0.30343837
-0.0028310937 -0.068178229 0.30027547
-0.0014176441 -0.067853048 0.29884216
-1.7570865e-05 -0.067365654 0.2966952
0.0013506708 -0.06630294 0.29201508
0.0026903157 -0.065612271 0.28897429
0.0040088063 -0.065040782 0.28645903
0.005318284 -0.064646393 0.28472438
0.0065980288 -0.064121202 0.28241417
0.0078561315 -0.063596249 0.28010562
0.0091215428 -0.063272253 0.27868253
0.010383154 -0.063006319 0.2775155
0.011668299 -0.062926486 0.27716848
0.012985334 -0.063017398 0.27757376
0.014169567 -0.062505938 0.27532578
0.01540613 -0.062291399 0.2743856
0.016589846 -0.061912667 0.27272198
0.017866321 -0.061909523 0.27271244
0.019098103 -0.061762258 0.27206758
0.020328306 -0.061628621 0.27148211
0.021396462 -0.061048381 0.26892847
0.022850148 -0.06157149 0.27123433
0.024092415 -0.061499808 0.27091882
0.047527138 -0.06064019 0.26659644
0.048904117 -0.060796648 0.26720741
0.050341103 -0.061018009 0.26809588
0.051212646 -0.060559921 0.26599187
0.052543607 -0.060653985 0.26630569
0.053866461 -0.060734529 0.26655155
0.055172957 -0.060793392 0.26669335
0.056373749 -0.060735755 0.26631498
0.057652108 -0.060762379 0.26629665
0.058922112 -0.06077924 0.26622558
0.05997856 -0.06057971 0.2651968
0.061546106 -0.060894005 0.26640639
0.06301973 -0.061104663 0.26714998
0.064712293 -0.061515175 0.26875377
0.066383749 -0.061890215 0.27018797
0.067772977 -0.061992954 0.27041921
0.06900128 -0.061947398 0.2699903
0.070593774 -0.062224522 0.2709533
0.072271734 -0.062565722 0.27217886
0.074269943 -0.063167334 0.27451873
0.075857729 -0.063405141 0.27525869
0.077444047 -0.063633688 0.27594069
0.079159006 -0.063958555 0.27702162
0.080934294 -0.064320691 0.27824384
0.082687348 -0.064653784 0.27931967
0.084403694 -0.064948037 0.28020668
0.08600457 -0.065145634 0.28065592
0.088604473 -0.066082232 0.28426352
0.09100797 -0.066846192 0.28709856
0.093069516 -0.06733992 0.28874537
0.095020391 -0.067740232 0.28996602
0.097059414 -0.068190858 0.29137626
0.099177182 -0.068683147 0.29293773
0.10188519 -0.069564559 0.2961283
0.10235413 -0.068913952 0.29277641
0.10170516 -0.06753879 0.28634509
0.10307607 -0.067524023 0.28567597
0.105883 -0.068437822 0.28891036
0.10713444 -0.068335399 0.28783152
0.10599517 -0.066730544 0.2804265
0.1054883 -0.065559864 0.27486065
0.10065406 -0.061763469 0.25832573
0.097715244 -0.059210528 0.2470479
0.09274745 -0.055506356 0.23102546
-0.0156141 -0.07402394 0.33288985
-0.013806473 -0.07271675 0.32700357
-0.012263334 -0.072650194 0.32669687
-0.010348456 -0.070048325 0.31499016
-0.0088191647 -0.069625124 0.31308123
-0.0072950642 -0.069082223 0.31063494
-0.0057654586 -0.068203606 0.30667996
-0.0042689275 -0.067262828 0.30244645
-0.0028235542 -0.066593751 0.29943559
-0.0014084358 -0.06602145 0.29686084
-1.746053e-05 -0.065561473 0.29479212
0.0013419483 -0.064515635 0.29009005
0.0026758062 -0.063911997 0.28737721
0.0039954255 -0.063486248 0.28546503
0.0052878559 -0.062950358 0.28305849
0.0065691746 -0.062523618 0.28114346
0.0078211138 -0.062006507 0.27882272
0.0090845693 -0.061715644 0.27752
0.010357918 -0.061556399 0.27680963
0.011644758 -0.061503854 0.27657959
0.012866388 -0.061151892 0.2750034
0.014142307 -0.06109855 0.27477035
0.015328019 -0.060696885 0.27297094
0.016558912 -0.060522217 0.27219239
0.017832072 -0.060515966 0.27217111
0.019099949 -0.060493819 0.27207801
0.020345049 -0.060406812 0.27169275
0.021569658 -0.060272798 0.27109548
0.022817479 -0.060214933 0.27083981
0.024070408 -0.060175925 0.27066797
0.044984721 -0.059336092 0.26656851
0.046185412 -0.059272788 0.26622668
0.047453437 -0.059296962 0.26627153
0.048759446 -0.059366144 0.26651171
0.049950063 -0.059294883 0.26611441
0.05103723 -0.059107296 0.26518798
0.052299723 -0.059126846 0.26518345
0.053698819 -0.05929634 0.26584288
0.054932911 -0.059280053 0.26566064
0.056270223 -0.059373416 0.26596072
0.057513021 -0.059365153 0.26579607
0.05873426 -0.059335466 0.26552579
0.059935588 -0.059287321 0.26516306
0.061421055 -0.059516467 0.26602936
0.062878437 -0.059709772 0.2667233
0.06423299 -0.059799768 0.26694345
0.066025697 -0.060286373 0.26892027
0.067446813 -0.060421724 0.26931578
0.068886153 -0.060568072 0.26974633
0.070380762 -0.060756817 0.27035111
0.072298616 -0.061297655 0.2725057
0.074117117 -0.061736766 0.27418947
0.075749964 -0.062008746 0.27511293
0.077405542 -0.062289804 0.27605852
0.078947358 -0.062471479 0.27654544
0.080570042 -0.062710121 0.27726591
0.082377926 -0.063082896 0.27855918
0.084304675 -0.063533403 0.2801736
0.086191505 -0.063940227 0.28157237
0.088128842 -0.064371414 0.28305498
0.090578124 -0.065157808 0.28607267
0.093244947 -0.066074878 0.28963333
0.095114134 -0.066408053 0.29060605
0.096919008 -0.066687323 0.29131868
0.099285677 -0.067339659 0.29363403
0.10186949 -0.068118796 0.29647085
0.10325053 -0.068083204 0.29573593
0.10242788 -0.066615365 0.28877351
0.1030184 -0.06609387 0.28591281
0.10460661 -0.066217832 0.28583038
0.10471755 -0.065415695 0.28174049
0.1049992 -0.064739667 0.27819297
0.10237814 -0.062314183 0.26714543
0.099267229 -0.059655733 0.25513938
0.099432766 -0.059008162 0.25175864
-0.015605434 -0.07242427 0.33266148
-0.013738195 -0.070832819 0.32534167
-0.012130509 -0.07034938 0.32311201
-0.010527628 -0.069759905 0.32039624
-0.0087336553 -0.067497499 0.30999818
-0.0072759897 -0.067450069 0.30977413
-0.0057715415 -0.066837221 0.30695444
-0.0041945972 -0.064699322 0.29713207
-0.002790607 -0.064430147 0.29589295
-0.0014025837 -0.064362049 0.29557848
-1.7221604e-05 -0.063302085 0.29071012
0.0013333283 -0.062750824 0.28817901
0.0026643479 -0.062297668 0.28609961
0.003967931 -0.061721124 0.28345451
0.0052621779 -0.061324961 0.28163889
0.0065197218 -0.06074569 0.27898324
0.0077636107 -0.060253948 0.27673036
0.0090671778 -0.060299836 0.2769475
0.010344135 -0.060179427 0.27640164
0.011557075 -0.059754808 0.27445915
0.012806569 -0.059585303 0.27368894
0.01410496 -0.059653454 0.27401075
0.015307513 -0.059338715 0.27257407
0.016518887 -0.05910401 0.27150524
0.017779941 -0.059067901 0.27134863
0.019174151 -0.059449479 0.27311078
0.020376619 -0.059226006 0.27209303
0.021592841 -0.05906646 0.2713685
0.02278683 -0.05886722 0.27046093
0.046364252 -0.058248788 0.26733088
0.047404252 -0.057987612 0.26607457
0.048564535 -0.057883184 0.26553133
0.049648724 -0.057695564 0.26459995
0.050852813 -0.057653021 0.26432696
0.052130915 -0.057694413 0.26443121
0.053407826 -0.057732597 0.26451266
0.054847449 -0.057940938 0.26536489
0.056055687 -0.057901021 0.26507097
0.057336569 -0.057936233 0.26511192
0.058535371 -0.057888769 0.2647649
0.059961274 -0.058063205 0.26542249
0.061715905 -0.058542337 0.26746082
0.062752299 -0.058334626 0.26634952
0.064093135 -0.058412526 0.26653132
0.065458953 -0.058509763 0.26678896
0.066938713 -0.05870324 0.26747224
0.068595171 -0.059041649 0.26880124
0.070356458 -0.059456341 0.27046153
0.072025441 -0.059779592 0.27168918
0.073625751 -0.060035516 0.27259406
0.075338498 -0.06037271 0.27385053
0.076778807 -0.060483843 0.27406421
0.078597032 -0.060884025 0.27556932
0.080458239 -0.061303832 0.27714255
0.082204737 -0.061624113 0.27824506
0.083893925 -0.061891943 0.27909008
0.085914895 -0.062392339 0.28096136
0.088289849 -0.063130446 0.28387699
0.090147696 -0.063482039 0.2850287
0.092802107 -0.064375713 0.2885865
0.095119908 -0.065012999 0.29096442
0.097051278 -0.065371543 0.2920675
0.098967269 -0.065709628 0.29305372
0.10144267 -0.066404372 0.29560205
0.10291443 -0.066431955 0.29515436
0.10294922 -0.065543912 0.29062647
0.10281552 -0.06457407 0.28573367
0.10251363 -0.063525856 0.28049475
0.10290317 -0.062928066 0.27724349
0.10291827 -0.062119801 0.273063
0.10299721 -0.061370291 0.26914242
0.10162998 -0.059788994 0.26158559
0.095823795 -0.055668432 0.24296892
0.10108619 -0.058000486 0.25252613
0.1013496 -0.057442341 0.24947552
-0.017846771 -0.073684655 0.34585273
-0.015665315 -0.071137629 0.33388469
-0.01378137 -0.069526315 0.32630995
-0.011973117 -0.067942329 0.31886488
-0.010087077 -0.06540224 0.30693427
-0.0086755846 -0.065605819 0.30788112
-0.0072440687 -0.065708995 0.30835798
-0.0056500644 -0.064022399 0.30043718
-0.0042305882 -0.063850187 0.29962435
-0.0027909435 -0.063051216 0.29587173
-0.0013975051 -0.062748946 0.2944513
-1.7204553e-05 -0.061878491 0.29036599
0.001327139 -0.061115399 0.28678578
0.0026400273 -0.060400594 0.28343347
0.0039303242 -0.059820496 0.28071445
0.0052146711 -0.059463527 0.2790437
0.0064952248 -0.05921511 0.27788347
0.0076877489 -0.058381189 0.27397653
0.0089398259 -0.058173478 0.2730093
0.010252995 -0.058365546 0.27391917
0.011510892 -0.058235239 0.27331701
0.012784025 -0.058200397 0.2731635
0.014018319 -0.05801117 0.272286
0.015274965 -0.057938293 0.2719551
0.01649191 -0.057737648 0.27102485
0.017735081 -0.057650942 0.27062953
0.019034639 -0.057746872 0.27109167
0.020371001 -0.05793548 0.27198878
0.021539982 -0.05765387 0.2706781
0.022741105 -0.057484813 0.26989529
0.02394902 -0.057349835 0.2692717
0.04622063 -0.056818724 0.26656702
0.047328074 -0.05664853 0.26571694
0.048419844 -0.056468792 0.26481593
0.049433455 -0.056209177 0.26353413
0.050662115 -0.056200776 0.26342338
0.052152321 -0.056476016 0.26463428
0.053389803 -0.056471135 0.26452434
0.054585606 -0.056423385 0.26420546
0.055933114 -0.056531101 0.26460573
0.057165474 -0.056520279 0.26444197
0.05844729 -0.056557775 0.26449475
0.059629589 -0.05649941 0.26408941
0.061333969 -0.056928009 0.26594892
0.062577181 -0.056919981 0.26575688
0.063921258 -0.057002217 0.26597482
0.06527698 -0.057091475 0.2662133
0.066612184 -0.057159755 0.26634136
0.067924425 -0.057206165 0.26635453
0.069638886 -0.057583477 0.26789379
0.070979901 -0.057644032 0.26794416
0.072605237 -0.057929311 0.26902363
0.074359484 -0.058305826 0.27050933
0.076551214 -0.059006795 0.2734803
0.078179024 -0.059256971 0.27434161
0.080001689 -0.059644204 0.27581793
0.081865273 -0.060048975 0.27735436
0.083761729 -0.060464595 0.27891898
0.086437665 -0.06142113 0.28295267
0.088306785 -0.061783735 0.28422371
0.089926854 -0.061963741 0.28463235
0.091332532 -0.061992846 0.28432721
0.094897024 -0.063464858 0.29060951
0.096780568 -0.063786328 0.29158998
0.098595761 -0.064054199 0.29230055
0.10034982 -0.064275362 0.29277378
0.10221516 -0.064560674 0.29351458
0.10405039 -0.064819403 0.29410967
0.10389986 -0.063850805 0.28912288
0.10236186 -0.062066756 0.28045076
0.10338659 -0.061863117 0.27892119
0.10517613 -0.062116463 0.27943489
0.10520842 -0.061338793 0.2753005
0.10595127 -0.060989838 0.27308834
0.10476965 -0.059555668 0.2660242
0.104347 -0.058583006 0.26103812
0.10295289 -0.05709533 0.25377724
-0.017545817 -0.07084886 0.33995962
-0.015669949 -0.069593653 0.33392116
-0.0139393 -0.068776429 0.32998568
-0.011986414 -0.066521846 0.3191556
-0.010119287 -0.064168066 0.30785164
-0.0087094372 -0.064413294 0.30901822
-0.0072495695 -0.064312637 0.30852678
-0.0057073892 -0.06324961 0.30342019
-0.004265063 -0.062954776 0.30200031
-0.002814664 -0.062188603 0.29832107
-0.001393292 -0.061183881 0.29349905
-1.6958427e-05 -0.059651826 0.28614902
0.0013167503 -0.059303381 0.28447825
0.0025893613 -0.057938501 0.27793306
0.0038751855 -0.057684075 0.27671614
0.0051493989 -0.057427779 0.27549163
0.0064292629 -0.057324644 0.27500314
0.0076602874 -0.056893229 0.27294102
0.0089609334 -0.057028379 0.27359813
0.01024518 -0.057038378 0.27365595
0.011530641 -0.057052176 0.27373302
0.012800927 -0.056995634 0.27347359
0.014056749 -0.056890842 0.27298346
0.015300636 -0.056759272 0.27236536
0.016506318 -0.056517139 0.27121723
0.017747298 -0.056421839 0.27077407
0.018999996 -0.056374047 0.27055907
0.020220933 -0.056243874 0.26994869
0.021466061 -0.056192365 0.26971573
0.022724887 -0.05618044 0.26967248
0.047216196 -0.055271674 0.26515001
0.048388146 -0.055190697 0.26470962
0.04953108 -0.055081513 0.26412755
0.050613835 -0.054912351 0.26325122
0.052205656 -0.055290408 0.2649906
0.053307284 -0.055143781 0.2642073
0.054502126 -0.055098057 0.26389962
0.055817075 -0.055173099 0.26416177
0.057098959 -0.055212893 0.26424605
0.058171388 -0.055052768 0.26336437
0.059649166 -0.055274941 0.26430172
0.061031569 -0.055401471 0.26477069
0.062520973 -0.055618118 0.2656588
0.063483283 -0.055366568 0.26429963
0.064972438 -0.055575345 0.26512653
0.066383198 -0.055710446 0.26558882
0.06804467 -0.056047056 0.26699772
0.06926246 -0.056012616 0.26662499
0.07074482 -0.056189533 0.26724437
0.072364882 -0.056467697 0.26832947
0.074041583 -0.056779701 0.26955846
0.07601586 -0.057305463 0.27178341
0.077776395 -0.057655249 0.27315399
0.079194225 -0.057743676 0.27326804
0.080921978 -0.05805159 0.27440208
0.08320988 -0.058745179 0.27733636
0.08521533 -0.059220802 0.27921706
0.087506294 -0.059877161 0.28192455
0.089399315 -0.060245436 0.28325024
0.091168463 -0.060520511 0.28411415
0.093209714 -0.060965445 0.28575078
0.096097939 -0.061943442 0.28985518
0.097967096 -0.062245991 0.29076877
0.099716097 -0.062464748 0.29126614
0.10259382 -0.063374676 0.29495618
0.1045517 -0.063699231 0.29589036
0.10556535 -0.063447513 0.29412684
0.10353458 -0.061397135 0.28402758
0.10435418 -0.061068784 0.28189912
0.10635938 -0.061433766 0.28295326
0.10837375 -0.06179462 0.28396428
0.1074647 -0.06050051 0.27736521
0.10532695 -0.058555666 0.26780498
0.10334922 -0.056746714 0.25889704
0.1033505 -0.05605527 0.25510719
-0.017237194 -0.068037428 0.33391142
-0.015582684 -0.067649789 0.33199131
-0.014010293 -0.067572184 0.33159396
-0.01238731 -0.067200758 0.3297562
-0.010292879 -0.063801087 0.31306106
-0.0082634035 -0.059740175 0.29312417
-0.0068195169 -0.059137069 0.29015589
-0.0026284484 -0.056768294 0.27851644
-0.0013512903 -0.058005031 0.28458154
-1.681118e-05 -0.057804085 0.28359482
0.001303077 -0.057367813 0.28145525
0.0025580041 -0.055949736 0.27450031
0.0038842037 -0.056518104 0.27729291
0.0051764254 -0.056430988 0.27687109
0.0064569465 -0.056276809 0.27612182
0.0078015993 -0.056639746 0.27791122
0.0091125444 -0.056689102 0.27816349
0.01032185 -0.056172952 0.27564216
0.011582226 -0.056018684 0.27489763
0.012907701 -0.056178629 0.27569625
0.014244587 -0.056354616 0.27657458
0.015378353 -0.055764683 0.27369478
0.016638555 -0.055688776 0.27333835
0.017773228 -0.055233616 0.27112085
0.018956093 -0.054978978 0.2698878
0.020195717 -0.054910511 0.26956883
0.021465644 -0.054927643 0.26967004
0.022716396 -0.054896533 0.26953429
0.024038997 -0.055033188 0.27022195
0.048328858 -0.053883474 0.26444411
0.049603265 -0.053921308 0.26457727
0.050690893 -0.053759217 0.26372266
0.052093707 -0.053931139 0.26449934
0.053346425 -0.053943295 0.26448464
0.054629024 -0.053984419 0.26460379
0.055917837 -0.054029722 0.26473492
0.057034541 -0.053910375 0.2640506
0.05824092 -0.053879067 0.26378849
0.059621345 -0.054006722 0.26429486
0.061131284 -0.054244086 0.26532713
0.062278725 -0.054156721 0.2647602
0.063855536 -0.054438841 0.26598799
0.064871378 -0.054241069 0.26485935
0.066563912 -0.05460589 0.26646549
0.068110868 -0.054839969 0.26741925
0.069398902 -0.054860864 0.26731965
0.07052736 -0.054757114 0.26659966
0.072353207 -0.05518895 0.26847216
0.07397037 -0.055449463 0.26949391
0.075721338 -0.055799745 0.27093434
0.077354282 -0.056052823 0.27188453
0.079032987 -0.056330223 0.27293396
0.080467984 -0.056427773 0.27309355
0.082932115 -0.057232425 0.2766532
0.084588863 -0.057463478 0.27741644
0.08713416 -0.058281735 0.2809898
0.089105196 -0.0586969 0.28259301
0.091160007 -0.059154037 0.28437316
0.093449146 -0.059747539 0.28678161
0.095615782 -0.060246658 0.28870869
0.097616524 -0.060628474 0.29004639
0.1004498 -0.061509319 0.29374033
0.10209085 -0.061645798 0.29385006
0.10482638 -0.062430356 0.29701978
0.10625857 -0.062427986 0.29641765
0.10476162 -0.060727734 0.28774998
0.10391713 -0.059445456 0.28107312
0.10539391 -0.059507128 0.28074509
0.10756421 -0.059953764 0.28221065
0.10779987 -0.059324421 0.27859753
0.10054445 -0.054639865 0.2559855
0.10213531 -0.054819059 0.25619894
0.10006295 -0.053051703 0.24732408
-0.017700931 -0.062578142 0.31429857
-0.015837887 -0.061076038 0.30673462
-0.012753307 -0.054092765 0.27164704
-0.009930687 -0.05263428 0.26429436
-0.0089633362 -0.054281659 0.27255383
-0.0079226186 -0.055958815 0.28096354
-0.0066867857 -0.056652077 0.28443441
-0.0055044238 -0.05825679 0.2924827
-0.0040463521 -0.057040233 0.28636837
-0.0027221267 -0.057439011 0.28836569
-0.0013741935 -0.057631131 0.28932729
-1.690289e-05 -0.056782369 0.28506529
0.0013198432 -0.0567692 0.28500009
0.0026759522 -0.05718305 0.28708059
0.0040475084 -0.05753943 0.28887442
0.005319254 -0.056654003 0.28443566
0.0066759912 -0.05684736 0.28541464
0.0079598641 -0.056459308 0.2834762
0.0092475694 -0.056205619 0.2822139
0.010461921 -0.055625428 0.27931356
0.011679118 -0.055187799 0.27713028
0.013021559 -0.055370372 0.27806264
0.014373736 -0.055557344 0.27901834
0.015581238 -0.055200569 0.2772443
0.016722366 -0.054681696 0.27465671
0.018037627 -0.05476572 0.27509797
0.01904715 -0.053972188 0.27113143
0.020358823 -0.054080546 0.27169564
0.021527639 -0.053819008 0.27040181
0.022769809 -0.053759731 0.27012402
0.023908392 -0.053475019 0.26871321
0.046043362 -0.052866288 0.26568758
0.047106545 -0.0526632 0.26463261
0.048320234 -0.052634481 0.26444799
0.049655274 -0.05273607 0.26491165
0.051089671 -0.052935656 0.2658605
0.052601114 -0.053203657 0.26714528
0.053947318 -0.053295948 0.26753971
0.055275515 -0.053366661 0.26781768
0.056331187 -0.053176962 0.2667805
0.058514755 -0.054037098 0.27100015
0.0598386 -0.054083586 0.27112836
0.060428713 -0.053478789 0.26798296
0.062041398 -0.05378519 0.26939398
0.063531041 -0.053974777 0.27020815
0.065298393 -0.054388251 0.27213049
0.066914529 -0.054662284 0.27334157
0.067797959 -0.054338731 0.27155241
0.068598323 -0.05396181 0.26948637
0.069609486 -0.053761411 0.26829094
0.070517674 -0.053490061 0.26672992
0.071941242 -0.053612307 0.26711839
0.073996104 -0.054192677 0.26977223
0.07601817 -0.054729763 0.27219078
0.077830538 -0.055100478 0.27376211
0.079010159 -0.055018432 0.27306655
0.080579616 -0.055206109 0.2736927
0.082161292 -0.055396065 0.27431113
0.084261604 -0.055924311 0.27658293
0.086653084 -0.056626566 0.27968961
0.088704996 -0.057089001 0.28158551
0.090906665 -0.057632569 0.28385553
0.093160354 -0.058192637 0.28617913
0.095530346 -0.058808073 0.28874606
0.097658962 -0.059259456 0.29047853
0.099798508 -0.059704646 0.29215235
0.101978 -0.06016105 0.2938523
0.10379515 -0.060394105 0.29443401
0.10679166 -0.061297808 0.29825351
0.1059616 -0.060010266 0.29139435
0.10298466 -0.057556756 0.27889132
0.10401673 -0.057378463 0.27742133
0.10647219 -0.057979845 0.27969876
0.10276973 -0.055255149 0.2659381
0.10342461 -0.054912053 0.26365957
0.10420721 -0.054644398 0.2617375
0.10243317 -0.053058974 0.25351462
0.0986166 -0.0504665 0.24052159
-0.021973673 -0.060696263 0.31219572
-0.020353887 -0.060234293 0.30979434
-0.018503727 -0.058967162 0.30325338
-0.017041281 -0.058827471 0.30251226
-0.015245799 -0.057408355 0.29519352
-0.01346016 -0.055746548 0.28662929
-0.010462197 -0.054145657 0.27836496
-0.0093524493 -0.05530446 0.28430787
-0.0080503169 -0.055521872 0.2854127
-0.0069229896 -0.057272144 0.29439867
-0.0055152648 -0.056997057 0.29297525
-0.0041365535 -0.056938704 0.29266793
-0.0027424211 -0.056504633 0.29043156
-0.0013643993 -0.055873014 0.28718188
-1.6959651e-05 -0.055631503 0.28593948
0.00132341 -0.055582248 0.28568733
0.0026696431 -0.055704914 0.28632089
0.0040101726 -0.055666286 0.28612748
0.0053215139 -0.055343479 0.28447539
0.0066292868 -0.055120442 0.28333792
0.0079987533 -0.055399209 0.28478184
0.0093071591 -0.055235792 0.28395447
0.010522122 -0.054628171 0.28084514
0.011841999 -0.054639842 0.28092113
0.013126646 -0.054502904 0.28023443
0.014384675 -0.054290421 0.27916062
0.015753536 -0.054496802 0.28024188
0.016893752 -0.053941339 0.27740636
0.018082246 -0.053608436 0.27571598
0.019414147 -0.053716745 0.27629548
0.020734504 -0.053781558 0.27665186
0.021922514 -0.053515673 0.27530748
0.022861507 -0.052705254 0.2711615
0.024309056 -0.053090885 0.27316874
0.025176236 -0.052233826 0.26878154
0.046139985 -0.051729776 0.26627782
0.047419235 -0.051764484 0.26642755
0.049041092 -0.052161824 0.26843747
0.050453212 -0.052321788 0.26921901
0.051878504 -0.052487276 0.27002189
0.053561203 -0.052899096 0.27208436
0.054668382 -0.052736577 0.27118474
0.055725753 -0.052534487 0.27007419
0.057148434 -0.052678127 0.27073261
0.058956433 -0.053162966 0.27313477
0.059815887 -0.052790038 0.27112052
0.060717788 -0.052469335 0.26936612
0.062150016 -0.052610651 0.26997381
0.063729361 -0.052868355 0.2711674
0.065066628 -0.052919071 0.27128744
0.066191964 -0.052798793 0.27051967
0.067223921 -0.052609973 0.26938969
0.068657264 -0.052736446 0.26986197
0.069517642 -0.052426234 0.26808751
0.070717134 -0.052378271 0.26764223
0.072074614 -0.052446954 0.26777914
0.07391648 -0.052859664 0.26965645
0.076029524 -0.05344902 0.27241558
0.077606082 -0.053647872 0.27316535
0.079175547 -0.05383537 0.2738395
0.080825679 -0.054070789 0.27473879
0.082217909 -0.05412893 0.27471873
0.083763294 -0.054284524 0.27517462
0.086035639 -0.054899193 0.27793488
0.088297263 -0.055488497 0.28054026
0.090604238 -0.056088284 0.28317133
0.09293592 -0.056685489 0.28576106
0.095508561 -0.057410225 0.28896341
0.096929245 -0.057431705 0.2885997
0.099569432 -0.058164965 0.29178542
0.10168084 -0.058573253 0.2933099
0.10353242 -0.058822729 0.2940118
0.10558385 -0.059177481 0.29521289
0.10708545 -0.059218708 0.29482496
0.10518478 -0.05740213 0.28518555
0.10448462 -0.056279391 0.27900454
0.10553139 -0.056114346 0.27756676
0.10855884 -0.056993335 0.28126782
0.10477016 -0.054316625 0.26742601
0.10685913 -0.054715559 0.26873943
0.10728277 -0.054262463 0.2658565
-0.026718847 -0.056870949 0.29979122
-0.024663154 -0.055409778 0.29206049
-0.023152942 -0.055074386 0.29026473
-0.022007816 -0.055619765 0.29311123
-0.021244075 -0.057265874 0.30175796
-0.019943308 -0.057595998 0.3034701
-0.018607398 -0.057867594 0.30487451
-0.016787276 -0.056553166 0.29792464
-0.015172329 -0.055753987 0.29369134
-0.013829344 -0.055894371 0.2944091
-0.013425456 -0.060282622 0.3175014
-0.011582174 -0.058496457 0.30807462
-0.010534711 -0.060793366 0.32015347
-0.007272304 -0.058711153 0.3091597
-0.0055958605 -0.056435406 0.29716578
-0.0040888358 -0.054924659 0.28920284
-0.0026974012 -0.054236826 0.28557548
-0.0013576903 -0.054257538 0.2856811
-1.6897986e-05 -0.054092567 0.28481132
0.0013161601 -0.053944752 0.28403413
0.0026531611 -0.054025982 0.28446516
0.0039832089 -0.05395864 0.28411618
0.0052786507 -0.053573858 0.28209782
0.0065782303 -0.053376947 0.28107071
0.0079757972 -0.053908106 0.28387964
0.0092924731 -0.053818736 0.28342298
0.010534628 -0.053374186 0.2810975
0.011867644 -0.053437691 0.2814495
0.013284105 -0.053826593 0.28351709
0.014522317 -0.053488184 0.28175539
0.015720546 -0.053071257 0.27958116
0.016966444 -0.05286707 0.27852872
0.018210145 -0.052685723 0.27759752
0.019505296 -0.052667502 0.27752659
0.020824006 -0.052711189 0.27778262
0.022118781 -0.052692711 0.27771166
0.023357389 -0.052549928 0.27698576
0.024437638 -0.052084669 0.27455997
0.025652645 -0.051938806 0.27381742
0.026617657 -0.0513248 0.27060613
0.045091223 -0.050705761 0.26750052
0.046484794 -0.050859585 0.26829392
0.047938034 -0.05106888 0.26937422
0.049516283 -0.051397201 0.2710762
0.050907306 -0.051519617 0.2716856
0.05227473 -0.051612761 0.27213374
0.053621829 -0.051681884 0.27244791
0.054921325 -0.051702969 0.27250126
0.056006663 -0.05152607 0.27150342
0.057634648 -0.051845178 0.27311054
0.058803782 -0.051746625 0.27250835
0.059675492 -0.051396105 0.2705709
0.060753297 -0.051233996 0.26961669
0.062005222 -0.051222343 0.26944461
0.063372537 -0.051304583 0.26975581
0.064479634 -0.051177055 0.26895332
0.065293573 -0.050826233 0.26696739
0.066528529 -0.050810199 0.2667293
0.067998938 -0.050971244 0.26740816
