# .PCD v0.7 - Point Cloud Data file format
VERSION 0.7
FIELDS x y z
SIZE 4 4 4
TYPE F F F
COUNT 1 1 1
WIDTH 1396
HEIGHT 1
VIEWPOINT 0 0 0 1 0 0 0
POINTS 1396
DATA ascii
-0.16188852 0.087149791 0.30353218
-0.15563133 0.084586844 0.2941522
-0.16113952 0.088430777 0.30709398
-0.16254941 0.09007895 0.31243554
-0.15860119 0.088761084 0.30754083
-0.15447177 0.087314449 0.30226371
-0.15290736 0.087303087 0.3020151
-0.15349732 0.088534102 0.30611923
-0.15577574 0.090774409 0.31376764
-0.15499744 0.091261588 0.31541541
-0.15520148 0.092343502 0.31918165
-0.15991761 0.096161664 0.33247349
-0.16231123 0.098650314 0.34124303
-0.17061576 0.10482468 0.36284789
-0.17038792 0.10583492 0.36666498
-0.16769873 0.10532176 0.36527419
-0.16576366 0.10527603 0.36556801
-0.16373943 0.10517199 0.36572084
-0.16134986 0.10482819 0.36509553
-0.15852229 0.10418853 0.36348748
-0.15434107 0.10263367 0.35872063
-0.15243739 0.10257435 0.35921267
-0.14548859 0.10152385 0.35780558
-0.1425999 0.10075171 0.3558822
-0.13729559 0.099490933 0.35304302
-0.13544652 0.099425495 0.35362726
-0.13368554 0.099423833 0.35443878
-0.12975354 0.097785994 0.34940124
-0.12610379 0.097638689 0.3504543
-0.11179463 0.095738292 0.34861448
-0.10791607 0.095304243 0.34828395
-0.10503443 0.094231457 0.34495082
-0.10275953 0.093677171 0.34348541
-0.1008099 0.093406104 0.34303305
-0.099723987 0.093939617 0.34551653
-0.098692551 0.09454339 0.34824455
-0.097040713 0.094563432 0.34880546
-0.096288569 0.095476277 0.35264435
-0.075643957 0.09096022 0.33949074
-0.073942557 0.09084671 0.33933237
-0.072289251 0.090788551 0.33936638
-0.070596702 0.090677358 0.33918828
-0.068797149 0.090420358 0.33845091
-0.067234717 0.090470195 0.33884913
-0.066949993 0.092283636 0.34584495
-0.066265494 0.093622901 0.35105878
-0.064675853 0.093719222 0.35160348
-0.062980078 0.093662776 0.35156426
-0.061445992 0.093850233 0.35243014
-0.059090793 0.092759147 0.34848329
-0.05727021 0.09246891 0.34753343
-0.055501074 0.092247136 0.34683102
-0.053468116 0.091560148 0.34436959
-0.051809024 0.091490462 0.34422079
-0.049922351 0.091001414 0.34248579
-0.048068833 0.090542242 0.34085482
-0.046454888 0.090518221 0.34085461
-0.044725638 0.090259805 0.33996487
-0.043006364 0.09000311 0.33907503
-0.041178565 0.089490861 0.33721593
-0.039548274 0.089384012 0.33687848
-0.036586072 0.086132631 0.32468218
-0.023911823 0.064331539 0.24261105
-0.022195475 0.062697746 0.23647921
-0.020896733 0.062133785 0.23437895
-0.019488139 0.061162449 0.23073883
-0.018096805 0.060134266 0.22688133
-0.016762773 0.059179969 0.22329989
-0.015485648 0.05831283 0.22004488
-0.014332864 0.057823561 0.21821366
-0.013168121 0.057207137 0.21590072
-0.011962787 0.05629706 0.21247782
-0.010846586 0.055679262 0.21015632
-0.0097171292 0.054863203 0.20708513
-0.0086948751 0.054538492 0.20586725
-0.007705559 0.05436511 0.20521952
0.057718918 0.054393917 0.2000722
0.059449978 0.055106614 0.20238644
0.060793299 0.055442706 0.20329967
0.062023997 0.055667058 0.20378768
0.063905239 0.056459129 0.20633571
0.06628412 0.057659719 0.21035177
0.067508295 0.05783467 0.21060489
0.068798959 0.058060519 0.21102853
0.071252987 0.059247054 0.2149221
0.073023081 0.059838746 0.21663356
0.074895278 0.060496014 0.2185621
0.077323645 0.061577663 0.22200024
0.082877517 0.06508372 0.23413366
0.087513626 0.067782857 0.24330653
0.13316658 0.09907084 0.35320094
0.13901229 0.10207648 0.36307722
0.17888182 0.12802668 0.45328358
0.18587272 0.13136698 0.46405017
0.18857776 0.13163309 0.46394718
0.19123347 0.13185872 0.46372306
0.19430777 0.13236406 0.46450967
0.19669951 0.13239793 0.46367764
0.19904113 0.13239768 0.46277276
0.20203976 0.13282937 0.46342888
0.20504226 0.13325366 0.46411496
0.20685764 0.13290556 0.46217775
0.20974086 0.13324368 0.46270037
0.21215448 0.13327925 0.46224907
0.21419655 0.13308321 0.46107799
0.21628682 0.13292105 0.4601118
0.21879719 0.13301778 0.46013099
0.22141394 0.13317645 0.46045458
0.22380804 0.13319923 0.4604001
0.22574449 0.13295205 0.45950451
0.22810671 0.13295811 0.45957589
0.2303101 0.13287242 0.45942047
0.23143356 0.13217171 0.45722607
0.23337787 0.13194911 0.45677021
0.2362823 0.1322684 0.45827445
0.23762368 0.131715 0.45683548
0.2387922 0.13107748 0.45517841
0.24072663 0.13086861 0.45508111
0.24311788 0.13090968 0.45592394
0.24394393 0.13011514 0.45392105
0.24481274 0.12935804 0.4521049
0.24527 0.12839951 0.44963539
-0.15852179 0.08684691 0.29748639
-0.15752801 0.087132208 0.29798239
-0.15795988 0.088219225 0.30125868
-0.15818651 0.089211844 0.30425066
-0.15822835 0.09011884 0.30699316
-0.15637696 0.089954913 0.30613735
-0.15500002 0.090063363 0.30626333
-0.1560773 0.091614589 0.31134832
-0.15895224 0.094263889 0.32021669
-0.15783906 0.094578654 0.32121217
-0.15935907 0.096494459 0.32770759
-0.16507342 0.1010178 0.34312534
-0.16741309 0.10355103 0.35185677
-0.17202741 0.10756159 0.36568773
-0.16955961 0.10718345 0.36467537
-0.16732591 0.10694653 0.36421049
-0.1651385 0.10673422 0.36389416
-0.16266574 0.10633056 0.36298615
-0.16039638 0.10605209 0.36256164
-0.15592059 0.10429133 0.35711363
-0.15400431 0.10422127 0.35749444
-0.1442593 0.10244672 0.35423481
-0.14131458 0.10160974 0.35211164
-0.1391737 0.1013369 0.35195231
-0.13687958 0.10094404 0.35138354
-0.13499096 0.10084392 0.35183778
-0.13329467 0.10088671 0.35279396
-0.12789452 0.09941525 0.34923452
-0.12055478 0.099063799 0.3510612
-0.11816583 0.098507717 0.34981775
-0.11616892 0.098266914 0.3496713
-0.11330959 0.097278528 0.34683803
-0.11138859 0.097077958 0.34678668
-0.10896827 0.096429355 0.34510994
-0.10665467 0.095856413 0.34367633
-0.10196491 0.094597042 0.34031957
-0.10064411 0.094902046 0.341968
-0.099111423 0.095014088 0.34290349
-0.097735576 0.095282823 0.34438664
-0.096460044 0.095660329 0.34624648
-0.094414517 0.095274054 0.34532219
-0.093179047 0.095706008 0.34734443
-0.077345826 0.092680492 0.33927032
-0.075689957 0.092625529 0.33935973
-0.070114017 0.091650426 0.33656552
-0.068548277 0.091686934 0.33693254
-0.066963613 0.091699287 0.33719832
-0.065505549 0.091889828 0.33810779
-0.065289289 0.093875386 0.34561497
-0.064450935 0.095045343 0.3501147
-0.062686235 0.094874859 0.34966749
-0.060780976 0.094476677 0.34836948
-0.057211626 0.094008334 0.34694996
-0.053401705 0.093064032 0.34373245
-0.051641893 0.092808485 0.34290931
-0.049274735 0.091409765 0.33785239
-0.047631796 0.091306098 0.33757272
-0.044551052 0.091497861 0.33846831
-0.039381459 0.090581447 0.33530864
-0.036746852 0.088041462 0.32597008
-0.03381807 0.084545277 0.31308216
-0.024824213 0.067967586 0.25177324
-0.022679454 0.065198138 0.24154826
-0.021114975 0.063893273 0.23674442
-0.019566193 0.062493663 0.23158558
-0.018312477 0.06192733 0.22951147
-0.0167975 0.060351592 0.22369333
-0.015733002 0.060292251 0.22349314
-0.014571853 0.059827633 0.22178856
-0.013190022 0.05831591 0.21619993
-0.012046991 0.057696186 0.21391612
-0.010997199 0.057450999 0.21301934
-0.009669316 0.055558961 0.20601442
-0.0086609013 0.055286359 0.20501283
-0.0077043013 0.05531776 0.20513727
-0.0067449417 0.055335466 0.20520988
-0.0056961337 0.05450318 0.20212917
0.058211461 0.055828474 0.20149134
0.05944873 0.056080233 0.20208637
0.06098225 0.056598816 0.20362669
0.062579907 0.057159513 0.20530027
0.064107411 0.057639614 0.20666598
0.066267937 0.058665346 0.20996647
0.067677401 0.05900516 0.21079122
0.069309898 0.059526384 0.21224651
0.071590416 0.060580626 0.21557993
0.073508665 0.0613022 0.21770589
0.075073771 0.061712861 0.21870902
0.078306817 0.063463725 0.22443584
0.082134679 0.065641336 0.23163313
0.097545542 0.076889455 0.27072591
0.10175776 0.07912562 0.27797514
0.179639 0.13084288 0.45445514
0.18560933 0.13350132 0.46265244
0.18837732 0.13381921 0.46273828
0.1916164 0.13445991 0.46396285
0.19426976 0.13467912 0.46376354
0.19690576 0.13488123 0.46354613
0.19944061 0.13501012 0.46312588
0.20288859 0.13574696 0.46484336
0.20540142 0.13584834 0.46444443
0.20733841 0.13557091 0.46282154
0.20968567 0.13556497 0.46220243
0.21189007 0.13546783 0.46135288
0.21365495 0.13509491 0.45964965
0.21562566 0.1348588 0.45850044
0.21744736 0.13453561 0.45714477
0.22058253 0.13502331 0.45863429
0.22307792 0.13511319 0.45886254
0.22529928 0.135037 0.45861712
0.22651507 0.13436587 0.45644036
0.22838996 0.13409545 0.45571178
0.23109396 0.13431233 0.45672527
0.23348963 0.13434748 0.45720538
0.23498607 0.13386963 0.45601967
0.23641096 0.13336085 0.45480356
0.23798738 0.13294655 0.45398143
0.23979697 0.13266923 0.45369619
0.24189974 0.13255784 0.4540458
0.24414288 0.13252476 0.45472905
0.24427028 0.13135457 0.45156619
0.24314645 0.12953945 0.446226
-0.16927442 0.09345974 0.3155427
-0.16042931 0.089419678 0.30135259
-0.15698329 0.088340163 0.29721335
-0.15606955 0.088678561 0.29789269
-0.15667427 0.089894809 0.30155945
-0.15853089 0.091860563 0.30777505
-0.15919264 0.093166344 0.31181803
-0.15777265 0.093267858 0.31187949
-0.16052566 0.095863514 0.32033026
-0.16092254 0.097091131 0.32426012
-0.16139126 0.098388083 0.32847893
-0.16143912 0.099453107 0.33198413
-0.16947307 0.10551286 0.35222697
-0.17318082 0.10898048 0.36388892
-0.17059699 0.10852126 0.3625119
-0.16911286 0.10875916 0.36353329
-0.16618358 0.10806263 0.36149862
-0.16343622 0.10747008 0.35987428
-0.16140151 0.10733799 0.35985303
-0.15864733 0.10671891 0.35825598
-0.15484796 0.10537416 0.35426974
-0.15253526 0.10502138 0.35366118
-0.14661847 0.10464026 0.35436368
-0.14207228 0.10264729 0.34833211
-0.13670559 0.10256808 0.35034746
-0.13416836 0.10197156 0.3490949
-0.13221025 0.10180528 0.34931576
-0.13001783 0.10145172 0.34889236
-0.11764431 0.099777639 0.34766984
-0.11306616 0.09875676 0.34550682
-0.11100475 0.098424986 0.34501496
-0.10839973 0.097593606 0.34274569
-0.10644484 0.097330689 0.3424468
-0.10339095 0.09603858 0.33849791
-0.096945129 0.096154988 0.34110504
-0.095716983 0.096573345 0.34309173
-0.094373167 0.096887626 0.34469295
-0.092959344 0.097139955 0.34605753
-0.08935979 0.096836187 0.34584969
-0.087502271 0.096611947 0.34545761
-0.075590663 0.094111882 0.33855882
-0.073463641 0.0934515 0.33646727
-0.06978979 0.09281227 0.33468863
-0.06832274 0.092973702 0.33551273
-0.06650319 0.09265171 0.33457926
-0.064736798 0.092389889 0.33384955
-0.063883379 0.093450502 0.33788839
-0.062837601 0.094276875 0.34107307
-0.061403096 0.094548181 0.3422409
-0.060414828 0.095539816 0.34600776
-0.058890268 0.095714889 0.34680933
-0.05668918 0.094768994 0.34353799
-0.05498492 0.094622441 0.34315312
-0.053144675 0.094225936 0.34185204
-0.051258396 0.093720466 0.34014589
-0.049304739 0.093055241 0.33785024
-0.047492169 0.092620857 0.33638361
-0.045878846 0.092558473 0.33626023
-0.039225776 0.091791593 0.33381832
-0.036983434 0.090148449 0.32791272
-0.034035102 0.086566828 0.31494698
-0.024777642 0.069019258 0.25119385
-0.022782739 0.066633478 0.2425486
-0.021245677 0.065406218 0.23811537
-0.019768056 0.064235851 0.23388524
-0.018454807 0.063493416 0.23120974
-0.016933871 0.061899085 0.22542877
-0.01579684 0.061589129 0.22432235
-0.014516515 0.060636383 0.22087224
-0.01330379 0.059841279 0.21799386
-0.012171698 0.059306674 0.21606231
-0.011129737 0.05915403 0.21552043
-0.0096924705 0.056660023 0.20644598
-0.0087088784 0.056558914 0.20608832
-0.0077761333 0.056804005 0.20699081
-0.00671884 0.056079436 0.20435858
0.054788098 0.05627282 0.20020638
0.0558213 0.056345277 0.20018251
0.05701891 0.056578431 0.20071673
0.058388159 0.056971285 0.20180272
0.060698155 0.058254115 0.20602022
0.061520174 0.058090534 0.20510431
0.063009404 0.058552157 0.20638219
0.064203948 0.058729794 0.2066434
0.066397861 0.059802059 0.21003284
0.068260089 0.060547616 0.21225142
0.070460103 0.061566059 0.2154035
0.072254673 0.06220549 0.2172071
0.073890001 0.062691279 0.21845585
0.075452954 0.063102648 0.21942908
0.079523683 0.065570191 0.22752216
0.085902661 0.069845967 0.24183106
0.17521697 0.13150519 0.44921505
0.18187861 0.13477674 0.45936704
0.18578807 0.13595258 0.46236262
0.18912718 0.13668713 0.46387041
0.19176114 0.13690038 0.46363613
0.19464527 0.13728492 0.46401855
0.19703472 0.13731559 0.4632501
0.19983242 0.13762666 0.46348
0.20302317 0.13819806 0.46464261
0.20531802 0.13815351 0.4637987
0.20743854 0.13799396 0.46264243
0.20956893 0.13784452 0.4615989
0.21167111 0.13768005 0.46058744
0.21337621 0.13726376 0.45881978
0.21640785 0.13770059 0.45999071
0.21757646 0.13695534 0.45730165
0.22022906 0.13715011 0.45784125
0.22263184 0.13718684 0.45794237
0.22474927 0.13704878 0.45754886
0.22671105 0.13681966 0.45693848
0.22772132 0.13602683 0.45452979
0.23088221 0.1365217 0.45650724
0.23304023 0.13641959 0.45657098
0.23420475 0.13574368 0.4547905
0.23557913 0.13520148 0.45352933
0.23797601 0.13525093 0.45432368
0.23990335 0.13503511 0.4542962
0.24155535 0.13466991 0.45382997
0.24346724 0.13445513 0.45393127
0.24439447 0.13370568 0.45228243
0.24636745 0.13353692 0.45264956
-0.1666272 0.093569934 0.31094033
-0.15918915 0.090244345 0.29932383
-0.15770195 0.090260781 0.2988537
-0.15776567 0.091173813 0.30138981
-0.15904568 0.092814542 0.3063634
-0.16155928 0.095214762 0.31387308
-0.16520686 0.098337986 0.32379442
-0.16464427 0.098992929 0.32562888
-0.16531442 0.10040996 0.33002061
-0.16574006 0.10170618 0.33406764
-0.16651295 0.10324469 0.33896673
-0.1768131 0.11078504 0.36362517
-0.17580006 0.11132197 0.36535889
-0.17199433 0.11008299 0.36133352
-0.16977242 0.10984184 0.36065218
-0.16785769 0.10979629 0.36068186
-0.16482934 0.10901322 0.35835493
-0.16249479 0.10867657 0.35755897
-0.16020724 0.10836404 0.35690427
-0.15612818 0.10681865 0.35224274
-0.15415724 0.1066964 0.35232425
-0.15228704 0.10664181 0.35268161
-0.14371745 0.10432223 0.34685689
-0.14158942 0.10404617 0.34662655
-0.13920707 0.10357401 0.3457664
-0.13804401 0.10400857 0.34795639
-0.13558206 0.10346307 0.34688538
-0.13407223 0.10363941 0.34824571
-0.13209866 0.1034572 0.34841052
-0.12608081 0.1028014 0.34853449
-0.12409991 0.10259137 0.34859219
-0.11899786 0.10118376 0.34530184
-0.11029816 0.099469341 0.34222937
-0.10872396 0.099557869 0.34318832
-0.10606901 0.098644048 0.34066868
-0.10318741 0.097487099 0.33727789
-0.098126888 0.097340472 0.33846891
-0.096585192 0.097434692 0.33932486
-0.095195957 0.097688615 0.34071973
-0.094186559 0.098348096 0.34351468
-0.092732146 0.098558106 0.34472507
-0.069466233 0.093960315 0.3327992
-0.067892537 0.09396673 0.33307213
-0.066094756 0.093655907 0.3322072
-0.064393118 0.093469486 0.33177
-0.063037366 0.093788348 0.33311483
-0.06207604 0.09472546 0.3366468
-0.060823351 0.095255591 0.33872434
-0.05968044 0.095990889 0.34152335
-0.058452692 0.096626818 0.34396091
-0.056136075 0.095447652 0.33992651
-0.054484792 0.095363684 0.33978081
-0.052616257 0.094882861 0.33821124
-0.050967213 0.094780162 0.33797994
-0.049266234 0.094571158 0.33736089
-0.047389284 0.093999185 0.3354381
-0.042313781 0.093253024 0.33308241
-0.034789287 0.089996822 0.32176182
-0.022982838 0.068367124 0.24456584
-0.021666139 0.067840211 0.24271917
-0.020061415 0.066302866 0.23725325
-0.018469807 0.06463068 0.23130044
-0.017043212 0.063363135 0.22679183
-0.015821468 0.062739022 0.22458303
-0.014543386 0.06178651 0.22119583
-0.013250527 0.060619976 0.21703966
-0.012188867 0.060405001 0.21628797
-0.01111945 0.060109057 0.2152444
-0.009923378 0.059000947 0.21129048
-0.0088131605 0.058214031 0.2084848
-0.0077402731 0.057508059 0.2059672
-0.0067079188 0.056944836 0.20395918
-0.0057250443 0.056684151 0.20303333
-0.0047657131 0.056599077 0.20273514
0.055112645 0.057573266 0.20110171
0.056153167 0.05764864 0.20107523
0.057417158 0.057946995 0.20181333
0.058920957 0.058473382 0.20332976
0.060766358 0.059315946 0.20592661
0.062133804 0.059672322 0.20681702
0.063229471 0.059760511 0.20676376
0.064748995 0.06024028 0.20805028
0.066842109 0.06123073 0.21107994
0.069005854 0.062254868 0.21420151
0.070786804 0.062908255 0.2160254
0.072896086 0.063829899 0.21874931
0.074401982 0.064204149 0.2195785
0.078999907 0.067197807 0.22933301
0.082105368 0.068855509 0.23448624
0.085559733 0.070755683 0.24043198
0.18022254 0.13757294 0.46127275
0.18310449 0.13800332 0.4617095
0.18607904 0.13849187 0.46235895
0.18918169 0.13906249 0.46330604
0.19214968 0.13952143 0.46391216
0.19439571 0.13945138 0.46280149
0.19715108 0.13974407 0.46294484
0.2004002 0.14037572 0.46426383
0.20284817 0.14043799 0.46376014
0.20501828 0.14030871 0.46269396
0.20699307 0.14005016 0.46127781
0.20904197 0.13984706 0.46012482
0.21116848 0.13969979 0.45923877
0.21406879 0.14006205 0.46011201
0.21686457 0.14034876 0.46082261
0.21880469 0.14008151 0.45980233
0.22035077 0.13957037 0.4580704
0.22263157 0.13953047 0.45797309
0.2250067 0.13954991 0.45815769
0.2269657 0.1393135 0.45758772
0.22745606 0.13818967 0.45418409
0.22940724 0.13796709 0.45382074
0.23127148 0.13769719 0.45337906
0.23332751 0.1375457 0.45340183
0.23450644 0.13688524 0.45181659
0.23742998 0.13724603 0.45367119
0.23946628 0.13709196 0.45389259
0.24089745 0.13659766 0.45304847
0.24171899 0.13577031 0.45115328
0.24366434 0.13558376 0.45143965
0.24291764 0.13391656 0.44683868
-0.18569398 0.10503775 0.34437957
-0.16522126 0.094338924 0.30866268
-0.15969038 0.092049167 0.3005847
-0.15876439 0.092395268 0.301166
-0.15760466 0.092610724 0.30135959
-0.1607116 0.095362142 0.30983359
-0.16501543 0.098885246 0.32083142
-0.16514535 0.099952616 0.32389134
-0.16752395 0.10241628 0.33151552
-0.16893822 0.10433463 0.33741596
-0.17083232 0.10659195 0.34445989
-0.17897236 0.11283408 0.36442557
-0.17896502 0.11401694 0.36810488
-0.17356409 0.11175226 0.36072195
-0.17208828 0.11199329 0.36149657
-0.17013435 0.11192504 0.36134136
-0.16708711 0.11112811 0.35890111
-0.16409002 0.11034721 0.35657772
-0.16010226 0.10887508 0.3520816
-0.15772127 0.10847457 0.3511095
-0.15577687 0.10836857 0.35115016
-0.15389089 0.10830121 0.35137334
-0.14829826 0.10813705 0.35247526
-0.14214967 0.10491746 0.34259692
-0.14049231 0.10497417 0.34343451
-0.13868286 0.10491724 0.34393153
-0.13622747 0.10436402 0.34282395
-0.13415009 0.10408991 0.34264901
-0.1321436 0.10386443 0.34264728
-0.12215467 0.10267957 0.34250048
-0.11011763 0.10097467 0.34106472
-0.10784173 0.1004088 0.33980903
-0.10467836 0.098986022 0.33562356
-0.097465999 0.098308966 0.33565032
-0.096026324 0.098498113 0.33683154
-0.094926015 0.099047907 0.33923116
-0.093475923 0.0992456 0.34041002
-0.092415839 0.099871837 0.3430441
-0.087834068 0.098435171 0.33901283
-0.065354586 0.094162665 0.32815436
-0.06350895 0.093734592 0.32689291
-0.062196098 0.094091102 0.32835561
-0.060957711 0.094581448 0.33027583
-0.060097922 0.095700465 0.33438373
-0.05881701 0.09619125 0.33628908
-0.057516892 0.096677005 0.33816829
-0.055852219 0.09656021 0.3379305
-0.054325067 0.096681327 0.33851567
-0.05226481 0.095832273 0.33569348
-0.050659861 0.095791101 0.33569115
-0.048798528 0.095246859 0.33391654
-0.043752529 0.094543517 0.33179942
-0.034693684 0.091257095 0.32069686
-0.031822756 0.087508112 0.30758876
-0.021741433 0.069219485 0.2434409
-0.020513544 0.068935983 0.24248238
-0.018521857 0.065901525 0.23184265
-0.017173966 0.064921759 0.22842653
-0.01579212 0.063674562 0.22406594
-0.014281389 0.061692607 0.21711601
-0.013199845 0.061402503 0.21611717
-0.012100697 0.060975384 0.21463378
-0.011007275 0.060502179 0.21298595
-0.0098533425 0.059568625 0.20971525
-0.0087881042 0.059023604 0.20781028
-0.0077382936 0.058459107 0.20583484
-0.0067032324 0.057860911 0.20373899
-0.0057303822 0.05769005 0.20314617
0.054038297 0.058424409 0.20068575
0.055165946 0.05859698 0.20099358
0.056358695 0.058831546 0.201501
0.058137011 0.059659075 0.20402266
0.059639782 0.060180947 0.20548056
0.061175816 0.060718723 0.20697546
0.062194768 0.060734209 0.20667538
0.063358016 0.060887881 0.20683324
0.066230983 0.062654138 0.21244605
0.06784603 0.063194342 0.21387614
0.06927754 0.063549839 0.21466452
0.070952542 0.064114727 0.21614389
0.073987544 0.065873869 0.22162378
0.076932445 0.067502953 0.2266337
0.079267755 0.068558246 0.22969013
0.084799655 0.072309569 0.24173748
0.090226568 0.075868405 0.25308254
0.1759214 0.13831905 0.45633769
0.18058047 0.14016166 0.46141696
0.18331173 0.14048028 0.46148616
0.18640034 0.14106135 0.46243998
0.18889649 0.14118525 0.46192586
0.19152604 0.14140464 0.46176359
0.19445357 0.14183606 0.46233836
0.197081 0.14204092 0.462226
0.20026314 0.14263609 0.46344054
0.20279001 0.14275609 0.4631747
0.20427474 0.14214817 0.46062097
0.20579326 0.14157727 0.45826787
0.20814776 0.14158791 0.45787844
0.21064788 0.14169623 0.45788693
0.21399873 0.14236815 0.45979989
0.21666978 0.14257811 0.46030575
0.21868624 0.14235745 0.4595083
0.22046149 0.14198615 0.45831192
0.2226609 0.14189294 0.4580994
0.22465645 0.14167315 0.45756304
0.22569427 0.14086014 0.45519254
0.22706257 0.14026786 0.45361376
0.22903916 0.14005955 0.45335326
0.2303784 0.13946953 0.45193073
0.23198862 0.13905364 0.45114198
0.2340882 0.13893636 0.4513903
0.23618554 0.13882001 0.45170826
0.2381279 0.13861573 0.45180333
0.23927358 0.13795596 0.45047092
0.24191228 0.13816133 0.45202005
0.24293563 0.13744894 0.45061958
0.2434936 0.1364889 0.44844913
-0.17736597 0.10198446 0.32933924
-0.16420785 0.095309235 0.30712977
-0.16243899 0.095180377 0.30609927
-0.16250047 0.096131846 0.30857682
-0.16101709 0.096178979 0.30818638
-0.16039801 0.096748397 0.30950886
-0.16407022 0.099943101 0.31925666
-0.16607955 0.10217861 0.32596403
-0.16949919 0.10533573 0.33564115
-0.17387196 0.10915565 0.3474606
-0.18201965 0.11544862 0.36718124
-0.18052122 0.11569072 0.36770341
-0.17567928 0.11377266 0.36142761
-0.17288899 0.11315659 0.35935712
-0.17112151 0.11320391 0.35946029
-0.16958924 0.11340953 0.36013302
-0.16479087 0.11141154 0.35387406
-0.16221318 0.11088718 0.35235941
-0.15914369 0.11001109 0.34978947
-0.15721346 0.10991159 0.34975001
-0.15534621 0.10985433 0.34990579
-0.15323664 0.10962235 0.34956306
-0.14537969 0.10776017 0.34510869
-0.1417359 0.10634028 0.34114093
-0.14027886 0.10654626 0.34242108
-0.13826768 0.10633123 0.34238207
-0.13611996 0.10600444 0.34200904
-0.13391756 0.10562611 0.34148964
-0.12374599 0.10428739 0.3408291
-0.12200697 0.10424968 0.34145245
-0.12016733 0.10412367 0.34178206
-0.10979262 0.10233986 0.33944002
-0.10782831 0.10205488 0.33915612
-0.10433486 0.10029111 0.33392876
-0.10030504 0.099527091 0.3325932
-0.097047828 0.099504307 0.33365479
-0.096031405 0.10013065 0.33630019
-0.093114935 0.10049558 0.33856472
-0.086156234 0.10000138 0.3387492
-0.063365117 0.095067337 0.32581243
-0.062179808 0.095620483 0.3279368
-0.060514849 0.095445476 0.3275533
-0.059416745 0.096178852 0.33027723
-0.05856096 0.097354703 0.33451369
-0.057025004 0.097433686 0.33497334
-0.055609237 0.097728401 0.33616513
-0.053610452 0.096985742 0.33377802
-0.052002721 0.09692695 0.33373374
-0.050306384 0.096694194 0.33308101
-0.048696522 0.096617989 0.33295855
-0.041902304 0.095448613 0.32940447
-0.032889962 0.091936916 0.31771287
-0.030384477 0.088975385 0.30754527
-0.025265532 0.077682421 0.26856515
-0.022644037 0.073284164 0.25340682
-0.020373467 0.069596328 0.24069645
-0.018938052 0.068495542 0.2369273
-0.017562533 0.067487441 0.23347463
-0.015878085 0.065078832 0.22517245
-0.014607047 0.06414181 0.22195782
-0.013346322 0.063109525 0.21841031
-0.012046843 0.06170686 0.21357787
-0.010955304 0.06121131 0.21188225
-0.0098199258 0.060347356 0.20890905
-0.0087700775 0.059875626 0.20729131
-0.0077547343 0.059551131 0.20618135
-0.0067177941 0.058944572 0.20409286
-0.0057311282 0.058650747 0.20308541
-0.0047799572 0.058675405 0.20317906
0.055204201 0.059606329 0.20081833
0.056264695 0.059703715 0.2008436
0.058402292 0.060921378 0.20461963
0.060295094 0.06184734 0.20739329
0.061195884 0.061742064 0.2066931
0.062314428 0.061856348 0.20671681
0.063710965 0.062238563 0.20762193
0.066637993 0.064080589 0.21337248
0.067926578 0.064314604 0.21374537
0.069593236 0.064894065 0.21525088
0.072666131 0.066747956 0.22095801
0.075254299 0.068108588 0.22500178
0.077467807 0.069095626 0.22778712
0.08222463 0.072290488 0.23781469
0.088070355 0.076339178 0.25059423
0.093133129 0.079606175 0.26075116
0.17127725 0.13869382 0.45033547
0.17704129 0.14149919 0.45845789
0.18101364 0.14281896 0.46175864
0.18385597 0.14322501 0.46212
0.18663482 0.14357212 0.46231896
0.18899748 0.1435944 0.46150902
0.19111991 0.1434359 0.46016452
0.19411801 0.14393044 0.46096542
0.19682428 0.14419943 0.4610979
0.20028453 0.14500798 0.46301439
0.20209056 0.14461397 0.46115819
0.20393702 0.14425761 0.45949867
0.20534866 0.14360528 0.45697698
0.20752314 0.14349505 0.45626277
0.21134034 0.14451058 0.45920846
0.21376704 0.14456344 0.45917764
0.21615992 0.14459252 0.45915663
0.21827215 0.14443524 0.45862979
0.21998757 0.14402154 0.45737404
0.22181858 0.14369144 0.45646748
0.22358052 0.14332394 0.45552421
0.22447194 0.14241172 0.45292801
0.22747853 0.14284633 0.45469296
0.2290687 0.14239173 0.45370361
0.23064862 0.14193991 0.45279375
0.2317791 0.14122321 0.45110521
0.23373359 0.14101768 0.45111358
0.23545928 0.14067945 0.45075998
0.23682567 0.14013512 0.44980371
0.23913227 0.1401522 0.45070606
0.2412741 0.1400733 0.45135635
0.24235815 0.13938753 0.45010051
0.24146989 0.13759063 0.44529057
-0.18502843 0.10059886 0.32662475
-0.17435431 0.10188206 0.32416126
-0.1654166 0.097571172 0.30977014
-0.16339768 0.097298108 0.30826578
-0.16490287 0.099138454 0.31348529
-0.16443445 0.099816486 0.31505424
-0.16558084 0.10149769 0.31981865
-0.16149712 0.099974461 0.31452894
-0.18114239 0.11440091 0.35895351
-0.18364534 0.11716498 0.36721909
-0.18180634 0.11718737 0.3669416
-0.17798938 0.11592197 0.36269644
-0.17396869 0.11449584 0.3580167
-0.17222278 0.11455245 0.35803926
-0.17066486 0.11473665 0.3585248
-0.16868466 0.11463789 0.35819146
-0.16605543 0.11409101 0.35652372
-0.1609498 0.11181163 0.34950534
-0.15748224 0.11063179 0.34598395
-0.15654285 0.11122136 0.34805799
-0.15447664 0.11101472 0.34770229
-0.15285373 0.11112553 0.34839997
-0.1501558 0.1104482 0.34668139
-0.14822586 0.1103264 0.34675702
-0.14554606 0.10963678 0.34509435
-0.14177261 0.10809651 0.34078908
-0.13912886 0.10739017 0.33914241
-0.13750896 0.10746635 0.34000009
-0.135763 0.1074447 0.34058058
-0.1336454 0.10712457 0.34024018
-0.12549633 0.10602912 0.33961141
-0.12363027 0.10588313 0.33987966
-0.12162364 0.10561105 0.33974242
-0.10943267 0.1036621 0.33769688
-0.10639262 0.10233255 0.33402279
-0.10345203 0.10105862 0.33049887
-0.097983278 0.10042276 0.33021483
-0.095604017 0.10130505 0.33423755
-0.094007812 0.10133077 0.33485651
-0.092052944 0.100964 0.3341589
-0.090576306 0.10111804 0.33516586
-0.084257126 0.10129728 0.33757508
-0.061755676 0.09651164 0.32534975
-0.060308311 0.096665584 0.32609376
-0.058500808 0.096235193 0.32485464
-0.057278458 0.096770123 0.32686356
-0.056417193 0.097961761 0.33108354
-0.055014018 0.098253623 0.33225513
-0.053381477 0.098140948 0.33204931
-0.051740326 0.098005153 0.33175525
-0.048485767 0.097763248 0.33123934
-0.044645585 0.096225746 0.32629526
-0.041690115 0.096508622 0.32748994
-0.030984906 0.092208214 0.31342143
-0.022635728 0.074447833 0.25315905
-0.020699022 0.071857572 0.24439667
-0.019044366 0.069999486 0.23811838
-0.017400647 0.067952037 0.23119056
-0.015952097 0.066444762 0.22609568
-0.014690847 0.065558173 0.22310898
-0.013504532 0.064895421 0.22088073
-0.012088697 0.062927581 0.21420693
-0.010989251 0.062398862 0.2124287
-0.009818471 0.061319027 0.2087716
-0.0087482715 0.060697418 0.20667204
-0.0077401465 0.060405098 0.20569147
-0.0067074019 0.059809849 0.2036773
-0.0057297177 0.059589256 0.20293699
-0.0047735344 0.059548862 0.20280854
-0.0038292354 0.059673533 0.20324059
0.054026872 0.060342025 0.20001704
0.055130601 0.06049427 0.20022453
0.057148781 0.061627373 0.20366123
0.058658291 0.062182836 0.20516935
0.059973534 0.06251727 0.20593244
0.061374124 0.06292823 0.20693263
0.062823094 0.06337475 0.20803402
0.064678252 0.064210325 0.21039434
0.066326901 0.064817995 0.21198882
0.068630517 0.066037178 0.21556193
0.070473887 0.066783257 0.21756873
0.073361926 0.068482243 0.22265512
0.07565707 0.069585927 0.22577934
0.079577886 0.072131164 0.23354903
0.081860088 0.073139623 0.2363126
0.088422328 0.077889875 0.2511214
0.17430668 0.14344083 0.45750022
0.17880931 0.14523485 0.46225205
0.18159352 0.145605 0.46248209
0.18422745 0.14584678 0.46233118
0.18678798 0.14602514 0.46201354
0.18907851 0.14599063 0.46106485
0.19135402 0.14594552 0.46013257
0.19365859 0.14592339 0.45932841
0.19622059 0.14609344 0.45918939
0.19905268 0.14645824 0.45972633
0.20178144 0.14673939 0.46006903
0.20322984 0.14609368 0.45758167
0.20487821 0.14560474 0.45566663
0.20713972 0.14555769 0.45521602
0.21084468 0.14651468 0.45798618
0.21336003 0.14663312 0.45821717
0.21556698 0.14653935 0.45786932
0.21774329 0.14642692 0.45754752
0.21964514 0.14613432 0.45674595
0.22141269 0.14575946 0.45576882
0.22286007 0.14518385 0.45424294
0.22510238 0.14513265 0.45443505
0.22739126 0.14511216 0.45479941
0.22920613 0.14479266 0.45429951
0.22991902 0.14379039 0.45172361
0.2313907 0.14327781 0.45074835
0.23291048 0.14280479 0.44995853
0.2342189 0.1422126 0.44885057
0.23569095 0.1417302 0.44814315
0.23791331 0.1417039 0.44893217
0.23998919 0.14159165 0.4495028
0.2402669 0.14043054 0.446787
0.24119896 0.13966982 0.44538096
-0.17394051 0.10326566 0.32382172
-0.16482195 0.098775141 0.30905116
-0.16312309 0.098687954 0.30812421
-0.16434668 0.10038415 0.31279141
-0.16779207 0.10348351 0.32184047
-0.18179333 0.1143385 0.35439473
-0.18522577 0.11766214 0.36415178
-0.18591711 0.11929411 0.36870426
-0.18324675 0.1187803 0.36667579
-0.17924313 0.11738281 0.36198339
-0.17529373 0.11599206 0.35737881
-0.17300569 0.11568294 0.3561711
-0.17154413 0.11592575 0.35672423
-0.16981019 0.11598773 0.35678291
-0.16818 0.11612272 0.3571296
-0.16178817 0.11293676 0.34732744
-0.1581637 0.11163326 0.34337702
-0.15639159 0.11162257 0.34346467
-0.15515655 0.11199932 0.34480667
-0.15369153 0.1122168 0.34572026
-0.15197881 0.11225638 0.34614569
-0.15033428 0.11234786 0.34678882
-0.14756317 0.11158959 0.3448613
-0.14360233 0.10990249 0.34010482
-0.14047851 0.10882267 0.33726287
-0.13836892 0.10851158 0.33683977
-0.13717803 0.10892217 0.33869633
-0.13523898 0.10874157 0.33875036
-0.12529311 0.10755029 0.33844274
-0.12111395 0.10685029 0.33768082
-0.11052234 0.10478126 0.33465144
-0.10857604 0.1044954 0.3344146
-0.10680688 0.10437386 0.33468869
-0.10354517 0.10276717 0.33017614
-0.095312864 0.10261167 0.33263668
-0.093148232 0.10200988 0.3312242
-0.090235062 0.10234804 0.33335009
-0.086862035 0.10217035 0.33372751
-0.085312523 0.10224065 0.33440956
-0.083349817 0.10180897 0.33343118
-0.059823755 0.097422354 0.32311484
-0.058176905 0.097232811 0.32270676
-0.057514112 0.09872216 0.32786259
-0.055788238 0.09841878 0.32705659
-0.054760784 0.099365376 0.33039516
-0.053160585 0.099297814 0.33035326
-0.05149512 0.099100552 0.32986981
-0.049910121 0.099050663 0.32986715
-0.048295308 0.098936483 0.32964119
-0.044551183 0.097557843 0.32532701
-0.028378563 0.090089925 0.30126032
-0.021308839 0.07515756 0.25143197
-0.019506019 0.072842896 0.24373405
-0.017988827 0.071372367 0.238855
-0.016091665 0.068097964 0.22793314
-0.014765794 0.06694638 0.22411148
-0.013353859 0.065197602 0.21828645
-0.012380349 0.06547638 0.21924657
-0.011030471 0.06363453 0.21310273
-0.010038617 0.063696489 0.21333145
-0.0087338062 0.061566118 0.20621474
-0.0077562388 0.061498679 0.20600505
-0.006715327 0.060838126 0.20380637
-0.0057462198 0.060716569 0.20341112
-0.00477044 0.060461938 0.2025681
0.053092774 0.061342698 0.20009421
0.05427026 0.061583191 0.20058554
0.056002505 0.06243372 0.20304793
0.057566971 0.063071094 0.20479892
0.058822609 0.063354231 0.20538424
0.060047422 0.063595288 0.20581959
0.061770834 0.064347841 0.20789422
0.063112102 0.064684443 0.20860848
0.065358534 0.065923341 0.21221311
0.067237012 0.066758193 0.21449484
0.069580421 0.068021856 0.21813199
0.071892813 0.069217362 0.22152618
0.074245624 0.070415519 0.2249054
0.076005742 0.071024552 0.22638401
0.082007304 0.075521968 0.24021642
0.085288905 0.077421784 0.24573898
0.16875228 0.14297232 0.44898444
0.17601396 0.14716212 0.46118146
0.17904887 0.14775509 0.462098
0.18197872 0.14824727 0.46272114
0.18426314 0.14820784 0.46171701
0.18654884 0.14817041 0.46076047
0.18906236 0.14831263 0.46040896
0.19114283 0.14811583 0.45905808
0.19366989 0.14826562 0.45884001
0.19609188 0.14833239 0.45842761
0.19809616 0.14808533 0.45711413
0.20072468 0.14830522 0.45731443
0.20281684 0.14812836 0.45636657
0.20441504 0.14759883 0.45441219
0.2063645 0.14733195 0.45334819
0.20868064 0.14732993 0.45318079
0.21207155 0.14807838 0.45540345
0.21471453 0.148294 0.45606962
0.21702509 0.14827786 0.45610529
0.21902539 0.14805236 0.45557818
0.2209646 0.14779072 0.45501912
0.22264509 0.14736332 0.45402646
0.22462951 0.14714381 0.45374882
0.22666191 0.14695987 0.45365348
0.22815064 0.14643075 0.45256132
0.22961277 0.14589527 0.4515141
0.23084868 0.1452281 0.45012
0.23162493 0.14428769 0.44793418
0.23288783 0.14366572 0.44678906
0.23486632 0.14349294 0.44709399
0.23565795 0.14260519 0.44521967
0.23748899 0.14235729 0.44538802
0.2390583 0.14195858 0.44512993
0.23786859 0.13994405 0.43983474
-0.17140691 0.10336326 0.31954482
-0.1674237 0.10191361 0.31434715
-0.16176221 0.09940505 0.30594388
-0.16472703 0.1022002 0.31389761
-0.17043759 0.10676966 0.32729304
-0.18564492 0.11743622 0.35933182
-0.18797927 0.1200901 0.36682624
-0.18727204 0.12083451 0.36852008
-0.18492356 0.12052428 0.36704716
-0.18239738 0.12009073 0.3652553
-0.17568024 0.11686044 0.35502556
-0.17366187 0.11672101 0.35425329
-0.17208256 0.11687683 0.35443446
-0.17057043 0.11708208 0.35482389
-0.16904403 0.11728185 0.35525656
-0.16541857 0.11601382 0.35130569
-0.15965034 0.1131986 0.3427341
-0.15693779 0.11251151 0.34066811
-0.1562579 0.11328261 0.34307849
-0.15479407 0.11349643 0.34386292
-0.15317746 0.11360186 0.34437972
-0.15185471 0.11393023 0.34563264
-0.14870942 0.11288283 0.34276754
-0.14527228 0.11158635 0.339194
-0.14118771 0.10975533 0.3340365
-0.13944429 0.10972179 0.33439061
-0.13817912 0.11006837 0.33594927
-0.13638511 0.10999711 0.3362748
-0.12658042 0.10889427 0.33605546
-0.12491636 0.10891467 0.33681205
-0.12089136 0.10833269 0.33642247
-0.11259855 0.10683563 0.33457929
-0.11036718 0.10628112 0.33352932
-0.10861161 0.10617495 0.33387306
-0.10558968 0.10480853 0.33023378
-0.10291676 0.10375124 0.32754144
-0.096033804 0.1032653 0.32841024
-0.094203405 0.1030136 0.32817009
-0.092528187 0.10292583 0.32843372
-0.091569945 0.10364652 0.33126363
-0.089965411 0.10364838 0.33178267
-0.088390611 0.10368516 0.33239651
-0.086780079 0.10368061 0.33286089
-0.085072711 0.10355803 0.33292878
-0.081360362 0.10292195 0.33175075
-0.059498053 0.098417059 0.32097822
-0.057674803 0.097910888 0.31955504
-0.056463484 0.09844429 0.32151365
-0.054790627 0.098180287 0.32085785
-0.053775601 0.099113613 0.32410601
-0.052731402 0.1000465 0.3273463
-0.05120571 0.10009468 0.3276839
-0.049507298 0.099797726 0.32688174
-0.047681179 0.099215887 0.32513592
-0.045851491 0.098587587 0.32322735
-0.028780146 0.09280289 0.30529556
-0.026242387 0.089070477 0.29308522
-0.022033226 0.078935735 0.25979316
-0.019763995 0.074968003 0.24678417
-0.018155975 0.073169403 0.24090827
-0.016524861 0.071031928 0.23391077
-0.014999305 0.069075502 0.22750415
-0.013611276 0.067500398 0.22234859
-0.012387577 0.066545829 0.21923313
-0.011227477 0.065790571 0.21677092
-0.009989935 0.064385325 0.21216372
-0.0089284647 0.063928947 0.21068019
-0.0078764213 0.063434593 0.20906888
-0.0067030778 0.061683014 0.20331112
-0.0057396069 0.061601285 0.20305473
-0.004775818 0.061482862 0.20267528
-0.0038068888 0.061222736 0.20182665
-0.0028452103 0.060945246 0.20091869
0.053190008 0.062422361 0.20012259
0.054887451 0.063263915 0.20251812
0.056249026 0.06369561 0.20358498
0.057763133 0.064282157 0.20513119
0.058973201 0.064516187 0.20553775
0.060196042 0.064756162 0.20595032
0.062410299 0.066037312 0.20965554
0.063302614 0.065900929 0.20884399
0.066134736 0.067756221 0.21432446
0.067571245 0.068146057 0.21514677
0.070134349 0.069642581 0.21944286
0.073509812 0.071888186 0.22606789
0.075309046 0.072548307 0.22768146
0.079245426 0.075217515 0.23557259
0.084158771 0.078723207 0.24603841
0.088449433 0.081554592 0.25435185
0.16259457 0.14181478 0.43857667
0.16995724 0.14625967 0.4513911
0.17677166 0.15012199 0.46237549
0.17955613 0.15050599 0.46264741
0.18194395 0.15055196 0.46191016
0.18391918 0.15025966 0.46017531
0.18581925 0.14991407 0.45832515
0.18843377 0.15014625 0.45829248
0.19192679 0.15106423 0.4604035
0.19374834 0.15066038 0.45854458
0.19613636 0.15070134 0.45810694
0.19784404 0.15022479 0.4561674
0.1998437 0.14997843 0.45500243
0.20213427 0.14995356 0.45458609
0.20397684 0.14960068 0.4532544
0.2058865 0.14930438 0.45217457
0.20846486 0.14949419 0.45264769
0.21100271 0.14965111 0.45310178
0.21321794 0.1495783 0.45294097
0.21563315 0.14964582 0.4532851
0.21761562 0.14941481 0.45280352
0.21979591 0.14932302 0.45282066
0.22177815 0.14910001 0.45251468
0.22420248 0.14917578 0.45318833
0.22597137 0.14881828 0.45261616
0.22774757 0.14847283 0.45214665
0.22921753 0.14793661 0.45115879
0.2310015 0.14761168 0.45087481
0.23146567 0.14645803 0.44811291
0.23302172 0.14601095 0.44756231
0.23412037 0.14528862 0.44621679
0.23624429 0.14521025 0.44689688
0.23745275 0.14457595 0.44591177
0.23749605 0.14325073 0.44283
0.23873425 0.14266412 0.4420625
-0.17889518 0.10853636 0.33168763
-0.17514537 0.10725433 0.32698023
-0.1654072 0.1022464 0.31099004
-0.16450521 0.10265719 0.31154579
-0.18669967 0.11876934 0.35895693
-0.18952082 0.12174585 0.36725587
-0.18890119 0.12254912 0.36902335
-0.18643723 0.12215999 0.36724582
-0.18436313 0.12202103 0.36627269
-0.17694639 0.11830712 0.3546361
-0.17352588 0.1172161 0.3509331
-0.1722476 0.11756445 0.35159558
-0.17041583 0.11753841 0.35119233
-0.1691165 0.11788294 0.35195237
-0.16729832 0.11786935 0.35170048
-0.1612381 0.11483426 0.34249657
-0.15849198 0.11411871 0.34027424
-0.15616049 0.11368912 0.33896455
-0.15563524 0.11457966 0.34165058
-0.15444556 0.1149957 0.34298226
-0.15287082 0.11513133 0.34353799
-0.15015148 0.11439805 0.34155887
-0.14680505 0.11316412 0.33813813
-0.14256778 0.11120596 0.33260003
-0.14012727 0.11061898 0.33120736
-0.13874032 0.11085956 0.33234045
-0.13735895 0.11111058 0.33355287
-0.13560578 0.11106338 0.33391362
-0.12620647 0.11025503 0.33447874
-0.12361316 0.10944857 0.33269793
-0.11466683 0.10888309 0.33442912
-0.11040732 0.10796735 0.33298907
-0.10670858 0.1059311 0.32737285
-0.10479062 0.10562722 0.32708693
-0.1023258 0.10475401 0.32502022
-0.10054786 0.10456741 0.32506567
-0.088225149 0.1050948 0.33119336
-0.086665176 0.10514787 0.33184862
-0.081089944 0.10416947 0.33011174
-0.064480722 0.10057759 0.32182837
-0.05581576 0.098823003 0.31744903
-0.054225352 0.098673075 0.31718025
-0.05305665 0.099303879 0.31941172
-0.051601801 0.099420466 0.31998056
-0.050948706 0.10113562 0.32568797
-0.049209479 0.10073458 0.32457337
-0.047253955 0.099850602 0.32189137
-0.045701705 0.099788256 0.32184774
-0.027134659 0.093526177 0.30281007
-0.020195045 0.077790104 0.25197369
-0.018418679 0.075378373 0.24421032
-0.016917376 0.073846027 0.23928991
-0.014958543 0.069955289 0.22672082
-0.013718558 0.069086671 0.22394051
-0.012391618 0.067599081 0.21914963
-0.0110182 0.065564744 0.21258201
-0.0099658351 0.065225333 0.21150607
-0.0089090401 0.064778373 0.21007863
-0.0078277579 0.064019598 0.207637
-0.0066496679 0.062139761 0.2015563
-0.0056883087 0.061996769 0.20110644
-0.0047458508 0.062043838 0.20127086
-0.00380746 0.062180784 0.20172469
-0.002835602 0.061680671 0.20010957
0.05345992 0.063711345 0.20078611
0.055062987 0.06444972 0.20280401
0.056435987 0.064897642 0.20389183
0.057953864 0.065493822 0.20543
0.059323128 0.065904707 0.20637153
0.060292561 0.065865092 0.20589045
0.062772825 0.067450181 0.21046975
0.06475763 0.068460353 0.21323094
0.066461772 0.069146432 0.21496384
0.06838081 0.070031166 0.21729635
0.071648143 0.072248258 0.2237363
0.074452184 0.073938042 0.22851215
0.076184526 0.074528985 0.22987156
0.083205931 0.080200553 0.24685663
0.087695211 0.083302416 0.25587285
0.17023477 0.14876866 0.45133957
0.17677549 0.15245159 0.46161029
0.17930946 0.15262832 0.46127266
0.1811662 0.1522314 0.45923913
0.18274219 0.15161163 0.45658109
0.18544886 0.15193371 0.45680884
0.1883695 0.15242092 0.45758289
0.19152273 0.15308219 0.45893291
0.19380331 0.15303844 0.45823017
0.19534655 0.1524204 0.45587784
0.19719468 0.15205199 0.45434636
0.19892585 0.15160304 0.45265007
0.20106573 0.1514723 0.45198119
0.20344478 0.15152265 0.4519304
0.20552781 0.15135387 0.45130494
0.20777149 0.15130585 0.45111898
0.21007349 0.15130088 0.45114052
0.21247019 0.15136349 0.45144224
0.21456182 0.15120974 0.45117626
0.21671499 0.1511022 0.45112422
0.21856976 0.15079105 0.4505381
0.2209864 0.15086995 0.4511897
0.22308035 0.15072924 0.45125487
0.2252527 0.1506438 0.45155326
0.22699884 0.15027793 0.4510754
0.22941148 0.15035619 0.45199314
0.22972657 0.1490718 0.44886974
0.23140666 0.14868966 0.44851315
0.23282579 0.14814889 0.44772872
0.23442851 0.14773424 0.44737324
0.2346759 0.1464815 0.44452018
0.23495658 0.14527296 0.44183314
0.23759563 0.14553158 0.44364741
0.2372812 0.14399311 0.44001636
-0.17793244 0.10959963 0.33040154
-0.1730445 0.10758486 0.32353455
-0.16855887 0.10578459 0.31736937
-0.16684742 0.10570765 0.31641874
-0.18937227 0.12113195 0.36180168
-0.19022471 0.12285841 0.36619991
-0.18947709 0.12357516 0.36761567
-0.18762295 0.12357731 0.36694536
-0.18576318 0.12357572 0.36630982
-0.17776425 0.11944894 0.3535133
-0.1743222 0.11833115 0.34969425
-0.17316285 0.11875582 0.35048601
-0.17174977 0.11901349 0.35083359
-0.17019933 0.11918043 0.35096526
-0.16789071 0.11881434 0.34958255
-0.16445954 0.11763745 0.34587353
-0.15932511 0.11520337 0.33853155
-0.15768073 0.1152671 0.33859003
-0.15644251 0.11563247 0.33959189
-0.15519266 0.11599733 0.34065044
-0.15383165 0.11628645 0.34154546
-0.15233095 0.11647542 0.34220549
-0.14874594 0.11505654 0.33819821
-0.14418481 0.11284035 0.331898
-0.14179797 0.1122933 0.33055606
-0.13999951 0.11220463 0.33061418
-0.13843659 0.11230487 0.3312791
-0.13676371 0.11231728 0.3317326
-0.13535641 0.11255083 0.33288473
-0.13203579 0.11260435 0.33408764
-0.12974742 0.11208956 0.33313233
-0.12762685 0.11170812 0.332598
-0.12516025 0.11100957 0.33113879
-0.12376586 0.11125601 0.33251697
-0.10906194 0.10827918 0.32827064
-0.10678969 0.10762934 0.32696208
-0.1045657 0.10700891 0.325728
-0.10192241 0.10593328 0.32308918
-0.094460927 0.104722 0.32179281
-0.091440052 0.10486782 0.32335904
-0.089591682 0.10641678 0.32920754
-0.085139804 0.10487349 0.32542619
-0.082046658 0.10494953 0.32659116
-0.080264658 0.10468272 0.32620013
-0.057110667 0.099958032 0.31564102
-0.055698849 0.10012086 0.31638739
-0.054163609 0.10006475 0.31643119
-0.05234322 0.099463567 0.31473935
-0.050895508 0.099556036 0.31523132
-0.050058242 0.10088435 0.31962931
-0.048665121 0.10114043 0.32062346
-0.047111053 0.10106774 0.32056642
-0.045621488 0.1011332 0.32093865
-0.025212219 0.093124114 0.29679471
-0.020828588 0.081454776 0.2596629
-0.019047584 0.079141706 0.25234285
-0.017149255 0.076000519 0.24237484
-0.015555784 0.073858485 0.2355863
-0.013867922 0.070904598 0.22620197
-0.012445642 0.068929836 0.21993545
-0.011205174 0.067694835 0.21602479
-0.0099480897 0.066102743 0.21097052
-0.0088690948 0.065472007 0.2089808
-0.0078092883 0.06484317 0.20699413
-0.006684592 0.063419342 0.20246653
-0.005697696 0.063046709 0.20129192
-0.0047699842 0.063310936 0.20214821
-0.0038132034 0.063224889 0.20188378
-0.0028416652 0.062755801 0.20039387
0.050246481 0.064303771 0.20011306
0.051343139 0.064467177 0.20034145
0.052452229 0.064639851 0.20058727
0.053554259 0.064797722 0.20077561
0.055278067 0.065688811 0.20322089
0.056769088 0.066276848 0.20471145
0.058529161 0.067153305 0.20707549
0.059963956 0.067633189 0.20819974
0.061939634 0.068696946 0.21110348
0.06384404 0.069648057 0.21364065
0.065195017 0.069974497 0.21424547
0.06895072 0.072830603 0.2225688
0.070508152 0.073311761 0.22360682
0.073426925 0.075171806 0.22882944
0.07582967 0.076455183 0.23227139
0.087869674 0.085988276 0.26017216
0.092345454 0.089058317 0.26890728
0.11963101 0.11212209 0.33715528
0.12389547 0.11450584 0.34362015
0.12806208 0.11673507 0.34960297
0.17278577 0.15128474 0.45045382
0.17849064 0.15424977 0.45845371
0.18009199 0.15363801 0.45585042
0.18212561 0.15340585 0.45442322
0.18549328 0.15428914 0.45634839
0.18769857 0.15419568 0.45543712
0.18944684 0.15373367 0.45350015
0.19134426 0.15340233 0.45201638
0.19379319 0.1535158 0.45191225
0.19623739 0.1536229 0.45186022
0.19831133 0.15344098 0.45103225
0.20055692 0.15339458 0.45067868
0.20305198 0.15353784 0.45095927
0.20512977 0.15336592 0.45039174
0.20695712 0.15301266 0.44936949
0.21009876 0.15362819 0.45127007
0.21204092 0.15336281 0.45065987
0.21401569 0.15312642 0.45020998
0.21593934 0.15285894 0.44974154
0.2179963 0.15269043 0.44963551
0.21989049 0.15241261 0.44927651
0.22146645 0.15192223 0.44835642
0.22324625 0.15158024 0.44793683
0.22605936 0.15193971 0.44965348
0.22761184 0.15145314 0.44892669
0.2291234 0.15094924 0.44820222
0.23077105 0.15054403 0.44782203
0.23238668 0.15012595 0.44745266
0.23345274 0.14936434 0.44610333
0.23288015 0.14757878 0.44172841
0.23454484 0.14723134 0.44168982
0.23707443 0.14742826 0.44332662
0.23810413 0.14669743 0.44220966
-0.17420807 0.10891841 0.32398865
-0.17412749 0.10988534 0.3260546
-0.17548028 0.11178362 0.33089074
-0.19065194 0.12260472 0.36208212
-0.18952817 0.12305385 0.36260131
-0.18862493 0.12365626 0.36360341
-0.18869717 0.12491625 0.36656773
-0.18680391 0.12488715 0.36578414
-0.18247986 0.12321614 0.36024421
-0.17448327 0.11900649 0.34735671
-0.17414376 0.11998677 0.34967893
-0.17302257 0.12044312 0.3505154
-0.17158964 0.1206897 0.35078794
-0.16962744 0.12056527 0.3500329
-0.16711572 0.12004348 0.34817865
-0.16035032 0.11642208 0.33739829
-0.15867758 0.11645968 0.33728418
-0.15725364 0.11668272 0.33776161
-0.15588926 0.11695538 0.33843812
-0.1546987 0.11736605 0.33957043
-0.15312263 0.11749026 0.33993122
-0.15053131 0.11682935 0.33807787
-0.14662157 0.11511797 0.33323976
-0.14321397 0.1137652 0.32949176
-0.14158842 0.11381267 0.32985139
-0.13958304 0.1135523 0.32937089
-0.13756679 0.11327663 0.32889536
-0.13585402 0.11324715 0.32918182
-0.1349653 0.1139124 0.33153567
-0.13382469 0.11437924 0.33335918
-0.13168806 0.11399581 0.33274445
-0.12878668 0.11293186 0.33017233
-0.12747481 0.11325207 0.33167547
-0.12519406 0.11270853 0.33067551
-0.12322285 0.11243276 0.33048078
-0.12085331 0.11178099 0.32919562
-0.11881561 0.11142235 0.32878381
-0.11092699 0.11014255 0.32764289
-0.10895765 0.10980155 0.32729149
-0.10655733 0.10900934 0.3255854
-0.10405866 0.10809061 0.323486
-0.10128485 0.10685289 0.32041213
-0.099080808 0.10618652 0.31903169
-0.097592108 0.10627765 0.31991354
-0.096081682 0.10634775 0.32072163
-0.094452806 0.10628689 0.32112235
-0.092845604 0.10624875 0.32157791
-0.08490181 0.10615222 0.32391664
-0.083563387 0.10644961 0.32530519
-0.081933364 0.10637987 0.32555705
-0.078481339 0.10597273 0.3251904
-0.076865852 0.105909 0.32541093
-0.064129479 0.10308257 0.31915715
-0.05365992 0.10062423 0.31308275
-0.052222826 0.10072634 0.31361762
-0.050823487 0.1009094 0.31439477
-0.049665097 0.10159645 0.31673393
-0.048428845 0.10216218 0.31868747
-0.047070257 0.10249798 0.31991592
-0.045497902 0.10237518 0.31970426
-0.025670415 0.096241638 0.3019135
-0.023295367 0.092470936 0.29015523
-0.019567972 0.082525916 0.2590082
-0.017184909 0.077303231 0.24266748
-0.015677687 0.075556099 0.23722877
-0.014142619 0.073395915 0.23048715
-0.012426729 0.069859557 0.21941747
-0.011186748 0.068599328 0.2154911
-0.010060984 0.06785772 0.21318997
-0.0088481707 0.066299289 0.20831873
-0.0078145321 0.065861978 0.20696659
-0.0067899553 0.065387212 0.20549375
-0.0057572094 0.064662755 0.20323323
-0.0047866013 0.064486392 0.20269257
-0.0038173653 0.064245224 0.2019456
-0.0028546164 0.063989364 0.2011499
0.050323516 0.065370344 0.20006165
0.051538993 0.065685749 0.20074011
0.052661605 0.065873317 0.2010158
0.054415278 0.066829093 0.20362072
