# .PCD v0.7 - Point Cloud Data file format
VERSION 0.7
FIELDS x y z
SIZE 4 4 4
TYPE F F F
COUNT 1 1 1
WIDTH 1342
HEIGHT 1
VIEWPOINT 0 0 0 1 0 0 0
POINTS 1342
DATA ascii
0.022221074 -0.069709495 0.43027362
0.023666468 -0.068050317 0.42008343
0.025613002 -0.067976661 0.41968301
0.027633142 -0.068094924 0.4204706
0.029270466 -0.067316994 0.41572666
0.031022122 -0.066882879 0.41310737
0.03262851 -0.066205122 0.4089843
0.033961575 -0.065078959 0.40209129
0.036018852 -0.065386102 0.40405467
0.038057659 -0.065630667 0.40563291
0.039871722 -0.065482825 0.40478677
0.041295487 -0.064736575 0.40024102
0.043001316 -0.064478196 0.39871037
0.044907413 -0.064529128 0.39909184
0.046691656 -0.064407893 0.39840758
0.048499741 -0.064327613 0.397975
0.050344691 -0.064300358 0.39786881
0.052135501 -0.064208396 0.39735979
0.053749278 -0.063912258 0.39558434
0.05568574 -0.064006776 0.39622346
0.057349019 -0.063791327 0.39494008
0.059219413 -0.063812517 0.39511758
0.0611949 -0.063942239 0.39596257
0.063042209 -0.063934334 0.39595041
0.064881839 -0.063919328 0.39588848
0.066758178 -0.063940302 0.39604324
0.068237454 -0.063590124 0.39389238
0.070680924 -0.064133257 0.39726761
0.072494 -0.064091198 0.39701021
0.074275553 -0.064024076 0.39658913
0.076153114 -0.064040966 0.39667955
0.078265131 -0.064249523 0.39794746
0.080260009 -0.06435445 0.39856315
0.08221446 -0.06442292 0.39894223
0.084575668 -0.064800017 0.40122062
0.086586334 -0.064897962 0.40175807
0.088884942 -0.065202966 0.40356395
0.091157056 -0.065476224 0.40515921
0.093765981 -0.065975308 0.40813634
0.096098527 -0.066263855 0.40979466
0.098542735 -0.066616572 0.41183278
0.10107904 -0.067016773 0.41414627
0.10245805 -0.066649064 0.41169685
0.1045894 -0.066775292 0.41228127
0.019928671 -0.066782355 0.42431423
0.021767907 -0.066306688 0.42134207
0.023616154 -0.065935552 0.41903734
0.025456406 -0.065600961 0.41696784
0.0273667 -0.065481819 0.41627067
0.029253023 -0.065325022 0.41533697
0.030620756 -0.064102225 0.40762687
0.031976826 -0.063000433 0.40068617
0.03382954 -0.062945202 0.40040261
0.035727583 -0.062975697 0.40066588
0.037790202 -0.063278735 0.40266472
0.039612811 -0.063170142 0.4020454
0.041089822 -0.062545367 0.39814061
0.042817216 -0.062339503 0.39690158
0.044547677 -0.062155072 0.39579833
0.046455212 -0.062222585 0.39629862
0.048307862 -0.062214214 0.39631456
0.050194524 -0.062248651 0.39660159
0.05190834 -0.06207392 0.39555383
0.053554494 -0.061833128 0.39408225
0.055306651 -0.061726712 0.3934637
0.057335477 -0.06192597 0.39479041
0.059093475 -0.06182941 0.39422727
0.061019041 -0.061908714 0.39478099
0.062860914 -0.061900932 0.39477459
0.064640306 -0.06183384 0.39438426
0.066329859 -0.061686914 0.39347872
0.068132915 -0.061650645 0.39327231
0.070012979 -0.061684124 0.39350384
0.07227359 -0.062042564 0.3958008
0.073839411 -0.061801571 0.39426547
0.075749703 -0.061853606 0.39459071
0.077728428 -0.061957698 0.39523861
0.079703905 -0.062054429 0.3958295
0.081521653 -0.062026747 0.39561617
0.08373028 -0.062291104 0.39725402
0.0859311 -0.062538266 0.39876992
0.08815591 -0.062792003 0.40031466
0.090564601 -0.063163415 0.40259546
0.093039513 -0.063564897 0.40505275
0.095293961 -0.063802712 0.40645137
0.097676225 -0.0641151 0.40830839
0.10051063 -0.064706549 0.41192427
0.10396552 -0.065667585 0.41787198
0.10348816 -0.064155303 0.40806463
0.10897208 -0.066326387 0.4216648
0.11208659 -0.067003511 0.42573822
0.017944409 -0.064827159 0.42436475
0.019758919 -0.064235106 0.42053741
0.02171809 -0.064178303 0.42021802
0.023504652 -0.063663453 0.41690308
0.025321642 -0.063303962 0.4146086
0.027225582 -0.063197702 0.41397566
0.028773699 -0.062334783 0.40838841
0.030411121 -0.061761171 0.4046979
0.031991865 -0.061146781 0.40074137
0.033715397 -0.060858432 0.39892283
0.03566571 -0.060988255 0.39984712
0.037505262 -0.060925156 0.39950806
0.039390478 -0.06093872 0.39967278
0.041094285 -0.060683157 0.39807278
0.0423485 -0.059814829 0.39245209
0.044423543 -0.060129918 0.39459512
0.046269894 -0.060122631 0.3946225
0.048171367 -0.060184781 0.39510468
0.049923096 -0.060062163 0.39437246
0.051672991 -0.059946187 0.39368173
0.05333415 -0.059738815 0.39238805
0.05518546 -0.059751153 0.39253452
0.057106152 -0.059835397 0.39315018
0.059095111 -0.059983663 0.39418307
0.060833871 -0.059876684 0.39353427
0.062804066 -0.059997089 0.39437512
0.064466938 -0.059825417 0.39329079
0.066198573 -0.059725318 0.39267084
0.06795194 -0.059649721 0.39220557
0.069777109 -0.059639461 0.39216289
0.071434692 -0.059490174 0.39119843
0.073107399 -0.059360631 0.39035571
0.075094447 -0.059486404 0.39118341
0.077020869 -0.059559319 0.39165431
0.079331212 -0.05991881 0.3939997
0.081252903 -0.05997508 0.39434069
0.083041944 -0.059933126 0.3940247
0.084977515 -0.059996437 0.39438912
0.087542661 -0.060492087 0.39758262
0.089750707 -0.060725473 0.39903843
0.092624292 -0.061390437 0.40331525
0.094846606 -0.061605778 0.40462211
0.097221673 -0.061909951 0.4064962
0.10045201 -0.062736563 0.41178203
0.10361257 -0.063489236 0.41656166
0.10462202 -0.06292031 0.41265205
0.10552035 -0.062306482 0.40843281
0.11381257 -0.066002458 0.43243551
0.016264686 -0.064079046 0.43257794
0.017554305 -0.061464615 0.41497388
0.019804157 -0.062399238 0.42133453
0.021668354 -0.062059212 0.41909349
0.023372846 -0.06135666 0.41440752
0.025182933 -0.061018158 0.4121834
0.026615398 -0.059878487 0.40454951
0.028553471 -0.059952512 0.40511763
0.030276651 -0.059594296 0.40276781
0.031881791 -0.059059601 0.39922684
0.03365124 -0.058871798 0.39803225
0.035209447 -0.058353677 0.39460552
0.037120041 -0.058442216 0.39528218
0.039014064 -0.058497459 0.39573517
0.040553167 -0.058039721 0.39271829
0.042374566 -0.058008246 0.39258537
0.044149853 -0.057918914 0.39206079
0.046262257 -0.058261286 0.3944585
0.047700055 -0.057760421 0.391146
0.049540784 -0.057766501 0.39126465
0.051542107 -0.057952721 0.392602
0.053183146 -0.057734977 0.39120045
0.054934476 -0.057647478 0.39067841
0.056670632 -0.057550233 0.39008698
0.058737569 -0.057784475 0.39173895
0.060325161 -0.057547241 0.39019057
0.062258784 -0.057644356 0.39090431
0.064284265 -0.057818543 0.39213586
0.065970935 -0.057686772 0.39128676
0.067546129 -0.057467289 0.38983598
0.069176279 -0.057304893 0.3887656
0.071008042 -0.057313547 0.38884822
0.072668366 -0.057186864 0.38800475
0.074645877 -0.057309881 0.38884699
0.076843113 -0.05759171 0.39075783
0.077950232 -0.057062425 0.38715562
0.079699747 -0.057016775 0.3868247
0.082400061 -0.057638228 0.39100865
0.084755674 -0.057996787 0.393397
0.086493634 -0.05792642 0.39286351
0.088242427 -0.057866093 0.39238542
0.092451245 -0.059388492 0.40262425
0.094702408 -0.059617586 0.40407804
0.096761815 -0.059719358 0.40465295
0.099006854 -0.059929561 0.40594622
0.10201496 -0.060585015 0.41023666
0.10478149 -0.06107536 0.41338864
0.10623355 -0.060795646 0.41130951
0.017856235 -0.060534973 0.42194089
0.019416025 -0.05923225 0.41291252
0.021338748 -0.059173081 0.41255647
0.023247315 -0.059087802 0.41202274
0.024674669 -0.057886735 0.40371132
0.026448691 -0.057612538 0.4018662
0.028202854 -0.057334565 0.39999765
0.029909456 -0.057000715 0.39774168
0.031731088 -0.056912504 0.39720213
0.033266384 -0.056349073 0.39334756
0.034854036 -0.055928998 0.39049453
0.036704101 -0.055950984 0.39072919
0.038618267 -0.056063928 0.39160064
0.040390003 -0.055969235 0.39102286
0.042166431 -0.055888996 0.39054647
0.043989412 -0.055874582 0.39053014
0.045763526 -0.055801734 0.3901051
0.047499537 -0.055689815 0.38940606
0.04939121 -0.05576193 0.38999262
0.051280923 -0.055826772 0.39052704
0.052939452 -0.055644132 0.38932806
0.054743696 -0.055621721 0.38924736
0.056589503 -0.055641633 0.38945994
0.058381561 -0.055609096 0.38930187
0.06026005 -0.055658367 0.38971254
0.062111273 -0.055680301 0.38992739
0.064110763 -0.055830084 0.39103273
0.065682694 -0.055609569 0.38953882
0.06725283 -0.055399496 0.38811162
0.068975858 -0.055323105 0.3876141
0.070629165 -0.055196151 0.38675502
0.072422311 -0.055182099 0.38667926
0.074149869 -0.055119973 0.38625824
0.076034121 -0.055174507 0.38664594
0.077785917 -0.055132631 0.38634849
0.079656184 -0.055174723 0.38662937
0.081865989 -0.055444896 0.38849777
0.084201559 -0.055786639 0.39085597
0.086098872 -0.055829655 0.39110899
0.088009916 -0.055879597 0.39139771
0.090294637 -0.056159914 0.39328632
0.093068011 -0.056726865 0.39716694
0.096678868 -0.057772025 0.40437803
0.098409072 -0.05767478 0.40357521
0.1007135 -0.057911385 0.40509176
0.10392889 -0.058653329 0.41012335
0.10684561 -0.05920282 0.41378739
0.11107279 -0.060445819 0.42227367
0.015006271 -0.063287102 0.4558053
0.016809255 -0.062015567 0.44669464
0.017546544 -0.057532731 0.41445404
0.019364653 -0.057136618 0.41165441
0.021197481 -0.056852084 0.40966287
0.02280545 -0.056062263 0.40403375
0.024557376 -0.055720698 0.40163824
0.026358282 -0.055531166 0.4003419
0.027964985 -0.054985091 0.39647797
0.029708335 -0.054759189 0.39492503
0.031399425 -0.054469232 0.39291242
0.033164974 -0.054333512 0.39201441
0.034722261 -0.053888842 0.38888896
0.036511377 -0.05383049 0.38855243
0.038301509 -0.053779103 0.3882677
0.040068056 -0.053700782 0.38778946
0.042022478 -0.053870127 0.38910067
0.04390968 -0.053942777 0.38971424
0.045654368 -0.053841535 0.38907138
0.047462698 -0.053820256 0.38900572
0.049261093 -0.053789694 0.388872
0.051023357 -0.053723279 0.38847747
0.052829925 -0.053706493 0.38843986
0.054586843 -0.053642031 0.38805497
0.056412078 -0.053646695 0.38816714
0.058247156 -0.053660139 0.38833955
0.060108099 -0.053695872 0.38866961
0.061945606 -0.053709179 0.3888329
0.063822255 -0.053754706 0.38922468
0.065547355 -0.053673595 0.38869405
0.06722565 -0.053559575 0.38791886
0.068827219 -0.053392041 0.38674939
0.070495367 -0.053283427 0.38599938
0.072101995 -0.053134918 0.38495263
0.073964097 -0.053177319 0.38528073
0.075540774 -0.053017389 0.38413417
0.077389844 -0.053051624 0.38438499
0.079651996 -0.053361025 0.38661975
0.081626229 -0.053468097 0.3873778
0.083506033 -0.05350998 0.38765243
0.085786059 -0.053801101 0.38972041
0.08748848 -0.053725373 0.38911849
0.090318948 -0.054331325 0.39343992
0.092410155 -0.054477222 0.39441505
0.095074065 -0.05494839 0.39772937
0.098446831 -0.055803239 0.40380287
0.099946387 -0.055584062 0.40208682
0.10258349 -0.055993915 0.40490356
0.10577673 -0.056686904 0.40974674
0.10979725 -0.057790563 0.41753384
0.11595989 -0.059963185 0.43301275
0.0019937083 -0.057484247 0.42822239
0.0079648774 -0.0568664 0.42366764
0.00992906 -0.056676038 0.42227778
0.011811819 -0.056162115 0.41848293
0.013389382 -0.054551844 0.40652317
0.015078187 -0.053741265 0.40052667
0.016929425 -0.053625584 0.3997137
0.01896506 -0.054058682 0.40299675
0.020984259 -0.054370362 0.40538037
0.022702975 -0.053916439 0.40206024
0.024452625 -0.053600222 0.39977065
0.02629322 -0.053514313 0.39920244
0.028107943 -0.05339073 0.39835683
0.029765474 -0.0530027 0.39554086
0.031294934 -0.052445728 0.39146605
0.033132743 -0.052438706 0.39149809
0.035054579 -0.052558396 0.392479
0.036680643 -0.052244846 0.39022636
0.038150813 -0.05174971 0.38661793
0.039905041 -0.051667403 0.38609397
0.041641515 -0.051570266 0.38545984
0.043789919 -0.051970106 0.38854149
0.04558846 -0.051939338 0.38840458
0.047316752 -0.051833998 0.38770935
0.049161509 -0.051859304 0.38799053
0.050914697 -0.051789671 0.38756001
0.052546736 -0.051605865 0.38627294
0.054246366 -0.051498473 0.38555521
0.05618212 -0.051614944 0.38651076
0.058131121 -0.051735919 0.38749713
0.059836406 -0.051639248 0.38684973
0.061411493 -0.051439185 0.38542318
0.063710757 -0.051839825 0.38849303
0.065419048 -0.051750693 0.3878876
0.06700331 -0.051570911 0.38659653
0.068767272 -0.051535271 0.38637939
0.070181213 -0.051245876 0.38425252
0.072119184 -0.051344037 0.38502392
0.073725887 -0.051207311 0.3840259
0.075512171 -0.051198859 0.38398117
0.077544741 -0.051353905 0.38515347
0.079559848 -0.051490597 0.38617837
0.080704227 -0.051070217 0.38301483
0.083187968 -0.05149724 0.38619545
0.085013635 -0.05150738 0.38623795
0.087079585 -0.051659647 0.38733369
0.089244127 -0.051862981 0.38879898
0.091705143 -0.052227039 0.39145476
0.093773842 -0.052357763 0.39234647
0.09717083 -0.053210832 0.39863405
0.099017806 -0.053198937 0.39842394
0.10149458 -0.053519573 0.40068674
0.10457916 -0.054143231 0.40519789
0.10838094 -0.055109289 0.41224802
0.11313231 -0.056515813 0.42256537
-0.0058514653 -0.053351827 0.41175556
-0.0019912559 -0.054013625 0.41683689
0.001920952 -0.053440917 0.41241702
0.0080654295 -0.055561561 0.42883256
0.0099991243 -0.055071075 0.42507657
0.011609487 -0.053261079 0.41114059
0.013242299 -0.052057412 0.401889
0.015021036 -0.051656965 0.39884287
0.016796544 -0.051335763 0.39641351
0.018754443 -0.051580518 0.39835963
0.02074047 -0.051851038 0.40051049
0.022584705 -0.051751513 0.39980814
0.024292966 -0.051379737 0.39700654
0.026324933 -0.051696807 0.3995319
0.028330255 -0.051922735 0.4013578
0.030166768 -0.051830359 0.40072721
0.03188917 -0.051564347 0.39875707
0.033551916 -0.051236812 0.39631319
0.035339713 -0.051124681 0.39553741
0.037244182 -0.051184118 0.39609128
0.038878366 -0.050884128 0.39386529
0.040215604 -0.050240465 0.38897875
0.041465014 -0.049547862 0.38371193
0.043170348 -0.049435083 0.38293454
0.045119315 -0.049599156 0.38430205
0.047150537 -0.049837552 0.38624597
0.049004871 -0.049878225 0.38665751
0.05074966 -0.049808484 0.38621196
0.052334446 -0.049591947 0.38462594
0.054018974 -0.049481202 0.38385782
0.055735461 -0.049405944 0.38336205
0.057945251 -0.049759001 0.3861872
0.059692316 -0.049705338 0.38585266
0.06118831 -0.049451921 0.38396293
0.063078389 -0.049522381 0.38458288
0.065106221 -0.049694076 0.38598427
0.066712014 -0.049543064 0.38487342
0.068535902 -0.049557701 0.38504288
0.070551775 -0.049706858 0.38625091
0.072243713 -0.049626023 0.38566452
0.074130893 -0.049679983 0.38611758
0.07599175 -0.049714148 0.38640824
0.07799878 -0.049840134 0.38740349
0.079935737 -0.049916629 0.38800424
0.081688017 -0.049876962 0.38769177
0.083618149 -0.049945254 0.38820735
0.085446477 -0.049951125 0.38822609
0.08704035 -0.04982255 0.38718763
0.089130282 -0.049977366 0.38833866
0.091388427 -0.050218433 0.39014578
0.093750402 -0.050505973 0.39229882
0.095685095 -0.050556693 0.39259684
0.097979382 -0.050791919 0.39431113
0.10051483 -0.051141113 0.39689237
0.10317679 -0.051540822 0.39984623
0.10631381 -0.052159302 0.40447605
0.10900555 -0.052541468 0.40725079
0.12164314 -0.057621744 0.44639924
-0.0056480817 -0.049622636 0.39727339
-0.0040419693 -0.053156074 0.42554432
-0.0019601511 -0.051234215 0.41014874
0.0020020828 -0.053670269 0.42965001
0.010227928 -0.054280456 0.43461859
0.012026113 -0.053163853 0.42571539
0.01377568 -0.052182693 0.41790155
0.015229638 -0.050467618 0.40421408
0.016885035 -0.049727462 0.39833841
0.018838165 -0.049924579 0.39997578
0.020667754 -0.049788203 0.39894676
0.022446839 -0.049563061 0.39721107
0.02425506 -0.049431972 0.39623344
0.026189551 -0.049558569 0.39732587
0.028328525 -0.050029401 0.40118343
0.030382887 -0.05030125 0.40345052
0.031678502 -0.049358875 0.39598116
0.033562452 -0.049387008 0.39629933
0.035506215 -0.049495555 0.39726597
0.037362225 -0.049477041 0.3972154
0.03928718 -0.04954724 0.3978793
0.041110799 -0.049489066 0.39751405
0.042844173 -0.049332041 0.39635566
0.044314526 -0.048897885 0.39297026
0.045120001 -0.0477942 0.38420135
0.046847761 -0.0477148 0.38366371
0.048693493 -0.047756989 0.38410327
0.050362173 -0.047628727 0.38317057
0.052110355 -0.047581907 0.38289142
0.053904373 -0.047578659 0.38296086
0.055498522 -0.047404904 0.38165501
0.056993529 -0.047159974 0.37977245
0.058568273 -0.046993881 0.37852055
0.060952783 -0.047468174 0.38242337
0.062427979 -0.047227461 0.38056162
0.065199301 -0.047953401 0.38648507
0.067797415 -0.048516139 0.39108938
0.069378443 -0.048340578 0.38973656
0.070815511 -0.048076291 0.3876611
0.072438687 -0.047948416 0.3866778
0.074343689 -0.04800877 0.38720438
0.076476783 -0.048210032 0.38885918
0.078345567 -0.048239198 0.38911679
0.080333203 -0.048338544 0.38993087
0.082241192 -0.048386626 0.39032102
0.084124334 -0.04841831 0.39056787
0.085450515 -0.048134897 0.38826141
0.086741418 -0.047843847 0.38588148
0.088320345 -0.047720302 0.38484007
0.091572389 -0.048487611 0.39096871
0.093015105 -0.04828557 0.38926643
0.095274307 -0.048507001 0.39096305
0.097141653 -0.048524342 0.39099869
0.098474681 -0.048279077 0.38890249
0.1008183 -0.048529178 0.3907797
0.1033206 -0.048845366 0.3931697
0.1061369 -0.049296297 0.39662319
0.11167455 -0.050973825 0.40991774
-0.0077508474 -0.04919479 0.40916163
-0.0058233435 -0.049229477 0.40942618
-0.0039470498 -0.049946662 0.41537327
0.010129811 -0.051728651 0.43026745
0.012167567 -0.051756978 0.43054202
0.013733765 -0.05005841 0.41645655
0.015472811 -0.049336277 0.41049874
0.016678508 -0.047263462 0.39330563
0.018754374 -0.047824711 0.39803612
0.020722603 -0.048034299 0.39984626
0.022544067 -0.047897093 0.39877507
0.024318974 -0.047689721 0.39712411
0.026266944 -0.047827113 0.39834875
0.028195322 -0.047912881 0.39914829
0.029716641 -0.047339465 0.39445949
0.031537022 -0.047281932 0.394072
0.033543423 -0.047494177 0.39593664
0.035348833 -0.047414463 0.39537072
0.037113149 -0.047290381 0.39443699
0.038882125 -0.047183763 0.39365083
0.040692411 -0.047134697 0.39334616
0.042897601 -0.047527432 0.39673066
0.044817235 -0.047584221 0.39731294
0.045915838 -0.046799645 0.39086893
0.047507569 -0.046558723 0.38896325
0.049322646 -0.046546426 0.38896662
0.050404485 -0.045867767 0.38339904
0.051949225 -0.045642648 0.38161916
0.054084342 -0.045933943 0.38415533
0.055585481 -0.045685373 0.38217431
0.057248026 -0.045580853 0.38139471
0.059022862 -0.045569375 0.38138998
0.060690321 -0.045478106 0.38071349
0.062912166 -0.045795612 0.38345495
0.06627959 -0.046906192 0.39283463
0.068064682 -0.046867188 0.39258274
0.068955854 -0.046230905 0.38732061
0.070580706 -0.04610654 0.38633952
0.072441176 -0.046138462 0.38666064
0.074307635 -0.046172556 0.38699216
0.076518267 -0.046413779 0.38905156
0.078377254 -0.046435449 0.38926169
0.080125988 -0.046392296 0.38891876
0.082141571 -0.046502136 0.38984817
0.083918087 -0.046474792 0.38961661
0.085240982 -0.046202738 0.38732207
0.086420491 -0.045865931 0.38447282
0.087576501 -0.045530658 0.38162425
0.090054095 -0.045882136 0.38451853
0.092074394 -0.04599141 0.38536844
0.092650317 -0.045388889 0.38024044
0.095225081 -0.045769848 0.3833366
0.098163642 -0.046308313 0.38773385
0.10011985 -0.046372201 0.3881394
0.10237064 -0.046567801 0.38962904
0.10425106 -0.046591029 0.3896575
0.10711244 -0.047044292 0.39326155
-0.0081067961 -0.04943369 0.42777163
-0.0059503256 -0.048327845 0.41817707
0.010162383 -0.049857356 0.43147007
0.011710681 -0.047857624 0.41420287
0.013482656 -0.047213551 0.40867314
0.015328906 -0.046958279 0.40651441
0.017119685 -0.046608802 0.40354568
0.018711725 -0.045842409 0.39697191
0.020696361 -0.046089809 0.39918205
0.022622894 -0.046177339 0.40001348
0.024466338 -0.046094846 0.39937729
0.02636984 -0.046129208 0.39975846
0.028122561 -0.045912825 0.39797094
0.029921433 -0.045794137 0.39703387
0.031784296 -0.045781605 0.39702079
0.03367966 -0.045814671 0.39740691
0.035410646 -0.045632418 0.39592814
0.037096992 -0.045413766 0.39413548
0.03887463 -0.045322377 0.39344892
0.040664125 -0.045252498 0.3929508
0.042436492 -0.045170471 0.39234832
0.044348776 -0.045238003 0.39304608
0.046988562 -0.046012521 0.39988908
0.048412673 -0.045582812 0.39626741
0.049653552 -0.045018818 0.39147559
0.049819961 -0.043555763 0.37886006
0.05230714 -0.044152632 0.38415882
0.053612467 -0.043745343 0.38071954
0.055646814 -0.043939989 0.38251621
0.057951648 -0.044329375 0.3860068
0.059896909 -0.044428434 0.38696718
0.061594129 -0.044343103 0.38631764
0.06327568 -0.044251692 0.38561049
0.064828373 -0.044077743 0.38417873
0.067139737 -0.044415083 0.38719815
0.068978406 -0.0444302 0.38740316
0.070756882 -0.044406753 0.38726524
0.072664067 -0.044463247 0.38781735
0.074558936 -0.044509631 0.38827363
0.07651455 -0.044589203 0.38901111
0.078448668 -0.044652831 0.38960075
0.08027368 -0.044652879 0.38962606
0.081932932 -0.044562772 0.3888545
0.083818577 -0.044597037 0.38915721
0.08524546 -0.04439095 0.38735127
0.086525299 -0.044118471 0.38495415
0.088247381 -0.044078004 0.38456896
0.090090588 -0.044098459 0.38470203
0.091861829 -0.044083573 0.38451287
0.092915952 -0.043731742 0.3813709
0.096105099 -0.044379089 0.38692668
0.098354876 -0.044576712 0.3885437
0.10159807 -0.045209199 0.39393213
0.103807 -0.045367081 0.39516515
0.10447641 -0.044858415 0.3905752
0.10325432 -0.043569144 0.37917659
0.1046161 -0.043395407 0.37747309
0.10652322 -0.042737458 0.37131384
0.11059037 -0.043653429 0.3790178
0.11260187 -0.043741774 0.37950796
0.11469331 -0.043857928 0.38021541
-0.014050422 -0.05484109 0.49466655
-0.011471136 -0.053705882 0.48438039
-0.0080701485 -0.047199041 0.42566058
-0.0060402509 -0.04705324 0.42431933
0.0083078034 -0.048897088 0.44097346
0.009898101 -0.046576124 0.42007521
0.011601235 -0.045472737 0.41016293
0.013352413 -0.044846527 0.40456015
0.015090928 -0.044339918 0.40004149
0.01692188 -0.044187412 0.39872327
0.018796105 -0.044167142 0.39860409
0.020732749 -0.044283882 0.39972743
0.022601612 -0.044248443 0.39948305
0.024493577 -0.044260208 0.39967012
0.026414389 -0.044318695 0.40028432
0.02827405 -0.044273619 0.399968
0.030010514 -0.044053338 0.39807278
0.031871997 -0.044031706 0.39797622
0.033592794 -0.043828923 0.39624557
0.035482891 -0.043856759 0.39660278
0.03723434 -0.043719009 0.39546537
0.038962703 -0.043568578 0.39421499
0.040721904 -0.043464739 0.39338773
0.042475305 -0.043364018 0.39258987
0.044273812 -0.04331582 0.39226839
0.046788812 -0.043944422 0.39807838
0.048005722 -0.04335238 0.3928313
0.049011983 -0.042621031 0.38631827
0.050901648 -0.042682707 0.38699085
0.05214145 -0.042214002 0.38285244
0.054126117 -0.042359486 0.38428181
0.056400169 -0.042714756 0.38761345
0.058390342 -0.042839531 0.38885209
0.060013741 -0.042695805 0.38765037
0.061720766 -0.042618282 0.38704541
0.063427649 -0.042545103 0.38647527
0.064879775 -0.042309847 0.3844274
0.066744804 -0.04234929 0.38486972
0.069201142 -0.042751979 0.38860807
0.071137123 -0.042820778 0.38930574
0.072918631 -0.042795476 0.38914087
0.074701533 -0.042772207 0.38898668
0.076634794 -0.042834084 0.38959852
0.078589797 -0.042904954 0.39028344
0.080320835 -0.042853113 0.38984254
0.081927434 -0.042738661 0.38882181
0.083620869 -0.042673506 0.38823876
0.085314751 -0.042611338 0.38767156
0.086910576 -0.042503811 0.38667965
0.088742234 -0.04251365 0.38674298
0.091157258 -0.042796981 0.38928068
0.093035415 -0.042822089 0.38945544
0.09453997 -0.042677581 0.38807303
0.096362837 -0.042679511 0.38800713
0.099015944 -0.043042265 0.39120474
0.10204259 -0.043551259 0.39571252
0.10502344 -0.044022866 0.39986005
0.099978879 -0.039776936 0.36081803
0.10164415 -0.039765343 0.36051744
0.10458364 -0.040244449 0.3646436
0.11036828 -0.04178527 0.37835762
0.11117601 -0.041422829 0.37480921
0.11291281 -0.041412469 0.37442666
0.11208531 -0.0404764 0.3656584
0.11440627 -0.040688451 0.36724409
0.11965629 -0.041920338 0.37799796
-0.010341084 -0.046352163 0.43648455
-0.0081616715 -0.045700334 0.43031144
-0.0059927236 -0.044693816 0.42080736
0.0079725543 -0.044924464 0.42300519
0.0097101163 -0.043744612 0.4119291
0.011521441 -0.043235675 0.40717667
0.01336639 -0.042980533 0.40482065
0.015159162 -0.0426425 0.40168998
0.016918005 -0.042294879 0.39847466
0.018930387 -0.042587243 0.4012951
0.020717358 -0.042365447 0.39927682
0.022501457 -0.042175259 0.39756158
0.024356281 -0.042136732 0.39728105
0.026312999 -0.042267382 0.398601
0.028196583 -0.042270955 0.39872783
0.030053753 -0.042236961 0.39850485
0.031726282 -0.041962761 0.39601913
0.033544365 -0.041900855 0.39553988
0.03534444 -0.041824158 0.39492419
0.037259042 -0.041883886 0.39559975
0.039029554 -0.041783661 0.39476717
0.040809557 -0.041702248 0.39411411
0.042578463 -0.041617073 0.39342687
0.044333503 -0.04152602 0.39268485
0.04628991 -0.041623317 0.39372495
0.047638584 -0.041187681 0.38972342
0.048673626 -0.040523227 0.38355345
0.050137151 -0.040250234 0.38108554
0.052035771 -0.040333327 0.38198742
0.053629987 -0.040182799 0.38067511
0.055262975 -0.04007009 0.3797183
0.057306536 -0.040252827 0.3815589
0.059819512 -0.040744215 0.38632399
0.061725713 -0.04080556 0.38700932
0.063320309 -0.040663294 0.3857592
0.065087691 -0.040636808 0.38560233
0.067027144 -0.040716279 0.38644573
0.068936557 -0.040773798 0.38707516
0.071181729 -0.041021861 0.38950765
0.072980583 -0.041006744 0.38943464
0.074757874 -0.040980544 0.38924864
0.076640233 -0.04101181 0.38960022
0.078621328 -0.041093227 0.39041951
0.080348469 -0.041041233 0.38996181
0.081749886 -0.040828865 0.38797006
0.083481081 -0.040786855 0.38758621
0.085215099 -0.040747993 0.38722101
0.08688283 -0.040679704 0.38656425
0.089001797 -0.040821165 0.38788819
0.091208585 -0.040996443 0.38951996
0.093144901 -0.041045658 0.38993981
0.095047638 -0.041078467 0.39018914
0.096829437 -0.04105876 0.38992429
0.098965697 -0.041187294 0.39105108
0.10168806 -0.04155064 0.39438924
0.10456165 -0.0419617 0.39816049
0.098765798 -0.036992822 0.35038346
0.099260554 -0.036568534 0.34616426
0.11203268 -0.039963357 0.37779814
0.11147834 -0.039144162 0.36977515
0.11174003 -0.038632303 0.36464235
0.11422143 -0.038891751 0.36676839
0.11721126 -0.039313994 0.37039962
0.0061324728 -0.044070348 0.43408903
0.0077988333 -0.04198968 0.41362143
0.0095546823 -0.041128591 0.40517285
0.011504263 -0.041249786 0.40640786
0.013399218 -0.041168455 0.40565467
0.015201524 -0.040858474 0.40265489
0.017108569 -0.040867656 0.40280682
0.018918864 -0.040667038 0.40089703
0.020607628 -0.040265474 0.39701158
0.022445785 -0.040198456 0.39642984
0.024301868 -0.0401714 0.39624757
0.026176579 -0.040176794 0.39639086
0.028078372 -0.040220264 0.39691493
0.029887727 -0.040134173 0.39616507
0.031699825 -0.040061682 0.39555347
0.033422697 -0.039890755 0.39397338
0.035368532 -0.039989922 0.39506423
0.037252482 -0.040012706 0.3954041
0.039092325 -0.039988197 0.39527944
0.040837917 -0.039873891 0.3942692
0.042513356 -0.039704014 0.39271054
0.044343285 -0.039686568 0.39266044
0.04630414 -0.039783005 0.39373848
0.047697652 -0.039403334 0.39010406
0.048258658 -0.038389545 0.38018733
0.04999011 -0.038346015 0.3798759
0.051786043 -0.038353253 0.38006631
0.052457981 -0.037555322 0.37227398
0.054472938 -0.037739344 0.3742117
0.056722287 -0.038069177 0.37759435
0.05903532 -0.03842045 0.38118872
0.061478049 -0.038832985 0.38538957
0.06324286 -0.038805965 0.38522515
0.065104984 -0.038838495 0.38564721
0.067175321 -0.038990118 0.38724709
0.069013618 -0.039002623 0.38745984
0.070842616 -0.039009359 0.38760909
0.0729222 -0.039150305 0.38908502
0.074803442 -0.03918048 0.38945296
0.076770641 -0.039253168 0.39023536
0.07838656 -0.039147042 0.38923132
0.079857767 -0.038975112 0.38756329
0.081705481 -0.038990501 0.38774776
0.083321542 -0.038897078 0.38683957
0.084928267 -0.038803358 0.38591713
0.086753525 -0.038811319 0.38599402
0.088925429 -0.038970865 0.38756612
0.090971746 -0.039070092 0.38852498
0.092940703 -0.039132856 0.38910735
0.094924048 -0.039199147 0.38971004
0.097090811 -0.039337251 0.39101115
0.099016033 -0.039374184 0.39129028
0.10109414 -0.039469462 0.39213237
0.10248724 -0.039298672 0.39031377
0.10683485 -0.040246911 0.39958856
0.094292082 -0.032656547 0.32340187
0.10618424 -0.036191352 0.3581652
0.10982776 -0.036848184 0.36439717
0.11428323 -0.037753023 0.37304735
0.11606744 -0.037761372 0.37280813
0.11740693 -0.037626948 0.37113622
0.12133151 -0.03831277 0.37752435
0.13777991 -0.04287602 0.42203876
-0.0061655445 -0.041889604 0.43259686
0.0044276007 -0.045601021 0.47090188
0.0060323295 -0.041331392 0.42683157
0.0077911359 -0.039994273 0.4130505
0.0095635429 -0.039249171 0.40538976
0.011749064 -0.040165234 0.41489434
0.013349817 -0.039106108 0.40400299
0.015215268 -0.03899049 0.40286449
0.017068356 -0.038872454 0.40170765
0.018675873 -0.038274765 0.39559948
0.020518595 -0.038224045 0.39514986
0.022388708 -0.038228545 0.39527714
0.0242838 -0.038271729 0.39581028
0.026144845 -0.03825891 0.39576986
0.027997425 -0.038236249 0.39563277
0.029836558 -0.038199198 0.39535147
0.031628419 -0.038109556 0.39453018
0.033386931 -0.037991934 0.39342263
0.035323381 -0.038078513 0.39443344
0.037229229 -0.038125094 0.39503378
0.039063439 -0.038097367 0.39486709
0.040794279 -0.037975933 0.39373136
0.042430848 -0.037781127 0.39183581
0.04427423 -0.037779033 0.39193997
0.046154656 -0.037807457 0.39236191
0.046883784 -0.036926895 0.38334832
0.047982376 -0.036391806 0.3779166
0.048782222 -0.035676472 0.37060854
0.05037782 -0.035572391 0.36964664
0.052232422 -0.035652027 0.3705925
0.054148953 -0.035767432 0.37190896
0.056169298 -0.035942052 0.37383983
0.058461331 -0.036274664 0.37741283
0.060902394 -0.036677457 0.38171482
0.063023604 -0.036870107 0.38382763
0.064836703 -0.036876801 0.38400063
0.066941969 -0.037044819 0.38584888
0.069225378 -0.037299972 0.38860008
0.070885926 -0.037215039 0.3878023
0.072784506 -0.037256196 0.38831145
0.075028576 -0.037467878 0.39059097
0.076754659 -0.037416957 0.39012513
0.078193024 -0.037231412 0.38824657
0.079681017 -0.037077397 0.38668689
0.081268936 -0.036975697 0.3856627
0.083163597 -0.037014943 0.38609809
0.084739193 -0.036913529 0.38505509
0.086543664 -0.036913965 0.38506278
0.088524692 -0.036988154 0.38582745
0.090562046 -0.037082437 0.38678861
0.092803918 -0.037255131 0.38855362
0.094602279 -0.037246551 0.38841355
0.096519984 -0.037284411 0.38874257
0.098856986 -0.037479829 0.39069796
0.10049795 -0.037409045 0.38986164
0.10324214 -0.03774412 0.39323694
0.1063633 -0.03820283 0.3978796
0.10960098 -0.035059247 0.36373514
0.11514252 -0.03626512 0.37595189
0.11768372 -0.036503784 0.37810615
0.11653946 -0.035609215 0.36850405
0.12114 -0.036470499 0.37704742
0.0042750463 -0.041878704 0.45450124
0.0059921169 -0.039050043 0.423823
0.0077437465 -0.037808936 0.41038069
0.0096642207 -0.037724614 0.40950105
0.011608142 -0.037744708 0.40976247
0.013390919 -0.03731006 0.40509418
0.015080546 -0.036757197 0.39914823
0.016930688 -0.036675081 0.3983202
0.018695237 -0.036442559 0.39586478
0.02048799 -0.036302343 0.39441785
0.022331689 -0.036268249 0.39412975
0.024242632 -0.036340211 0.39500037
0.026102459 -0.036330737 0.39499152
0.027921248 -0.036269225 0.39442208
0.029765517 -0.036246426 0.3942785
0.031602338 -0.03621779 0.39407584
0.033412524 -0.036163498 0.39359808
0.035209518 -0.036101401 0.39303893
0.03710172 -0.036138255 0.39356047
0.038954981 -0.036135476 0.3936536
0.040747713 -0.036079351 0.393168
0.042396683 -0.035906356 0.39141023
0.044243913 -0.035908695 0.39156494
0.045426767 -0.035393219 0.38607246
0.044740424 -0.033517104 0.36573005
0.046365283 -0.033447299 0.36509085
0.048111316 -0.033466771 0.36542568
0.049971297 -0.033561438 0.36658138
0.051890522 -0.033688243 0.36808768
0.053652056 -0.033707798 0.36842096
0.055608109 -0.033844516 0.37003317
0.057859659 -0.034147337 0.37346035
0.060279001 -0.034528453 0.37774277
0.062387433 -0.034714788 0.37989226
0.064633235 -0.034965076 0.38273856
0.066912055 -0.035219211 0.38562346
0.069204092 -0.035466738 0.38843185
0.070994034 -0.035450846 0.38834968
0.073137671 -0.035607949 0.39015603
0.074977934 -0.035613291 0.39029244
0.076450676 -0.035447966 0.38855019
0.078037471 -0.035341989 0.38744923
0.079557233 -0.035211161 0.38606626
0.081129916 -0.035109051 0.38498804
0.082599714 -0.034967825 0.38347021
0.08472418 -0.035103861 0.3849819
0.086349405 -0.035031687 0.38419861
0.087986708 -0.034967262 0.38348794
0.089571528 -0.034884967 0.38256857
0.091311201 -0.034865033 0.38231954
0.094122469 -0.035247158 0.38646474
0.09603022 -0.035282895 0.38679656
0.098481596 -0.035513338 0.38924655
0.10075707 -0.03567313 0.39090481
0.10387329 -0.036119558 0.39568505
0.10554072 -0.036055382 0.39485222
0.10686594 -0.035878517 0.39276758
0.11099872 -0.033771649 0.36845917
0.11764636 -0.035243433 0.38422227
0.11907644 -0.03513125 0.38268164
0.11857026 -0.034459699 0.37503037
0.12024222 -0.03443161 0.37436372
0.13391341 -0.037790537 0.41045964
0.13977413 -0.038880851 0.42183515
0.0021336565 -0.03990959 0.45639881
0.0041890168 -0.038928121 0.44518813
0.0058006211 -0.035860356 0.41012508
0.0077261734 -0.035785463 0.4092969
0.00968148 -0.035850782 0.4100804
0.01146512 -0.035364769 0.4045648
0.013267217 -0.035066649 0.40120527
0.015051226 -0.034801356 0.39822784
0.016866546 -0.034659442 0.39666867
0.018727534 -0.034630395 0.39640781
0.020501353 -0.034460112 0.39453655
0.022341745 -0.034420803 0.39417067
0.02422625 -0.034450285 0.39459863
0.026068343 -0.034419544 0.39434254
0.02787444 -0.034348562 0.39363071
0.029675128 -0.0342802 0.39295354
0.031560089 -0.034311511 0.39342371
0.03337235 -0.034264691 0.3930023
0.035204753 -0.034242399 0.39286599
0.037026566 -0.034212556 0.39264643
0.038912259 -0.034241758 0.3931078
0.040696785 -0.034183342 0.39256579
0.042472258 -0.034122724 0.39200047
0.043825667 -0.033742215 0.38776037
0.04382005 -0.032387689 0.37232161
0.044556234 -0.031664584 0.3641341
0.046068572 -0.031526212 0.36266777
0.047880813 -0.031595632 0.36359149
0.049611449 -0.031608272 0.36386147
0.051110562 -0.031477474 0.36247882
0.052740727 -0.031433228 0.36209047
0.055090494 -0.031807221 0.36651918
0.057614256 -0.032255951 0.37180957
0.05985231 -0.032523025 0.37500548
0.062205601 -0.032835666 0.37872508
0.0644603 -0.033080328 0.38165829
0.067053922 -0.033480991 0.38638836
0.068960756 -0.033526666 0.38701764
0.07097064 -0.033618812 0.38817754
0.072987095 -0.033709385 0.38931301
0.07474038 -0.033676956 0.38902068
0.076387465 -0.033599358 0.38819838
0.0780375 -0.03352664 0.38742357
0.07960543 -0.033422753 0.38627905
0.080726601 -0.033140086 0.38305795
0.082856603 -0.033274852 0.38465136
0.084779479 -0.033322468 0.38522649
0.086548738 -0.033308979 0.38508362
0.087881215 -0.033131376 0.38303122
0.089458607 -0.033051364 0.3820942
0.091219023 -0.033040784 0.38194656
0.09340664 -0.033182375 0.38354367
0.096455246 -0.033618707 0.38853189
0.09858536 -0.033724677 0.38968548
0.10057043 -0.033778075 0.39021477
0.10274746 -0.033892885 0.39143595
0.10539516 -0.034156203 0.39435297
0.10636172 -0.033875011 0.39096469
0.10126688 -0.031705592 0.36577591
0.11113449 -0.032076143 0.36898944
0.11755793 -0.033408001 0.384022
0.12015845 -0.033629548 0.3862538
0.12096768 -0.03335062 0.38271308
0.12257374 -0.033296354 0.38172817
0.13662551 -0.036575455 0.41889486
0.13894147 -0.03666399 0.41945118
-2.7283037e-05 -0.037699129 0.45563051
0.0021210653 -0.037525851 0.45354077
0.0040911697 -0.035960242 0.43463185
0.0059508239 -0.034796938 0.42059296
0.0077393735 -0.033905629 0.40984854
0.0096544418 -0.033814881 0.40878868
0.011547211 -0.033689387 0.40731642
0.013226622 -0.033066418 0.39983627
0.0150164 -0.032840811 0.39716712
0.016866332 -0.032782331 0.39652583
0.01870111 -0.032709051 0.39571244
0.020542502 -0.032659635 0.39519414
0.022364857 -0.032590713 0.39444616
0.024261776 -0.032632697 0.39504659
0.026097277 -0.032591976 0.39465183
0.027837064 -0.032445133 0.39297706
0.029650338 -0.032396957 0.39250195
0.031513941 -0.0324062 0.39272732
0.033376671 -0.032413572 0.39293453
0.035211667 -0.032394648 0.39282715
0.037106987 -0.032430343 0.39338577
0.038919955 -0.032394085 0.39307508
0.040652242 -0.032297034 0.39202881
0.042192686 -0.032062646 0.38931671
0.042838465 -0.03119627 0.37892807
0.043927688 -0.03070925 0.37314302
0.044662386 -0.030021403 0.36491358
0.045793634 -0.029641211 0.3604196
0.046661109 -0.029123552 0.35425028
0.048357278 -0.029141001 0.35458711
0.050218269 -0.029253295 0.35607764
0.052121021 -0.029381881 0.357766
0.053792715 -0.02937625 0.3578186
0.057198368 -0.030289164 0.36906081
0.05965244 -0.030659283 0.37369135
0.062123116 -0.03101654 0.37816417
0.065217145 -0.031656511 0.38608342
0.066614553 -0.031460598 0.38380498
0.068786457 -0.031631157 0.38599166
0.070894867 -0.031764507 0.38771933
0.072853632 -0.031825833 0.38856152
0.0746032 -0.031794995 0.38827145
0.076325238 -0.031754177 0.38785133
0.078219354 -0.031785183 0.38829997
0.079988301 -0.031765066 0.38811493
0.081430867 -0.031619124 0.38638243
0.083167657 -0.031591281 0.38608262
0.084813379 -0.031530768 0.38537237
0.086430959 -0.031462535 0.38455611
0.088057287 -0.031400204 0.38379982
0.089712448 -0.031350449 0.38318428
0.09177871 -0.031443484 0.38430071
0.093835667 -0.031529814 0.38532075
0.096141241 -0.031694852 0.3872875
0.098559149 -0.031890117 0.38960734
0.10071892 -0.031996276 0.39082161
0.10297789 -0.032129589 0.3923496
0.10594934 -0.032476634 0.39646804
0.10767447 -0.032436252 0.39583683
0.10760066 -0.031864513 0.38870466
0.12026007 -0.032325394 0.39293325
0.12390828 -0.032801278 0.39839894
0.12956956 -0.03378791 0.41002712
0.13038489 -0.033500418 0.40615889
0.13524196 -0.034244686 0.41476592
0.13930272 -0.034768924 0.42066273
-0.0041824249 -0.034222443 0.43859208
-0.0021364035 -0.034743749 0.44525912
-2.7123921e-05 -0.035333708 0.45281494
0.0020859938 -0.034792665 0.44588584
0.0039380076 -0.032632459 0.41821456
0.005900417 -0.032527056 0.4168852
0.0078056972 -0.032238573 0.41321763
0.009683283 -0.031974327 0.40986845
0.011547972 -0.031762879 0.40720364
0.013312168 -0.031375103 0.40228537
0.015089731 -0.031111984 0.39897189
0.016837223 -0.030852314 0.3957091
0.018692996 -0.030823197 0.39540988
0.020535408 -0.030779349 0.39492851
0.022417724 -0.030797634 0.39525089
0.024312999 -0.03082954 0.39575461
0.026192108 -0.030837853 0.39596173
0.027886884 -0.030642506 0.39355895
0.029658997 -0.030551262 0.39249766
0.031593021 -0.03062772 0.39359581
0.033448286 -0.030623572 0.39366308
0.035298064 -0.030615101 0.39367881
0.037112135 -0.030578064 0.39333099
0.038836796 -0.030474387 0.39212883
0.040537514 -0.030362213 0.39081922
0.04179877 -0.029944966 0.38558301
0.042061821 -0.028877195 0.37196562
0.042970974 -0.028320715 0.36492816
0.044002023 -0.027884306 0.35943428
0.045036897 -0.027482575 0.35438398
0.046438869 -0.027325561 0.35248676
0.048139054 -0.027348803 0.35291368
0.049772501 -0.027333841 0.35284677
0.051699296 -0.027475739 0.35480392
0.053526562 -0.027557537 0.35598406
0.055387616 -0.027651232 0.3573162
0.058741737 -0.028462874 0.36792687
0.061929438 -0.029149788 0.376928
0.064231388 -0.029393189 0.38019386
0.066238455 -0.029492136 0.3815878
0.068468094 -0.029682364 0.38415843
0.07070116 -0.02986428 0.38661692
0.072670422 -0.029928453 0.38754529
0.074473321 -0.029922659 0.38756055
0.076439083 -0.029981012 0.388399
0.078377485 -0.030026169 0.38905826
0.080005191 -0.029952953 0.38817447
0.081630029 -0.029881945 0.38730937
0.08309669 -0.029757373 0.38573939
0.084896594 -0.029754907 0.38574111
0.0865651 -0.029707449 0.38514802
0.088209324 -0.029653763 0.38446191
0.090094216 -0.029681515 0.38481888
0.092287615 -0.029807827 0.3864401
0.093885399 -0.029740596 0.3855381
0.09515506 -0.029573923 0.38333246
0.09805394 -0.029910406 0.3876327
0.10059918 -0.030128742 0.39038438
0.1036144 -0.030477509 0.39480734
0.10630882 -0.030721338 0.39785093
0.10851479 -0.03081804 0.39896888
0.10961784 -0.030603543 0.39603916
0.10744657 -0.029497294 0.38155651
0.10414344 -0.027228763 0.35163555
0.13059053 -0.032591194 0.41997331
0.13093875 -0.032190278 0.41445374
0.13052885 -0.031617511 0.40670499
0.13259256 -0.031651847 0.40674388
0.13752572 -0.03236039 0.41540793
-0.0039925314 -0.030684926 0.41853896
-0.0020871945 -0.031882346 0.4348577
-2.6313483e-05 -0.032196529 0.43913817
0.0020612665 -0.032292578 0.44045278
0.0039574709 -0.030802419 0.4201411
0.0058508399 -0.030295227 0.41324472
0.0077922423 -0.030228771 0.41236842
0.0097192004 -0.030144159 0.41125277
0.011546954 -0.029831525 0.40703404
0.013453948 -0.029783793 0.40643734
0.01511715 -0.029275881 0.3995676
0.016902652 -0.029091496 0.39711955
0.018629044 -0.028852487 0.39393219
0.020461887 -0.028806845 0.39339116
0.022509487 -0.029045934 0.39674598
0.024694772 -0.029412199 0.40184629
0.026125878 -0.028892055 0.39484179
0.027808959 -0.028701391 0.39234319
0.029575475 -0.028615296 0.39127859
0.031648237 -0.028818207 0.39417139
0.033549584 -0.028851144 0.39474496
0.035288118 -0.028747972 0.39346039
0.036915921 -0.02856943 0.39114696
0.038294684 -0.028224347 0.38655445
0.040111016 -0.028218497 0.38660935
0.041543968 -0.027955171 0.38313794
0.040969837 -0.026419526 0.36222211
0.042505089 -0.026312605 0.36088791
0.04350578 -0.025895724 0.35530096
0.044534478 -0.025525797 0.35035485
0.045841966 -0.025336379 0.34788355
0.047151051 -0.02516089 0.34560132
0.049381595 -0.025472419 0.35000846
0.050723031 -0.025320008 0.34804022
0.053150654 -0.025702389 0.35342237
0.055311881 -0.025936667 0.35676861
0.057895474 -0.026349381 0.3625696
0.06127448 -0.027090175 0.37288684
0.063411243 -0.027255837 0.37528765
0.065525867 -0.027403288 0.37743434
0.067839682 -0.027624087 0.38058752
0.070452787 -0.0279523 0.38521686
0.072367713 -0.027994029 0.38589284
0.074447729 -0.02809602 0.38739294
0.076650009 -0.028238194 0.38944
0.078280002 -0.028167821 0.38854769
0.079519674 -0.027963396 0.3857964
0.081203334 -0.027920717 0.38526645
0.083072871 -0.027942423 0.3856146
0.085001484 -0.027982643 0.38620746
0.087182954 -0.028102696 0.38789082
0.088583633 -0.027971303 0.38609153
0.090343602 -0.027956348 0.38588643
0.092539139 -0.028074123 0.38750002
0.094028234 -0.02797717 0.38613555
0.095360219 -0.027838012 0.38417417
0.09733358 -0.027887775 0.38480461
0.099946901 -0.028115755 0.38787735
0.10222188 -0.028242107 0.38953024
0.1060058 -0.02877361 0.39675093
0.10836726 -0.028907331 0.39846539
0.11073291 -0.029037619 0.40011168
0.10983144 -0.028321108 0.390073
0.10418829 -0.026425444 0.36378956
0.10296357 -0.025693528 0.35352495
0.10669973 -0.026203131 0.36032391
0.11172974 -0.027009586 0.3711724
0.11864042 -0.028238848 0.38778958
0.12451077 -0.028751293 0.39419016
0.12610954 -0.028692145 0.39302272
0.1303032 -0.029216543 0.39981523
0.13607776 -0.03007536 0.41113657
-2.4679515e-05 -0.028245041 0.41173795
0.0019425993 -0.02846602 0.41496357
0.0039009168 -0.028399372 0.41400522
0.0058541093 -0.028352525 0.41334429
0.0077660899 -0.028179638 0.41085443
0.0096466243 -0.027984854 0.4080534
0.011559292 -0.027932782 0.40734142
0.014875378 -0.026945302 0.39305604
0.016955417 -0.027295724 0.39823753
0.018659996 -0.027032059 0.39446735
0.02036038 -0.026810864 0.39132267
0.022299932 -0.026915241 0.39293641
0.024276275 -0.027044531 0.39492127
0.026114266 -0.027012222 0.39455307
0.027695779 -0.02673663 0.39063615
0.029522398 -0.026717337 0.39046812
0.031445384 -0.026782388 0.39153829
0.033469591 -0.026921619 0.39369872
0.035111316 -0.026754739 0.3913869
0.03658117 -0.026480148 0.38750121
0.038008079 -0.026202116 0.38356605
0.038980309 -0.025650177 0.37561995
0.039430656 -0.024817791 0.36356226
0.040576428 -0.024474259 0.35866177
0.041090231 -0.023792299 0.34879771
0.042628728 -0.023733314 0.34806359
0.044269394 -0.02373348 0.34819722
0.045593813 -0.023570141 0.34593132
0.047108959 -0.023513272 0.34522662
0.048630409 -0.023463236 0.34462079
0.050347913 -0.023507971 0.34540567
0.0522197 -0.023619687 0.34717387
0.05436632 -0.023845177 0.35061386
0.057537366 -0.024493497 0.36027279
0.060583007 -0.025052892 0.36862659
0.062717803 -0.025215002 0.37113431
0.06486316 -0.025372485 0.37357077
0.06700772 -0.02552137 0.37587696
0.069522351 -0.025799947 0.38008931
0.071969792 -0.026040286 0.38373402
0.074231036 -0.026203169 0.38623178
0.07654044 -0.026374888 0.38885328
0.077313267 -0.026021447 0.38372323
0.079322755 -0.02609084 0.3848187
0.081267074 -0.026136195 0.38555032
0.082832225 -0.026060281 0.3844828
0.083179265 -0.025612516 0.3779175
0.089179784 -0.026887951 0.39676788
0.088616647 -0.026172757 0.38623241
0.090240382 -0.026119141 0.38544655
0.092128515 -0.026142659 0.38578555
0.094055973 -0.026176214 0.38625854
0.095766708 -0.026149327 0.38582489
0.097451702 -0.026116533 0.38528889
0.099313989 -0.026131587 0.38544255
0.10182092 -0.026312687 0.38802812
0.10575265 -0.026849175 0.39583415
0.10803656 -0.026956009 0.39728463
0.10965119 -0.026895065 0.39624271
0.11168969 -0.026938386 0.39671674
0.11060733 -0.026239909 0.38625005
0.1078845 -0.025181068 0.37047061
0.10983653 -0.025229672 0.37097093
0.11104485 -0.025108596 0.36895531
0.12008202 -0.026734207 0.39256817
0.12666135 -0.027771641 0.40749139
0.124925 -0.026982037 0.39557827
0.12445033 -0.02648415 0.38793153
0.12746418 -0.026732329 0.39118955
0.13268584 -0.027429834 0.40098092
-0.0043995641 -0.029441278 0.46092248
-2.5004068e-05 -0.026638612 0.41702649
0.0019561115 -0.026682863 0.41772366
0.0039172615 -0.026547275 0.41561446
0.0057899398 -0.026103593 0.40869039
0.0076765171 -0.025929404 0.40599391
0.0095277755 -0.025729682 0.40290579
0.011457982 -0.025774274 0.40365157
0.013224818 -0.025491195 0.39927351
0.014842312 -0.025027182 0.39206767
0.0168628 -0.025270343 0.39594752
0.018697917 -0.025214834 0.39515567
0.020418724 -0.025029307 0.39233279
0.022199538 -0.024942152 0.39105794
0.024065115 -0.024956325 0.3913781
0.02565014 -0.024698328 0.38743535
0.027837956 -0.025016457 0.39253643
0.029487848 -0.024841616 0.38990861
0.031133438 -0.024683952 0.38755405
0.032991536 -0.024702942 0.3879773
0.034702417 -0.0246155 0.38673311
0.03614264 -0.024354432 0.38276327
0.037263189 -0.023913095 0.37595993
0.037845325 -0.023182092 0.36459911
0.038716126 -0.022683829 0.3568942
0.039404068 -0.022124432 0.3482233
0.04096394 -0.022079788 0.34765232
0.0425428 -0.022048419 0.34729111
0.044006057 -0.021961678 0.34605765
0.045453478 -0.021873519 0.34480104
0.046943605 -0.021811286 0.343952
0.048632074 -0.021842288 0.34457228
0.050310574 -0.021866947 0.34509167
0.051970989 -0.021882458 0.34546512
0.053682674 -0.021917958 0.34615237
0.055889111 -0.022147426 0.34990185
0.058913488 -0.022678643 0.35841945
0.062037464 -0.023217613 0.36706164
0.064452395 -0.023469253 0.37116086
0.066915073 -0.023724571 0.37531579
0.069148362 -0.023887549 0.37800619
0.071322002 -0.024022285 0.3802447
0.073388614 -0.024115277 0.38181645
0.07502421 -0.024065582 0.38112158
0.077279776 -0.02421244 0.3835316
0.079245538 -0.02426389 0.38442209
0.081116945 -0.024284804 0.3848196
0.082870342 -0.024270248 0.38464484
0.084338948 -0.024174675 0.38317525
0.086173497 -0.024185797 0.38338518
0.088279456 -0.024271082 0.38475889
0.090245806 -0.024315339 0.3854695
0.091940567 -0.024286125 0.38500211
0.094075605 -0.02437209 0.38634658
0.095948212 -0.02438811 0.38656741
0.097643584 -0.024359317 0.38606256
0.09942583 -0.024352854 0.38589564
0.10169409 -0.024463536 0.38756782
0.10469125 -0.024742603 0.39188859
0.1078044 -0.02503898 0.39646268
0.1100224 -0.025120927 0.39762014
0.11147528 -0.025028357 0.39599523
0.11262762 -0.02487245 0.39334902
0.11103878 -0.024125988 0.38134906
0.11158656 -0.023860086 0.37693197
0.11370074 -0.0239322 0.37783435
0.1174913 -0.024349516 0.38415849
0.12547787 -0.025610607 0.40375137
0.12665443 -0.025464846 0.40112591
0.12576489 -0.024914075 0.39210364
0.12896025 -0.025176764 0.39586067
-0.0066465284 -0.027507771 0.46508533
-0.0043447609 -0.026915805 0.4550516
0.0039547281 -0.024811242 0.4194704
0.0057949726 -0.024186449 0.40892971
0.0075684814 -0.023666365 0.40016708
0.0093801292 -0.023450185 0.39655074
0.011381874 -0.023702085 0.40085828
0.013192441 -0.023540746 0.39818555
0.014845705 -0.023174249 0.39204931
0.016732106 -0.02321275 0.39277157
0.018665414 -0.023302101 0.3943623
0.020424236 -0.023177177 0.39233392
0.022082336 -0.022968337 0.38889077
0.023798365 -0.022847271 0.38693923
0.024714144 -0.022030171 0.37320179
0.026338642 -0.021911714 0.37130132
0.029184809 -0.022760831 0.38580593
0.031130066 -0.022848738 0.38741782
0.032746151 -0.022698697 0.38499969
0.034236003 -0.022481563 0.38144612
0.035568547 -0.02218803 0.37659737
0.036613848 -0.021751821 0.36932623
0.036841694 -0.020891737 0.35485318
0.037831623 -0.02051984 0.34866691
0.039154299 -0.020351904 0.345945
0.040842064 -0.020379586 0.34654897
0.042366579 -0.020326814 0.34578589
0.043800738 -0.020236205 0.34437895
0.045264039 -0.020165056 0.34330237
0.046864312 -0.020157732 0.3433117
0.048466899 -0.020151857 0.34334499
0.050214596 -0.020204747 0.34437865
0.051886041 -0.02022461 0.34484828
0.053546786 -0.020239225 0.34522644
0.055390995 -0.020320283 0.34673598
