# .PCD v0.7 - Point Cloud Data file format
VERSION 0.7
FIELDS x y z
SIZE 4 4 4
TYPE F F F
COUNT 1 1 1
WIDTH 1406
HEIGHT 1
VIEWPOINT 0 0 0 1 0 0 0
POINTS 1406
DATA ascii
0.18188675 0.14197241 0.48827097
0.18455066 0.142156 0.48779565
0.18769756 0.14270204 0.48856172
0.19030558 0.14282961 0.48789868
0.19321181 0.14317493 0.48799106
0.19638698 0.14370845 0.4887397
0.19905654 0.14386334 0.48822403
0.20205113 0.14424652 0.48851508
0.20505652 0.14462805 0.48883811
0.20773722 0.14477427 0.48841286
0.21130213 0.14552598 0.4900822
0.21523325 0.14650948 0.49258685
0.21842362 0.14697194 0.49340335
0.22261789 0.14809169 0.49649638
0.2264756 0.14896493 0.49883774
0.22952151 0.14929073 0.49942914
0.23093636 0.14856011 0.49657911
0.23341684 0.14852343 0.49614459
0.23569331 0.14835913 0.49537963
0.23751897 0.1479176 0.4937858
0.23890576 0.1472149 0.49141699
0.24169993 0.14738505 0.49205732
0.24325764 0.1468055 0.49028832
0.24614725 0.14703336 0.4913078
0.24887457 0.14716066 0.49208227
0.2500093 0.14635313 0.48981667
0.25021249 0.14502168 0.48587513
0.25303161 0.14521766 0.48712826
0.25463066 0.14471638 0.4861193
0.25607583 0.14413817 0.48492146
0.25833058 0.14402232 0.485347
0.26023829 0.14371696 0.48519996
0.26154372 0.14308783 0.48401925
0.26255265 0.14230967 0.48238653
-0.16715439 0.10933626 0.35917065
-0.16496141 0.10910057 0.35864204
-0.16887894 0.11294629 0.37160686
-0.16513023 0.11169394 0.36787152
-0.1581541 0.10820473 0.35681343
-0.15691866 0.10860766 0.35863546
-0.15353121 0.10751308 0.35556301
-0.15538374 0.11010551 0.3647421
-0.15675464 0.11241501 0.37305769
-0.15793362 0.11464152 0.38116705
-0.161825 0.11891618 0.39616546
-0.16107973 0.11984789 0.4000943
-0.16784233 0.12645996 0.42306659
-0.16529678 0.12613846 0.42291021
-0.16210799 0.12531137 0.42106715
-0.15870792 0.12429707 0.41859248
-0.1570898 0.12466992 0.42079076
-0.15251377 0.12267365 0.41498205
-0.14952865 0.12191986 0.41335306
-0.1472773 0.12175173 0.41369662
-0.14460634 0.12122712 0.4128142
-0.14076091 0.11968886 0.40845272
-0.13701513 0.11819197 0.40419587
-0.13505204 0.11821146 0.40509772
-0.13325286 0.11837716 0.40648383
-0.13096118 0.11810371 0.40634188
-0.12876131 0.11790594 0.40643641
-0.12641604 0.11756676 0.40601856
-0.1236867 0.11685396 0.40428177
-0.1206032 0.11577817 0.40125579
-0.11863741 0.1157577 0.40185815
-0.11697744 0.11603995 0.40349007
-0.11521238 0.11622571 0.40476629
-0.11184049 0.11476898 0.4002929
-0.10927773 0.11410606 0.3985548
-0.1073676 0.11411303 0.39913127
-0.10296317 0.11142113 0.39023361
-0.10105142 0.1113769 0.39057538
-0.099349104 0.11156619 0.39171609
-0.099162221 0.11349728 0.39896092
-0.097469471 0.11374673 0.40028328
-0.095893331 0.11414495 0.40211204
-0.093603291 0.11369231 0.40092403
-0.092016295 0.11409255 0.4027248
-0.089775115 0.11368141 0.40164337
-0.087700613 0.11346804 0.40124118
-0.085488595 0.11306332 0.40014338
-0.083362743 0.11275679 0.39937466
-0.081027694 0.11214644 0.39751151
-0.078639328 0.11143149 0.39525908
-0.076153904 0.1105408 0.39236462
-0.073363811 0.10915226 0.38768396
-0.071826108 0.10960367 0.38952276
-0.069803365 0.1093192 0.38873389
-0.069667943 0.11205493 0.3986772
-0.068017334 0.1124379 0.40024337
-0.066436574 0.11296149 0.40230015
-0.063953176 0.11193603 0.39882806
-0.061646968 0.11116794 0.39625964
-0.057325412 0.10660406 0.3801432
-0.04779857 0.09175384 0.32731077
-0.044055916 0.087387271 0.31184334
-0.041067254 0.084266797 0.30080661
-0.037857842 0.080454424 0.2872858
-0.036308814 0.080019005 0.28581297
-0.03438868 0.078700803 0.28117979
-0.032651808 0.077713378 0.27772111
-0.03112304 0.077159643 0.27580619
-0.029675545 0.076768018 0.27446544
-0.028357754 0.076691598 0.27424693
-0.026826238 0.076002397 0.27183259
-0.025492804 0.075833537 0.27127501
-0.024120323 0.075524658 0.27021265
-0.022809738 0.075386062 0.2697559
-0.021554392 0.075424448 0.2699292
-0.02045434 0.076045007 0.27218327
-0.019198615 0.076130874 0.27252105
-0.017869789 0.075918488 0.27178836
-0.01655454 0.075735547 0.27115843
-0.015168437 0.075171009 0.26915959
-0.013902456 0.075153306 0.26911631
-0.012625089 0.075064383 0.26881585
-0.011377553 0.07515274 0.26914826
-0.010138034 0.075322747 0.26977116
-0.0088510765 0.075138517 0.26912346
-0.0075667216 0.074918754 0.2683467
-0.0063101156 0.074940868 0.26843455
-0.0050374079 0.074735127 0.26770455
-0.0037866288 0.074826144 0.26803595
-0.0025443949 0.075260326 0.26959515
-0.0012881956 0.075731061 0.27128372
-1.6066961e-05 0.075660512 0.27103177
0.0012484066 0.075271308 0.26963681
0.0025149693 0.075336374 0.2698676
0.0038057277 0.075840041 0.27166802
0.0051008328 0.076155975 0.27279428
0.0063927742 0.076307446 0.27332973
0.0077079879 0.076639727 0.2745111
0.0090332506 0.076962516 0.27565673
0.01040746 0.077569269 0.27781749
0.012035845 0.079724662 0.28552225
0.013426748 0.080032863 0.28660911
0.014783042 0.080097444 0.28682128
0.016255978 0.080730528 0.2890667
0.017547121 0.080432802 0.28797674
0.018876025 0.080338359 0.28761226
0.020362753 0.080883428 0.28953424
0.02177489 0.081082538 0.29021469
0.023319393 0.081722111 0.29246825
0.02479066 0.082048155 0.29359609
0.026246622 0.082291879 0.29442558
0.027881155 0.083043106 0.2970666
0.029371602 0.083314002 0.2979849
0.03120159 0.084479593 0.30209804
0.032789797 0.084917612 0.30360392
0.034347195 0.085242659 0.30470055
0.036435075 0.086805545 0.31021535
0.038586047 0.088392675 0.31580871
0.040255319 0.088799596 0.31717786
0.042275745 0.089924388 0.32110345
0.044319659 0.091019809 0.32491544
0.046436593 0.092187129 0.32897457
0.048436653 0.09305457 0.33195379
0.050124552 0.09328682 0.33265799
0.051567905 0.093063638 0.33173001
0.053659104 0.093988374 0.33488426
0.055472203 0.094387047 0.33615321
0.057501014 0.0951204 0.33860281
0.059107061 0.095133647 0.33847788
0.060804121 0.095288843 0.33884737
0.063290052 0.096640632 0.34345827
0.065826066 0.097999372 0.34807685
0.068446353 0.099414214 0.35287669
0.070601337 0.10010193 0.35507819
0.074163906 0.10270699 0.36405942
0.10577469 0.13401359 0.47348893
0.11138754 0.13818404 0.48777467
0.11445555 0.13909163 0.49050438
0.11753411 0.13997544 0.49312121
0.12007065 0.14019176 0.49335891
0.12261312 0.14040653 0.49356547
0.12508251 0.14053111 0.49342865
0.12808025 0.14123365 0.49529228
0.13055854 0.14134827 0.49506465
0.13278526 0.14119132 0.49385938
0.13526185 0.14130089 0.49355981
0.13798602 0.14166087 0.49410516
0.14081579 0.14211522 0.49494794
0.14354417 0.14245376 0.49535516
0.1460765 0.14258984 0.49502784
0.1486396 0.14275113 0.49475807
0.15093865 0.1426577 0.49357745
0.15332782 0.14265104 0.49267015
0.15620717 0.14309362 0.49328488
0.15893659 0.1433875 0.49335605
0.16155042 0.1435699 0.49301553
0.16396162 0.14356948 0.49202219
0.16654864 0.14372082 0.49152595
0.16909321 0.14383171 0.49086961
0.17151953 0.14384034 0.48984581
0.17364439 0.14359941 0.4879593
0.17633887 0.14382969 0.48766282
0.17929953 0.14426792 0.48805898
0.18181729 0.14434285 0.48721927
0.18436289 0.1444376 0.48644671
0.18709232 0.14467207 0.48614952
0.19030298 0.14526786 0.48707327
0.19302507 0.14548033 0.48672488
0.19600993 0.14588307 0.48703471
0.19907774 0.14633681 0.48754147
0.20183982 0.14655751 0.48730731
0.20469739 0.14684138 0.48732689
0.2077453 0.14725344 0.48782188
0.21186747 0.14840828 0.49082983
0.21531969 0.14907239 0.49227306
0.21831948 0.14941166 0.49271268
0.22339879 0.15115017 0.49783748
0.22616783 0.15130408 0.49782073
0.22844991 0.15113242 0.49682155
0.23104748 0.15117095 0.49660543
0.23311271 0.15086411 0.49534881
0.23537298 0.15068874 0.49461937
0.23703982 0.15014124 0.492764
0.2381119 0.14923249 0.4898175
0.24010785 0.14891569 0.48890656
0.24283153 0.14905208 0.489575
0.24427801 0.14840975 0.48777416
0.2462887 0.14811973 0.48721623
0.24917452 0.14835653 0.48847574
0.24990824 0.14731999 0.48562151
0.25174651 0.14694855 0.48503253
0.25341907 0.1464885 0.4842225
0.25450489 0.14570141 0.48239726
0.25758642 0.14606093 0.48443493
0.25929502 0.14564253 0.48395786
0.26075211 0.14509201 0.48309836
0.26321307 0.14510509 0.48417139
-0.15909134 0.10941684 0.35415947
-0.15645647 0.10884133 0.35268205
-0.1520759 0.10702391 0.34722924
-0.15285721 0.10883915 0.35361725
-0.15714127 0.11322134 0.36842689
-0.16006213 0.11671511 0.38043565
-0.16109718 0.11890219 0.3882626
-0.16164364 0.1207782 0.3951391
-0.16944544 0.12818995 0.42022234
-0.16759534 0.12839499 0.42176294
-0.16262475 0.126184 0.41537958
-0.16010664 0.12584329 0.41515523
-0.15823318 0.12600693 0.41660824
-0.15556006 0.12552966 0.41594958
-0.15098535 0.12348426 0.41008118
-0.14836369 0.12300202 0.40938589
-0.14590049 0.1226396 0.40907964
-0.14360841 0.12241281 0.40921479
-0.13836719 0.1196298 0.40077308
-0.13649969 0.11972523 0.40194297
-0.13479815 0.11997119 0.403606
-0.13221295 0.1194263 0.40259004
-0.13024595 0.11943176 0.40340772
-0.12831107 0.1194673 0.40430787
-0.12610726 0.11924963 0.40432969
-0.12199621 0.11719292 0.39808077
-0.12129829 0.11840149 0.40289649
-0.11865942 0.11772402 0.40127569
-0.11622898 0.11723422 0.40026566
-0.1139082 0.11684029 0.39955583
-0.11119125 0.11601941 0.39735723
-0.10892178 0.11564483 0.39665899
-0.10678054 0.11539546 0.39636531
-0.10275646 0.1130653 0.3888908
-0.10068981 0.11284252 0.38863206
-0.099099852 0.11315566 0.39019886
-0.097532853 0.11350754 0.39188203
-0.096500948 0.11450815 0.39579061
-0.095122449 0.11512931 0.39837447
-0.093229242 0.11514013 0.39882964
-0.091406271 0.11523996 0.39957479
-0.089494951 0.11523026 0.39992252
-0.087051816 0.11452054 0.39782059
-0.085244693 0.11463454 0.39856133
-0.083048463 0.11421861 0.39744213
-0.080474935 0.11325235 0.39438829
-0.078193866 0.11266147 0.3926222
-0.075207092 0.1110002 0.38710552
-0.073447995 0.11111313 0.38775846
-0.0714605 0.11087748 0.38718113
-0.069372445 0.1104693 0.38598704
-0.06782838 0.11092874 0.38781202
-0.067836851 0.11402326 0.39884409
-0.066008486 0.1141189 0.39938042
-0.063966267 0.1138396 0.39859286
-0.061612025 0.11297124 0.39573002
-0.05832522 0.11028528 0.38648468
-0.045993738 0.092763521 0.32533178
-0.042213567 0.088073939 0.30899307
-0.039110284 0.084512234 0.29659474
-0.036360487 0.081478938 0.28603724
-0.034468245 0.080207959 0.28165627
-0.032628663 0.078962773 0.27735808
-0.031178771 0.078596234 0.27613965
-0.02968711 0.078087971 0.27441779
-0.028398717 0.078092486 0.27449307
-0.027171724 0.07827431 0.27518749
-0.025852818 0.07819628 0.27496439
-0.024128186 0.07681834 0.27016559
-0.022840006 0.076754086 0.26998258
-0.021573953 0.076761007 0.2700465
-0.020476786 0.077407226 0.27235648
-0.019122381 0.077102333 0.27131724
-0.017853985 0.077125475 0.27142918
-0.016538912 0.076935045 0.27078676
-0.015228767 0.076737724 0.27011731
-0.013943245 0.076639913 0.26979566
-0.012668571 0.076588161 0.26963365
-0.011407577 0.076616794 0.26975238
-0.010140731 0.076608375 0.2697385
-0.0088712545 0.076574825 0.26963416
-0.007608552 0.076598339 0.26972866
-0.0063698404 0.076920934 0.27087456
-0.005048295 0.076154754 0.26818436
-0.0037911697 0.076174289 0.26825929
-0.0025429067 0.076479778 0.2693395
-0.001290217 0.077124007 0.27161089
-1.6133776e-05 0.07725136 0.2720603
0.0012572656 0.077078819 0.27145183
0.0025348368 0.077206984 0.27190053
0.0038283514 0.077572398 0.27318311
0.0051114629 0.077596605 0.27326214
0.0063971812 0.077642731 0.27341649
0.0078044422 0.078902245 0.27784181
0.0091401227 0.079181135 0.27881175
0.010620411 0.080486089 0.2833924
0.012076529 0.081337862 0.28637475
0.013461104 0.081585459 0.28722739
0.014859425 0.081863716 0.28818557
0.016268324 0.082148947 0.28916553
0.017626956 0.082155988 0.28916353
0.018981878 0.082145937 0.28909865
0.020454323 0.082611926 0.29070592
0.021953801 0.083121948 0.29246467
0.023346795 0.08319249 0.29267356
0.024910938 0.083831154 0.29487726
0.026314257 0.083889812 0.29503685
0.02793223 0.084592707 0.29745772
0.029584639 0.085327931 0.29998723
0.031060951 0.085511468 0.30057219
0.033026252 0.086966693 0.30562127
0.034834959 0.087905414 0.30884832
0.03695447 0.089521915 0.31444931
0.038804401 0.090386078 0.31739977
0.04081111 0.091537856 0.32135215
0.042738348 0.092435434 0.3244037
0.044619806 0.093175501 0.32689393
0.046440102 0.093742751 0.32876906
0.048382752 0.094512381 0.33134484
0.049903657 0.094435804 0.33094504
0.051728431 0.09492147 0.33250666
0.053482171 0.095252052 0.33351511
0.055290401 0.095658004 0.33477718
0.057212096 0.096232235 0.33661696
0.059123464 0.096758522 0.33827698
0.060824454 0.096921884 0.33865643
0.063534692 0.098643795 0.34446681
0.06570486 0.09946207 0.34710467
0.068336613 0.1009221 0.35196492
0.070608459 0.10179371 0.35475481
0.075619385 0.10648172 0.37081748
0.087191395 0.11731831 0.40790096
0.089683801 0.1180479 0.41008312
0.092247732 0.11883856 0.41245523
0.095778525 0.12081587 0.4189187
0.11401605 0.13806655 0.47775561
0.11966135 0.14206073 0.49103844
0.12232222 0.14242633 0.49173808
0.12517805 0.14300086 0.49313048
0.12796248 0.14347403 0.49414358
0.13019308 0.14332034 0.49297035
0.13242128 0.14316948 0.49178204
0.13513054 0.14353494 0.49233946
0.13799816 0.14405312 0.49338913
0.14067796 0.144361 0.49368709
0.14324227 0.14454204 0.4935213
0.14568388 0.14459537 0.49289069
0.1483136 0.14483064 0.49285123
0.15080087 0.1449216 0.49229184
0.15341803 0.14513259 0.49211189
0.15578255 0.14510174 0.49108508
0.15834028 0.14524907 0.49063578
0.16117349 0.14564094 0.49098545
0.16364573 0.14569987 0.49018767
0.16612101 0.14575981 0.4893724
0.16903524 0.14619765 0.4898048
0.17162712 0.14634827 0.48925561
0.17374732 0.14609811 0.4873555
0.17628098 0.14619768 0.48661485
0.17936708 0.14674655 0.48736075
0.18200012 0.14691506 0.48683864
0.18429695 0.14681129 0.48541942
0.18721607 0.14719954 0.48563594
0.18996562 0.14744617 0.48539779
0.19321594 0.14807034 0.48641995
0.19596182 0.14829716 0.48616105
0.19876339 0.14855999 0.4860543
0.20148595 0.14875808 0.48577663
0.20465255 0.14927529 0.48658773
0.20798388 0.14989889 0.48779717
0.2111429 0.15038513 0.48861802
0.21538955 0.15162566 0.49195221
0.2184815 0.15203419 0.4926559
0.22110216 0.15210916 0.4923583
0.22494644 0.15301484 0.49483174
0.22828282 0.1535587 0.49622017
0.23056513 0.15338936 0.49539462
0.23270632 0.15313086 0.49437469
0.23469611 0.15277936 0.49314857
0.23664905 0.15241159 0.49196383
0.23839927 0.15192237 0.49047929
0.24125941 0.15214333 0.49137869
0.24181236 0.15091977 0.4877004
0.24406132 0.15076885 0.487573
0.24561359 0.15019496 0.48616016
0.24703287 0.14955203 0.48460159
0.24905522 0.14928333 0.48433092
0.25069037 0.14879011 0.48340413
0.25185388 0.14802922 0.48167425
0.25322041 0.14740117 0.48043853
0.25574833 0.14745468 0.4814873
0.25813273 0.14742517 0.48232839
0.25984001 0.14701316 0.48197544
0.26062128 0.1460897 0.47999367
-0.16255844 0.1123716 0.35729492
-0.15666874 0.10953076 0.34853816
-0.1520125 0.10749686 0.34239683
-0.15396298 0.11014196 0.35121998
-0.15580635 0.11277177 0.36007079
-0.16120379 0.11806723 0.37752208
-0.16215082 0.12019147 0.38492072
-0.16364108 0.1227751 0.39386404
-0.1701933 0.12926723 0.41544226
-0.16899073 0.129958 0.4184593
-0.16473912 0.12829182 0.41391626
-0.1620196 0.12779132 0.41314983
-0.15967385 0.12757647 0.413326
-0.15724805 0.12729116 0.41328862
-0.15239023 0.12500328 0.40674442
-0.14967556 0.12443535 0.40578449
-0.14763115 0.1244167 0.40661514
-0.14566223 0.12446208 0.40765482
-0.14145391 0.12256826 0.40232572
-0.13760953 0.12094025 0.3978368
-0.13593321 0.12119808 0.39953163
-0.13404624 0.1212729 0.40061307
-0.13146809 0.12071531 0.39958751
-0.12914997 0.12038323 0.39928609
-0.1266266 0.11984665 0.398283
-0.12417281 0.1193602 0.39742112
-0.12202327 0.1191554 0.3974728
-0.12001068 0.1190799 0.39793351
-0.1180775 0.11908197 0.39863205
-0.1154801 0.11840314 0.39702576
-0.11316203 0.11799253 0.39629132
-0.11085105 0.11757524 0.39550835
-0.10854533 0.11714905 0.39466941
-0.10609782 0.11655183 0.39322785
-0.10256106 0.11471462 0.38756993
-0.10067379 0.11468847 0.38800138
-0.098681398 0.11453932 0.38799566
-0.097367972 0.11518767 0.39067349
-0.095788814 0.11554091 0.39233485
-0.094711564 0.11652577 0.39612684
-0.093059599 0.11682932 0.39758843
-0.091111869 0.11676647 0.39778534
-0.088239096 0.11549021 0.39382586
-0.086457625 0.11561786 0.39463234
-0.084746525 0.11584736 0.39577052
-0.082383953 0.11517652 0.39381504
-0.080204129 0.11473592 0.39262763
-0.078124009 0.11442038 0.39185065
-0.075175807 0.11278704 0.38654095
-0.073333628 0.11277289 0.38676211
-0.071226798 0.11234061 0.38553467
-0.069019109 0.11172236 0.38365349
-0.067470774 0.11216683 0.38540861
-0.067099594 0.11464727 0.39415297
-0.065395392 0.11492671 0.39532369
-0.063158929 0.11425973 0.39322671
-0.061382826 0.11441036 0.39393172
-0.058387779 0.11222749 0.38658831
-0.054482937 0.10809872 0.37252268
-0.042772572 0.090714522 0.31285462
-0.040171959 0.088240437 0.3044284
-0.037170883 0.084670983 0.2922096
-0.035060015 0.082932815 0.28629884
-0.033242773 0.081778005 0.28239334
-0.031346563 0.08032462 0.2774491
-0.02975045 0.079547375 0.2748332
-0.028475912 0.079598375 0.27507374
-0.027207848 0.079673208 0.27539212
-0.025856031 0.079498 0.27484196
-0.024498699 0.079286516 0.27416214
-0.023145618 0.079066075 0.27344725
-0.021546256 0.077928953 0.26955763
-0.020267511 0.077881843 0.26943433
-0.019115306 0.078347094 0.27108058
-0.017784532 0.078094631 0.27024049
-0.016517537 0.078104958 0.27030671
-0.015276672 0.078250833 0.27083936
-0.014013688 0.078299627 0.27103326
-0.012727407 0.078214988 0.27076277
-0.01144895 0.078164995 0.27060968
-0.010166815 0.078074291 0.27031329
-0.0088914242 0.078016855 0.27012977
-0.0076450249 0.078237027 0.27090529
-0.0064025074 0.078592695 0.27214792
-0.0050938609 0.078111582 0.27049088
-0.0037998881 0.077610783 0.26876357
-0.0025402775 0.077662878 0.26894885
-0.0012914846 0.07847514 0.27176473
-1.6182748e-05 0.078765951 0.27277279
0.0012653155 0.078853853 0.27307627
0.0025511179 0.078986548 0.27353287
0.0038442765 0.079181932 0.27420455
0.0051329499 0.079210103 0.27429512
0.0064412528 0.079469152 0.27518314
0.0078481995 0.080655411 0.27927962
0.0092768623 0.081693381 0.28285998
0.010691174 0.082360886 0.28515503
0.012099294 0.082837462 0.28678644
0.013437889 0.082790241 0.28660184
0.014938446 0.083658665 0.28958416
0.016360287 0.083978131 0.29066315
0.017698191 0.083850719 0.29019251
0.018997507 0.083571792 0.28919461
0.020556752 0.084397227 0.29201496
0.022096939 0.085046068 0.29422027
0.023480799 0.085052252 0.29419842
0.02513236 0.085973509 0.29733759
0.026674472 0.086443052 0.29890984
0.02823182 0.086912513 0.30047706
0.030069837 0.088160105 0.30472887
0.031634644 0.088529624 0.30593979
0.033578023 0.089880362 0.31053525
0.035304222 0.090561375 0.31280982
0.037371844 0.09202864 0.31779274
0.039294243 0.09303911 0.32118997
0.041355934 0.094292291 0.32541645
0.043159492 0.094888411 0.32736665
0.044894524 0.095297948 0.32866484
0.046629541 0.095680118 0.32986027
0.048244573 0.095799379 0.33014092
0.049958993 0.096102364 0.33104599
0.051579978 0.0962127 0.33127829
0.053352971 0.096591733 0.3324261
0.055302586 0.09725973 0.33455741
0.05721638 0.097829349 0.33633822
0.059074167 0.098275006 0.33768088
0.060972095 0.098762222 0.33915368
0.063790277 0.1006768 0.345512
0.065903321 0.10141059 0.3478004
0.068033382 0.10213414 0.35003796
0.070543788 0.10338059 0.35404992
0.076126374 0.10896654 0.37289223
0.080409117 0.11248023 0.38460389
0.08682736 0.11875854 0.405725
0.090339437 0.12087533 0.41258696
0.092507862 0.12114246 0.41311029
0.094512917 0.12118896 0.41286194
0.095967866 0.1205426 0.41023633
0.10010885 0.12322848 0.41892415
0.12095457 0.14316054 0.48556182
0.12374246 0.1436962 0.48677844
0.12641141 0.14407645 0.48743975
0.12924458 0.14462663 0.48864627
0.1321594 0.14524688 0.49005818
0.13428651 0.14499487 0.4884989
0.13694042 0.14531052 0.48882535
0.13942625 0.14544016 0.48849705
0.14270353 0.14637731 0.49084848
0.14534204 0.14663923 0.49090225
0.14737967 0.14629628 0.48890531
0.15065013 0.1471685 0.49094018
0.15313977 0.14726263 0.49034807
0.15565369 0.14737685 0.48979735
0.1582078 0.14752509 0.48933449
0.16072907 0.14763875 0.48873353
0.16314167 0.14765069 0.48777503
0.16572715 0.14781651 0.48730579
0.16880532 0.14841074 0.4882282
0.17170709 0.14883532 0.4885731
0.17395724 0.14869113 0.48703998
0.17617966 0.14852752 0.48544031
0.17896749 0.14883855 0.48539037
0.18183582 0.14920734 0.48552808
0.18457215 0.14945953 0.48529145
0.18665896 0.14918606 0.48336336
0.18962733 0.14961512 0.48373181
0.19257502 0.15001722 0.48403525
0.19621347 0.15094066 0.48604649
0.19812885 0.15053214 0.48380676
0.20081942 0.15071538 0.48351827
0.20446518 0.15160245 0.48553652
0.2075516 0.15205859 0.48622864
0.21056083 0.15244812 0.48677096
0.21418464 0.15326837 0.48875612
0.2185667 0.1546061 0.49246141
0.22188875 0.15517217 0.49378484
0.22556615 0.15597117 0.49593234
0.22748931 0.15555295 0.49429756
0.22987485 0.1554566 0.49377763
0.23192701 0.15513936 0.49264833
0.23393455 0.15479937 0.49153936
0.23541111 0.15411903 0.48944095
0.23795004 0.1541412 0.48966342
0.23955266 0.15356271 0.4880659
0.24241392 0.15379466 0.48913044
0.24347839 0.15289353 0.4866741
0.24580903 0.15279771 0.48686028
0.24677753 0.15186556 0.48445693
0.24832553 0.15130496 0.48330903
0.2498886 0.15076442 0.48229328
0.25038269 0.14959571 0.47932914
0.25210637 0.14917706 0.47882637
0.25460726 0.14922188 0.47987264
0.25704759 0.14923072 0.48086417
0.25870755 0.14879055 0.4804641
0.26169088 0.14911264 0.48257977
-0.17070311 0.11728428 0.3665024
-0.16354005 0.11488742 0.35929281
-0.1567937 0.11139958 0.34861574
-0.15801434 0.11355709 0.35566509
-0.16475263 0.121185 0.38038272
-0.16391657 0.1220052 0.38346359
-0.16486381 0.12418845 0.39089736
-0.16816233 0.12821773 0.40422398
-0.17101789 0.13200453 0.41687551
-0.16835839 0.13157587 0.41627738
-0.16455524 0.13023126 0.41280991
-0.16079119 0.12888351 0.40934911
-0.15820457 0.1284568 0.40882963
-0.1543213 0.12695217 0.40488854
-0.15151651 0.12630646 0.40368873
-0.14941977 0.12624152 0.40435174
-0.14745949 0.12629166 0.40539005
-0.14326902 0.12440666 0.40020645
-0.13902846 0.12242444 0.3946819
-0.13809787 0.12334188 0.39849356
-0.13545173 0.12273149 0.39736348
-0.13340338 0.12265273 0.39793971
-0.13118556 0.12241352 0.39798045
-0.12886356 0.12206836 0.39765838
-0.12602007 0.121211 0.39564374
-0.12385239 0.12098701 0.39567202
-0.1219439 0.12101312 0.39649835
-0.11969622 0.12069806 0.39618561
-0.11703561 0.11994945 0.39442337
-0.11497953 0.1198058 0.39462462
-0.1127759 0.11950093 0.39427149
-0.11046586 0.11907086 0.39348021
-0.1077622 0.11819398 0.39118469
-0.10437811 0.11652616 0.38623762
-0.1015908 0.11547607 0.38330433
-0.099391855 0.11506823 0.38247594
-0.097647876 0.11518168 0.38335884
-0.096927941 0.11653064 0.38834056
-0.095362402 0.11689594 0.39003164
-0.094126508 0.11768802 0.39313197
-0.092022844 0.11740528 0.39262506
-0.089756474 0.11689885 0.3913486
-0.087996937 0.11704504 0.39223754
-0.086217865 0.117171 0.39304227
-0.084267005 0.11706393 0.39304805
-0.081846774 0.11628513 0.39077929
-0.079853743 0.11609119 0.39045694
-0.077812955 0.11581691 0.3898477
-0.074887797 0.11418089 0.38463467
-0.073210537 0.11441327 0.38569781
-0.070368566 0.11279073 0.38049069
-0.068590917 0.11283365 0.38088495
-0.067278884 0.11366553 0.3839317
-0.066391453 0.11528089 0.38961738
-0.064993188 0.11607616 0.39252391
-0.062838592 0.1155277 0.39087552
-0.060839415 0.11524041 0.39009795
-0.05831388 0.11390703 0.38576591
-0.054882739 0.11066164 0.37494141
-0.050938055 0.10613002 0.35973808
-0.040499985 0.090406746 0.3066771
-0.037569985 0.08697091 0.29512492
-0.035373718 0.085034728 0.28864917
-0.033785254 0.084463239 0.2867972
-0.03230885 0.084135957 0.28576797
-0.030336801 0.082433432 0.28006053
-0.028866304 0.082001001 0.27866125
-0.027296191 0.081230938 0.27610898
-0.025877452 0.080856919 0.27489746
-0.024537511 0.0807027 0.27442864
-0.023248047 0.080706619 0.2744934
-0.021895925 0.080480672 0.27377242
-0.020331677 0.079398133 0.27013317
-0.019108668 0.07959272 0.27083504
-0.01779481 0.079409666 0.27024868
-0.016535183 0.079459079 0.27045017
-0.015323104 0.079764247 0.27151933
-0.014085849 0.079981878 0.27228779
-0.012785549 0.079849243 0.27186102
-0.011489003 0.07971321 0.27141997
-0.010177732 0.079428323 0.27046937
-0.0089090141 0.079441614 0.27053159
-0.0076780091 0.079851553 0.2719422
-0.006391257 0.079729617 0.27153915
-0.0051075155 0.079593822 0.2710866
-0.0038444737 0.079797529 0.27178812
-0.0025626819 0.079621129 0.27119273
-0.0013015586 0.080372587 0.27375555
-1.6278454e-05 0.080519415 0.27425683
0.0012726008 0.08059676 0.27451918
0.0025738641 0.080985926 0.27584141
0.0038644099 0.080890223 0.27550995
0.005203574 0.081604965 0.27793655
0.0065275142 0.081842214 0.27873442
0.0078642592 0.082133949 0.27971545
0.0092502721 0.082783088 0.28191108
0.010832491 0.084805749 0.28878105
0.01222823 0.08508081 0.28969699
0.013586309 0.085065015 0.28961968
0.015027533 0.085525282 0.29116029
0.016428374 0.085698098 0.29171908
0.017840587 0.085899055 0.29237038
0.019259112 0.086099498 0.29301655
0.020763485 0.086631387 0.29478696
0.0223877 0.087565452 0.29792166
0.023708642 0.08727321 0.29687989
0.025308982 0.087984741 0.29924861
0.026786799 0.088217817 0.2999852
0.028496437 0.08915285 0.3031036
0.030315896 0.090325989 0.30702534
0.031987555 0.090972066 0.30914927
0.033782985 0.091898628 0.3122198
0.035467181 0.092457965 0.31403592
0.037677836 0.094290018 0.32016671
0.03997058 0.096178584 0.32647949
0.041619685 0.096435852 0.3272458
0.043049455 0.096184671 0.32627994
0.044853818 0.096758895 0.32810625
0.046598081 0.097169489 0.32936889
0.048299402 0.097466923 0.33023897
0.049930975 0.097609431 0.33057514
0.051614668 0.097842082 0.33120728
0.053400841 0.098249592 0.33242115
0.055448961 0.099101976 0.33512855
0.057348628 0.099649049 0.33679098
0.05884929 0.099491969 0.33606234
0.060851902 0.10016942 0.33814067
0.064103834 0.1028159 0.34684724
0.065731436 0.10278992 0.34652054
0.068819724 0.10499366 0.35369289
0.070700526 0.10529413 0.35443425
0.075763606 0.11020973 0.37068322
0.079970203 0.11368428 0.3820473
0.082232296 0.11430152 0.38378194
0.086701445 0.11789297 0.39547354
0.090607457 0.12058213 0.40410116
0.094522841 0.12317143 0.41235849
0.093922883 0.11989125 0.4009496
0.096111082 0.12023013 0.40163541
0.10193293 0.1250121 0.4171243
0.12839468 0.14340262 0.4753398
0.13403343 0.14707358 0.48678556
0.13647117 0.14716603 0.48634255
0.13908798 0.14744523 0.48648861
0.14201379 0.1480372 0.48763582
0.14480442 0.14847115 0.48823118
0.14761482 0.14891106 0.48881555
0.15047744 0.14938879 0.48949379
0.15303454 0.14955308 0.48911697
0.1556029 0.14972314 0.48873395
0.15820469 0.14991969 0.48841339
0.16057813 0.14989725 0.4873583
0.16308942 0.15000221 0.48669901
0.16566159 0.15015934 0.48619163
0.16808198 0.15017639 0.48521683
0.17117421 0.15078475 0.48613861
0.17376825 0.15094346 0.48559985
0.17627263 0.15102097 0.48479652
0.1790354 0.15131482 0.48468801
0.18153834 0.15138416 0.48386589
0.18377663 0.15123385 0.48235589
0.18650967 0.15148933 0.48215875
0.18935236 0.15182617 0.48224229
0.19232069 0.15225394 0.4826417
0.19500671 0.15245029 0.4823423
0.19780131 0.15272565 0.48233527
0.20036879 0.15282109 0.48180965
0.2041153 0.1538026 0.48413011
0.20709638 0.15419087 0.4846406
0.21059512 0.15495089 0.48638439
0.21414085 0.15572739 0.48824894
0.21900289 0.15743227 0.4930954
0.22228789 0.15797763 0.49438724
0.22298622 0.15669307 0.49004075
0.22685803 0.15764228 0.49276957
0.2288812 0.15730016 0.49155083
0.23117286 0.15714799 0.49101657
0.23305669 0.1567248 0.48972583
0.23479737 0.1562154 0.48825458
0.23632132 0.15557404 0.48645759
0.23919612 0.15582608 0.48753977
0.24039057 0.15498956 0.48529872
0.24286242 0.15498523 0.48574287
0.24447462 0.15443797 0.48456252
0.24600942 0.15385327 0.48333657
0.24722049 0.15307966 0.48158476
0.24868442 0.1524763 0.48043215
0.2498325 0.15169282 0.47877201
0.25082657 0.15083186 0.47692207
0.25351843 0.1509985 0.47837839
0.25544626 0.15071119 0.47845408
0.25744542 0.150471 0.47873122
0.25410232 0.14714171 0.46920741
-0.16848937 0.11761455 0.36171362
-0.16254355 0.11472459 0.35288575
-0.16103639 0.11493774 0.3536655
-0.16048969 0.11584903 0.35665858
-0.1670678 0.12198339 0.3758094
-0.16955836 0.12524119 0.38618472
-0.16872223 0.12608956 0.38920584
-0.17031525 0.12879506 0.39803386
-0.17721799 0.13562942 0.41971949
-0.1739016 0.13471411 0.41750553
-0.16953413 0.13295195 0.41270709
-0.16775432 0.13320036 0.41418999
-0.1645764 0.13233091 0.41223559
-0.16010708 0.13038746 0.40695572
-0.1555215 0.12829764 0.40122527
-0.15312888 0.12798573 0.4010649
-0.15099403 0.12788382 0.40157989
-0.14921366 0.12808344 0.40305716
-0.14732862 0.12819743 0.40427735
-0.1419784 0.12525752 0.39585349
-0.13932383 0.12464648 0.39476725
-0.13651685 0.12387969 0.39317659
-0.1344617 0.12378279 0.39370105
-0.13282897 0.1240776 0.39546481
-0.13067289 0.12388509 0.39566547
-0.12822981 0.12341052 0.39494827
-0.12570718 0.12284362 0.39391443
-0.12346481 0.12253714 0.39369422
-0.12141504 0.12241513 0.3940466
-0.11898123 0.12189572 0.39309773
-0.11678218 0.12160377 0.39285854
-0.11465767 0.12138101 0.39282009
-0.11237565 0.12098107 0.39218485
-0.10984644 0.12029667 0.3906011
-0.10757641 0.1198771 0.38985088
-0.10356777 0.11747052 0.38260433
-0.10122489 0.11690017 0.3813037
-0.098978572 0.11642227 0.38027975
-0.097464062 0.11680336 0.38204139
-0.095845588 0.11707213 0.38341907
-0.094632253 0.11785599 0.38646862
-0.093099363 0.11826526 0.38827568
-0.091674879 0.11883176 0.39058384
-0.089717336 0.11871649 0.39063433
-0.087806761 0.1186598 0.39085886
-0.085779883 0.11844005 0.39052778
-0.083857514 0.11835805 0.39063263
-0.081562832 0.11773489 0.38893273
-0.079557098 0.11750954 0.38852832
-0.076887764 0.11626996 0.38475075
-0.074989356 0.11616419 0.38470638
-0.072322644 0.11483317 0.38058624
-0.070243537 0.11439086 0.37939325
-0.068193622 0.11397406 0.3782694
-0.066383459 0.11394627 0.37842283
-0.06596709 0.11637579 0.38672972
-0.064555012 0.11713735 0.38948792
-0.06272161 0.1171567 0.38976786
-0.060450677 0.11633521 0.38723773
-0.058044452 0.1151939 0.38362876
-0.055460099 0.11361409 0.37854472
-0.051498331 0.10901324 0.3633759
-0.048998635 0.10729685 0.35780373
-0.037856959 0.089036681 0.29713783
-0.035691809 0.08717148 0.29101425
-0.033885207 0.08606784 0.28742364
-0.032347806 0.085584506 0.28589708
-0.030688524 0.084722705 0.28309935
-0.029026164 0.083773717 0.2800034
-0.027526045 0.083224937 0.27823883
-0.026075764 0.082779512 0.27681434
-0.024617497 0.082260571 0.27513877
-0.023285333 0.082128771 0.27475345
-0.022075709 0.082439095 0.27584317
-0.020631162 0.081856087 0.27393985
-0.019200163 0.081252754 0.27196401
-0.017841829 0.080892757 0.27079874
-0.016571652 0.080907844 0.27088553
-0.01544458 0.081682287 0.2735118
-0.014146615 0.081611492 0.27330494
-0.012860844 0.081603929 0.27330682
-0.011538703 0.081338324 0.27244142
-0.010236073 0.081161112 0.27186924
-0.0089124246 0.080742933 0.27048704
-0.007714984 0.081519224 0.27310362
-0.0063773799 0.080828756 0.27080387
-0.0051137796 0.080965847 0.271274
-0.003841354 0.081007853 0.27142325
-0.0025829202 0.081533261 0.27318972
-0.0013063711 0.081959806 0.27462256
-1.63778e-05 0.08230634 0.27578494
0.001282424 0.082517721 0.27649203
0.0025985243 0.083069377 0.27833682
0.0039177416 0.083317988 0.27916372
0.0052178102 0.083136804 0.27854803
0.0065588746 0.083550498 0.27992293
0.0078718681 0.083528161 0.27983427
0.0095102601 0.08647085 0.28967586
0.010973964 0.087287217 0.29239073
0.01231673 0.087067023 0.29163021
0.013668408 0.086947598 0.29120448
0.015060037 0.087080933 0.29162207
0.016475175 0.087316602 0.29237905
0.017906804 0.08759667 0.29328111
0.019344879 0.087865956 0.29414344
0.020936694 0.088751018 0.2970629
0.022463297 0.089266203 0.29873982
0.02405633 0.089969195 0.30104044
0.025479555 0.089994252 0.30106807
0.026908359 0.090035319 0.30114475
0.028834864 0.091654286 0.30649334
0.03050808 0.092352234 0.30875522
0.032531761 0.093999349 0.31418335
0.034398917 0.095070556 0.31767872
0.035951573 0.095219471 0.31808525
0.037820403 0.096160375 0.32113025
0.040118821 0.098079063 0.32743108
0.041572127 0.097866073 0.32660669
0.043111794 0.09786433 0.32648042
0.044826049 0.09824539 0.3276231
0.046636637 0.098805092 0.32935247
0.048303526 0.099034056 0.32997003
0.049923804 0.099156134 0.3302224
0.051627442 0.099431351 0.3309752
0.053371575 0.099766098 0.33191571
0.055209871 0.10025266 0.33335018
0.056837156 0.10033967 0.33344498
0.058485772 0.10045862 0.33363488
0.060886085 0.10182848 0.33796504
0.06318289 0.10295939 0.3414852
0.066213496 0.10519962 0.3486647
0.068542764 0.10624342 0.35185817
0.071778238 0.10860869 0.35940614
0.074209586 0.10967548 0.362634
0.079269335 0.11449002 0.37822202
0.081754543 0.11545473 0.38105953
0.086979315 0.1201622 0.39621592
0.087789334 0.11870009 0.39100179
0.090900712 0.12034574 0.39600614
0.093328699 0.12103794 0.39784652
0.094399191 0.1199771 0.39390752
0.098001733 0.12211291 0.40044013
0.10553669 0.12653817 0.41389596
0.1074492 0.12644492 0.413032
0.10934697 0.12633806 0.41210309
0.13560146 0.14856665 0.48241261
0.1386739 0.14935717 0.48419195
0.14153862 0.14990135 0.48514026
0.14399347 0.15000069 0.48462045
0.14692748 0.15058795 0.48564878
0.14966065 0.15095395 0.48593423
0.15295285 0.1518636 0.48793957
0.15543652 0.15195481 0.48728761
0.15794289 0.15206513 0.48667565
0.16049226 0.15221293 0.48616433
0.16307098 0.15238379 0.48570886
0.16568272 0.15258014 0.48531911
0.16801602 0.15251808 0.4840968
0.17089444 0.15294568 0.48441982
0.17365697 0.1532591 0.48437357
0.17639776 0.15354502 0.48423845
0.17911287 0.15380114 0.48401245
0.18165413 0.15390317 0.48331124
0.18369342 0.15358278 0.48130271
0.18635763 0.15378645 0.48096085
0.18954441 0.15441059 0.48195857
0.19207788 0.15449344 0.48129877
0.19467843 0.15462752 0.48083988
0.19720933 0.15470365 0.48024866
0.20044266 0.15532222 0.48139301
0.20358764 0.15585823 0.48233703
0.20644796 0.15616618 0.4826383
0.21084556 0.15761606 0.48653388
0.21504156 0.15888324 0.48993284
0.21789382 0.15913992 0.49029189
0.22030883 0.15907501 0.48974389
0.22336826 0.15947163 0.4907026
0.2253499 0.15909854 0.48938054
0.22827241 0.15939058 0.49019325
0.23040092 0.15912792 0.4893887
0.23250864 0.15885668 0.48864597
0.23397219 0.1581558 0.4866679
0.23553418 0.15753549 0.48502141
0.23760647 0.15726589 0.48453626
0.23982166 0.15709545 0.48443678
0.24089345 0.15618712 0.48213729
0.24259062 0.15569857 0.4812046
0.24422325 0.15517873 0.48024437
0.24578221 0.15462287 0.47923815
0.24767922 0.1542885 0.4789812
0.24878567 0.1534729 0.47728863
0.2508854 0.15327989 0.47758812
0.25163564 0.15227388 0.47540575
0.25336862 0.15187597 0.47516879
0.25431573 0.15101881 0.47353947
0.25606242 0.15064794 0.47347635
-0.16273816 0.11538799 0.34936297
-0.16313562 0.11695485 0.35412189
-0.1637388 0.11870605 0.35950351
-0.16456139 0.12065792 0.36556026
-0.16489579 0.1222926 0.37072536
-0.17026792 0.1277449 0.38754252
-0.17396064 0.13205062 0.40097031
-0.17870668 0.13726793 0.41725942
-0.17535709 0.13631763 0.41487792
-0.171266 0.13476072 0.41069981
-0.1688033 0.13446248 0.41040462
-0.16684797 0.13456596 0.41138485
-0.16349266 0.13352871 0.40891784
-0.1572393 0.13006759 0.39904305
-0.15472522 0.12964985 0.39851719
-0.15175396 0.12883301 0.39678556
-0.15034951 0.12934227 0.39915946
-0.14874864 0.12969406 0.40107104
-0.14378275 0.1270813 0.39381391
-0.14040111 0.12581569 0.39071515
-0.13856146 0.12591566 0.39185423
-0.13637926 0.12570277 0.3920199
-0.13440295 0.12567621 0.39276275
-0.13237531 0.12560019 0.39334467
-0.13029604 0.12547217 0.3937543
-0.12808898 0.12521535 0.39374664
-0.12549514 0.12456673 0.39248851
-0.12322041 0.12421951 0.39215955
-0.12053952 0.12344533 0.39045998
-0.11837725 0.1231859 0.39036542
-0.11635315 0.12306406 0.39068669
-0.11400739 0.12259233 0.38987514
-0.11178173 0.1222359 0.3894065
-0.10900568 0.12125494 0.38692147
-0.10635678 0.12038351 0.38475654
-0.10341986 0.11914913 0.38140118
-0.10085008 0.11830053 0.37925085
-0.09859968 0.11780209 0.37819713
-0.096836671 0.11787816 0.3789666
-0.095754251 0.11880155 0.38244501
-0.094261482 0.11924203 0.38435566
-0.092765249 0.11969569 0.38629338
-0.091284633 0.12018838 0.38834208
-0.089494012 0.12028496 0.38909465
-0.087572113 0.12020544 0.38925967
-0.085512906 0.11992989 0.388771
-0.083283894 0.11939867 0.38743365
-0.081639901 0.11970106 0.38878387
-0.079280205 0.11894374 0.3866747
-0.077055991 0.11835848 0.38510522
-0.074175946 0.11671276 0.38006401
-0.072264694 0.1165472 0.37982357
-0.070010096 0.11580526 0.37768826
-0.06793724 0.11533278 0.37641546
-0.066153355 0.11533862 0.37668961
-0.06467285 0.11588842 0.37872887
-0.064196199 0.11831978 0.38691106
-0.06232582 0.11824985 0.38690659
-0.060101036 0.11748288 0.38460833
-0.05741147 0.1157311 0.37907058
-0.055375613 0.11522661 0.37760395
-0.052324757 0.11250608 0.36886024
-0.049239032 0.10952044 0.35922939
-0.046326425 0.10672045 0.35019064
-0.03809816 0.094513208 0.31036943
-0.034728572 0.08959841 0.2943317
-0.032931764 0.088500969 0.29082116
-0.031424686 0.088120587 0.28965953
-0.029436937 0.086296543 0.28374478
-0.028031841 0.086088248 0.28313565
-0.026517291 0.085506216 0.28129154
-0.024764035 0.084052734 0.2765744
-0.023489743 0.084153816 0.27696693
-0.022239912 0.084359556 0.27769983
-0.020906065 0.084252395 0.27739871
-0.019250451 0.082747847 0.27249172
-0.018156495 0.083615147 0.27539128
-0.016846072 0.08354225 0.27519098
-0.015418063 0.082825534 0.2728661
-0.014222908 0.083343133 0.27460423
-0.012926332 0.083310463 0.27452615
-0.011642248 0.083359994 0.2747159
-0.010373644 0.083546557 0.27535424
-0.0090422323 0.083208367 0.27426004
-0.0077013923 0.082656473 0.2724584
-0.0064415792 0.08292751 0.27336654
-0.0051571862 0.082938336 0.27341422
-0.0038578252 0.08263576 0.27242598
-0.002584714 0.082874119 0.27321839
-0.0013155255 0.083833255 0.27638444
-1.6474922e-05 0.084097624 0.27725744
0.0012977462 0.084817998 0.27963105
0.0026321583 0.085469037 0.28177345
0.0039193677 0.084664561 0.27911457
0.0052858568 0.085546672 0.28201315
0.0066382126 0.085892171 0.28313977
0.0080990084 0.087291025 0.28773564
0.0095709153 0.088392101 0.29134646
0.011066031 0.089404978 0.29466313
0.012383427 0.088916391 0.29302782
0.013716469 0.08862672 0.29204509
0.015089812 0.088626482 0.29201296
0.016593052 0.089325562 0.29428118
0.018036772 0.089621246 0.29521641
0.019620318 0.090519734 0.29813308
0.021212561 0.091335781 0.30077341
0.022688814 0.091581546 0.30153105
0.024260243 0.092159972 0.30337915
0.025638757 0.091981933 0.30273241
0.027481094 0.093399048 0.30733001
0.029101409 0.093957528 0.30909592
0.031459086 0.096730016 0.31813738
0.03309096 0.097120121 0.31933522
0.034542002 0.096968658 0.31874621
0.036254026 0.097531922 0.32050008
0.038165271 0.098564602 0.32378849
0.040070314 0.0995024 0.32675627
0.041769851 0.099879302 0.32787344
0.043294184 0.099825293 0.32756826
0.04497882 0.10013189 0.32843831
0.046639003 0.1003654 0.32905984
0.048454963 0.10090825 0.33068588
0.05002553 0.10092211 0.33056882
0.051618144 0.10097824 0.33058086
0.053389747 0.10137092 0.33168444
0.055126473 0.10167684 0.33249289
0.056857888 0.10195623 0.33320305
0.059208669 0.1033011 0.33738136
0.061592508 0.10463133 0.34149474
0.063800298 0.10560194 0.34441742
0.066118248 0.10670176 0.34774432
0.068386294 0.10766935 0.35062221
0.071860477 0.11044461 0.35936338
0.074330002 0.11158256 0.36275238
0.077482611 0.11367091 0.36920691
0.081505276 0.11691447 0.37938204
0.085261233 0.11964267 0.3878499
0.087583721 0.12028607 0.38953117
0.089546748 0.12041926 0.38953999
0.09222991 0.12149564 0.39257744
0.093871959 0.12118492 0.39111155
0.096079364 0.12160196 0.39197496
0.098306 0.12202681 0.39284077
0.10225193 0.1245295 0.40036371
0.10460707 0.12503795 0.40144184
0.10610444 0.12452132 0.39920837
0.10992595 0.12670192 0.40559357
0.11612264 0.13149565 0.42028862
0.14024286 0.1508669 0.47981662
0.14398055 0.15234806 0.4836753
0.14660133 0.15261871 0.48365787
0.14918864 0.15284643 0.48347926
0.15184781 0.15313953 0.48348325
0.15490061 0.15381448 0.48466742
0.15738957 0.15391755 0.48402691
0.15990533 0.15404339 0.48344097
0.16257612 0.15431267 0.48328945
0.16533843 0.15465972 0.48336735
0.1682101 0.15509772 0.48371765
0.17076476 0.15523522 0.4831236
0.17365253 0.15566748 0.48344436
0.17638151 0.15594748 0.48329335
0.17928097 0.15636864 0.48358595
0.18153137 0.15621999 0.48213097
0.18391669 0.15618984 0.4810645
0.1868321 0.15660478 0.4813948
0.18915386 0.15651789 0.4802143
0.19176321 0.15666814 0.47980148
0.19419774 0.15667361 0.47899079
0.19736949 0.15726633 0.48002517
0.20054534 0.15784784 0.48107812
0.20304234 0.15788747 0.48054069
0.20572251 0.15806687 0.48049691
0.20849566 0.15831266 0.48072675
0.21498637 0.16134268 0.48947912
0.21792376 0.161667 0.49009559
0.22052674 0.16173871 0.49002972
0.22284986 0.16160583 0.48943007
0.22538079 0.16162492 0.48937792
0.22771879 0.16150679 0.48899743
0.22978063 0.16119748 0.48812526
0.23134461 0.1605493 0.4863123
0.23352827 0.16034043 0.48591378
0.23540711 0.15992881 0.48498267
0.23714414 0.15943046 0.48386735
0.23901232 0.15902966 0.48312396
0.24039605 0.15831797 0.48150849
0.24175569 0.15760498 0.47995692
0.24395092 0.15744552 0.48015788
0.24586283 0.15710819 0.47988155
0.24641487 0.15591702 0.47705427
0.24909382 0.15608169 0.47843182
0.24957393 0.15487868 0.47567016
0.25075099 0.15412697 0.47433883
0.25184262 0.1533374 0.47293445
0.25319445 0.15271956 0.47210088
0.25288633 0.1511212 0.4682678
-0.17248532 0.12284456 0.36638755
-0.16972756 0.12220865 0.36439645
-0.16555379 0.12052771 0.35935381
-0.16872801 0.12421864 0.37039185
-0.16850987 0.12546758 0.37421536
-0.16697118 0.12575071 0.37522492
-0.17971617 0.13692291 0.40881151
-0.18301387 0.14107555 0.42153844
-0.17745145 0.13841598 0.41398099
-0.17308332 0.13663508 0.40910289
-0.17032246 0.13609506 0.40799275
-0.16809756 0.13597524 0.40819636
-0.16545644 0.13551156 0.40741745
-0.15891063 0.13179766 0.3968941
-0.15556224 0.13067439 0.39419001
-0.15365894 0.13075162 0.39513841
-0.15221526 0.13122712 0.39732513
-0.14974689 0.13082014 0.39686677
-0.14594972 0.12922563 0.3928155
-0.14250186 0.12790094 0.38958323
-0.14006411 0.12745866 0.38903987
-0.13779902 0.12716329 0.38894805
-0.13606262 0.12735431 0.39034724
-0.13413861 0.12737274 0.39121914
-0.13093182 0.12615569 0.38828588
-0.12918572 0.12633075 0.38962483
-0.12651747 0.12559567 0.38814488
-0.12446605 0.12545973 0.3885006
-0.1217942 0.1246844 0.38685825
-0.11984812 0.12463924 0.38746238
-0.11775892 0.1244414 0.38757494
-0.11582372 0.12440246 0.38816437
-0.11313708 0.12354168 0.3861669
-0.11109553 0.12336809 0.38629356
-0.1084475 0.12250341 0.38423195
-0.10613205 0.12199067 0.38324806
-0.10338199 0.12095118 0.38058221
-0.10039052 0.11958632 0.37686163
-0.098519996 0.11953091 0.37724176
-0.096652977 0.11947773 0.37760943
-0.095068 0.1197779 0.37907583
-0.093632288 0.12028157 0.38117081
-0.092345186 0.12100011 0.38393307
-0.091155484 0.12187819 0.38718924
-0.089317836 0.12190847 0.38773727
-0.087155111 0.1214869 0.38682872
-0.084750317 0.12070227 0.38474238
-0.082589068 0.12023732 0.38365364
-0.08077608 0.12026982 0.38413414
-0.078820169 0.12008604 0.38390726
-0.076566145 0.11942852 0.38214767
-0.074098594 0.11839777 0.37917385
-0.071809858 0.11760832 0.3769533
-0.069767848 0.11719287 0.37591416
-0.067291334 0.1160065 0.37238467
-0.065733701 0.11638293 0.37385678
-0.064161345 0.11675346 0.37529886
-0.062758677 0.11746274 0.37781987
-0.061257511 0.11802398 0.37985522
-0.059571691 0.11825266 0.38081014
-0.057308804 0.11731435 0.37799448
-0.054386754 0.11492266 0.37047961
-0.052364442 0.11433614 0.36876911
-0.049366988 0.11150662 0.35980937
-0.046934646 0.10979707 0.35444775
-0.045016367 0.10920805 0.35269177
-0.039409418 0.099281147 0.32075715
-0.036580615 0.095839091 0.30974996
-0.033748277 0.09210071 0.29777008
-0.031649485 0.090126276 0.29148084
-0.0299909 0.089282967 0.28884113
-0.028676687 0.089433379 0.28941
-0.026831236 0.087859258 0.28439167
-0.025194921 0.086840399 0.28116351
-0.023558054 0.085706405 0.27755612
-0.022293901 0.085874766 0.27816111
-0.020999011 0.085938372 0.27842253
-0.019630307 0.085688248 0.27766329
-0.018331463 0.085729122 0.27784285
-0.017125171 0.086242378 0.27954975
-0.015730195 0.085811771 0.27819341
-0.014284723 0.085002474 0.27560538
-0.012989116 0.085012384 0.27566952
-0.011740186 0.08536388 0.27683815
-0.01044031 0.085386455 0.27693686
-0.0090572778 0.084638372 0.27453271
-0.0077522476 0.084491603 0.27407566
-0.0065336381 0.085416086 0.27709067
-0.0052108872 0.085100576 0.27608028
-0.0039089085 0.085027479 0.27585325
-0.0026314671 0.085680634 0.27797955
-0.0013460694 0.087108955 0.28261802
-1.6675296e-05 0.086439505 0.28044748
0.0013145708 0.087249026 0.28307241
0.002663427 0.087824561 0.28493536
0.0040158792 0.088093646 0.28580102
0.005485415 0.090152033 0.29246834
0.0067879157 0.0891902 0.28933433
0.0081779975 0.089508243 0.29034925
0.0097502861 0.091444097 0.2966083
0.011123393 0.091261037 0.29599079
0.012470541 0.090929426 0.29488817
0.013751983 0.090233117 0.29259962
0.015310154 0.091314033 0.29607037
0.016873443 0.092242591 0.29904258
0.018269574 0.092184708 0.2988126
0.019780602 0.092673391 0.30035001
0.021425027 0.093680158 0.30356157
0.022961199 0.094117224 0.30492181
0.024408398 0.094159618 0.30499858
0.026068943 0.09497457 0.30757236
0.027919745 0.096360303 0.31198806
0.029345471 0.096213713 0.31143624
0.031946886 0.099752091 0.322804
0.033396915 0.099537 0.32201657
0.034898497 0.09948761 0.32175925
0.036840744 0.10064618 0.32540107
0.038589317 0.1012041 0.32709244
0.040000856 0.10086917 0.32589078
0.041585315 0.10097896 0.32611886
0.043513849 0.10188656 0.32891458
0.044945691 0.10160866 0.32787442
0.04668602 0.10202343 0.32906085
0.048445527 0.102452 0.33028179
0.050302703 0.10305385 0.33205065
0.051756132 0.10281715 0.33110771
0.053440206 0.10303907 0.3316319
0.055693731 0.10431493 0.33553511
0.057529137 0.10475848 0.33674714
0.059640355 0.1056667 0.33943897
0.061649621 0.10635124 0.34139726
0.063593417 0.10689063 0.34287477
0.065861821 0.107935 0.34595573
0.067884229 0.1085351 0.3475956
0.070436217 0.10993317 0.35177219
0.074197166 0.11310917 0.36161107
0.077380799 0.1152807 0.36820817
0.080597788 0.11740427 0.37462342
0.083931908 0.1196024 0.38124657
0.087069429 0.12143278 0.38666707
0.088715769 0.12115051 0.38533765
0.090979032 0.12170503 0.3866508
0.092512153 0.12128019 0.38483384
0.095704176 0.12300413 0.38981128
0.097921982 0.12343369 0.39065897
0.10017152 0.1238863 0.39155644
0.10410353 0.12636437 0.39882284
0.10507222 0.12522076 0.39463288
0.10724057 0.12552215 0.39498073
0.11162873 0.12836564 0.40329209
0.1144821 0.12937653 0.40580654
0.11915074 0.13236985 0.414498
0.14334354 0.15153965 0.471995
0.14914343 0.15516794 0.48238924
0.15156296 0.1552209 0.48162749
0.15394507 0.15523449 0.48072565
0.1569619 0.15587798 0.48175487
0.15951201 0.15604571 0.48129553
0.16238914 0.15652367 0.48177859
0.1650752 0.15680631 0.48164839
0.16794601 0.15725389 0.48201641
0.17041315 0.15731615 0.48120061
0.1733932 0.15784366 0.48180872
0.17663252 0.15858945 0.48308483
0.1785958 0.15818489 0.48086941
0.18118161 0.15833515 0.48036268
0.18387951 0.15857811 0.48016089
0.18650736 0.15875517 0.4797892
0.1885649 0.15844841 0.47799408
0.19100134 0.15846381 0.47721657
0.19410454 0.1590251 0.47813001
0.19728552 0.15963541 0.47924149
0.20033354 0.16012459 0.48004565
0.20262478 0.16000439 0.47908774
0.20537804 0.16024753 0.47928822
0.20920677 0.16131423 0.48202285
0.21509628 0.16392665 0.48944542
0.21802916 0.16425164 0.49011371
0.22026339 0.1640489 0.48929107
0.22197458 0.16346551 0.48741934
0.22478598 0.16369635 0.48806128
0.22718142 0.1636225 0.48788044
0.22889468 0.16306427 0.48633987
0.23062505 0.16253011 0.48495373
0.2327503 0.16228265 0.48450407
0.23503476 0.16215023 0.48447743
0.23697026 0.16178232 0.48382407
0.23841003 0.16108708 0.48226425
0.24012393 0.16058932 0.48136488
0.24199463 0.16020545 0.48087397
0.24412061 0.15999654 0.48097345
0.24528016 0.15916468 0.47926041
0.24659733 0.15845038 0.47795579
0.24760026 0.15755001 0.47614032
0.2496703 0.15733945 0.47645998
0.24997489 0.15603092 0.47349933
0.25131637 0.15538816 0.47259754
0.25374746 0.15542486 0.47380668
0.2516062 0.15268616 0.46658075
