# .PCD v0.7 - Point Cloud Data file format
VERSION 0.7
FIELDS x y z
SIZE 4 4 4
TYPE F F F
COUNT 1 1 1
WIDTH 1350
HEIGHT 1
VIEWPOINT 0 0 0 1 0 0 0
POINTS 1350
DATA ascii
0.045707628 -0.050255179 0.2789337
0.046141475 -0.049322464 0.27375412
0.047914103 -0.049832571 0.2765775
0.049225811 -0.049849067 0.27665573
0.050228763 -0.04956007 0.27503282
0.051382247 -0.049430344 0.27428773
0.052531369 -0.049302854 0.27354857
0.053558093 -0.049069289 0.27221426
0.054372326 -0.048656445 0.26987857
0.055368282 -0.048421293 0.2685214
0.05650188 -0.048314299 0.26786733
0.057709668 -0.048274014 0.26757485
0.058898967 -0.048220299 0.26719925
0.059798241 -0.047936339 0.26553908
0.060917817 -0.047836959 0.26489246
0.062030651 -0.047736369 0.26422957
0.063040674 -0.047562163 0.26314926
0.063838273 -0.047237474 0.26122686
0.065815926 -0.047781751 0.2640979
0.066683665 -0.04751499 0.26247367
0.067859814 -0.047473703 0.26208371
0.069240235 -0.04757423 0.26246372
0.070351474 -0.047489535 0.26180872
0.071417354 -0.047377665 0.2609911
0.072666623 -0.047389194 0.26083973
0.073778346 -0.047312126 0.26018646
0.074833311 -0.047201786 0.25933629
0.076468728 -0.047455221 0.26046863
0.077955104 -0.047609583 0.26103902
0.079402491 -0.047735691 0.26143643
0.080870859 -0.047870331 0.26186213
0.080940649 -0.04718557 0.25779203
0.080850638 -0.046429485 0.2533249
0.081461936 -0.046092451 0.25113478
0.08303161 -0.046299595 0.25189278
0.084218778 -0.046290576 0.25145504
0.085364431 -0.046259318 0.25087845
0.086794548 -0.04638093 0.25111163
0.088087089 -0.046426706 0.25091392
0.10820583 -0.047851741 0.25041392
0.11007391 -0.048124623 0.2511819
0.11207568 -0.048449166 0.25221664
0.11391806 -0.048698362 0.25286105
0.11516191 -0.048689019 0.25217435
0.11709319 -0.048967369 0.25299361
0.11900537 -0.049231827 0.25375903
0.1206509 -0.049381513 0.2539579
0.12218304 -0.049482126 0.2539368
0.12352876 -0.049505938 0.25356042
0.12529978 -0.04969795 0.25408834
0.1284354 -0.050421752 0.25737658
0.13029037 -0.050633259 0.25809577
0.1315171 -0.050598819 0.25761655
0.13283128 -0.050598375 0.25736946
0.13588169 -0.051252831 0.26051155
0.1366808 -0.051053647 0.2593748
0.13898347 -0.051414538 0.26114553
0.14070748 -0.051556505 0.26186597
0.14176576 -0.051454164 0.26140684
0.13547939 -0.048712905 0.24759445
0.1311485 -0.046719011 0.23762259
0.02217935 -0.059412431 0.33781675
0.023020357 -0.05755078 0.32726982
0.024562221 -0.057564557 0.32738808
0.026300393 -0.058009706 0.32996112
0.028762084 -0.059912469 0.34082782
0.030408327 -0.060005661 0.34140241
0.029641666 -0.055566296 0.31618619
0.030359048 -0.054199416 0.30844894
0.032838974 -0.055960394 0.31851241
0.033391368 -0.054426376 0.30982131
0.034478243 -0.05385511 0.30660838
0.03564449 -0.053448595 0.30433157
0.036860418 -0.053144995 0.30263886
0.037797693 -0.052477017 0.29886883
0.039299626 -0.052612718 0.29967353
0.039710645 -0.051328972 0.29239032
0.039670594 -0.049567245 0.28238004
0.040697381 -0.049209185 0.28036243
0.041732561 -0.048883341 0.27852479
0.043004595 -0.04884629 0.2783289
0.043756824 -0.048238367 0.27487615
0.04544986 -0.048672725 0.27735826
0.046818748 -0.04874545 0.27777511
0.048132282 -0.048758175 0.27784505
0.049224749 -0.048552174 0.27666321
0.050320085 -0.048359502 0.27555177
0.05132189 -0.04808883 0.27398986
0.052303918 -0.047813281 0.27239397
0.053293694 -0.047557775 0.2709057
0.054299165 -0.047327835 0.26955622
0.055412065 -0.04719986 0.26878032
0.056493081 -0.04705102 0.26787788
0.057410769 -0.046775576 0.26624691
0.058608402 -0.046735089 0.26594496
0.059758049 -0.046658825 0.26543045
0.060774092 -0.046483487 0.26434326
0.061571054 -0.046150949 0.26235321
0.062710941 -0.046083458 0.26186046
0.064080454 -0.046184059 0.262312
0.065413371 -0.046254981 0.26258326
0.066641241 -0.046250369 0.26241386
0.067878179 -0.046252113 0.26226839
0.069072254 -0.046225104 0.26194748
0.070510633 -0.046359673 0.26252866
0.07166715 -0.046307467 0.26203829
0.072598942 -0.046114299 0.26073739
0.073608555 -0.045976173 0.25973481
0.074741535 -0.045918364 0.25917208
0.076022349 -0.045951791 0.25910923
0.077516817 -0.046111237 0.25974005
0.079197563 -0.046374783 0.26093856
0.080630966 -0.046487615 0.26126981
0.081907317 -0.046507847 0.26106256
0.082420774 -0.046100762 0.2584419
0.083607189 -0.046076525 0.25795266
0.082837559 -0.044990629 0.25151065
0.083818056 -0.044872701 0.2504715
0.085493207 -0.045124754 0.25147796
0.086615168 -0.045081876 0.25082025
0.087773331 -0.045058753 0.2502543
0.11219437 -0.047239687 0.25276503
0.11359052 -0.04729604 0.25240782
0.11502215 -0.047365777 0.25213286
0.11656449 -0.047479089 0.25210491
0.11840966 -0.047711983 0.25273013
0.12035363 -0.047979314 0.2535595
0.12165782 -0.047988638 0.25305545
0.12433874 -0.048535183 0.25541681
0.12611225 -0.048719905 0.25591007
0.12824117 -0.049036745 0.25714102
0.1298912 -0.049165934 0.25743657
0.13129349 -0.049199685 0.25728706
0.13219726 -0.049047813 0.25622576
0.13509102 -0.049630012 0.25905776
0.1374066 -0.049990557 0.26079103
0.13915379 -0.050139356 0.26148126
0.14087401 -0.050275695 0.26216894
0.14016372 -0.049550235 0.25842434
0.1367338 -0.047885899 0.24983947
0.12072179 -0.041886777 0.21867268
0.021325754 -0.059882421 0.34967324
0.021898663 -0.057094943 0.33343643
0.023335252 -0.056781016 0.33164495
0.025330346 -0.057780355 0.33752611
0.027610423 -0.059273839 0.34629714
0.029638445 -0.060090218 0.35111535
0.028918449 -0.055542603 0.32458884
0.029012509 -0.05293534 0.3093963
0.030986484 -0.053843133 0.31474733
0.032250155 -0.053490236 0.31272939
0.033272579 -0.052785326 0.3086521
0.034307867 -0.052158739 0.30503112
0.035581045 -0.051929496 0.30373219
0.036156647 -0.050738987 0.29680851
0.037722938 -0.050975431 0.29822975
0.038738124 -0.050476871 0.29534888
0.039089542 -0.049177647 0.28777972
0.039784104 -0.048382372 0.28315577
0.040780146 -0.047993239 0.28090519
0.041793972 -0.047648698 0.27891207
0.042730931 -0.047240075 0.27654019
0.044437476 -0.047681265 0.27913907
0.0455845 -0.047514029 0.27817217
0.047095161 -0.047724575 0.27941242
0.048278626 -0.047601137 0.27869239
0.049392972 -0.047417846 0.27761659
0.050413474 -0.047156181 0.27607635
0.051376138 -0.04685485 0.27429801
0.052232105 -0.046473283 0.27204379
0.052973878 -0.046010714 0.26930916
0.054166291 -0.04595197 0.26893142
0.055489995 -0.046004739 0.26919881
0.056682855 -0.045949098 0.26882398
0.057341129 -0.045471944 0.26597542
0.058585566 -0.045470044 0.26589876
0.059792675 -0.045439851 0.26564762
0.060747664 -0.045223203 0.26429737
0.061650265 -0.044977002 0.26276553
0.062707692 -0.044851203 0.2619276
0.065360442 -0.04498405 0.26246431
0.066687524 -0.04504725 0.26269612
0.067712598 -0.04490786 0.26173481
0.068734773 -0.044771563 0.26077998
0.070178553 -0.044909857 0.26141152
0.071575977 -0.045014214 0.26183116
0.072675101 -0.044930626 0.26114365
0.073769137 -0.044846725 0.26044071
0.074946508 -0.044815406 0.26002887
0.076167211 -0.044810601 0.25975585
0.077515692 -0.044879913 0.25989637
0.0787073 -0.044857662 0.25949022
0.080236666 -0.045025632 0.26016679
0.081677571 -0.045139614 0.26051253
0.082988806 -0.045179609 0.26041251
0.084153831 -0.045139998 0.2598356
0.085329682 -0.045107253 0.25928056
0.085255995 -0.044424355 0.25497568
0.085364684 -0.043854386 0.25131124
0.086535074 -0.043838095 0.25080624
0.08777006 -0.043854538 0.25046957
0.11095323 -0.045987032 0.25375766
0.1122495 -0.046001486 0.25316593
0.11352193 -0.046005957 0.25252527
0.11486997 -0.046040624 0.25206062
0.1161985 -0.046066813 0.25156429
0.11792269 -0.046247605 0.25193027
0.11953381 -0.046380676 0.2520583
0.12152628 -0.046657357 0.25299311
0.1242632 -0.047211114 0.25545752
0.1258921 -0.047336828 0.25564045
0.12777044 -0.047552802 0.25635442
0.12967364 -0.047773581 0.25714168
0.13039513 -0.047558933 0.25564
0.13304876 -0.048046257 0.2579678
0.13538074 -0.048409026 0.25968245
0.13719501 -0.048581418 0.26043555
0.13888609 -0.048707295 0.26100159
0.14035717 -0.048754349 0.26120815
0.14072351 -0.048420399 0.2594361
0.13915491 -0.047433134 0.25422311
0.14027014 -0.047370519 0.25402281
0.020871209 -0.056999028 0.34210512
0.022036081 -0.055877805 0.33541876
0.023721468 -0.056138027 0.33702621
0.025786709 -0.057208408 0.34350047
0.027854625 -0.058158357 0.34925494
0.027063549 -0.053365182 0.32051843
0.027925175 -0.052164134 0.31335235
0.029843818 -0.052958991 0.31817615
0.030898893 -0.052218672 0.31377709
0.031959131 -0.051554028 0.30983159
0.033157382 -0.051160157 0.30751222
0.03430564 -0.050725199 0.3049446
0.034822237 -0.049428452 0.29719383
0.035838574 -0.048913561 0.29414129
0.037484746 -0.049264591 0.29629448
0.038637247 -0.048964906 0.29453227
0.039392926 -0.048200358 0.2899709
0.040215172 -0.047565531 0.28618646
0.041027024 -0.046959788 0.28257343
0.041891951 -0.046450768 0.27953869
0.04315808 -0.046403978 0.27928197
0.044560604 -0.046502288 0.27989483
0.046031952 -0.046664748 0.28088984
0.04724849 -0.046567045 0.28031439
0.048451476 -0.046461623 0.27968758
0.049394719 -0.046119232 0.27762905
0.050492316 -0.04593483 0.27651596
0.051533967 -0.045710031 0.27515385
0.052535757 -0.045461707 0.27364391
0.053607155 -0.04528401 0.27255255
0.054236282 -0.044749666 0.26930803
0.05534495 -0.044626288 0.26852983
0.056758888 -0.044749074 0.269225
0.057886202 -0.044645455 0.26854983
0.058735959 -0.044336736 0.26663285
0.059928514 -0.044294249 0.26630846
0.060860742 -0.04406501 0.26485232
0.062047534 -0.04402557 0.26452759
0.062992319 -0.043819334 0.26319101
0.063895494 -0.043592636 0.26172194
0.065230444 -0.043663517 0.26202875
0.068771131 -0.04356692 0.2610231
0.070025757 -0.043583289 0.26095405
0.071397625 -0.043670788 0.26129714
0.072790243 -0.043767817 0.26168263
0.074038558 -0.043776281 0.26152384
0.075186215 -0.043725934 0.26099905
0.076436609 -0.043735992 0.26081985
0.077862658 -0.043844637 0.26121214
0.07902801 -0.043805391 0.26070681
0.080281205 -0.043815289 0.26047742
0.081426047 -0.043766651 0.2598832
0.082532629 -0.043699201 0.25916061
0.084034786 -0.043840103 0.25965515
0.085462995 -0.043938912 0.2598801
0.086871818 -0.044025064 0.26000994
0.087513804 -0.04372564 0.25784543
0.086737119 -0.042735558 0.25160104
0.087905064 -0.042717606 0.25107053
0.089152291 -0.042738147 0.250747
0.11014979 -0.044402156 0.25219402
0.11214035 -0.044696577 0.25319102
0.11220464 -0.044225212 0.24985738
0.11429086 -0.044552401 0.25104648
0.11612235 -0.044774253 0.25164774
0.11738191 -0.044773176 0.25101188
0.11931711 -0.045027096 0.25182638
0.12120412 -0.045257669 0.25253361
0.12335762 -0.045581918 0.25379181
0.12512851 -0.045759559 0.25426829
0.12677909 -0.045890018 0.25452474
0.1288114 -0.046154629 0.2555714
0.13101251 -0.046473812 0.25696924
0.1333784 -0.046844557 0.25870442
0.13522175 -0.047026306 0.2594527
0.13716635 -0.0472394 0.26043412
0.13876936 -0.047331877 0.26081276
0.14019251 -0.047361825 0.26091024
0.14048688 -0.047013476 0.25898707
0.14085425 -0.04669584 0.25729477
0.13949072 -0.045815565 0.25256005
0.020799354 -0.055201285 0.34080878
0.022278681 -0.054900203 0.3389962
0.02389323 -0.054950282 0.3393541
0.02562057 -0.055237278 0.34117737
0.02561654 -0.051977426 0.32109228
0.026491463 -0.050764337 0.31364819
0.028577423 -0.05187745 0.32057771
0.029083602 -0.05015485 0.30998403
0.030573431 -0.050211892 0.31038842
0.031623203 -0.049573887 0.30649602
0.032547321 -0.048802979 0.3017804
0.033657417 -0.048363585 0.29911318
0.034882847 -0.048118461 0.29764611
0.035985261 -0.047729038 0.29528475
0.037146885 -0.04744409 0.29356793
0.038290665 -0.047157541 0.29183897
0.039343055 -0.046782088 0.28955731
0.040542468 -0.04660067 0.28847378
0.041048478 -0.045659665 0.28268468
0.042024042 -0.045283463 0.28038844
0.04344891 -0.045399543 0.28113687
0.044841975 -0.045476545 0.28163984
0.046081133 -0.045397528 0.28117248
0.047442649 -0.045440085 0.28145376
0.048606005 -0.045295674 0.28057221
0.049682144 -0.045079742 0.27924234
0.050529175 -0.044672325 0.27672082
0.051726658 -0.04458737 0.27619088
0.052794997 -0.044397958 0.27500772
0.053885166 -0.04423549 0.27398491
0.05499782 -0.044098608 0.27311364
0.055222984 -0.04327251 0.26796722
0.056334566 -0.043162305 0.26724696
0.057567086 -0.043147534 0.26710963
0.058780376 -0.043119278 0.2668803
0.059910432 -0.043032426 0.26627958
0.061126437 -0.043009583 0.26606581
0.062121406 -0.042835243 0.26490542
0.063304357 -0.042794827 0.26456347
0.064460024 -0.042737875 0.26410896
0.065102033 -0.042348936 0.26159292
0.066742629 -0.042611949 0.26309296
0.067791298 -0.04249436 0.26223072
0.068918139 -0.04242909 0.26167962
0.070111632 -0.042406429 0.26137882
0.076725036 -0.042663269 0.26194203
0.07784199 -0.042597163 0.2612873
0.07911396 -0.042616624 0.26114154
0.080267228 -0.042572536 0.2605899
0.081146128 -0.042386472 0.25915372
0.082318902 -0.042357169 0.25866005
0.083795473 -0.042482745 0.25909361
0.085671961 -0.042804495 0.26070163
0.086607262 -0.04265352 0.25941032
0.087868638 -0.042665124 0.25908992
0.088820927 -0.042528413 0.25785068
0.088066541 -0.041589472 0.2517387
0.089133509 -0.041524429 0.25090718
0.11109179 -0.043030243 0.25108674
0.11255128 -0.043111097 0.25088766
0.11391156 -0.043152601 0.25046507
0.11546686 -0.043266259 0.25047103
0.11660217 -0.043221805 0.24957769
0.11908332 -0.043671858 0.25155637
0.12087964 -0.043863926 0.25206801
0.12241706 -0.043959029 0.25205195
0.1246194 -0.044288475 0.2534132
0.12634474 -0.044443399 0.25381416
0.12828732 -0.04467085 0.25467402
0.13145967 -0.045317668 0.2579698
0.13262442 -0.045266476 0.25734389
0.13472377 -0.045532141 0.25857773
0.13663562 -0.04572989 0.25948516
0.13843882 -0.045887832 0.26022848
0.14005455 -0.04598121 0.26066893
0.1404555 -0.045677762 0.25892368
0.14076439 -0.045350336 0.25710514
0.14722799 -0.046993483 0.26652274
0.021028211 -0.054189537 0.34443542
0.022339907 -0.053453933 0.33980891
0.024297742 -0.054259375 0.34498146
0.024597568 -0.051493142 0.32744557
0.02505316 -0.049359489 0.31392905
0.026459442 -0.049231973 0.31317097
0.027572013 -0.048600178 0.3092055
0.02892359 -0.048431817 0.30818856
0.03021857 -0.048189241 0.30669969
0.031382289 -0.047768924 0.30407926
0.032504506 -0.047324762 0.30130613
0.03371824 -0.047045317 0.29958066
0.034928206 -0.046783194 0.29796439
0.035963159 -0.046315849 0.29503939
0.037137736 -0.046056293 0.29343608
0.038215443 -0.045699444 0.29121071
0.038799442 -0.04479719 0.28550678
0.040297408 -0.04497518 0.28668466
0.040656164 -0.043911252 0.27994299
0.042245202 -0.044201087 0.28182822
0.043788873 -0.044427328 0.28330526
0.04495931 -0.044272713 0.28235021
0.046312883 -0.044302132 0.28256476
0.047509108 -0.044183575 0.2818312
0.048771445 -0.044131253 0.2815153
0.050064649 -0.044108879 0.28138542
0.051171105 -0.043927342 0.28023466
0.051897377 -0.043436687 0.27710599
0.053026389 -0.043298826 0.27622181
0.054060787 -0.043092113 0.27489185
0.055321336 -0.043071087 0.27473956
0.056032252 -0.042632826 0.27191874
0.056630876 -0.042130515 0.26868227
0.057618976 -0.041933492 0.26738533
0.058822162 -0.041898061 0.26711056
0.060051039 -0.041882023 0.26695064
0.061164428 -0.041787732 0.2662828
0.062292989 -0.041707378 0.26569438
0.063423306 -0.041631334 0.26512355
0.064649992 -0.041620251 0.26495603
0.065741353 -0.041524116 0.26423636
0.066961251 -0.041511215 0.26403522
0.068160027 -0.041485932 0.26374355
0.069335744 -0.041447766 0.26335782
0.070410103 -0.041351423 0.26259002
0.073592998 -0.041755285 0.26479983
0.081140704 -0.041153997 0.25929216
0.081915066 -0.040926524 0.25755262
0.083677217 -0.04119201 0.2588971
0.084843315 -0.041160636 0.25835568
0.086086988 -0.041167252 0.25803435
0.087839283 -0.041413479 0.25919345
0.089397728 -0.041562743 0.25972253
0.090594456 -0.041542049 0.25916857
0.088730738 -0.040137518 0.24997646
0.10962737 -0.041699674 0.25152385
0.1109897 -0.04174345 0.25111291
0.11239074 -0.041800644 0.25078261
0.11377052 -0.041848768 0.25040194
0.11501749 -0.041847516 0.24973555
0.11642423 -0.041903805 0.24942695
0.11816069 -0.042076301 0.24982727
0.12031665 -0.042392973 0.25110254
0.12195031 -0.042520937 0.25128546
0.12370639 -0.042688511 0.25173569
0.12636822 -0.043162022 0.25402468
0.12946598 -0.043773361 0.25716031
0.1308212 -0.043789193 0.25684339
0.13284019 -0.044024702 0.25786889
0.13377161 -0.043898698 0.25683507
0.13533789 -0.043981437 0.25708425
0.1378483 -0.044366468 0.25916126
0.13981584 -0.04457109 0.26024646
0.14051756 -0.044372153 0.25903928
0.14132175 -0.044208981 0.25810444
0.14162107 -0.043892357 0.25633526
0.019400219 -0.052546401 0.34410253
0.020909546 -0.052273747 0.34236631
0.022387568 -0.051967405 0.34041175
0.023158828 -0.050170839 0.32869589
0.023839349 -0.04841473 0.31724364
0.025484229 -0.048708584 0.31922442
0.026587686 -0.04799246 0.3145873
0.027535489 -0.047085598 0.30869946
0.028707925 -0.046634387 0.30579835
0.030211901 -0.046739075 0.30654296
0.031374108 -0.046329558 0.30391523
0.032609224 -0.046058655 0.30219623
0.033759944 -0.045696102 0.29987496
0.034933873 -0.045392722 0.29794088
0.036558237 -0.045675464 0.29985306
0.037464108 -0.045072839 0.29595149
0.038451694 -0.044608071 0.29295245
0.038913243 -0.043586161 0.28629106
0.039795998 -0.043088466 0.28306919
0.041116893 -0.043081969 0.28307134
0.042615179 -0.04325594 0.28425673
0.044051476 -0.043358348 0.28496897
0.045455158 -0.043423578 0.2854335
0.04569003 -0.04240042 0.27873927
0.047213789 -0.04259697 0.28005859
0.048865352 -0.042895086 0.28204143
0.050324719 -0.043013234 0.28283611
0.051055651 -0.04251869 0.27959651
0.052425086 -0.042567324 0.27992287
0.055128168 -0.043670028 0.2871747
0.05441251 -0.042076547 0.27668989
0.055511579 -0.041927859 0.27569914
0.05695783 -0.042042196 0.27643061
0.058213465 -0.042013887 0.27621636
0.058398526 -0.041230947 0.27103338
0.059179824 -0.040893331 0.26877034
0.060201399 -0.040732361 0.26765996
0.061333466 -0.040651195 0.26706517
0.062500022 -0.04059568 0.26662937
0.063531287 -0.040456191 0.26563239
0.064645879 -0.040374108 0.26500228
0.066124745 -0.04051834 0.26584646
0.067229271 -0.040432084 0.26516688
0.068396948 -0.040386271 0.26474094
0.069746919 -0.040447801 0.26500627
0.07087335 -0.040379807 0.26441029
0.072020248 -0.040325627 0.26389191
0.075405762 -0.040144362 0.26213306
0.082386605 -0.039932232 0.25918958
0.083259434 -0.039761715 0.2577647
0.084849492 -0.039933704 0.25854191
0.08585652 -0.039830297 0.25751692
0.086980112 -0.039783116 0.2568379
0.089113034 -0.040192485 0.25908339
0.088039398 -0.039164197 0.25204852
0.091094837 -0.039975699 0.25683632
0.089563288 -0.038779467 0.24870948
0.10953054 -0.040417992 0.25155425
0.11080302 -0.040428083 0.25094077
0.11208215 -0.040440336 0.25034049
0.1134593 -0.040487304 0.24995832
0.11482625 -0.040529661 0.24955505
0.11632826 -0.040618245 0.24944797
0.11801784 -0.040769748 0.24974242
0.1197164 -0.040921133 0.25005579
0.12141822 -0.041070472 0.25038216
0.12283509 -0.041121338 0.25014076
0.12502711 -0.041428 0.25149155
0.12834106 -0.042096477 0.25507325
0.13045961 -0.042363398 0.25626245
0.13249812 -0.042599306 0.25731447
0.13366075 -0.042551745 0.25671124
0.13517904 -0.042617239 0.25685102
0.13801481 -0.043092825 0.25952259
0.13875341 -0.042910792 0.25829637
0.13976412 -0.042815544 0.25765762
0.14180996 -0.043036215 0.25898388
0.14597136 -0.043888886 0.26417762
0.017945953 -0.051398076 0.34709752
0.019437836 -0.051026762 0.34463862
0.020609554 -0.049936876 0.33732828
0.021840509 -0.049136095 0.33197203
0.022688214 -0.047637481 0.32190117
0.024113877 -0.04746395 0.32078496
0.025132138 -0.046556171 0.31470704
0.026542347 -0.04643501 0.31394711
0.027218044 -0.045109283 0.30504286
0.028657397 -0.045118537 0.30516559
0.029943258 -0.044896744 0.3037264
0.03170114 -0.045370694 0.30699492
0.032739397 -0.044818278 0.30331895
0.033673964 -0.044175901 0.29903251
0.035108414 -0.044214468 0.2993544
0.036445919 -0.044132687 0.29886079
0.037357885 -0.043560762 0.29504621
0.038453735 -0.043236468 0.2929064
0.039591521 -0.042980075 0.29122424
0.041051503 -0.043078881 0.29194665
0.041921496 -0.042572174 0.28856272
0.042666834 -0.041974511 0.28455827
0.044435676 -0.042389452 0.28741542
0.045220405 -0.04186881 0.28392541
0.046883982 -0.042168383 0.28599364
0.04753064 -0.041562077 0.2819137
0.048351295 -0.041136596 0.27905485
0.04938253 -0.04090796 0.2775262
0.052454118 -0.042337906 0.28724483
0.054077126 -0.04255636 0.28873888
0.052790478 -0.040530246 0.27499735
0.054806057 -0.041075569 0.27869636
0.056090564 -0.041060347 0.27858517
0.057389192 -0.041055925 0.27853987
0.05840081 -0.040850934 0.27712628
0.059152059 -0.040476691 0.27455673
0.059871893 -0.040097337 0.27194467
0.060336415 -0.039566372 0.26829645
0.061515126 -0.039515864 0.26789775
0.062500976 -0.039345961 0.26668033
0.063517481 -0.039201654 0.26562685
0.064816482 -0.039233882 0.26575944
0.065925486 -0.039152067 0.2651087
0.067193232 -0.039165802 0.26509377
0.067906693 -0.038861837 0.26291758
0.069200732 -0.038895044 0.26301113
0.07090462 -0.039153412 0.26461348
0.072142459 -0.039149947 0.26443216
0.073532686 -0.039227895 0.26478669
0.07485573 -0.039268017 0.26487103
0.08520209 -0.038309302 0.25571808
0.086528227 -0.038357511 0.255674
0.08801268 -0.03847358 0.25606149
0.086653061 -0.037360255 0.24825765
0.09070985 -0.038580738 0.25594091
0.091935836 -0.038580723 0.25549397
0.10947231 -0.039152324 0.25166595
0.1106968 -0.039145358 0.25094357
0.11188006 -0.039124131 0.2501291
0.11300838 -0.039084371 0.24920009
0.11430789 -0.039104041 0.2486576
0.11621976 -0.039330512 0.24943799
0.11776261 -0.039428618 0.24941611
0.11929889 -0.039522476 0.24938695
0.12070508 -0.039571732 0.24910228
0.12242389 -0.039721411 0.24948066
0.12407391 -0.039845929 0.24973632
0.12651354 -0.040218964 0.25158769
0.13017265 -0.040968332 0.25582981
0.13213451 -0.041173983 0.25672081
0.13379526 -0.041282695 0.25706246
0.13619404 -0.04161479 0.25885284
0.13775803 -0.041687895 0.25909278
0.13906972 -0.041683979 0.25891808
0.14021993 -0.041632187 0.25851098
0.14257167 -0.041934773 0.26036879
0.13519351 -0.039396398 0.24464871
0.018212531 -0.050503973 0.35211521
0.019174945 -0.048737042 0.33984628
0.020166574 -0.047310751 0.32995272
0.021239433 -0.046265338 0.32271579
0.022367658 -0.045471992 0.31723776
0.023604469 -0.044984825 0.31389675
0.025055343 -0.04493897 0.31363678
0.026400225 -0.04471866 0.31216088
0.027670849 -0.044402402 0.31001619
0.028754342 -0.043832533 0.30610096
0.030061951 -0.043642327 0.30483708
0.031242266 -0.043293033 0.30246198
0.032239754 -0.042731799 0.29860535
0.03355423 -0.042619996 0.29788846
0.034624536 -0.042219412 0.29515225
0.036277544 -0.042532831 0.297407
0.037289739 -0.04209955 0.29443949
0.038347442 -0.041746788 0.29203281
0.03961971 -0.04164388 0.29137182
0.041338369 -0.042001389 0.29393065
0.041295048 -0.040603358 0.28420052
0.042735953 -0.040706478 0.28497329
0.044081058 -0.040714864 0.28508011
0.045503866 -0.040792413 0.28566799
0.046628445 -0.040605821 0.28440231
0.046982117 -0.039776921 0.27863291
0.048158329 -0.039670404 0.27791852
0.050190523 -0.040256049 0.28204876
0.050963383 -0.039827492 0.27906805
0.05277409 -0.04021116 0.28177291
0.053287346 -0.039611626 0.27758211
0.054612324 -0.039629683 0.27771258
0.056285877 -0.039893962 0.2795617
0.057148207 -0.039584327 0.27738178
0.05822229 -0.039431866 0.27629578
0.059122045 -0.039170537 0.27443916
0.060027897 -0.038924284 0.2726801
0.060616583 -0.038486913 0.26957408
0.061320666 -0.038139179 0.26708761
0.062321991 -0.037986536 0.26595858
0.063602634 -0.038006783 0.26603028
0.064810447 -0.037983574 0.26578739
0.06594082 -0.037916709 0.26522845
0.06679862 -0.037698481 0.26360017
0.068216965 -0.037798807 0.26418793
0.069444336 -0.03779161 0.26401168
0.070537604 -0.037712969 0.26332402
0.072128609 -0.037898559 0.26446772
0.073481619 -0.037954941 0.26469517
0.07454402 -0.037861831 0.26386616
0.075781249 -0.037859108 0.26365283
0.087824196 -0.037171192 0.25568175
0.090215839 -0.037660293 0.2586419
0.089585721 -0.036891796 0.25294849
0.091745399 -0.03727733 0.25515187
0.092518933 -0.037096914 0.25345889
0.093468755 -0.036990959 0.25225794
0.11054039 -0.03784785 0.25082529
0.1115643 -0.037773937 0.24965635
0.11267284 -0.037729993 0.24868904
0.11440944 -0.037895028 0.24910283
0.11571288 -0.037914589 0.24856763
0.11744186 -0.038071673 0.24894656
0.11877043 -0.038097024 0.24848196
0.12023928 -0.03816637 0.24832934
0.12211961 -0.038363554 0.24903646
0.12421121 -0.038622398 0.25017494
0.12583451 -0.03873188 0.25038394
0.12866807 -0.03920795 0.25300381
0.13139077 -0.039641157 0.25538987
0.13371587 -0.039947089 0.25700572
0.13563238 -0.040126197 0.25786203
0.13826388 -0.040511351 0.26010174
0.13963376 -0.040523034 0.26000604
0.14288743 -0.041076031 0.2634474
0.14288938 -0.040692657 0.26094851
0.13726878 -0.038729992 0.24838617
0.018018221 -0.048325244 0.34822044
0.018984476 -0.046669222 0.33633929
0.019952731 -0.045272756 0.32632881
0.020901298 -0.044034488 0.31745869
0.022024825 -0.043305479 0.31226042
0.023444304 -0.043213159 0.31165469
0.025004709 -0.043376189 0.31289303
0.026454614 -0.043340061 0.31269705
0.027628718 -0.042879686 0.30944136
0.028924178 -0.042644311 0.30780977
0.030104112 -0.042269144 0.30516952
0.031021172 -0.041575793 0.30023128
0.032016553 -0.041043174 0.29645234
0.033392485 -0.041022468 0.29637033
0.034657657 -0.04087279 0.29535624
0.035892989 -0.040700801 0.29418004
0.037239287 -0.040662713 0.29397064
0.038451429 -0.040486105 0.29275835
0.039282244 -0.039934024 0.28882852
0.038702432 -0.038032554 0.27513355
0.04083015 -0.038828611 0.28094909
0.042012885 -0.038704332 0.28010404
0.043754447 -0.0390868 0.282924
0.045409422 -0.03937168 0.28503519
0.046452805 -0.039125174 0.28329581
0.047090594 -0.038560238 0.27924594
0.048286941 -0.038470849 0.27863494
0.049530879 -0.038423095 0.27832067
0.051120635 -0.038639173 0.2799125
0.052402049 -0.038617224 0.27977461
0.053475723 -0.038446974 0.27855632
0.054265779 -0.038085785 0.27594817
0.055481769 -0.038033389 0.27557054
0.056998063 -0.038184542 0.27666071
0.058021456 -0.038006123 0.2753554
0.058986828 -0.037798274 0.27382916
0.059518076 -0.037327021 0.2703867
0.060440723 -0.037115749 0.26881942
0.061274827 -0.036859844 0.26692033
0.062406324 -0.036789495 0.2663559
0.063544497 -0.036725763 0.26582971
0.064877257 -0.036774784 0.26610935
0.065899916 -0.036649503 0.26511702
0.066911682 -0.036522906 0.26410466
0.068246238 -0.036573905 0.26436508
0.069695726 -0.036683571 0.26503691
0.070502743 -0.036457166 0.2632685
0.071813069 -0.036494344 0.26339111
0.073281087 -0.036609042 0.26405904
0.074271455 -0.036485273 0.26299289
0.07569968 -0.036577132 0.26346669
0.087633789 -0.035873253 0.25528783
0.090288013 -0.036453389 0.2590178
0.091480926 -0.036435813 0.25847447
0.091813616 -0.036080658 0.25552046
0.092776105 -0.035979096 0.25434744
0.094655208 -0.036231019 0.25565097
0.095998079 -0.036273859 0.25545457
0.097631834 -0.036424138 0.25599167
0.097867973 -0.036055762 0.25286657
0.099162325 -0.036081526 0.25249115
0.10032253 -0.036058445 0.2517547
0.10875083 -0.036422335 0.25047284
0.10953829 -0.036273804 0.2487786
0.11106456 -0.036370516 0.24876364
0.11305332 -0.036614891 0.24975254
0.11449357 -0.036678236 0.24950527
0.11616167 -0.036812417 0.24974535
0.11698695 -0.036679503 0.24818736
0.11840242 -0.036732472 0.24790798
0.12002126 -0.036846787 0.24806471
0.12169541 -0.03697554 0.24834523
0.12428769 -0.037377778 0.25049075
0.12595651 -0.037496984 0.25077364
0.12758653 -0.037602358 0.25100809
0.12993455 -0.037915174 0.25267395
0.13227113 -0.03821855 0.25432616
0.13546275 -0.038760684 0.25761929
0.13761954 -0.038999137 0.25895062
0.14091526 -0.039552733 0.26243481
0.14079584 -0.039146341 0.25961426
0.14289066 -0.039357435 0.26095545
0.1279278 -0.034909807 0.23147197
0.017814426 -0.046157304 0.34414455
0.018811455 -0.044674616 0.33314306
0.019879505 -0.043575931 0.32500571
0.020909909 -0.042557716 0.31746918
0.022174716 -0.042120632 0.3142688
0.023523772 -0.041888241 0.31259748
0.025053713 -0.041986357 0.31339505
0.026529336 -0.04198759 0.31347191
0.027593123 -0.041371208 0.30893883
0.028874043 -0.041125774 0.30717599
0.030022895 -0.040724587 0.30425012
0.031213526 -0.040413987 0.30200082
0.03283792 -0.040667593 0.30396828
0.033318244 -0.039542269 0.29562786
0.034561627 -0.039376371 0.29445818
0.035855133 -0.039278161 0.29379386
0.037207916 -0.039249744 0.29365087
0.038349275 -0.039008308 0.29191265
0.038468163 -0.037779372 0.28278083
0.039544061 -0.037540924 0.28105879
0.040656988 -0.037351884 0.279704
0.041948933 -0.037333988 0.27962804
0.044056524 -0.038021095 0.28483087
0.044988394 -0.03768295 0.28235057
0.046610534 -0.03792581 0.28421995
0.047673278 -0.037712641 0.28266802
0.048633225 -0.037431881 0.2806046
0.049584415 -0.037159335 0.27859759
0.050942648 -0.037197996 0.2789185
0.052442536 -0.037335578 0.27997583
0.051194701 -0.0347111 0.2603263
0.054842092 -0.036319107 0.27239272
0.056308143 -0.03644225 0.27331609
0.057223979 -0.036211744 0.27157971
0.058696702 -0.036336001 0.27249613
0.059378255 -0.035975624 0.26977012
0.059852615 -0.035507347 0.26622698
0.060936693 -0.035412509 0.26547545
0.064775951 -0.036890581 0.27650416
0.064958997 -0.036269259 0.27178615
0.064544857 -0.03534482 0.26478913
0.066064201 -0.035494074 0.26582652
0.067317232 -0.03549736 0.26575926
0.068443716 -0.035435013 0.26518905
0.069474995 -0.035326485 0.26426169
0.070775092 -0.035356056 0.26435512
0.071917303 -0.035307087 0.26384833
0.073200375 -0.035327774 0.26384869
0.074571088 -0.035389356 0.2641401
0.075773679 -0.035370436 0.26381597
0.088295147 -0.034917451 0.25736821
0.090126581 -0.035153382 0.25871536
0.091533847 -0.035219733 0.25879079
0.091999263 -0.034926753 0.25620824
0.092682719 -0.034723166 0.2542671
0.093966752 -0.034746952 0.25397271
0.095675334 -0.034925096 0.25478318
0.096887529 -0.034919836 0.25423259
0.098927364 -0.035209265 0.25580281
0.10010135 -0.035187192 0.25508562
0.10083514 -0.035012808 0.25324786
0.10170866 -0.034890555 0.2517733
0.10311345 -0.034951299 0.25160256
0.1077062 -0.035248976 0.25181001
0.10897287 -0.035258189 0.25120616
0.11029066 -0.035283554 0.25070882
0.1117384 -0.035349466 0.25049314
0.11321333 -0.035422437 0.25032374
0.11493448 -0.035570018 0.25068048
0.11636133 -0.035624325 0.25038362
0.11721959 -0.035505258 0.24888206
0.11818384 -0.035420455 0.24764246
0.11971473 -0.035505485 0.24761355
0.12124021 -0.035587173 0.2475875
0.12352572 -0.035888001 0.24911462
0.12593912 -0.03621953 0.25088558
0.12793566 -0.03642574 0.25182667
0.12976135 -0.036579713 0.25245273
0.13158335 -0.036729623 0.25310239
0.13411729 -0.037073426 0.25514206
0.13653801 -0.037379626 0.25697935
0.13818274 -0.03746957 0.25739127
0.1424077 -0.038250864 0.26261407
0.13977642 -0.037193179 0.25527728
0.12709536 -0.033505693 0.22995847
0.017453359 -0.043633282 0.33703446
0.018545728 -0.042496439 0.32830775
0.019534504 -0.04131557 0.31924161
0.020987816 -0.041215796 0.3185308
0.022398559 -0.041051321 0.31732282
0.023755254 -0.04081456 0.31555837
0.025163898 -0.040689677 0.31466115
0.026553828 -0.040550102 0.31365225
0.027837502 -0.040271506 0.31156942
0.028748076 -0.039508048 0.30573535
0.029839778 -0.039054397 0.30229801
0.031209433 -0.038989253 0.30186805
0.032263059 -0.038552154 0.29855821
0.033382762 -0.038227152 0.29611555
0.034602825 -0.0380385 0.29472825
0.035855245 -0.037898563 0.29371762
0.037112884 -0.037774302 0.29282752
0.038267639 -0.037557948 0.29122207
0.039210726 -0.037155952 0.28817466
0.039887704 -0.036537006 0.28344128
0.040885281 -0.036242202 0.28121892
0.042355064 -0.036371324 0.28228343
0.043628015 -0.036328718 0.28201261
0.045394037 -0.03668711 0.28485224
0.046323448 -0.036368202 0.28242964
0.047820687 -0.036500432 0.28350648
0.04874558 -0.03620046 0.2812219
0.049812917 -0.036019277 0.27985492
0.05082339 -0.035807334 0.2782436
0.052155003 -0.035826579 0.27842328
0.053705309 -0.03599146 0.27972904
0.054820154 -0.034232963 0.26609439
0.056457959 -0.03447203 0.26794979
0.057840496 -0.034548219 0.26853147
0.058921751 -0.034445044 0.26771098
0.05964927 -0.03414369 0.265342
0.060439456 -0.033889771 0.26333338
0.064137332 -0.034552582 0.26838282
0.064481087 -0.034069579 0.26456651
0.066208594 -0.034322135 0.26645181
0.067553662 -0.034370743 0.26674205
0.068526372 -0.034231592 0.26556373
0.069332637 -0.03401573 0.26377937
0.070427038 -0.033946343 0.26311931
0.072231054 -0.034215484 0.26506948
0.073430963 -0.034194198 0.26475522
0.075181112 -0.034425572 0.26638222
0.076204263 -0.034321915 0.26540163
0.088783421 -0.03387722 0.25893858
0.090144582 -0.033925332 0.25891998
0.091423608 -0.033941653 0.25863782
0.091534689 -0.033529714 0.25507671
0.089730859 -0.032436393 0.24633114
0.093493521 -0.033357557 0.25286579
0.094090775 -0.033140186 0.25073966
0.094443128 -0.032843158 0.24799795
0.098476678 -0.033817708 0.25482708
0.099021293 -0.033584859 0.25252616
0.10072993 -0.033747669 0.25318164
0.10260473 -0.033961553 0.25419462
0.10347848 -0.033842955 0.25269911
0.10532664 -0.034042075 0.25355738
0.1067142 -0.034089431 0.25326508
0.10797592 -0.034095962 0.25265464
0.10945237 -0.034169372 0.2525267
0.11077791 -0.034194555 0.25203156
0.11225331 -0.034264926 0.25186169
0.11366914 -0.034315765 0.2515437
0.11487729 -0.034303483 0.25076401
0.11621166 -0.03432874 0.25026488
0.11724947 -0.0342668 0.24914202
0.11819766 -0.034180246 0.24785952
0.11932771 -0.034147535 0.24699165
0.12141642 -0.034387011 0.24811631
0.12265892 -0.034384385 0.24752326
0.12588106 -0.034931142 0.25091547
0.12770186 -0.035081994 0.25149778
0.12943779 -0.035206772 0.25193918
0.13195893 -0.035540588 0.25392514
0.13325889 -0.035542212 0.25359213
0.13488574 -0.035630148 0.25393528
0.13828005 -0.036178842 0.25762129
0.14009972 -0.036309082 0.25838906
0.14278892 -0.03666015 0.26079279
0.13277583 -0.033773668 0.24023314
0.016799061 -0.040468596 0.32426992
0.018335642 -0.040485457 0.32446083
0.019375104 -0.039486594 0.31651396
0.020676147 -0.039125539 0.31368116
0.022531694 -0.039791942 0.31908974
0.024017865 -0.039763454 0.31893018
0.025216617 -0.039290488 0.31520763
0.026449563 -0.038920421 0.31231162
0.027612748 -0.038492087 0.30894887
0.028680243 -0.037979901 0.30491316
0.029731054 -0.037495479 0.30110002
0.030834945 -0.03711902 0.29815337
0.032044109 -0.036896531 0.29644319
0.033400767 -0.03685534 0.29618976
0.034677614 -0.036732908 0.29528338
0.035759948 -0.036421776 0.29285914
0.037030414 -0.03631822 0.29210272
0.038995638 -0.035606872 0.28652838
0.040134698 -0.035424862 0.28513488
0.041024927 -0.035042062 0.28212225
0.041976314 -0.034733802 0.27970627
0.044050258 -0.035344951 0.28469217
0.045156237 -0.035166305 0.28331438
0.046407517 -0.035107799 0.28290069
0.04760785 -0.035015073 0.28220737
0.048943352 -0.035024084 0.28232974
0.049678721 -0.03461447 0.27907246
0.050576847 -0.034336366 0.2768698
0.051686205 -0.034211989 0.27590102
0.053360932 -0.034458779 0.27791986
0.054644715 -0.032881122 0.26524103
0.056105625 -0.033009756 0.26628023
0.057610229 -0.033157941 0.26746961
0.058828462 -0.033138502 0.26729885
0.059965931 -0.033075329 0.26676694
0.061318409 -0.033130903 0.26718396
0.062550157 -0.03312033 0.26705816
0.063400522 -0.032912184 0.26532996
0.064593218 -0.032886341 0.26506162
0.06625329 -0.033094943 0.26667193
0.067289867 -0.032990132 0.26574543
0.068318456 -0.032885287 0.26480776
0.069219343 -0.032723814 0.26340291
0.070498928 -0.032743901 0.26344758
0.07244359 -0.033066861 0.26591477
0.073655866 -0.033050254 0.26563659
0.074672133 -0.032947712 0.26465425
0.07614284 -0.033045754 0.26526871
0.076909788 -0.032840129 0.26343122
0.087415986 -0.032593895 0.25904122
0.088669717 -0.032602094 0.25874656
0.090432927 -0.032794829 0.2598941
0.090937011 -0.03253191 0.25741142
0.090858787 -0.032070469 0.25334656
0.089449257 -0.031157443 0.24571222
0.089231707 -0.030677943 0.2414958
0.094486587 -0.032068036 0.25196323
0.094834171 -0.031778518 0.24919692
0.09749873 -0.032262947 0.25247595
0.098671161 -0.032247748 0.25181714
0.099528812 -0.032131303 0.25035
0.10123535 -0.03228841 0.25099421
0.10497268 -0.033081766 0.25654829
0.10675225 -0.033246744 0.25719362
0.10800537 -0.033245828 0.25653616
0.10936409 -0.033277068 0.2561115
0.11041823 -0.033215966 0.25496438
0.11170369 -0.033225048 0.25434709
0.11339284 -0.033352662 0.25462759
0.11531641 -0.033545673 0.25539729
0.11555644 -0.03325006 0.25244975
0.11650491 -0.03316246 0.25109467
0.1180485 -0.033244323 0.25103268
0.11927263 -0.033235434 0.25029913
0.12029093 -0.033169985 0.24916171
0.12103267 -0.033030406 0.24749763
0.12335255 -0.033319961 0.24907848
0.12516589 -0.033468228 0.24963325
0.12695122 -0.033606105 0.2501494
0.1281665 -0.033591848 0.24957959
0.13115038 -0.034036867 0.25246972
0.13287666 -0.034150038 0.25294906
0.13461748 -0.034264728 0.25349793
0.13677356 -0.034481928 0.25486562
0.14027911 -0.03503203 0.25875437
0.14185488 -0.035094429 0.25910425
0.11992792 -0.029395023 0.21698794
0.016907003 -0.043113805 0.35882816
0.01678179 -0.038899623 0.32380754
0.018005256 -0.038253941 0.31848943
0.019316066 -0.037878972 0.31542757
0.020712409 -0.037713364 0.31411201
0.022285026 -0.037869398 0.31547892
0.024084134 -0.03836672 0.31969345
0.025444498 -0.038147707 0.31794265
0.026089404 -0.036940023 0.3079516
0.027201058 -0.036485605 0.30423924
0.029703576 -0.036045521 0.30072525
0.030803395 -0.035680085 0.29775569
0.031992663 -0.035445549 0.29587829
0.03328887 -0.035344105 0.29511189
0.034554832 -0.035219952 0.29415578
0.035288893 -0.034584083 0.2889241
0.036586083 -0.034526765 0.28852394
0.037735213 -0.034338806 0.28703088
0.038907647 -0.034184303 0.28581569
0.040021442 -0.033990294 0.28426805
0.040765833 -0.033505194 0.2802828
0.04166197 -0.033171244 0.27755812
0.043229733 -0.033376083 0.27933899
0.045149274 -0.033832472 0.28322375
0.046400294 -0.033776134 0.2828137
0.047525555 -0.033633925 0.28168076
0.048689242 -0.033525873 0.28082928
0.049735658 -0.033344876 0.27936199
0.050306838 -0.032862723 0.27536589
0.051350605 -0.032705683 0.27408803
0.052366272 -0.032538846 0.27272213
0.052679598 -0.031953931 0.26784557
0.053813823 -0.03188258 0.26726708
0.054989439 -0.031838436 0.26690996
0.056227293 -0.031831495 0.26685765
0.05728206 -0.031723458 0.26595032
0.058843911 -0.03189487 0.26737779
0.060086664 -0.031889785 0.26731727
0.061190143 -0.031812496 0.26664278
0.062446576 -0.031816237 0.26663825
0.063549392 -0.031743094 0.26597983
0.064471342 -0.031584162 0.26459286
0.065586187 -0.031523939 0.26402274
0.067091301 -0.031650055 0.26500207
0.068194658 -0.031585507 0.26437345
0.069548406 -0.031637158 0.26470554
0.07127402 -0.031853203 0.26639977
0.072708935 -0.031934109 0.26694965
0.073653296 -0.031800475 0.26569295
0.074559696 -0.031655181 0.26432613
0.075940542 -0.031712774 0.26463956
0.076874919 -0.031585071 0.26339218
0.080510855 -0.031551931 0.26247746
0.08279565 -0.031478573 0.2613596
0.083660342 -0.031339485 0.25992584
0.084881932 -0.031336181 0.25960141
0.087250575 -0.031303119 0.25867787
0.088400804 -0.031275216 0.25809383
0.090891771 -0.031715915 0.26135203
0.090703428 -0.031222416 0.25689259
0.089024156 -0.030235708 0.24837387
0.089692324 -0.030061752 0.246527
0.092516206 -0.030605447 0.25053969
0.094564132 -0.030881796 0.25233111
0.096053496 -0.030971052 0.25256732
0.097518869 -0.031050431 0.2526994
0.098510176 -0.030978773 0.25158164
0.099639639 -0.030951779 0.25080812
0.10238199 -0.031420417 0.25402299
0.10493158 -0.031819452 0.25663966
0.10673112 -0.031984322 0.25733858
0.10777508 -0.031921558 0.25618711
0.10903771 -0.031924266 0.25554702
0.110575 -0.032006413 0.25552785
0.11208488 -0.032078873 0.25541741
0.11383252 -0.032217007 0.2558175
0.11567134 -0.032377627 0.25638527
0.11730978 -0.032479282 0.25647992
0.11833307 -0.032410264 0.25522995
0.11911932 -0.032278482 0.25349885
0.12033387 -0.032264315 0.25270844
0.12131515 -0.03218855 0.25145698
0.12200028 -0.032036576 0.24963975
0.12335179 -0.032060903 0.24922971
0.12540995 -0.032266553 0.25026169
0.12626624 -0.032161959 0.24892773
0.12824675 -0.032342955 0.24985044
0.12962919 -0.032371052 0.24964105
0.13280185 -0.032841314 0.25289187
0.13440461 -0.03291804 0.25316632
0.13651516 -0.033116478 0.25443721
0.14010096 -0.033665679 0.258463
0.14221165 -0.033853456 0.2597768
0.14527264 -0.034261886 0.26284933
0.016797522 -0.041152742 0.35636181
0.016750198 -0.037301894 0.32307023
0.017941583 -0.036621951 0.31723946
0.019192327 -0.036158551 0.31328672
0.020725334 -0.036255173 0.31418952
0.022385841 -0.036547069 0.31678885
0.023726897 -0.036313526 0.31483725
0.024599547 -0.035432804 0.30727538
0.025955772 -0.035307813 0.30626801
0.027210064 -0.035064626 0.30423704
0.028394075 -0.034759745 0.30167171
0.029669754 -0.034590781 0.30028665
0.030709241 -0.034174345 0.29675347
0.031881098 -0.033935044 0.29475799
0.033227898 -0.03389414 0.29448602
0.034464482 -0.033748589 0.29330477
0.035430782 -0.033359751 0.29000804
0.036499836 -0.03309289 0.28776985
0.037708372 -0.032967042 0.28675646
0.038837336 -0.032782726 0.28523266
0.039924763 -0.032576796 0.2835187
0.040805232 -0.03222074 0.28049517
0.041695312 -0.031894296 0.27772591
0.04194811 -0.031114943 0.27100801
0.044010252 -0.031684045 0.27603176
0.045463391 -0.031794712 0.27706003
0.04705447 -0.031993013 0.27884901
0.048510116 -0.032090992 0.27976021
0.049491797 -0.031878535 0.27796057
0.050240263 -0.031530604 0.27497408
0.051221482 -0.031342499 0.27337557
0.052290019 -0.031215701 0.27230588
0.053197924 -0.031001333 0.270466
0.053974465 -0.030722162 0.26805419
0.055306084 -0.030764453 0.26844031
0.056351647 -0.030649284 0.26744547
0.057460446 -0.030572766 0.26678032
0.058506336 -0.030466747 0.26584998
0.05980799 -0.030495556 0.26608789
0.061010491 -0.030473663 0.26587465
0.062236354 -0.030464085 0.26575974
0.063727103 -0.030581998 0.26674727
0.064578429 -0.030394426 0.26506034
0.065514579 -0.030253103 0.26376686
0.066782117 -0.030267203 0.26381782
0.068355799 -0.030417023 0.26503992
0.069759019 -0.03048699 0.26555368
0.071498655 -0.030698953 0.26729101
0.072794557 -0.030716356 0.26732045
0.073939569 -0.030670593 0.26678684
0.074863881 -0.030536326 0.26547033
0.075754337 -0.030392883 0.26406106
0.077315867 -0.030518958 0.26497871
0.080711588 -0.030388637 0.26322225
0.081778318 -0.03032366 0.26241869
0.08278425 -0.03023842 0.26142374
0.08359132 -0.030084113 0.25981611
0.08463122 -0.030016864 0.25894427
0.086082056 -0.030095201 0.25930971
0.087475464 -0.030151533 0.25946501
0.08936622 -0.030375352 0.26103893
0.090273239 -0.030263251 0.25970474
0.091671318 -0.030316574 0.25977045
0.088862099 -0.028995642 0.24805732
0.096880525 -0.029635984 0.25120762
0.09832684 -0.029707015 0.25128043
0.1000816 -0.02986837 0.25209254
0.10267156 -0.030272087 0.25491959
0.10420696 -0.030358966 0.25504956
0.10543887 -0.030356426 0.25440809
0.10667888 -0.030356245 0.25376919
0.10850533 -0.030521028 0.25449011
0.11056028 -0.030745607 0.25568742
0.1123449 -0.030890806 0.2562049
0.11380246 -0.03094385 0.25594497
0.11521535 -0.030983716 0.25556853
0.11700131 -0.031121951 0.2559979
0.11862568 -0.031214686 0.25605047
0.11982523 -0.03119486 0.25518548
0.12120894 -0.031222882 0.25472453
0.12260511 -0.031253505 0.25430173
0.12298732 -0.03102769 0.25182045
0.12449885 -0.031088481 0.25169846
0.12660541 -0.031295128 0.25278795
0.12850605 -0.031447247 0.25347206
0.12942584 -0.031358708 0.25226226
0.12810308 -0.030733882 0.24680036
0.13185339 -0.031326476 0.2511709
0.13448311 -0.031644005 0.25338465
0.13496561 -0.031455044 0.25160351
0.14076178 -0.03249637 0.25972202
0.14331058 -0.032775547 0.26180825
0.13849355 -0.031380571 0.25059146
0.016040921 -0.037693009 0.34017566
0.01698155 -0.03627155 0.32740429
0.017771963 -0.034793168 0.3141191
0.0189985 -0.034330532 0.31000507
0.020609228 -0.034578659 0.31231275
0.022353461 -0.03500272 0.31621468
0.023720054 -0.034819379 0.31463331
0.0249166 -0.034422707 0.31112623
0.025724359 -0.03356288 0.303433
0.02724239 -0.033671521 0.30449626
0.028604316 -0.033585995 0.30380601
0.029558124 -0.033052262 0.29906178
0.030406319 -0.032454342 0.29373559
0.03179602 -0.032461293 0.29388362
0.033206258 -0.032487746 0.29420927
0.034397971 -0.032306846 0.29265732
0.035354771 -0.031927723 0.28930846
0.03653644 -0.031772245 0.28798455
0.03752441 -0.031465452 0.28528747
0.038793184 -0.031407174 0.28484181
0.03994279 -0.031259514 0.28358376
0.041055288 -0.031093284 0.28215486
0.040787958 -0.029925102 0.27162853
0.042482067 -0.03022318 0.27440697
0.043151353 -0.029796073 0.27059829
0.045152295 -0.030286618 0.27512047
0.046303805 -0.030195957 0.27436057
0.048082646 -0.030508233 0.27725837
0.049146898 -0.030362608 0.27599084
0.050094798 -0.030154414 0.27414933
0.051088896 -0.029983746 0.27264333
0.05185993 -0.029693684 0.27004561
0.05285256 -0.029541295 0.2686936
0.054382071 -0.029689102 0.27006587
0.055470649 -0.029594939 0.26923051
0.05655029 -0.029500298 0.26838368
0.057424311 -0.029304845 0.2666122
0.058307357 -0.029122213 0.26494953
0.059452996 -0.029075621 0.26451629
0.060759872 -0.029108169 0.2647945
0.062110372 -0.029159896 0.26523799
0.0634498 -0.029204501 0.26560712
0.06475383 -0.029231412 0.26580518
0.065787509 -0.029137569 0.26489487
0.066798717 -0.029037427 0.26391685
0.068438664 -0.029209273 0.26539937
0.069856852 -0.029282024 0.26596889
0.071360782 -0.029387534 0.26682302
0.072838068 -0.029478617 0.2675325
0.07404805 -0.029460266 0.26723513
0.075316481 -0.029465398 0.2671369
0.07611952 -0.029291278 0.26539999
0.076987721 -0.029147441 0.26392448
0.079403646 -0.029122479 0.26330796
0.080419146 -0.029041072 0.26235318
0.081863597 -0.02911469 0.26278213
0.082834825 -0.029020319 0.2616778
0.083277605 -0.028746312 0.25893942
0.084478438 -0.028738124 0.25858003
0.085961968 -0.028824968 0.25905645
0.087625965 -0.028969023 0.26002547
0.088957995 -0.029000856 0.25996566
0.090100504 -0.028970877 0.25933179
0.090247229 -0.028625851 0.25586247
0.088903859 -0.027823685 0.2483025
0.090026259 -0.027804168 0.24771841
0.097803421 -0.028341241 0.250101
0.10053341 -0.028777007 0.25339532
0.10269691 -0.029042063 0.25515252
0.1040713 -0.029080316 0.25489125
0.10464798 -0.028897388 0.25267547
0.10647196 -0.029059138 0.25345623
0.1093289 -0.029495852 0.25660583
0.11105456 -0.029620893 0.25701681
0.11264571 -0.029707657 0.25707853
0.11406027 -0.029746436 0.25671256
0.11534996 -0.029752158 0.25605395
0.11677226 -0.029791586 0.25568175
0.11847522 -0.029900998 0.25590828
0.12037592 -0.030057454 0.25653744
0.12230173 -0.030216826 0.2571955
0.12297387 -0.030066364 0.25523323
0.1238699 -0.029973174 0.25378543
0.12568848 -0.030102842 0.25425258
0.12749802 -0.030227747 0.25470904
0.1292945 -0.030347088 0.25515467
0.12934454 -0.030058211 0.25221711
0.12728965 -0.029290637 0.24533029
0.12953381 -0.029517617 0.24683607
0.13206699 -0.029805457 0.24890225
0.13621859 -0.03044959 0.25399554
0.1417402 -0.031384919 0.2615695
0.14034472 -0.030785462 0.25641614
0.13678595 -0.029726969 0.24751239
0.014988779 -0.037471823 0.353035
0.016009144 -0.036015391 0.33936924
0.017003162 -0.034770191 0.32769468
0.018200511 -0.034113847 0.32157132
0.018841639 -0.032596316 0.3073304
0.020480808 -0.032898951 0.31025237
0.022085752 -0.033109896 0.3123146
0.023734199 -0.033355579 0.31470922
0.024849741 -0.032867502 0.31018358
0.026086157 -0.032584675 0.30759606
0.026918434 -0.031853404 0.30077544
0.028691161 -0.032252502 0.30462986
0.029355979 -0.031427473 0.2969231
0.030634539 -0.031304657 0.29584992
0.033087514 -0.030992199 0.29307327
0.034057785 -0.030624341 0.28968298
0.03530683 -0.030525813 0.28883937
0.036528241 -0.030411586 0.28784651
0.037708063 -0.030272132 0.28661376
0.039859105 -0.029864829 0.28292695
0.041146714 -0.029834669 0.28272384
0.040245283 -0.028268792 0.26796153
0.042093936 -0.028670985 0.27184936
0.042755473 -0.028264737 0.2680693
0.043926533 -0.028208921 0.2676087
0.046451822 -0.0290017 0.27519688
0.047649387 -0.028945075 0.27472308
0.048617776 -0.028755881 0.27298626
0.049656324 -0.028616821 0.27172029
0.050711796 -0.028494233 0.27060527
0.051647585 -0.028312014 0.26891819
0.052673597 -0.028186755 0.26776594
0.053939003 -0.028192447 0.2678515
0.055666175 -0.028433749 0.2701692
0.056256954 -0.028096769 0.26698524
0.057355948 -0.028022742 0.26629236
0.058358762 -0.02790588 0.26518467
0.059330333 -0.027779255 0.26397604
0.060827095 -0.027898684 0.26509702
0.062058475 -0.02789405 0.26503006
