ply
format ascii 1.0
element vertex 1773
property float x
property float y
property float z
end_header
0.842692 0.451106 0.592317
0.795510 0.503626 0.615036
0.425637 0.907391 0.347642
0.384231 0.859068 0.377840
0.795578 0.461475 0.635904
0.872873 0.457904 0.476171
0.800548 0.503684 0.609846
0.320326 0.729230 0.420480
0.207500 0.684238 0.629602
0.213041 0.684920 0.624970
0.215962 0.682896 0.619055
0.220737 0.684343 0.615255
0.231248 0.648021 0.631029
0.226593 0.648359 0.634340
0.221395 0.647484 0.636757
0.208577 0.785268 0.298316
0.008285 0.602996 0.566539
0.429514 0.869255 0.341016
0.901577 0.360042 0.443529
0.061986 0.478962 0.426379
0.276413 0.737192 0.503050
0.891065 0.404299 0.417930
0.637744 0.482640 0.666279
0.864691 0.420299 0.360573
0.126809 0.716153 0.353068
0.878421 0.384889 0.572076
0.196932 0.694294 0.649263
0.447646 0.897022 0.322024
0.392348 0.794105 0.411320
0.530729 0.925811 0.250773
0.429159 0.925352 0.353499
0.739815 0.452039 0.678620
0.354713 0.840574 0.413936
0.332976 0.802290 0.427692
0.229052 0.721042 0.615730
0.864787 0.383674 0.599103
0.229435 0.639506 0.636827
0.186482 0.621791 0.689231
0.899504 0.341726 0.532982
0.082853 0.407789 0.355952
0.672254 0.578808 0.616613
0.263304 0.567123 0.632019
0.888858 0.368038 0.553272
0.883434 0.367710 0.565322
0.886668 0.367685 0.559069
0.801740 0.460743 0.631572
0.141048 0.631400 0.725631
0.196555 0.540394 0.693867
0.851816 0.493597 0.423947
0.210614 0.510574 0.633024
0.453636 0.813376 0.386201
0.359622 0.812658 0.409909
0.285940 0.575789 0.608635
0.206708 0.529258 0.650913
0.207099 0.576220 0.684937
0.166142 0.531219 0.726937
0.276553 0.602758 0.615468
0.210216 0.826232 0.174680
0.672626 0.298566 0.751028
0.678511 0.297688 0.747939
0.684991 0.297331 0.745811
0.693370 0.298108 0.746055
0.699798 0.297884 0.744462
0.705421 0.298413 0.742874
0.713183 0.297947 0.741144
0.719231 0.298979 0.738776
0.725163 0.299396 0.736456
0.730262 0.298676 0.732999
0.735863 0.298808 0.728990
0.740803 0.299437 0.725666
0.745615 0.298278 0.721056
0.752045 0.297972 0.718226
0.757577 0.299073 0.715706
0.764189 0.299149 0.712588
0.768848 0.300107 0.708943
0.773951 0.299508 0.704786
0.776780 0.299770 0.698390
0.781998 0.297858 0.694050
0.786804 0.299096 0.691093
0.791715 0.299357 0.685933
0.797701 0.299064 0.682648
0.803005 0.298941 0.678227
0.807915 0.299347 0.675330
0.813036 0.299820 0.671427
0.818617 0.299883 0.667398
0.822995 0.299106 0.663647
0.827943 0.298562 0.659569
0.831928 0.298595 0.652795
0.836428 0.298133 0.648214
0.839447 0.298471 0.642031
0.844197 0.297578 0.637453
0.848421 0.298558 0.632041
0.853576 0.297490 0.628651
0.857759 0.298133 0.622871
0.861455 0.298098 0.617257
0.864641 0.298129 0.610788
0.869209 0.297491 0.605699
0.872509 0.298094 0.599293
0.876226 0.297621 0.592030
0.878117 0.296797 0.584994
0.881804 0.296312 0.578897
0.885824 0.296330 0.572560
0.888765 0.295964 0.566762
0.891779 0.296204 0.559640
0.895952 0.295130 0.552186
0.899011 0.295679 0.545846
0.901202 0.294636 0.536871
0.902872 0.293935 0.528767
0.904521 0.292870 0.519717
0.904258 0.293095 0.508559
0.906266 0.292338 0.497277
0.291204 0.557385 0.601585
0.701024 0.571324 0.611938
0.220689 0.557276 0.661379
0.383431 0.831182 0.387243
0.244678 0.566676 0.650584
0.040438 0.655659 0.424815
0.830973 0.434914 0.620543
0.851982 0.451840 0.581120
0.806369 0.503613 0.604130
0.410746 0.906745 0.370055
0.393176 0.858694 0.367223
0.567640 0.444921 0.678571
0.457640 0.897105 0.313849
0.452452 0.897295 0.318003
0.196261 0.684595 0.648344
0.199554 0.684313 0.641594
0.251763 0.648239 0.615746
0.247257 0.648239 0.619736
0.242637 0.647734 0.623611
0.237068 0.647927 0.627303
0.809749 0.503914 0.600133
0.334422 0.774434 0.440844
0.059809 0.496775 0.547425
0.835639 0.418492 0.626406
0.402640 0.868433 0.359889
0.035360 0.419108 0.522239
0.777592 0.537986 0.599721
0.766140 0.537134 0.605026
0.240696 0.575166 0.655488
0.891935 0.405238 0.425197
0.075901 0.513013 0.399385
0.856505 0.419938 0.347899
0.092843 0.734613 0.392878
0.860729 0.401847 0.346451
0.193577 0.695033 0.653645
0.870569 0.457216 0.513803
0.387630 0.794782 0.414533
0.477681 0.945037 0.298160
0.434066 0.924975 0.348623
0.478054 0.927041 0.297436
0.409343 0.839645 0.367487
0.256629 0.712907 0.586399
0.233124 0.721141 0.608920
0.310344 0.727599 0.438042
0.235486 0.639534 0.634958
0.262734 0.557361 0.629496
0.236221 0.548178 0.648501
0.759109 0.528689 0.617465
0.678487 0.579868 0.613713
0.223056 0.566980 0.663047
0.900198 0.368895 0.475586
0.305376 0.746139 0.455528
0.100627 0.238562 0.463934
0.167413 0.612935 0.718260
0.856536 0.347211 0.309563
0.737826 0.546307 0.619964
0.199679 0.539052 0.685995
0.201346 0.540798 0.678096
0.210360 0.528907 0.645294
0.871548 0.382745 0.587084
0.823316 0.393436 0.652905
0.169060 0.542368 0.730654
0.162348 0.539546 0.733803
0.269622 0.538846 0.616378
0.771346 0.418156 0.679656
0.217461 0.639300 0.644715
0.672286 0.305797 0.749250
0.677744 0.305419 0.746303
0.683681 0.305881 0.745104
0.691135 0.306230 0.744561
0.699000 0.306359 0.742501
0.704324 0.306346 0.741396
0.712141 0.308263 0.737695
0.717736 0.307248 0.736994
0.723555 0.307951 0.734370
0.728629 0.306850 0.732472
0.735386 0.307508 0.727953
0.740609 0.306753 0.725343
0.745955 0.307586 0.721704
0.750658 0.309067 0.718286
0.757877 0.307987 0.716352
0.763288 0.308335 0.713253
0.768146 0.307377 0.709589
0.772637 0.308944 0.704334
0.777175 0.307912 0.698750
0.781701 0.307381 0.694379
0.785794 0.307222 0.689390
0.791184 0.306447 0.685004
0.796608 0.307496 0.681952
0.801996 0.307361 0.678067
0.806699 0.307685 0.674769
0.812884 0.306415 0.671862
0.817790 0.308505 0.668658
0.823614 0.308616 0.663665
0.828140 0.308697 0.658423
0.831458 0.307857 0.654103
0.835793 0.306674 0.648652
0.839184 0.308038 0.642284
0.843969 0.307301 0.636869
0.848707 0.306636 0.631956
0.853606 0.307265 0.627982
0.857932 0.307512 0.622109
0.861897 0.306653 0.617085
0.864909 0.305915 0.612458
0.869316 0.306094 0.605165
0.872847 0.307184 0.599011
0.874963 0.306265 0.593078
0.878810 0.305306 0.585300
0.881934 0.305175 0.579094
0.885794 0.304075 0.573219
0.889551 0.305102 0.567188
0.892379 0.304353 0.559432
0.895056 0.304144 0.552401
0.898641 0.302745 0.545535
0.900671 0.302838 0.536226
0.902619 0.302135 0.528611
0.903359 0.301677 0.519031
0.647824 0.477004 0.266952
0.405760 0.887318 0.363605
0.839546 0.418712 0.620124
0.842690 0.417985 0.613367
0.847640 0.418109 0.608331
0.851922 0.417697 0.602633
0.440031 0.831486 0.367530
0.810232 0.428360 0.645917
0.826506 0.435665 0.624498
0.855816 0.452205 0.575550
0.814043 0.504348 0.593631
0.413826 0.906552 0.364534
0.414885 0.858974 0.353313
0.458695 0.936266 0.315845
0.543969 0.860290 0.281273
0.182576 0.685154 0.672805
0.178453 0.685723 0.679208
0.261599 0.648676 0.607296
0.256395 0.648171 0.610064
0.207995 0.836218 0.125143
0.818490 0.504320 0.588050
0.822271 0.502774 0.582311
0.825521 0.502437 0.578010
0.745913 0.453006 0.675039
0.251828 0.712122 0.593329
0.815852 0.495368 0.597115
0.432809 0.830752 0.369527
0.180609 0.531382 0.712976
0.206490 0.518739 0.639563
0.179357 0.521947 0.700910
0.773253 0.537255 0.601458
0.187910 0.530560 0.701565
0.376319 0.831229 0.389192
0.206840 0.786086 0.181732
0.896700 0.341541 0.397819
0.872995 0.402655 0.366998
0.185781 0.695099 0.665928
0.869970 0.457417 0.507067
0.370214 0.794019 0.425289
0.494771 0.822665 0.354587
0.008431 0.576793 0.469909
0.482490 0.925934 0.293488
0.482547 0.840694 0.339351
0.739789 0.537108 0.623074
0.878059 0.448660 0.475582
0.263057 0.694112 0.573879
0.278249 0.639579 0.596031
0.242445 0.612682 0.645444
0.873702 0.449321 0.501024
0.385015 0.878131 0.390334
0.887328 0.376414 0.379600
0.217766 0.566425 0.667478
0.090726 0.526383 0.702651
0.299400 0.664641 0.500379
0.284360 0.747608 0.479635
0.299554 0.663436 0.491264
0.161712 0.614139 0.722916
0.281017 0.737394 0.485873
0.345474 0.774557 0.433231
0.777081 0.452265 0.653823
0.203907 0.539755 0.670216
0.206228 0.539687 0.662877
0.545760 0.868014 0.277156
0.238846 0.539286 0.640419
0.244563 0.538848 0.637551
0.193336 0.531308 0.688350
0.653202 0.314398 0.754970
0.659379 0.314344 0.753590
0.665665 0.313515 0.752340
0.671673 0.314806 0.748510
0.677366 0.314460 0.748221
0.683959 0.315314 0.742829
0.689499 0.314500 0.741253
0.695409 0.314686 0.739195
0.702247 0.316049 0.737987
0.708523 0.316339 0.735116
0.715432 0.315930 0.734424
0.722755 0.317070 0.732026
0.727893 0.316005 0.729454
0.733059 0.315661 0.726704
0.738782 0.316236 0.723531
0.745612 0.316417 0.721760
0.751903 0.316021 0.718734
0.757359 0.316696 0.714631
0.762927 0.316091 0.711934
0.767836 0.315587 0.707273
0.773484 0.316888 0.703076
0.776712 0.315760 0.698856
0.781902 0.316708 0.695029
0.786346 0.316186 0.689345
0.790008 0.316941 0.684833
0.796190 0.316576 0.680394
0.800217 0.315725 0.676901
0.806437 0.315409 0.674284
0.812296 0.316497 0.671379
0.817457 0.316305 0.667111
0.822635 0.315624 0.662289
0.826985 0.316477 0.658324
0.830922 0.315671 0.652894
0.835783 0.315897 0.646185
0.838144 0.315354 0.641987
0.843672 0.314745 0.636017
0.848694 0.314773 0.632294
0.852657 0.315543 0.628813
0.857563 0.315023 0.622081
0.862644 0.315949 0.618538
0.865251 0.314752 0.612533
0.868793 0.315393 0.604944
0.873516 0.315454 0.598968
0.875739 0.314924 0.594014
0.878995 0.314046 0.586849
0.882842 0.314021 0.579964
0.885783 0.313840 0.573478
0.890082 0.313735 0.566224
0.760272 0.393232 0.697393
0.873765 0.392479 0.578453
0.124576 0.929520 0.057141
0.706929 0.401179 0.710022
0.273951 0.539319 0.612490
0.028961 0.559203 0.425746
0.804199 0.495441 0.612277
0.352336 0.821829 0.409119
0.187416 0.522154 0.680354
0.404301 0.898248 0.372561
0.824733 0.494217 0.587146
0.307878 0.575043 0.571663
0.761107 0.554413 0.596469
0.814063 0.427213 0.641133
0.823529 0.435058 0.629580
0.878146 0.382392 0.574026
0.830660 0.503224 0.572408
0.755809 0.521183 0.623516
0.431133 0.860165 0.343725
0.322923 0.756385 0.444982
0.170639 0.532305 0.722428
0.173726 0.685811 0.682938
0.265934 0.647869 0.601742
0.844094 0.401243 0.327307
0.881661 0.385285 0.373193
0.902316 0.341721 0.444147
0.837292 0.392807 0.638079
0.832592 0.393459 0.644888
0.318147 0.774601 0.450052
0.746184 0.537672 0.619798
0.073549 0.390723 0.362479
0.453895 0.936157 0.322772
0.340234 0.830836 0.426168
0.218261 0.519387 0.632451
0.212714 0.518076 0.634567
0.175624 0.522661 0.706850
0.747216 0.426936 0.691014
0.399497 0.868206 0.364125
0.757266 0.536597 0.613777
0.207742 0.836073 0.111137
0.028888 0.743741 0.474388
0.234524 0.739987 0.612971
0.182045 0.693787 0.671831
0.184723 0.730601 0.653694
0.376837 0.793236 0.422326
0.367946 0.850001 0.398699
0.204311 0.825243 0.053566
0.486900 0.926262 0.288547
0.489149 0.842341 0.336587
0.806029 0.461360 0.628113
0.459099 0.814278 0.384049
0.773748 0.520606 0.615643
0.762264 0.520410 0.621837
0.203466 0.675469 0.633619
0.877361 0.448866 0.481727
0.408760 0.878483 0.355794
0.893761 0.378359 0.399784
0.212379 0.567588 0.671396
0.901795 0.360573 0.431259
0.768799 0.486535 0.642061
0.232648 0.603818 0.655070
0.238550 0.603550 0.652176
0.244299 0.602852 0.648007
0.249181 0.603861 0.644641
0.429216 0.944525 0.301087
0.753105 0.443505 0.676163
0.517256 0.897896 0.276334
0.202691 0.558623 0.691140
0.481351 0.805249 0.348345
0.512037 0.878451 0.291863
0.774999 0.487822 0.639330
0.647536 0.321887 0.760124
0.653377 0.322857 0.758432
0.660491 0.323034 0.755860
0.666581 0.322749 0.753256
0.671710 0.323660 0.750117
0.678277 0.323592 0.747226
0.684032 0.324142 0.744537
0.688241 0.323528 0.740005
0.694505 0.323678 0.737597
0.700240 0.323915 0.735045
0.708027 0.323625 0.733098
0.714420 0.323989 0.730215
0.719183 0.324366 0.728969
0.780502 0.487203 0.637871
0.731237 0.324848 0.724655
0.739906 0.324073 0.722578
0.744662 0.325061 0.719649
0.750469 0.324559 0.717892
0.756926 0.324219 0.713739
0.761229 0.324669 0.709241
0.766452 0.325284 0.706895
0.771776 0.325258 0.701204
0.776624 0.323816 0.699374
0.782324 0.324753 0.694143
0.786387 0.324914 0.690353
0.790786 0.325577 0.684132
0.794485 0.324706 0.678474
0.799275 0.324684 0.674144
0.806598 0.324183 0.672775
0.811832 0.325056 0.670775
0.817186 0.325460 0.666229
0.821973 0.324754 0.663077
0.826950 0.324544 0.658303
0.830831 0.324610 0.652878
0.835541 0.324738 0.647045
0.838819 0.325589 0.642382
0.844566 0.324383 0.635582
0.848127 0.324153 0.631453
0.852875 0.323897 0.627567
0.856162 0.323708 0.622650
0.862309 0.324447 0.617148
0.865970 0.324407 0.611713
0.869967 0.324019 0.606264
0.872127 0.323316 0.598996
0.875509 0.323770 0.591564
0.879638 0.322428 0.585994
0.882656 0.322154 0.579984
0.886568 0.321958 0.574127
0.890013 0.322034 0.566478
0.754324 0.392830 0.700927
0.878457 0.391033 0.573201
0.904005 0.341809 0.449883
0.712556 0.401131 0.706795
0.849848 0.459997 0.578570
0.265563 0.675016 0.577658
0.806793 0.495292 0.607450
0.756200 0.410310 0.693776
0.763069 0.409836 0.691002
0.767693 0.410063 0.687212
0.852515 0.409097 0.606490
0.809901 0.385329 0.667637
0.268031 0.674980 0.571115
0.820564 0.426051 0.636570
0.817383 0.435415 0.632753
0.101513 0.522425 0.706698
0.863157 0.447293 0.379117
0.766878 0.393354 0.694588
0.472074 0.878215 0.312485
0.442023 0.859950 0.337439
0.005674 0.586076 0.560625
0.811488 0.460933 0.623339
0.170208 0.686158 0.687893
0.270764 0.648282 0.597301
0.206090 0.805854 0.278680
0.442592 0.887829 0.327379
0.246955 0.612385 0.641270
0.310483 0.583089 0.564614
0.314641 0.584033 0.558404
0.895541 0.386110 0.417796
0.787698 0.486324 0.633794
0.792151 0.487703 0.630018
0.816607 0.460837 0.620568
0.473288 0.945558 0.302804
0.189594 0.568130 0.716769
0.153810 0.604129 0.732272
0.797154 0.486981 0.627577
0.177934 0.499461 0.642924
0.465413 0.868938 0.273753
0.118821 0.485062 0.348237
0.213056 0.576202 0.671946
0.207140 0.775513 0.195270
0.870065 0.339705 0.328379
0.296025 0.774753 0.464453
0.188691 0.694398 0.660188
0.799632 0.486096 0.621851
0.380946 0.793832 0.418002
0.364945 0.850171 0.404913
0.528599 0.878676 0.282574
0.492100 0.925222 0.285813
0.453559 0.926038 0.320631
0.805532 0.485902 0.615949
0.769812 0.529136 0.610146
0.809698 0.486481 0.610444
0.767324 0.519963 0.618652
0.268344 0.665393 0.581845
0.814584 0.486471 0.605755
0.489139 0.974183 0.290721
0.483809 0.963619 0.296179
0.209351 0.567175 0.677097
0.466931 0.954407 0.316730
0.416683 0.777718 0.367520
0.817713 0.487305 0.600429
0.821102 0.485568 0.594719
0.494655 0.954348 0.277265
0.253157 0.604001 0.638585
0.192232 0.549667 0.709249
0.188747 0.549484 0.715743
0.195913 0.549449 0.702702
0.199260 0.549537 0.695545
0.201346 0.549918 0.688840
0.207158 0.548624 0.674609
0.826819 0.487115 0.591004
0.830224 0.486377 0.585211
0.655459 0.331439 0.760161
0.661891 0.331766 0.755805
0.667642 0.331575 0.755177
0.672925 0.331828 0.751715
0.678491 0.333086 0.748756
0.684383 0.332996 0.744657
0.689381 0.331680 0.741027
0.694995 0.331518 0.737050
0.700383 0.332205 0.732932
0.705575 0.332396 0.731570
0.711657 0.332781 0.728464
0.718167 0.332208 0.726636
0.834395 0.486097 0.580059
0.839401 0.487065 0.573246
0.737111 0.333602 0.721119
0.743513 0.334124 0.719100
0.749923 0.332482 0.715703
0.755050 0.333625 0.711606
0.759990 0.333644 0.708542
0.765159 0.333789 0.704020
0.771115 0.333848 0.701437
0.776468 0.333498 0.699629
0.782459 0.333560 0.694858
0.785983 0.333431 0.690417
0.790592 0.334401 0.684605
0.793840 0.334095 0.677352
0.800031 0.332663 0.675868
0.806177 0.331900 0.672084
0.811589 0.333010 0.670882
0.817045 0.333571 0.666929
0.822919 0.333971 0.662915
0.826324 0.333433 0.658562
0.831910 0.333010 0.652807
0.835776 0.333561 0.647460
0.839402 0.334286 0.642504
0.843807 0.332710 0.636591
0.847395 0.333261 0.631262
0.852193 0.331836 0.626840
0.856858 0.332935 0.620632
0.861452 0.332908 0.616383
0.865601 0.332405 0.610377
0.869422 0.331810 0.605449
0.872631 0.331970 0.599758
0.875857 0.331134 0.592177
0.878312 0.331597 0.586319
0.883515 0.332314 0.580776
0.886060 0.331311 0.574071
0.889127 0.330444 0.566948
0.496801 0.831750 0.347603
0.180100 0.658661 0.680647
0.856419 0.426832 0.588867
0.899208 0.369137 0.417408
0.108810 0.453082 0.617685
0.034796 0.419707 0.514928
0.284651 0.548097 0.604473
0.211861 0.558317 0.669664
0.199787 0.491804 0.640041
0.364620 0.802385 0.427124
0.843862 0.409339 0.616355
0.589850 0.468783 0.253908
0.260654 0.586304 0.638772
0.825279 0.427543 0.631872
0.766577 0.435535 0.672439
0.771061 0.434730 0.668800
0.822382 0.418391 0.639104
0.898087 0.368246 0.411362
0.787121 0.393334 0.678691
0.842360 0.486214 0.568743
0.448515 0.859601 0.336098
0.037138 0.691058 0.476534
0.820611 0.460460 0.615095
0.164369 0.684881 0.691342
0.899274 0.360622 0.410543
0.214829 0.865830 0.021088
0.453372 0.888184 0.318776
0.286499 0.585336 0.608060
0.288437 0.583435 0.601387
0.426442 0.858776 0.346593
0.243445 0.630161 0.635464
0.463432 0.897588 0.311242
0.132782 0.212649 0.513836
0.825223 0.460749 0.610422
0.181884 0.568729 0.726723
0.186298 0.567860 0.723590
0.533754 0.869723 0.287765
0.892064 0.377531 0.392831
0.438248 0.859638 0.340032
0.174658 0.500110 0.650015
0.660235 0.467964 0.265739
0.412204 0.897517 0.361504
0.791101 0.401841 0.675025
0.185480 0.454890 0.295375
0.892688 0.341328 0.379779
0.440321 0.869327 0.333323
0.201333 0.694466 0.642419
0.277919 0.585821 0.618744
0.398657 0.794253 0.407636
0.361105 0.850542 0.410806
0.477055 0.973573 0.306523
0.497660 0.927107 0.281598
0.475695 0.840787 0.340548
0.164298 0.512032 0.701762
0.814760 0.410744 0.651608
0.895062 0.359935 0.392577
0.870922 0.399948 0.578253
0.183641 0.657139 0.674791
0.285333 0.594604 0.606486
0.396325 0.878016 0.371984
0.860378 0.425882 0.582557
0.520933 0.953724 0.248274
0.347369 0.755056 0.423470
0.510456 0.907124 0.278191
0.853014 0.443156 0.583209
0.328833 0.812202 0.432812
0.402615 0.887015 0.370231
0.216076 0.557409 0.665225
0.245714 0.594078 0.650530
0.437261 0.897002 0.329520
0.435046 0.803668 0.394196
0.377682 0.803475 0.422976
0.309913 0.803502 0.450516
0.855118 0.384381 0.618495
0.854429 0.457065 0.379443
0.447631 0.935509 0.333767
0.818352 0.452235 0.623037
0.661563 0.341119 0.757337
0.667622 0.341009 0.754523
0.673629 0.339965 0.751886
0.679348 0.341430 0.748799
0.685078 0.341359 0.746596
0.690632 0.340657 0.741931
0.694550 0.341039 0.736949
0.699569 0.340902 0.732977
0.704489 0.341074 0.730733
0.710242 0.341043 0.727460
0.716158 0.341001 0.722939
0.885354 0.431162 0.437216
0.771762 0.495192 0.635231
0.197264 0.568012 0.704441
0.740431 0.341782 0.715684
0.747941 0.341480 0.713846
0.754605 0.341833 0.709544
0.759197 0.342531 0.707311
0.765497 0.341919 0.705507
0.771454 0.341784 0.701319
0.776970 0.342612 0.697668
0.781038 0.342116 0.694249
0.787135 0.342570 0.687766
0.789316 0.341378 0.683124
0.794087 0.342604 0.678391
0.799864 0.341177 0.674996
0.806327 0.342489 0.673456
0.812599 0.342710 0.672517
0.818703 0.342215 0.668466
0.823814 0.342925 0.664574
0.827957 0.341134 0.659660
0.832856 0.342098 0.653450
0.836092 0.341843 0.649505
0.840385 0.341952 0.642844
0.844295 0.340840 0.637323
0.848288 0.341821 0.632060
0.851706 0.340579 0.625654
0.856897 0.341375 0.620603
0.859615 0.341054 0.615402
0.863808 0.340063 0.611170
0.868270 0.341479 0.605365
0.872151 0.341096 0.598698
0.875020 0.340034 0.592471
0.879225 0.339845 0.585233
0.882623 0.340013 0.579853
0.885280 0.339739 0.572998
0.889004 0.339943 0.565250
0.445935 0.830743 0.365308
0.275830 0.529802 0.613342
0.788373 0.435510 0.658837
0.638368 0.491084 0.667066
0.239930 0.638823 0.631910
0.258363 0.557449 0.634512
0.242666 0.548639 0.645058
0.752454 0.402361 0.698498
0.839552 0.401264 0.630353
0.895523 0.376748 0.405571
0.849358 0.409369 0.610699
0.101470 0.742744 0.384790
0.164830 0.604491 0.726913
0.828214 0.426819 0.629030
0.843013 0.426419 0.611280
0.762783 0.435168 0.676162
0.354086 0.812544 0.413206
0.170410 0.604196 0.721895
0.355765 0.755885 0.415160
0.538174 0.896867 0.261267
0.460361 0.859717 0.329820
0.798506 0.418581 0.662236
0.827803 0.460755 0.604975
0.160081 0.685396 0.695781
0.897792 0.358923 0.404908
0.279368 0.612272 0.609894
0.168465 0.658153 0.697877
0.229890 0.585224 0.661438
0.379776 0.868450 0.393039
0.368299 0.766136 0.411586
0.236090 0.666230 0.613621
0.802961 0.418760 0.657397
0.170373 0.567782 0.734880
0.176136 0.567795 0.731417
0.456902 0.869466 0.324482
0.777535 0.494850 0.633718
0.845478 0.443936 0.594695
0.276507 0.756599 0.491594
0.413413 0.822439 0.385922
0.182380 0.639819 0.682671
0.771055 0.512396 0.622783
0.782594 0.512457 0.616944
0.184917 0.500173 0.639258
0.327226 0.755899 0.440654
0.032634 0.419506 0.496426
0.894288 0.342067 0.392486
0.486627 0.888037 0.299531
0.204945 0.693718 0.638051
0.748613 0.528802 0.622987
0.403660 0.794358 0.405761
0.355912 0.849100 0.415276
0.495896 0.973231 0.279545
0.502850 0.925088 0.276718
0.470068 0.840748 0.343779
0.444858 0.926308 0.330482
0.810379 0.410291 0.656068
0.731975 0.546370 0.622116
0.272459 0.638613 0.600985
0.131990 0.621395 0.733468
0.281189 0.593336 0.612159
0.228121 0.594122 0.659538
0.839707 0.400185 0.320737
0.792808 0.418814 0.664649
0.334415 0.764806 0.439363
0.328281 0.765262 0.443519
0.250193 0.638360 0.623988
0.418143 0.869146 0.346643
0.268658 0.657366 0.592771
0.896000 0.395384 0.488930
0.263560 0.657187 0.597314
0.259699 0.657474 0.603502
0.217825 0.721848 0.633598
0.186512 0.558992 0.723288
0.177179 0.612896 0.709929
0.181064 0.612689 0.704971
0.193465 0.613088 0.688456
0.858402 0.383199 0.613186
0.473711 0.813683 0.371018
0.832975 0.460858 0.599936
0.666574 0.348189 0.753447
0.672828 0.349649 0.751415
0.679002 0.349112 0.749163
0.685007 0.349665 0.745613
0.690723 0.349673 0.742680
0.695978 0.350021 0.738526
0.700900 0.349678 0.734054
0.704743 0.349193 0.731551
0.709924 0.348499 0.726834
0.716705 0.349126 0.722380
0.720520 0.348790 0.718672
0.726543 0.348962 0.714668
0.234382 0.530686 0.634663
0.179308 0.511319 0.677006
0.747705 0.350006 0.712164
0.753691 0.349703 0.710776
0.759435 0.350835 0.707842
0.765980 0.350842 0.703636
0.769671 0.350446 0.701242
0.776673 0.350056 0.697770
0.780594 0.350197 0.693288
0.785560 0.350438 0.688020
0.789016 0.349939 0.682289
0.793093 0.350915 0.679232
0.799321 0.350028 0.675710
0.806330 0.351102 0.672239
0.812175 0.350479 0.671945
0.819636 0.350855 0.669535
0.823847 0.350746 0.664698
0.828661 0.350474 0.660194
0.832577 0.351183 0.654377
0.836428 0.351315 0.648736
0.840553 0.351047 0.643953
0.844091 0.350714 0.637882
0.847151 0.350055 0.631419
0.852146 0.350554 0.625975
0.856619 0.350172 0.621895
0.859186 0.348449 0.615180
0.863714 0.349803 0.609848
0.868070 0.349941 0.604233
0.871175 0.349396 0.597807
0.874055 0.348745 0.590753
0.877129 0.349196 0.584077
0.881413 0.348418 0.579044
0.884200 0.348273 0.571397
0.620940 0.495651 0.268002
0.867373 0.465468 0.417702
0.858027 0.338672 0.308586
0.458009 0.840947 0.348278
0.414340 0.887760 0.352914
0.846031 0.460834 0.584637
0.299232 0.752507 0.370501
0.042141 0.726136 0.456177
0.447743 0.813019 0.390223
0.826361 0.401921 0.646090
0.282378 0.530223 0.613199
0.841297 0.409753 0.623134
0.463751 0.840564 0.345830
0.323646 0.774675 0.447402
0.833910 0.427007 0.623019
0.837390 0.426568 0.618061
0.756302 0.434324 0.679539
0.288257 0.737816 0.473574
0.256544 0.720914 0.587902
0.828956 0.394062 0.648499
0.468394 0.898323 0.306826
0.491380 0.859819 0.316369
0.249429 0.538785 0.633420
0.837250 0.460642 0.594804
0.859990 0.392345 0.605816
0.875544 0.394053 0.366822
0.270317 0.612441 0.618509
0.163388 0.658092 0.701546
0.218338 0.584700 0.668231
0.696308 0.400391 0.717181
0.027780 0.655264 0.540395
0.730920 0.444413 0.688708
0.339953 0.774924 0.437701
0.375526 0.868939 0.398700
0.511907 0.964538 0.257999
0.521085 0.887940 0.280906
0.869766 0.466253 0.448985
0.159961 0.604504 0.729493
0.179815 0.712949 0.667341
0.184042 0.586888 0.719155
0.233142 0.757826 0.612443
0.777256 0.512112 0.620513
0.476766 0.832291 0.353080
0.129991 0.630353 0.732052
0.191532 0.499797 0.638953
0.527441 0.945266 0.245748
0.574297 0.406244 0.192048
0.142322 0.722688 0.282372
0.827113 0.452593 0.613483
0.209650 0.695001 0.632507
0.133150 0.912039 0.069779
0.409338 0.794018 0.401356
0.448180 0.945025 0.335141
0.860397 0.484281 0.462459
0.436760 0.926024 0.341686
0.507309 0.925987 0.272548
0.402204 0.839786 0.370710
0.374544 0.840450 0.386448
0.777801 0.410550 0.678031
0.671454 0.583919 0.612415
0.305637 0.611007 0.567140
0.194507 0.621323 0.678630
0.197244 0.621027 0.672989
0.223861 0.593874 0.662283
0.217717 0.594971 0.667504
0.212995 0.594786 0.670293
0.208581 0.595110 0.676371
0.216054 0.749144 0.630592
0.873430 0.339261 0.334515
0.449117 0.878252 0.325090
0.478164 0.878748 0.309798
0.298598 0.717101 0.437899
0.889348 0.423230 0.469449
0.250822 0.585198 0.647382
0.495453 0.983160 0.278605
0.186273 0.684986 0.665517
0.274526 0.756934 0.496857
0.487785 0.916425 0.290628
0.189923 0.612017 0.693311
0.841192 0.460648 0.589438
0.239241 0.675976 0.607171
0.864492 0.465689 0.520721
0.671859 0.357947 0.748445
0.677943 0.358597 0.747924
0.684018 0.357828 0.745376
0.689962 0.357012 0.741834
0.695339 0.357028 0.739122
0.700056 0.359109 0.733499
0.706297 0.357290 0.729491
0.710499 0.358206 0.727076
0.716320 0.359704 0.722590
0.719871 0.357208 0.717680
0.724002 0.358376 0.712356
0.176502 0.658886 0.685790
0.247924 0.529368 0.629797
0.301474 0.584397 0.584002
0.752155 0.359848 0.709663
0.759051 0.359065 0.706721
0.764123 0.358624 0.703530
0.771033 0.358641 0.700534
0.775153 0.358759 0.696547
0.779841 0.359480 0.691717
0.783804 0.359276 0.686581
0.790098 0.360387 0.682415
0.794427 0.359477 0.679039
0.799338 0.359533 0.675687
0.807016 0.359278 0.674451
0.812359 0.358493 0.671871
0.818641 0.360233 0.668653
0.823640 0.359610 0.664782
0.827648 0.359149 0.659644
0.832768 0.359218 0.653620
0.837097 0.358757 0.649739
0.840009 0.359156 0.642728
0.844758 0.358327 0.637623
0.847816 0.358100 0.632254
0.852583 0.359058 0.627252
0.855192 0.358869 0.620570
0.859086 0.358689 0.615327
0.863514 0.358158 0.608924
0.867018 0.357432 0.602247
0.870374 0.357884 0.595650
0.873658 0.357816 0.589063
0.876456 0.356899 0.583115
0.880058 0.356979 0.576325
0.883159 0.357153 0.570325
0.260625 0.706451 0.573457
0.319638 0.811880 0.441810
0.899229 0.387185 0.450228
0.107344 0.760734 0.385821
0.174545 0.604314 0.718989
0.464647 0.887382 0.313323
0.793308 0.393469 0.677140
0.858864 0.418696 0.591662
0.229426 0.759012 0.616280
0.815675 0.402197 0.655319
0.452042 0.934545 0.326757
0.468692 0.943829 0.307988
0.875619 0.374808 0.347074
0.877610 0.403731 0.379499
0.845387 0.426630 0.606468
0.750332 0.435740 0.683334
0.744476 0.435698 0.686714
0.211462 0.825603 0.181848
0.193869 0.895819 0.085800
0.114506 0.809493 0.320235
0.473104 0.896750 0.303987
0.540883 0.861034 0.287447
0.115718 0.778712 0.378973
0.222425 0.739844 0.630089
0.455778 0.822316 0.379362
0.867703 0.383661 0.592874
0.880138 0.367827 0.571777
0.265337 0.611517 0.622500
0.011378 0.559485 0.566289
0.213549 0.585417 0.671993
0.384515 0.868454 0.386483
0.538045 0.485822 0.257464
0.300147 0.737759 0.457336
0.265409 0.547703 0.622693
0.257127 0.548769 0.632297
0.887977 0.358299 0.373010
0.350802 0.773337 0.428935
0.682500 0.552483 0.630206
0.675392 0.553300 0.631530
0.190310 0.559406 0.717062
0.212529 0.721180 0.637057
0.595459 0.468012 0.254598
0.900097 0.386890 0.442743
0.751908 0.554448 0.605822
0.048183 0.445096 0.438334
0.127037 0.657989 0.354023
0.235123 0.595108 0.657439
0.011726 0.568636 0.572945
0.014550 0.603380 0.591824
0.446748 0.526014 0.297606
0.109342 0.815037 0.282822
0.214806 0.693625 0.629118
0.428253 0.897942 0.337463
0.414592 0.794013 0.399662
0.207183 0.639438 0.650229
0.441838 0.926202 0.335884
0.176517 0.703290 0.674853
0.396997 0.841640 0.374049
0.345678 0.803403 0.422130
0.522711 0.944291 0.250615
0.484664 0.974062 0.297243
0.289230 0.774173 0.466310
0.469360 0.869462 0.319076
0.010313 0.568570 0.630321
0.496782 0.954132 0.234076
0.563949 0.468663 0.250884
0.252073 0.630642 0.626950
0.205403 0.594184 0.681464
0.201392 0.595277 0.689441
0.194202 0.594872 0.701029
0.898503 0.387116 0.430564
0.211221 0.846062 0.033959
0.289785 0.697867 0.470211
0.215056 0.185216 0.556676
0.551604 0.897629 0.238748
0.197475 0.207256 0.591252
0.290949 0.698809 0.465015
0.897431 0.377938 0.494598
0.898943 0.369282 0.424030
0.135785 0.656889 0.720267
0.185246 0.612017 0.699873
0.297445 0.557085 0.590607
0.203583 0.549073 0.681379
0.267037 0.603548 0.625277
0.747864 0.443895 0.679529
0.682666 0.366284 0.743092
0.688795 0.367678 0.740390
0.694053 0.366428 0.736847
0.699891 0.367019 0.733091
0.706390 0.367009 0.730186
0.711493 0.366428 0.726238
0.714830 0.366216 0.722053
0.718461 0.365559 0.716946
0.724280 0.367510 0.710584
0.313940 0.736724 0.444218
0.252666 0.530099 0.625542
0.240506 0.530436 0.633132
0.207274 0.835769 0.181731
0.757538 0.367500 0.704544
0.764096 0.367441 0.702402
0.768635 0.367811 0.699582
0.774722 0.367916 0.694857
0.779484 0.367596 0.690668
0.783706 0.368181 0.686596
0.789197 0.368001 0.681949
0.793951 0.367523 0.679515
0.800396 0.367365 0.676214
0.805900 0.367246 0.673978
0.812482 0.368402 0.671312
0.818395 0.368617 0.667608
0.823358 0.367972 0.663521
0.827241 0.367266 0.659086
0.832108 0.368250 0.654040
0.836188 0.368053 0.649247
0.839791 0.368357 0.644703
0.844529 0.367648 0.637457
0.847862 0.367495 0.632620
0.851964 0.368355 0.626546
0.855922 0.367229 0.620276
0.858940 0.366805 0.614561
0.862477 0.366369 0.607535
0.865808 0.366259 0.601970
0.869487 0.365898 0.594097
0.872771 0.366325 0.588117
0.876323 0.365401 0.582003
0.878791 0.364967 0.575433
0.829051 0.494325 0.581476
0.120087 0.752429 0.346320
0.413184 0.813147 0.406556
0.719862 0.392512 0.706652
0.715403 0.390840 0.710330
0.710098 0.393078 0.715129
0.704780 0.391552 0.720537
0.797167 0.393704 0.673081
0.531021 0.907972 0.262739
0.385883 0.774617 0.403296
0.821649 0.402196 0.651398
0.312425 0.773927 0.454255
0.832315 0.494435 0.576298
0.486831 0.954602 0.288020
0.302268 0.610632 0.574341
0.848766 0.425653 0.599918
0.803864 0.435728 0.648226
0.055199 0.514111 0.419503
0.143322 0.658150 0.717053
0.184756 0.703552 0.664310
0.479343 0.897654 0.300802
0.050047 0.498107 0.456888
0.004717 0.550934 0.496010
0.256028 0.739350 0.574852
0.834803 0.385520 0.647162
0.169322 0.621812 0.710385
0.434581 0.868781 0.337277
0.274208 0.612708 0.613635
0.192322 0.603698 0.698046
0.223723 0.585654 0.665129
0.174925 0.577249 0.729025
0.299977 0.547534 0.593122
0.499398 0.982120 0.273330
0.261008 0.547786 0.627698
0.417985 0.888436 0.347887
0.791191 0.426969 0.663038
0.134380 0.949098 0.049710
0.812897 0.512016 0.590209
0.245608 0.758374 0.594395
0.248781 0.758299 0.588333
0.447212 0.887794 0.322939
0.173195 0.621772 0.706467
0.765565 0.511359 0.624622
0.161137 0.595778 0.732171
0.152491 0.610888 0.339991
0.159595 0.612459 0.339046
0.498018 0.888371 0.293222
0.245248 0.620925 0.637515
0.056580 0.574463 0.380056
0.573559 0.393391 0.180792
0.009585 0.568847 0.625015
0.219885 0.694057 0.624558
0.308649 0.719092 0.415702
0.421113 0.794649 0.395619
0.835873 0.501187 0.392074
0.252867 0.721156 0.592740
0.512385 0.926697 0.268315
0.474310 0.953772 0.306178
0.346081 0.840005 0.422164
0.356739 0.802818 0.427787
0.512125 0.896924 0.280786
0.883829 0.404249 0.552452
0.165669 0.704451 0.682918
0.224717 0.703858 0.621630
0.853883 0.329355 0.302572
0.206548 0.765789 0.220330
0.303600 0.629088 0.554899
0.031543 0.507008 0.488793
0.516941 0.916520 0.224759
0.130667 0.463364 0.634100
0.191109 0.595101 0.706720
0.197892 0.594659 0.694827
0.807271 0.511538 0.595374
0.032298 0.420273 0.476333
0.831256 0.419104 0.630803
0.894989 0.377120 0.526757
0.879216 0.338391 0.347064
0.902054 0.341594 0.476096
0.894021 0.359289 0.385529
0.159661 0.513066 0.706398
0.843021 0.383465 0.636550
0.157672 0.613313 0.725349
0.294232 0.557332 0.596311
0.301798 0.557193 0.584658
0.440965 0.896903 0.326251
0.692807 0.562450 0.622184
0.687304 0.562008 0.623261
0.692457 0.375153 0.735760
0.697669 0.375191 0.731516
0.703478 0.375891 0.728326
0.708753 0.375920 0.725034
0.713988 0.375748 0.720138
0.717798 0.375429 0.713781
0.722045 0.375339 0.709019
0.726930 0.374731 0.704699
0.033468 0.691649 0.609765
0.257392 0.529501 0.620994
0.541204 0.878736 0.274813
0.756365 0.376089 0.704328
0.762922 0.375299 0.701316
0.768030 0.376170 0.697701
0.773769 0.376172 0.694384
0.779020 0.376387 0.690122
0.783780 0.376942 0.686097
0.789781 0.376408 0.682213
0.794974 0.376703 0.678826
0.800104 0.376435 0.675807
0.805255 0.377348 0.672191
0.811127 0.377439 0.669757
0.816342 0.376732 0.666367
0.821018 0.377820 0.662609
0.827485 0.376973 0.657685
0.830865 0.377414 0.652061
0.835643 0.376787 0.648216
0.839125 0.376097 0.641994
0.844107 0.375487 0.636795
0.848232 0.375973 0.631930
0.850941 0.375884 0.625812
0.855496 0.375049 0.619730
0.857994 0.375725 0.614151
0.861982 0.374219 0.606952
0.865319 0.375601 0.600488
0.869954 0.375100 0.594670
0.872172 0.375491 0.587198
0.875807 0.374457 0.581253
0.878521 0.374155 0.573606
0.286641 0.764774 0.471675
0.733810 0.435135 0.692746
0.296318 0.612401 0.587751
0.196827 0.712385 0.647723
0.202813 0.745057 0.259166
0.245367 0.693499 0.594807
0.147834 0.631744 0.724717
0.803065 0.393718 0.669421
0.496132 0.897205 0.290293
0.887170 0.422142 0.495058
0.892156 0.368637 0.385683
0.440481 0.944203 0.345868
0.274143 0.547301 0.612732
0.281488 0.765849 0.475477
0.248873 0.739646 0.588353
0.853140 0.425459 0.594961
0.799416 0.435594 0.652014
0.831164 0.451424 0.608294
0.265339 0.716957 0.547444
0.279846 0.547085 0.608950
0.484859 0.898249 0.297350
0.173823 0.586266 0.727702
0.865631 0.365795 0.328495
0.259244 0.594806 0.635680
0.866092 0.416110 0.578675
0.312304 0.574744 0.565776
0.492792 0.888168 0.296669
0.283504 0.611346 0.604299
0.189215 0.603702 0.703449
0.235602 0.584259 0.658320
0.170282 0.577030 0.734514
0.045184 0.402086 0.425718
0.227618 0.557211 0.657453
0.269674 0.547927 0.618707
0.238848 0.758444 0.607614
0.108437 0.840990 0.244025
0.250783 0.702641 0.590264
0.802056 0.402204 0.667650
0.183269 0.712968 0.662494
0.739389 0.436593 0.689809
0.165039 0.621581 0.714796
0.160436 0.622598 0.719056
0.759457 0.511993 0.628342
0.753197 0.512947 0.629534
0.258588 0.703153 0.579351
0.476093 0.887321 0.306041
0.854589 0.410801 0.341029
0.863912 0.456594 0.392760
0.014222 0.619938 0.476313
0.418601 0.906488 0.358679
0.384387 0.403628 0.246892
0.222790 0.693538 0.618092
0.307118 0.718530 0.423898
0.458519 0.795606 0.360503
0.462367 0.796970 0.356223
0.534377 0.842857 0.301595
0.517192 0.926051 0.265139
0.764922 0.402227 0.693068
0.212489 0.815160 0.182353
0.418829 0.803083 0.404326
0.412880 0.803309 0.406777
0.855280 0.417364 0.598258
0.541187 0.888208 0.264886
0.211753 0.815756 0.169103
0.227997 0.702820 0.613745
0.232248 0.703091 0.608434
0.805322 0.402514 0.663083
0.301824 0.629855 0.560729
0.220010 0.629900 0.647521
0.188524 0.631194 0.680392
0.211072 0.675205 0.623727
0.213472 0.695517 0.361119
0.424637 0.370053 0.201020
0.870792 0.392594 0.353266
0.121007 0.453108 0.331143
0.056370 0.496471 0.535035
0.769359 0.401962 0.688883
0.774632 0.401758 0.685021
0.390581 0.840842 0.376254
0.185722 0.391589 0.282135
0.676667 0.569546 0.620614
0.887464 0.385868 0.552436
0.172776 0.512327 0.691433
0.682062 0.570457 0.618924
0.670076 0.570777 0.624648
0.211983 0.711829 0.636631
0.351995 0.402437 0.251650
0.147847 0.399727 0.297759
0.160045 0.399464 0.294260
0.013549 0.542628 0.618083
0.118870 0.751042 0.328498
0.549687 0.877045 0.238480
0.213315 0.816091 0.187843
0.134302 0.398003 0.304164
0.120466 0.480433 0.343671
0.191423 0.482229 0.306096
0.114114 0.525858 0.365108
0.326790 0.402531 0.254810
0.202412 0.816320 0.270764
0.507718 0.820913 0.321129
0.072826 0.698585 0.410539
0.205791 0.775697 0.188017
0.744425 0.018849 0.386216
0.743915 0.018420 0.379608
0.740589 0.017776 0.373171
0.737597 0.017689 0.367988
0.734302 0.016992 0.360363
0.730661 0.016595 0.353956
0.730974 0.017410 0.348295
0.728718 0.016796 0.342057
0.728198 0.016857 0.335222
0.726259 0.016296 0.328350
0.725874 0.016607 0.322041
0.724159 0.015677 0.315610
0.724021 0.016368 0.309864
0.719934 0.014007 0.303546
0.715797 0.015570 0.297233
0.713289 0.015501 0.290668
0.166116 0.399825 0.293618
0.737293 0.027328 0.656087
0.741550 0.028399 0.648341
0.744422 0.028640 0.643473
0.748041 0.029080 0.637667
0.749900 0.028993 0.629421
0.752336 0.029614 0.624597
0.753587 0.029242 0.616582
0.756154 0.029831 0.610622
0.140351 0.398843 0.301505
0.320485 0.393685 0.255901
0.115454 0.777819 0.372112
0.038439 0.436497 0.521902
0.202883 0.775048 0.181660
0.142409 0.738089 0.212831
0.896922 0.351116 0.533355
0.199854 0.846123 0.208071
0.211498 0.806074 0.251274
0.215563 0.896862 0.013575
0.210769 0.825795 0.188873
0.174133 0.187641 0.535333
0.127295 0.398882 0.308373
0.577260 0.477749 0.253236
0.564520 0.477472 0.251693
0.439919 0.869531 0.280978
0.218127 0.400410 0.277047
0.410874 0.404390 0.244605
0.875011 0.041021 0.443263
0.873870 0.041387 0.437716
0.872028 0.040345 0.432856
0.871713 0.044408 0.424050
0.864304 0.039924 0.418808
0.861056 0.040386 0.412385
0.852590 0.040508 0.406164
0.548527 0.907074 0.238689
0.744780 0.027513 0.380441
0.749181 0.029076 0.374210
0.742503 0.027676 0.367566
0.739089 0.026767 0.360554
0.737273 0.026657 0.354637
0.734933 0.026739 0.348499
0.734609 0.025762 0.341597
0.732499 0.026520 0.334458
0.732860 0.026569 0.328925
0.730685 0.026051 0.321838
0.729241 0.025890 0.315997
0.729222 0.025607 0.308868
0.726290 0.025285 0.303520
0.725683 0.024989 0.297020
0.722481 0.025585 0.289925
0.718363 0.024770 0.283774
0.714467 0.024627 0.277863
0.709686 0.023628 0.271321
0.703718 0.022749 0.265757
0.668118 0.578726 0.330115
0.757003 0.412875 0.260702
0.290918 0.678312 0.432702
0.211809 0.816094 0.194491
0.741907 0.036095 0.661180
0.745513 0.037291 0.656592
0.749017 0.037556 0.649846
0.753687 0.037770 0.643992
0.756905 0.039280 0.637258
0.758608 0.039160 0.630409
0.761643 0.038827 0.624833
0.762811 0.039158 0.617463
0.765805 0.038952 0.611662
0.768057 0.039227 0.604803
0.217546 0.382391 0.273820
0.303427 0.659291 0.476549
0.352283 0.384260 0.247357
0.038461 0.445634 0.484980
0.547492 0.926705 0.212337
0.095424 0.467819 0.360825
0.542855 0.935250 0.225713
0.874085 0.457725 0.436232
0.209249 0.765350 0.271366
0.055079 0.436153 0.413354
0.378032 0.402873 0.248270
0.202848 0.906274 0.052287
0.016157 0.551335 0.597673
0.101639 0.591286 0.357460
0.173277 0.193819 0.541113
0.165017 0.610128 0.339245
0.171153 0.564870 0.339842
0.389846 0.403409 0.247151
0.903240 0.053693 0.469626
0.901707 0.053710 0.462741
0.901972 0.053733 0.456882
0.899814 0.053561 0.450062
0.896992 0.052949 0.443837
0.893329 0.052955 0.437617
0.891649 0.053262 0.431458
0.887814 0.052400 0.425257
0.885050 0.052621 0.418362
0.878061 0.051498 0.411826
0.872150 0.050140 0.405520
0.866736 0.050495 0.399455
0.859485 0.050294 0.393813
0.845500 0.048113 0.388271
0.299920 0.659238 0.457218
0.758499 0.038326 0.367493
0.749728 0.037666 0.361364
0.746487 0.037239 0.355315
0.744538 0.037025 0.347818
0.742064 0.036598 0.342368
0.739561 0.036316 0.335272
0.738075 0.035832 0.328963
0.737031 0.035488 0.321390
0.736250 0.036429 0.314810
0.734607 0.034741 0.309407
0.732773 0.035048 0.302611
0.730586 0.035508 0.296342
0.728213 0.035094 0.290287
0.725931 0.033703 0.282935
0.721495 0.034486 0.277324
0.714929 0.033716 0.270174
0.707859 0.032292 0.264377
0.697601 0.031050 0.258590
0.541030 0.405295 0.192374
0.024156 0.521278 0.634318
0.283625 0.677492 0.412033
0.207950 0.805022 0.156810
0.422939 0.458248 0.251984
0.005368 0.551044 0.528579
0.750922 0.046968 0.656930
0.756161 0.047960 0.650211
0.761226 0.047975 0.644686
0.765025 0.049249 0.636732
0.766791 0.048612 0.630805
0.768806 0.048416 0.624105
0.771213 0.048992 0.616944
0.773681 0.048364 0.611223
0.037443 0.507428 0.464344
0.040182 0.506954 0.457462
0.000588 0.576684 0.540931
0.141601 0.712135 0.312917
0.294508 0.658041 0.528905
0.202721 0.925808 0.033066
0.208522 0.766176 0.296868
0.852523 0.347145 0.302879
0.544953 0.937196 0.219327
0.213577 0.896592 0.027931
0.209626 0.764503 0.265670
0.208512 0.835432 0.045500
0.551268 0.469104 0.250779
0.197780 0.555939 0.339988
0.073976 0.647325 0.384225
0.346666 0.393512 0.249952
0.917708 0.065005 0.494645
0.919762 0.064555 0.488322
0.921050 0.063354 0.481885
0.921037 0.064963 0.475512
0.923002 0.065941 0.469523
0.921526 0.064758 0.463717
0.918898 0.064952 0.457242
0.919208 0.065460 0.450989
0.916705 0.063688 0.444845
0.913467 0.064267 0.437253
0.911267 0.064334 0.430335
0.907115 0.064001 0.423927
0.902647 0.063630 0.418013
0.897371 0.062967 0.413079
0.886275 0.061437 0.404704
0.876845 0.059133 0.399037
0.871431 0.060168 0.392124
0.866229 0.059895 0.386712
0.794936 0.435112 0.291562
0.045250 0.618801 0.405774
0.765481 0.048352 0.362109
0.756018 0.047112 0.354312
0.752143 0.047131 0.348269
0.748870 0.046551 0.341456
0.747031 0.046079 0.334706
0.744170 0.045618 0.327588
0.741472 0.044936 0.321800
0.742121 0.046290 0.315700
0.739381 0.045447 0.309255
0.739210 0.044890 0.302589
0.737962 0.045087 0.296759
0.735307 0.045228 0.289699
0.732708 0.044729 0.282847
0.728490 0.044022 0.276875
0.725039 0.043291 0.270665
0.718024 0.043509 0.264911
0.711427 0.043785 0.259032
0.662498 0.578913 0.328745
0.036380 0.393656 0.534968
0.539425 0.850004 0.290697
0.017660 0.559194 0.449526
0.024678 0.558056 0.438140
0.299380 0.658500 0.508827
0.202759 0.876419 0.091599
0.207655 0.735720 0.342456
0.267854 0.736822 0.542291
0.274811 0.677274 0.399775
0.208781 0.805048 0.161963
0.231665 0.175447 0.546229
0.548888 0.907270 0.213953
0.200067 0.794662 0.135771
0.209147 0.785118 0.201195
0.766207 0.057839 0.643171
0.769963 0.058288 0.636658
0.772291 0.058627 0.629377
0.775524 0.059232 0.624003
0.779304 0.059735 0.618356
0.292949 0.678443 0.444448
0.214080 0.906557 0.013770
0.209677 0.806453 0.264724
0.213413 0.916911 0.014378
0.169142 0.857139 0.050363
0.204710 0.845412 0.175448
0.134742 0.230085 0.568779
0.206223 0.926369 0.027533
0.209746 0.766343 0.277759
0.292267 0.658166 0.534538
0.546775 0.936736 0.212891
0.866770 0.329100 0.322340
0.279290 0.737537 0.489436
0.098929 0.480234 0.603453
0.179530 0.380872 0.286576
0.930873 0.075270 0.514254
0.931936 0.074428 0.508299
0.933142 0.074745 0.500425
0.934100 0.074675 0.495043
0.933628 0.073830 0.488706
0.936030 0.076608 0.482698
0.936118 0.075057 0.475399
0.934137 0.075468 0.469847
0.934896 0.075640 0.463669
0.933523 0.075270 0.456135
0.932054 0.074920 0.449924
0.929879 0.076132 0.443284
0.929186 0.074446 0.436729
0.926723 0.074730 0.430551
0.923798 0.073880 0.425461
0.919407 0.073442 0.417739
0.913887 0.073413 0.411841
0.908873 0.073296 0.405723
0.899653 0.073918 0.400598
0.814820 0.422699 0.304025
0.386526 0.532257 0.302854
0.798452 0.430888 0.295074
0.849734 0.397045 0.331344
0.770719 0.057126 0.358764
0.763431 0.057240 0.354541
0.757931 0.056516 0.347161
0.753466 0.054965 0.340690
0.751009 0.055504 0.334117
0.748963 0.055349 0.328508
0.747132 0.055149 0.322096
0.747155 0.055589 0.315549
0.745909 0.055424 0.309951
0.745609 0.055428 0.303081
0.743297 0.055089 0.297606
0.742066 0.054404 0.290277
0.741127 0.054420 0.284571
0.737333 0.053484 0.276452
0.734279 0.054324 0.270640
0.727381 0.053464 0.264564
0.718991 0.052325 0.258250
0.865779 0.400805 0.353210
0.512795 0.403495 0.193319
0.086875 0.486059 0.380860
0.205616 0.755691 0.258446
0.015281 0.558040 0.456285
0.021179 0.559362 0.444970
0.205689 0.755845 0.265009
0.549545 0.867963 0.257959
0.203102 0.866197 0.110591
0.157690 0.197654 0.533619
0.203245 0.814241 0.104686
0.202424 0.814814 0.098190
0.208165 0.735399 0.355286
0.201793 0.875712 0.098390
0.202800 0.775128 0.174512
0.521264 0.026957 0.725177
0.142843 0.200767 0.517481
0.258694 0.727017 0.573821
0.262801 0.698408 0.572430
0.046848 0.506597 0.444371
0.152306 0.894139 0.063304
0.025032 0.674380 0.513855
0.344603 0.870813 0.328385
0.093576 0.486506 0.374370
0.051431 0.505696 0.547515
0.068729 0.530324 0.704504
0.210527 0.795152 0.278377
0.551053 0.916890 0.218315
0.212807 0.916686 0.008241
0.042402 0.506228 0.527171
0.205204 0.746070 0.296753
0.145092 0.804308 0.147201
0.206793 0.926172 0.021004
0.298428 0.658104 0.445369
0.204717 0.835593 0.214287
0.390234 0.768112 0.393417
0.211488 0.884044 0.000756
0.205112 0.785648 0.309783
0.878751 0.348184 0.346218
0.941093 0.084261 0.520255
0.943618 0.084531 0.514706
0.945498 0.084687 0.508086
0.944871 0.085296 0.500143
0.946464 0.085488 0.494158
0.948823 0.085281 0.488376
0.949108 0.085958 0.483158
0.947828 0.085905 0.476311
0.947139 0.085728 0.469320
0.945054 0.085394 0.463284
0.943309 0.084715 0.456956
0.942211 0.085314 0.449731
0.941428 0.085241 0.443869
0.938166 0.084743 0.437328
0.940310 0.085583 0.430275
0.936336 0.084218 0.425010
0.932261 0.085607 0.417309
0.928301 0.083888 0.412084
0.923212 0.083266 0.405695
0.918217 0.083393 0.400438
0.909659 0.082898 0.393758
0.804118 0.427599 0.297322
0.809261 0.425503 0.300842
0.771719 0.443353 0.281319
0.606597 0.565092 0.318535
0.203640 0.794411 0.149819
0.776239 0.068436 0.355003
0.772125 0.068782 0.349311
0.765751 0.067313 0.341654
0.761800 0.066872 0.334488
0.756630 0.065617 0.328645
0.753261 0.063804 0.321461
0.752206 0.064404 0.315703
0.751297 0.064858 0.309643
0.750129 0.064041 0.303632
0.748588 0.063985 0.296690
0.748014 0.064566 0.290377
0.745632 0.063441 0.283574
0.743013 0.064419 0.277161
0.740130 0.063524 0.271036
0.736182 0.064007 0.265189
0.731601 0.063813 0.257619
0.716984 0.476699 0.284789
0.385729 0.015644 0.197014
0.169895 0.212990 0.579684
0.875870 0.348722 0.341017
0.126460 0.768464 0.256323
0.073190 0.680703 0.399400
0.013067 0.577208 0.597740
0.549975 0.868549 0.250962
0.205168 0.825525 0.066357
0.210237 0.825473 0.201410
0.522506 0.830595 0.303280
0.201500 0.814306 0.091390
0.204196 0.875407 0.084702
0.547334 0.887208 0.257494
0.542981 0.887243 0.264891
0.876973 0.385374 0.360167
0.212344 0.887509 0.040887
0.274504 0.737051 0.516225
0.060593 0.501723 0.658007
0.129180 0.530850 0.729899
0.257627 0.726670 0.580284
0.873689 0.348675 0.334904
0.295578 0.649740 0.418430
0.297699 0.648647 0.425559
0.881037 0.422164 0.533590
0.296562 0.659451 0.522407
0.274613 0.707685 0.515350
0.040547 0.509290 0.623980
0.212171 0.795152 0.207962
0.298016 0.658802 0.515235
0.549887 0.915709 0.212476
0.868863 0.347239 0.327027
0.062345 0.425916 0.392666
0.186869 0.185462 0.538412
0.488260 0.028354 0.737434
0.545503 0.858984 0.264571
0.884338 0.347909 0.360209
0.204482 0.754849 0.232962
0.203033 0.755173 0.227527
0.889796 0.348394 0.373641
0.945445 0.094136 0.533239
0.949385 0.094315 0.527348
0.953654 0.095502 0.521439
0.956202 0.095002 0.514301
0.956385 0.094864 0.507379
0.956854 0.094909 0.501879
0.958863 0.095611 0.494936
0.960190 0.095631 0.488082
0.959617 0.096382 0.482480
0.959487 0.095185 0.475442
0.958030 0.095959 0.469310
0.957574 0.095508 0.462668
0.956621 0.094939 0.456648
0.954374 0.096046 0.450056
0.952734 0.094539 0.443316
0.949330 0.094340 0.436511
0.947691 0.094016 0.430525
0.945819 0.094265 0.424800
0.944488 0.094666 0.419065
0.939044 0.094194 0.411497
0.933704 0.092831 0.404674
0.929016 0.093568 0.399364
0.922357 0.092840 0.392984
0.913981 0.091535 0.387485
0.905979 0.091322 0.379936
0.855242 0.393576 0.335136
0.750658 0.416723 0.258185
0.895279 0.349914 0.385434
0.594182 0.540318 0.293116
0.782999 0.078342 0.347738
0.779413 0.077419 0.341944
0.778049 0.077293 0.334999
0.775302 0.077430 0.328381
0.772678 0.077755 0.323127
0.769342 0.076501 0.316973
0.763900 0.075992 0.309519
0.755533 0.073852 0.301621
0.753470 0.073525 0.296488
0.750941 0.074555 0.290005
0.747964 0.073072 0.283091
0.745521 0.073334 0.277181
0.743039 0.073823 0.271403
0.739343 0.072866 0.263868
0.734056 0.072289 0.258124
0.726265 0.072478 0.252464
0.800264 0.404169 0.286048
0.933584 0.233198 0.413048
0.204397 0.825601 0.059474
0.965260 0.176110 0.395296
0.460519 0.486151 0.261098
0.032377 0.656650 0.604225
0.012698 0.577285 0.592857
0.013468 0.577231 0.585204
0.545871 0.869670 0.244453
0.207366 0.815897 0.258271
0.210279 0.825208 0.208427
0.521426 0.829131 0.308578
0.520393 0.828603 0.315447
0.207215 0.875828 0.077940
0.550508 0.887524 0.245072
0.549530 0.887552 0.250712
0.213261 0.886440 0.028148
0.212780 0.886013 0.035117
