ply
format ascii 1.0
element vertex 1773
property float x
property float y
property float z
end_header
0.215193 0.783847 0.480132
0.227193 0.783847 0.468132
0.227193 0.783847 0.480132
0.215193 0.795847 0.444132
0.227193 0.795847 0.444132
0.227193 0.795847 0.456132
0.191193 0.795847 0.492132
0.191193 0.795847 0.504132
0.203193 0.795847 0.492132
0.203193 0.795847 0.504132
0.191193 0.795847 0.516132
0.191193 0.795847 0.528132
0.203193 0.795847 0.516132
0.203193 0.795847 0.528132
0.215193 0.783847 0.492132
0.215193 0.783847 0.504132
0.227193 0.783847 0.492132
0.227193 0.783847 0.504132
0.215193 0.783847 0.516132
0.215193 0.783847 0.528132
0.227193 0.783847 0.516132
0.227193 0.783847 0.528132
0.215193 0.795847 0.492132
0.215193 0.795847 0.504132
0.215193 0.795847 0.516132
0.215193 0.795847 0.528132
0.275193 0.723847 0.480132
0.275193 0.759847 0.480132
0.275193 0.723847 0.492132
0.275193 0.723847 0.504132
0.275193 0.735847 0.492132
0.275193 0.735847 0.504132
0.263193 0.723847 0.528132
0.275193 0.723847 0.516132
0.275193 0.735847 0.516132
0.275193 0.735847 0.528132
0.275193 0.747847 0.492132
0.275193 0.747847 0.504132
0.275193 0.759847 0.492132
0.275193 0.759847 0.504132
0.263193 0.759847 0.516132
0.263193 0.759847 0.528132
0.275193 0.747847 0.516132
0.275193 0.747847 0.528132
0.275193 0.759847 0.516132
0.239193 0.783847 0.468132
0.239193 0.783847 0.480132
0.251193 0.783847 0.480132
0.239193 0.795847 0.444132
0.239193 0.795847 0.456132
0.239193 0.807847 0.444132
0.251193 0.795847 0.456132
0.251193 0.807847 0.444132
0.239193 0.795847 0.468132
0.251193 0.795847 0.468132
0.263193 0.771847 0.480132
0.263193 0.783847 0.468132
0.263193 0.783847 0.480132
0.275193 0.771847 0.468132
0.275193 0.771847 0.480132
0.275193 0.783847 0.468132
0.263193 0.795847 0.456132
0.263193 0.807847 0.456132
0.275193 0.807847 0.444132
0.275193 0.807847 0.456132
0.263193 0.795847 0.468132
0.275193 0.795847 0.468132
0.239193 0.783847 0.492132
0.239193 0.783847 0.504132
0.251193 0.783847 0.492132
0.251193 0.783847 0.504132
0.239193 0.783847 0.516132
0.239193 0.783847 0.528132
0.251193 0.771847 0.516132
0.251193 0.771847 0.528132
0.251193 0.783847 0.516132
0.251193 0.783847 0.528132
0.263193 0.771847 0.492132
0.263193 0.771847 0.504132
0.263193 0.783847 0.492132
0.263193 0.771847 0.516132
0.263193 0.771847 0.528132
0.263193 0.819847 0.384132
0.275193 0.819847 0.372132
0.275193 0.819847 0.384132
0.275193 0.831847 0.384132
0.275193 0.843847 0.384132
0.251193 0.819847 0.396132
0.251193 0.819847 0.408132
0.239193 0.819847 0.420132
0.251193 0.819847 0.420132
0.263193 0.819847 0.396132
0.263193 0.831847 0.396132
0.263193 0.831847 0.408132
0.263193 0.819847 0.432132
0.263193 0.831847 0.420132
0.275193 0.819847 0.432132
0.275193 0.831847 0.432132
0.275193 0.843847 0.396132
0.275193 0.843847 0.408132
0.275193 0.843847 0.420132
0.263193 0.819847 0.444132
0.275193 0.819847 0.444132
0.287193 0.723847 0.384132
0.287193 0.735847 0.384132
0.299193 0.723847 0.384132
0.299193 0.735847 0.372132
0.299193 0.735847 0.384132
0.299193 0.759847 0.360132
0.287193 0.747847 0.372132
0.287193 0.759847 0.372132
0.299193 0.747847 0.372132
0.311193 0.735847 0.372132
0.311193 0.735847 0.384132
0.323193 0.735847 0.372132
0.323193 0.735847 0.384132
0.311193 0.759847 0.360132
0.323193 0.747847 0.360132
0.323193 0.759847 0.360132
0.311193 0.747847 0.372132
0.323193 0.747847 0.372132
0.287193 0.723847 0.396132
0.299193 0.723847 0.396132
0.299193 0.723847 0.408132
0.311193 0.723847 0.396132
0.311193 0.723847 0.408132
0.323193 0.723847 0.408132
0.323193 0.735847 0.396132
0.323193 0.735847 0.408132
0.311193 0.723847 0.420132
0.311193 0.723847 0.432132
0.323193 0.723847 0.420132
0.323193 0.723847 0.432132
0.323193 0.735847 0.432132
0.287193 0.771847 0.360132
0.287193 0.783847 0.360132
0.299193 0.771847 0.360132
0.299193 0.783847 0.360132
0.287193 0.771847 0.372132
0.287193 0.795847 0.360132
0.287193 0.807847 0.360132
0.299193 0.795847 0.348132
0.299193 0.807847 0.348132
0.311193 0.771847 0.360132
0.311193 0.783847 0.348132
0.323193 0.771847 0.348132
0.323193 0.771847 0.360132
0.323193 0.783847 0.348132
0.311193 0.795847 0.348132
0.311193 0.807847 0.348132
0.323193 0.795847 0.348132
0.323193 0.795847 0.432132
0.323193 0.807847 0.432132
0.335193 0.735847 0.372132
0.335193 0.735847 0.384132
0.347193 0.735847 0.384132
0.335193 0.759847 0.360132
0.347193 0.747847 0.360132
0.347193 0.759847 0.360132
0.335193 0.747847 0.372132
0.347193 0.747847 0.372132
0.347193 0.747847 0.384132
0.359193 0.759847 0.360132
0.371193 0.759847 0.360132
0.359193 0.747847 0.372132
0.359193 0.747847 0.384132
0.359193 0.759847 0.372132
0.371193 0.747847 0.384132
0.371193 0.759847 0.372132
0.371193 0.759847 0.384132
0.335193 0.735847 0.396132
0.335193 0.735847 0.408132
0.335193 0.735847 0.420132
0.347193 0.747847 0.396132
0.347193 0.747847 0.408132
0.335193 0.747847 0.420132
0.335193 0.747847 0.432132
0.335193 0.759847 0.432132
0.347193 0.747847 0.420132
0.347193 0.759847 0.420132
0.347193 0.759847 0.432132
0.359193 0.747847 0.396132
0.359193 0.747847 0.408132
0.359193 0.759847 0.408132
0.371193 0.759847 0.396132
0.371193 0.759847 0.408132
0.359193 0.759847 0.420132
0.335193 0.771847 0.348132
0.335193 0.783847 0.348132
0.347193 0.771847 0.348132
0.359193 0.771847 0.348132
0.371193 0.771847 0.348132
0.335193 0.771847 0.432132
0.347193 0.771847 0.432132
0.347193 0.783847 0.432132
0.335193 0.795847 0.432132
0.335193 0.807847 0.420132
0.335193 0.807847 0.432132
0.347193 0.795847 0.432132
0.347193 0.807847 0.420132
0.371193 0.771847 0.408132
0.359193 0.771847 0.420132
0.359193 0.783847 0.420132
0.359193 0.783847 0.432132
0.371193 0.771847 0.420132
0.371193 0.783847 0.420132
0.359193 0.807847 0.408132
0.371193 0.807847 0.408132
0.359193 0.795847 0.432132
0.359193 0.807847 0.432132
0.371193 0.795847 0.420132
0.371193 0.807847 0.420132
0.287193 0.723847 0.456132
0.299193 0.723847 0.444132
0.299193 0.723847 0.456132
0.299193 0.735847 0.456132
0.287193 0.723847 0.468132
0.287193 0.723847 0.480132
0.287193 0.735847 0.468132
0.287193 0.735847 0.480132
0.299193 0.735847 0.468132
0.299193 0.747847 0.456132
0.299193 0.759847 0.456132
0.287193 0.747847 0.468132
0.287193 0.747847 0.480132
0.287193 0.759847 0.468132
0.287193 0.759847 0.480132
0.299193 0.747847 0.468132
0.299193 0.759847 0.468132
0.311193 0.723847 0.444132
0.311193 0.735847 0.444132
0.323193 0.735847 0.444132
0.311193 0.747847 0.444132
0.311193 0.747847 0.456132
0.311193 0.759847 0.444132
0.311193 0.759847 0.456132
0.323193 0.747847 0.444132
0.323193 0.759847 0.444132
0.323193 0.759847 0.456132
0.299193 0.771847 0.456132
0.299193 0.783847 0.456132
0.287193 0.771847 0.468132
0.287193 0.783847 0.468132
0.299193 0.771847 0.468132
0.287193 0.795847 0.456132
0.287193 0.807847 0.456132
0.299193 0.795847 0.456132
0.299193 0.807847 0.444132
0.299193 0.807847 0.456132
0.287193 0.795847 0.468132
0.311193 0.771847 0.456132
0.311193 0.783847 0.444132
0.311193 0.783847 0.456132
0.323193 0.771847 0.444132
0.323193 0.771847 0.456132
0.323193 0.783847 0.444132
0.311193 0.795847 0.444132
0.311193 0.807847 0.444132
0.323193 0.795847 0.444132
0.323193 0.807847 0.444132
0.335193 0.759847 0.444132
0.335193 0.771847 0.444132
0.335193 0.783847 0.444132
0.347193 0.783847 0.444132
0.287193 0.819847 0.360132
0.287193 0.831847 0.360132
0.299193 0.819847 0.348132
0.299193 0.831847 0.348132
0.299193 0.831847 0.360132
0.287193 0.819847 0.372132
0.287193 0.831847 0.372132
0.299193 0.843847 0.348132
0.299193 0.843847 0.360132
0.299193 0.855847 0.360132
0.287193 0.843847 0.372132
0.287193 0.843847 0.384132
0.287193 0.855847 0.372132
0.287193 0.855847 0.384132
0.299193 0.855847 0.372132
0.299193 0.855847 0.384132
0.311193 0.819847 0.348132
0.311193 0.831847 0.348132
0.311193 0.843847 0.348132
0.311193 0.855847 0.348132
0.311193 0.855847 0.360132
0.323193 0.843847 0.348132
0.323193 0.855847 0.348132
0.287193 0.831847 0.432132
0.299193 0.831847 0.432132
0.287193 0.855847 0.396132
0.287193 0.855847 0.408132
0.299193 0.855847 0.396132
0.299193 0.855847 0.408132
0.287193 0.843847 0.420132
0.287193 0.843847 0.432132
0.287193 0.855847 0.420132
0.299193 0.843847 0.432132
0.299193 0.855847 0.420132
0.311193 0.831847 0.432132
0.323193 0.819847 0.432132
0.323193 0.831847 0.432132
0.311193 0.843847 0.432132
0.311193 0.855847 0.420132
0.323193 0.843847 0.432132
0.323193 0.855847 0.420132
0.299193 0.867847 0.384132
0.311193 0.867847 0.360132
0.323193 0.867847 0.348132
0.323193 0.879847 0.348132
0.323193 0.879847 0.360132
0.311193 0.867847 0.372132
0.311193 0.867847 0.384132
0.311193 0.879847 0.372132
0.311193 0.879847 0.384132
0.323193 0.879847 0.372132
0.323193 0.879847 0.384132
0.323193 0.891847 0.360132
0.323193 0.891847 0.384132
0.299193 0.867847 0.396132
0.311193 0.867847 0.396132
0.311193 0.867847 0.408132
0.323193 0.867847 0.408132
0.323193 0.879847 0.396132
0.323193 0.867847 0.420132
0.371193 0.831847 0.384132
0.371193 0.843847 0.384132
0.347193 0.819847 0.408132
0.347193 0.831847 0.408132
0.335193 0.819847 0.420132
0.335193 0.819847 0.432132
0.335193 0.831847 0.420132
0.335193 0.831847 0.432132
0.347193 0.819847 0.420132
0.347193 0.831847 0.420132
0.335193 0.843847 0.432132
0.335193 0.855847 0.420132
0.347193 0.843847 0.420132
0.347193 0.855847 0.420132
0.359193 0.819847 0.408132
0.359193 0.831847 0.396132
0.359193 0.831847 0.408132
0.371193 0.819847 0.396132
0.371193 0.831847 0.396132
0.359193 0.843847 0.396132
0.359193 0.843847 0.408132
0.359193 0.855847 0.408132
0.371193 0.843847 0.396132
0.371193 0.855847 0.396132
0.371193 0.855847 0.408132
0.359193 0.843847 0.420132
0.359193 0.855847 0.420132
0.335193 0.879847 0.348132
0.335193 0.891847 0.348132
0.335193 0.891847 0.360132
0.347193 0.891847 0.348132
0.347193 0.903847 0.360132
0.335193 0.891847 0.372132
0.335193 0.891847 0.384132
0.347193 0.891847 0.372132
0.347193 0.891847 0.384132
0.347193 0.903847 0.372132
0.347193 0.903847 0.384132
0.359193 0.903847 0.348132
0.359193 0.903847 0.360132
0.359193 0.903847 0.372132
0.359193 0.903847 0.384132
0.371193 0.903847 0.384132
0.335193 0.867847 0.408132
0.335193 0.879847 0.396132
0.335193 0.879847 0.408132
0.347193 0.879847 0.408132
0.335193 0.867847 0.420132
0.347193 0.867847 0.420132
0.335193 0.891847 0.396132
0.347193 0.891847 0.396132
0.359193 0.867847 0.408132
0.359193 0.879847 0.408132
0.371193 0.867847 0.396132
0.371193 0.867847 0.408132
0.371193 0.879847 0.408132
0.359193 0.867847 0.420132
0.359193 0.891847 0.396132
0.359193 0.891847 0.408132
0.371193 0.891847 0.396132
0.371193 0.891847 0.408132
0.371193 0.903847 0.396132
0.287193 0.819847 0.444132
0.299193 0.819847 0.444132
0.299193 0.831847 0.444132
0.311193 0.819847 0.444132
0.311193 0.831847 0.444132
0.323193 0.819847 0.444132
0.191193 0.759847 0.624132
0.203193 0.759847 0.624132
0.227193 0.723847 0.612132
0.227193 0.723847 0.624132
0.227193 0.735847 0.612132
0.227193 0.735847 0.624132
0.215193 0.759847 0.624132
0.227193 0.747847 0.624132
0.227193 0.759847 0.612132
0.227193 0.759847 0.624132
0.191193 0.783847 0.552132
0.203193 0.783847 0.540132
0.203193 0.783847 0.552132
0.191193 0.783847 0.564132
0.191193 0.783847 0.576132
0.203193 0.783847 0.564132
0.203193 0.783847 0.576132
0.191193 0.795847 0.540132
0.191193 0.795847 0.552132
0.203193 0.795847 0.540132
0.215193 0.783847 0.540132
0.215193 0.783847 0.552132
0.227193 0.783847 0.540132
0.227193 0.783847 0.552132
0.215193 0.783847 0.564132
0.215193 0.783847 0.576132
0.227193 0.771847 0.576132
0.227193 0.783847 0.564132
0.227193 0.783847 0.576132
0.191193 0.771847 0.600132
0.191193 0.783847 0.588132
0.191193 0.783847 0.600132
0.203193 0.771847 0.600132
0.203193 0.783847 0.588132
0.191193 0.771847 0.612132
0.191193 0.771847 0.624132
0.203193 0.771847 0.612132
0.203193 0.771847 0.624132
0.215193 0.771847 0.600132
0.215193 0.783847 0.588132
0.227193 0.771847 0.588132
0.227193 0.771847 0.600132
0.227193 0.783847 0.588132
0.215193 0.771847 0.612132
0.227193 0.771847 0.612132
0.251193 0.723847 0.576132
0.251193 0.735847 0.576132
0.251193 0.747847 0.576132
0.251193 0.759847 0.576132
0.263193 0.723847 0.540132
0.263193 0.723847 0.552132
0.263193 0.735847 0.540132
0.263193 0.735847 0.552132
0.263193 0.723847 0.564132
0.263193 0.723847 0.576132
0.263193 0.735847 0.564132
0.263193 0.747847 0.540132
0.263193 0.747847 0.552132
0.263193 0.759847 0.540132
0.263193 0.759847 0.552132
0.263193 0.747847 0.564132
0.263193 0.759847 0.564132
0.263193 0.759847 0.576132
0.239193 0.723847 0.600132
0.239193 0.735847 0.600132
0.251193 0.723847 0.588132
0.251193 0.723847 0.600132
0.251193 0.735847 0.588132
0.251193 0.735847 0.600132
0.239193 0.723847 0.612132
0.239193 0.735847 0.612132
0.239193 0.747847 0.600132
0.239193 0.759847 0.600132
0.251193 0.747847 0.588132
0.251193 0.747847 0.600132
0.251193 0.759847 0.588132
0.251193 0.759847 0.600132
0.239193 0.747847 0.612132
0.239193 0.759847 0.612132
0.239193 0.783847 0.540132
0.239193 0.783847 0.552132
0.251193 0.771847 0.540132
0.251193 0.771847 0.552132
0.251193 0.783847 0.540132
0.251193 0.783847 0.552132
0.239193 0.771847 0.576132
0.239193 0.783847 0.564132
0.239193 0.783847 0.576132
0.251193 0.771847 0.564132
0.251193 0.771847 0.576132
0.263193 0.771847 0.540132
0.263193 0.771847 0.552132
0.263193 0.771847 0.564132
0.239193 0.771847 0.588132
0.239193 0.771847 0.600132
0.251193 0.771847 0.588132
0.191193 0.723847 0.648132
0.191193 0.735847 0.648132
0.203193 0.723847 0.636132
0.203193 0.723847 0.648132
0.203193 0.735847 0.636132
0.203193 0.735847 0.648132
0.191193 0.723847 0.660132
0.191193 0.747847 0.636132
0.191193 0.759847 0.636132
0.203193 0.747847 0.636132
0.215193 0.723847 0.636132
0.215193 0.735847 0.636132
0.227193 0.723847 0.636132
0.227193 0.735847 0.636132
0.215193 0.747847 0.636132
0.467193 0.255847 0.144132
0.467193 0.267847 0.144132
0.467193 0.279847 0.144132
0.467193 0.291847 0.144132
0.467193 0.303847 0.144132
0.467193 0.315847 0.144132
0.479193 0.243847 0.144132
0.479193 0.255847 0.144132
0.491193 0.243847 0.144132
0.491193 0.255847 0.144132
0.479193 0.267847 0.144132
0.479193 0.279847 0.144132
0.491193 0.267847 0.144132
0.491193 0.279847 0.144132
0.503193 0.243847 0.144132
0.503193 0.255847 0.144132
0.515193 0.243847 0.144132
0.515193 0.255847 0.144132
0.503193 0.267847 0.144132
0.503193 0.279847 0.144132
0.515193 0.267847 0.144132
0.515193 0.279847 0.144132
0.479193 0.291847 0.144132
0.479193 0.303847 0.144132
0.491193 0.291847 0.144132
0.491193 0.303847 0.144132
0.479193 0.315847 0.144132
0.479193 0.327847 0.144132
0.491193 0.315847 0.144132
0.491193 0.327847 0.144132
0.503193 0.291847 0.144132
0.503193 0.303847 0.144132
0.515193 0.291847 0.144132
0.515193 0.303847 0.144132
0.503193 0.315847 0.144132
0.503193 0.327847 0.144132
0.515193 0.315847 0.144132
0.515193 0.327847 0.144132
0.527193 0.303847 0.144132
0.527193 0.315847 0.144132
0.527193 0.327847 0.144132
0.539193 0.327847 0.144132
0.419193 0.183847 0.216132
0.419193 0.171847 0.240132
0.419193 0.183847 0.228132
0.419193 0.183847 0.240132
0.419193 0.231847 0.192132
0.419193 0.195847 0.216132
0.419193 0.207847 0.204132
0.419193 0.207847 0.216132
0.407193 0.207847 0.228132
0.407193 0.207847 0.240132
0.419193 0.195847 0.228132
0.419193 0.195847 0.240132
0.419193 0.207847 0.228132
0.407193 0.231847 0.216132
0.419193 0.219847 0.204132
0.419193 0.219847 0.216132
0.419193 0.231847 0.204132
0.407193 0.219847 0.228132
0.407193 0.219847 0.240132
0.407193 0.231847 0.228132
0.407193 0.231847 0.240132
0.443193 0.171847 0.192132
0.443193 0.183847 0.192132
0.455193 0.159847 0.192132
0.467193 0.147847 0.192132
0.467193 0.159847 0.192132
0.455193 0.171847 0.192132
0.455193 0.183847 0.180132
0.455193 0.183847 0.192132
0.467193 0.171847 0.180132
0.467193 0.171847 0.192132
0.467193 0.183847 0.180132
0.431193 0.159847 0.216132
0.443193 0.147847 0.216132
0.443193 0.159847 0.204132
0.443193 0.159847 0.216132
0.431193 0.147847 0.228132
0.431193 0.147847 0.240132
0.431193 0.159847 0.228132
0.431193 0.159847 0.240132
0.431193 0.171847 0.204132
0.431193 0.171847 0.216132
0.431193 0.183847 0.204132
0.431193 0.183847 0.216132
0.443193 0.171847 0.204132
0.443193 0.183847 0.204132
0.431193 0.171847 0.228132
0.455193 0.147847 0.204132
0.455193 0.147847 0.216132
0.455193 0.159847 0.204132
0.467193 0.147847 0.204132
0.431193 0.207847 0.192132
0.443193 0.195847 0.192132
0.443193 0.207847 0.180132
0.443193 0.207847 0.192132
0.443193 0.231847 0.168132
0.431193 0.219847 0.192132
0.431193 0.231847 0.180132
0.431193 0.231847 0.192132
0.443193 0.219847 0.180132
0.443193 0.231847 0.180132
0.467193 0.195847 0.168132
0.467193 0.207847 0.168132
0.455193 0.195847 0.180132
0.455193 0.195847 0.192132
0.455193 0.207847 0.180132
0.467193 0.195847 0.180132
0.455193 0.219847 0.168132
0.455193 0.231847 0.156132
0.455193 0.231847 0.168132
0.467193 0.219847 0.168132
0.467193 0.231847 0.156132
0.455193 0.219847 0.180132
0.431193 0.195847 0.204132
0.431193 0.207847 0.204132
0.431193 0.219847 0.204132
0.395193 0.183847 0.288132
0.419193 0.147847 0.252132
0.419193 0.147847 0.264132
0.419193 0.159847 0.252132
0.419193 0.159847 0.264132
0.407193 0.147847 0.276132
0.407193 0.147847 0.288132
0.407193 0.159847 0.276132
0.407193 0.159847 0.288132
0.419193 0.147847 0.276132
0.407193 0.183847 0.264132
0.419193 0.171847 0.252132
0.419193 0.171847 0.264132
0.419193 0.183847 0.252132
0.419193 0.183847 0.264132
0.407193 0.171847 0.276132
0.407193 0.171847 0.288132
0.407193 0.183847 0.276132
0.407193 0.183847 0.288132
0.383193 0.147847 0.324132
0.383193 0.159847 0.324132
0.395193 0.147847 0.324132
0.395193 0.159847 0.324132
0.383193 0.183847 0.312132
0.395193 0.171847 0.300132
0.395193 0.171847 0.312132
0.395193 0.183847 0.300132
0.395193 0.183847 0.312132
0.383193 0.171847 0.324132
0.395193 0.171847 0.324132
0.407193 0.147847 0.300132
0.407193 0.147847 0.312132
0.407193 0.159847 0.300132
0.407193 0.159847 0.312132
0.407193 0.171847 0.300132
0.395193 0.195847 0.276132
0.395193 0.195847 0.288132
0.395193 0.207847 0.276132
0.395193 0.207847 0.288132
0.395193 0.219847 0.264132
0.395193 0.231847 0.252132
0.395193 0.231847 0.264132
0.383193 0.219847 0.288132
0.383193 0.231847 0.288132
0.395193 0.219847 0.276132
0.395193 0.219847 0.288132
0.395193 0.231847 0.276132
0.407193 0.195847 0.252132
0.407193 0.195847 0.264132
0.407193 0.207847 0.252132
0.407193 0.207847 0.264132
0.419193 0.195847 0.252132
0.407193 0.195847 0.276132
0.407193 0.207847 0.276132
0.407193 0.219847 0.252132
0.407193 0.219847 0.264132
0.407193 0.231847 0.252132
0.383193 0.195847 0.312132
0.383193 0.207847 0.300132
0.395193 0.195847 0.300132
0.383193 0.219847 0.300132
0.407193 0.255847 0.192132
0.419193 0.243847 0.192132
0.419193 0.255847 0.180132
0.419193 0.255847 0.192132
0.419193 0.267847 0.168132
0.419193 0.279847 0.168132
0.407193 0.267847 0.192132
0.407193 0.279847 0.180132
0.407193 0.279847 0.192132
0.419193 0.267847 0.180132
0.419193 0.279847 0.180132
0.395193 0.243847 0.240132
0.395193 0.255847 0.228132
0.395193 0.255847 0.240132
0.395193 0.267847 0.216132
0.395193 0.279847 0.204132
0.395193 0.279847 0.216132
0.383193 0.279847 0.240132
0.395193 0.267847 0.228132
0.395193 0.267847 0.240132
0.395193 0.279847 0.228132
0.407193 0.243847 0.216132
0.407193 0.255847 0.204132
0.407193 0.255847 0.216132
0.419193 0.243847 0.204132
0.407193 0.243847 0.228132
0.407193 0.267847 0.204132
0.407193 0.267847 0.216132
0.407193 0.279847 0.204132
0.419193 0.291847 0.168132
0.419193 0.303847 0.168132
0.407193 0.291847 0.180132
0.407193 0.291847 0.192132
0.407193 0.303847 0.192132
0.419193 0.291847 0.180132
0.419193 0.303847 0.180132
0.419193 0.315847 0.168132
0.407193 0.315847 0.192132
0.407193 0.327847 0.192132
0.419193 0.315847 0.180132
0.419193 0.327847 0.180132
0.419193 0.327847 0.192132
0.395193 0.291847 0.204132
0.395193 0.291847 0.216132
0.395193 0.303847 0.204132
0.395193 0.303847 0.216132
0.383193 0.291847 0.228132
0.383193 0.291847 0.240132
0.383193 0.303847 0.240132
0.395193 0.291847 0.228132
0.395193 0.303847 0.228132
0.395193 0.315847 0.204132
0.395193 0.315847 0.216132
0.395193 0.327847 0.204132
0.395193 0.327847 0.216132
0.383193 0.315847 0.240132
0.383193 0.327847 0.240132
0.395193 0.315847 0.228132
0.395193 0.327847 0.228132
0.407193 0.303847 0.204132
0.407193 0.315847 0.204132
0.407193 0.327847 0.204132
0.407193 0.327847 0.216132
0.431193 0.243847 0.168132
0.431193 0.255847 0.168132
0.443193 0.243847 0.168132
0.443193 0.255847 0.156132
0.443193 0.255847 0.168132
0.431193 0.243847 0.180132
0.431193 0.255847 0.180132
0.431193 0.267847 0.168132
0.431193 0.279847 0.168132
0.443193 0.267847 0.156132
0.443193 0.279847 0.156132
0.455193 0.243847 0.156132
0.455193 0.255847 0.156132
0.467193 0.243847 0.156132
0.467193 0.255847 0.156132
0.455193 0.267847 0.156132
0.455193 0.279847 0.156132
0.431193 0.291847 0.168132
0.431193 0.303847 0.156132
0.431193 0.303847 0.168132
0.443193 0.291847 0.156132
0.443193 0.303847 0.156132
0.431193 0.315847 0.156132
0.431193 0.315847 0.168132
0.431193 0.327847 0.156132
0.431193 0.327847 0.168132
0.443193 0.315847 0.156132
0.443193 0.327847 0.156132
0.455193 0.291847 0.156132
0.455193 0.303847 0.156132
0.455193 0.315847 0.156132
0.455193 0.327847 0.156132
0.467193 0.315847 0.156132
0.467193 0.327847 0.156132
0.383193 0.255847 0.264132
0.395193 0.243847 0.252132
0.395193 0.243847 0.264132
0.395193 0.255847 0.252132
0.395193 0.255847 0.264132
0.383193 0.243847 0.276132
0.383193 0.243847 0.288132
0.383193 0.255847 0.276132
0.383193 0.267847 0.252132
0.383193 0.267847 0.264132
0.383193 0.279847 0.252132
0.383193 0.279847 0.264132
0.395193 0.267847 0.252132
0.383193 0.267847 0.276132
0.383193 0.279847 0.276132
0.383193 0.291847 0.252132
0.383193 0.291847 0.264132
0.383193 0.303847 0.252132
0.383193 0.303847 0.264132
0.383193 0.291847 0.276132
0.383193 0.315847 0.252132
0.383193 0.327847 0.252132
0.491193 0.159847 0.168132
0.479193 0.147847 0.180132
0.479193 0.147847 0.192132
0.479193 0.159847 0.180132
0.491193 0.147847 0.180132
0.491193 0.147847 0.192132
0.491193 0.159847 0.180132
0.479193 0.183847 0.168132
0.491193 0.171847 0.168132
0.491193 0.183847 0.168132
0.479193 0.171847 0.180132
0.479193 0.183847 0.180132
0.503193 0.159847 0.168132
0.515193 0.159847 0.168132
0.503193 0.147847 0.180132
0.503193 0.159847 0.180132
0.515193 0.147847 0.180132
0.515193 0.159847 0.180132
0.503193 0.171847 0.168132
0.503193 0.183847 0.168132
0.515193 0.171847 0.168132
0.515193 0.183847 0.168132
0.479193 0.195847 0.168132
0.479193 0.207847 0.156132
0.479193 0.207847 0.168132
0.491193 0.195847 0.168132
0.491193 0.207847 0.156132
0.479193 0.219847 0.156132
0.479193 0.231847 0.156132
0.491193 0.219847 0.156132
0.491193 0.231847 0.156132
0.503193 0.195847 0.156132
0.503193 0.195847 0.168132
0.503193 0.207847 0.156132
0.515193 0.195847 0.156132
0.515193 0.207847 0.156132
0.503193 0.219847 0.156132
0.503193 0.231847 0.156132
0.515193 0.219847 0.156132
0.515193 0.231847 0.156132
0.527193 0.159847 0.168132
0.527193 0.147847 0.180132
0.527193 0.159847 0.180132
0.539193 0.147847 0.180132
0.539193 0.159847 0.180132
0.527193 0.171847 0.168132
0.527193 0.183847 0.168132
0.539193 0.171847 0.168132
0.539193 0.183847 0.168132
0.551193 0.147847 0.180132
0.551193 0.159847 0.180132
0.563193 0.147847 0.180132
0.563193 0.159847 0.180132
0.551193 0.183847 0.168132
0.563193 0.183847 0.168132
0.551193 0.171847 0.180132
0.563193 0.171847 0.180132
0.527193 0.195847 0.156132
0.527193 0.195847 0.168132
0.527193 0.207847 0.156132
0.527193 0.207847 0.168132
0.539193 0.195847 0.168132
0.539193 0.207847 0.168132
0.527193 0.219847 0.156132
0.527193 0.219847 0.168132
0.527193 0.231847 0.156132
0.539193 0.219847 0.168132
0.539193 0.231847 0.156132
0.539193 0.231847 0.168132
0.551193 0.195847 0.168132
0.551193 0.207847 0.168132
0.563193 0.195847 0.168132
0.563193 0.207847 0.168132
0.551193 0.219847 0.168132
0.551193 0.231847 0.156132
0.551193 0.231847 0.168132
0.563193 0.219847 0.168132
0.563193 0.231847 0.168132
0.479193 0.243847 0.156132
0.491193 0.243847 0.156132
0.503193 0.243847 0.156132
0.515193 0.243847 0.156132
0.515193 0.279847 0.156132
0.515193 0.291847 0.156132
0.527193 0.243847 0.156132
0.527193 0.255847 0.156132
0.539193 0.243847 0.156132
0.539193 0.255847 0.156132
0.527193 0.267847 0.156132
0.527193 0.279847 0.156132
0.539193 0.267847 0.156132
0.539193 0.279847 0.156132
0.551193 0.243847 0.156132
0.551193 0.255847 0.156132
0.563193 0.243847 0.168132
0.563193 0.255847 0.156132
0.563193 0.255847 0.168132
0.551193 0.267847 0.156132
0.551193 0.279847 0.156132
0.563193 0.267847 0.156132
0.563193 0.279847 0.156132
0.527193 0.291847 0.156132
0.527193 0.303847 0.156132
0.539193 0.291847 0.156132
0.539193 0.303847 0.156132
0.539193 0.315847 0.156132
0.551193 0.291847 0.156132
0.551193 0.303847 0.156132
0.563193 0.291847 0.156132
0.563193 0.303847 0.156132
0.551193 0.315847 0.156132
0.551193 0.327847 0.156132
0.563193 0.315847 0.156132
0.563193 0.327847 0.156132
0.491193 0.339847 0.144132
0.491193 0.351847 0.144132
0.503193 0.339847 0.144132
0.503193 0.351847 0.144132
0.515193 0.339847 0.144132
0.515193 0.351847 0.144132
0.527193 0.339847 0.144132
0.527193 0.351847 0.144132
0.419193 0.339847 0.180132
0.419193 0.339847 0.192132
0.419193 0.351847 0.180132
0.419193 0.351847 0.192132
0.419193 0.363847 0.192132
0.383193 0.339847 0.240132
0.383193 0.351847 0.240132
0.395193 0.339847 0.228132
0.395193 0.351847 0.240132
0.383193 0.363847 0.240132
0.383193 0.375847 0.240132
0.395193 0.363847 0.240132
0.395193 0.375847 0.240132
0.407193 0.339847 0.204132
0.407193 0.339847 0.216132
0.407193 0.351847 0.204132
0.407193 0.351847 0.216132
0.419193 0.351847 0.204132
0.407193 0.339847 0.228132
0.407193 0.351847 0.228132
0.407193 0.363847 0.216132
0.419193 0.363847 0.204132
0.419193 0.363847 0.216132
0.419193 0.375847 0.216132
0.407193 0.363847 0.228132
0.407193 0.363847 0.240132
0.407193 0.375847 0.240132
0.419193 0.363847 0.228132
0.419193 0.375847 0.228132
0.419193 0.375847 0.240132
0.383193 0.387847 0.240132
0.383193 0.399847 0.240132
0.395193 0.387847 0.240132
0.395193 0.399847 0.240132
0.407193 0.387847 0.240132
0.407193 0.399847 0.240132
0.419193 0.387847 0.240132
0.419193 0.399847 0.240132
0.419193 0.411847 0.240132
0.419193 0.423847 0.240132
0.431193 0.339847 0.168132
0.431193 0.351847 0.168132
0.443193 0.339847 0.156132
0.443193 0.339847 0.168132
0.443193 0.351847 0.168132
0.431193 0.339847 0.180132
0.431193 0.351847 0.180132
0.443193 0.363847 0.168132
0.431193 0.363847 0.180132
0.431193 0.363847 0.192132
0.443193 0.363847 0.180132
0.443193 0.375847 0.180132
0.443193 0.375847 0.192132
0.455193 0.339847 0.156132
0.455193 0.351847 0.168132
0.467193 0.339847 0.156132
0.467193 0.351847 0.156132
0.455193 0.363847 0.168132
0.455193 0.375847 0.168132
0.467193 0.363847 0.156132
0.467193 0.363847 0.168132
0.467193 0.375847 0.168132
0.455193 0.375847 0.180132
0.431193 0.375847 0.204132
0.431193 0.375847 0.216132
0.443193 0.387847 0.192132
0.455193 0.387847 0.192132
0.467193 0.387847 0.180132
0.467193 0.387847 0.192132
0.431193 0.387847 0.216132
0.443193 0.387847 0.204132
0.443193 0.399847 0.216132
0.431193 0.387847 0.228132
0.431193 0.399847 0.240132
0.443193 0.399847 0.228132
0.443193 0.399847 0.240132
0.431193 0.411847 0.240132
0.431193 0.423847 0.240132
0.443193 0.411847 0.240132
0.443193 0.423847 0.240132
0.455193 0.387847 0.204132
0.455193 0.399847 0.204132
0.455193 0.399847 0.216132
0.467193 0.399847 0.204132
0.467193 0.399847 0.216132
0.455193 0.399847 0.228132
0.467193 0.399847 0.228132
0.455193 0.411847 0.240132
0.455193 0.423847 0.240132
0.467193 0.411847 0.228132
0.467193 0.411847 0.240132
0.467193 0.423847 0.240132
0.383193 0.399847 0.252132
0.395193 0.399847 0.252132
0.383193 0.411847 0.252132
0.383193 0.423847 0.252132
0.395193 0.411847 0.252132
0.395193 0.423847 0.252132
0.407193 0.411847 0.252132
0.407193 0.423847 0.252132
0.419193 0.423847 0.252132
0.431193 0.435847 0.240132
0.443193 0.435847 0.240132
0.443193 0.447847 0.240132
0.455193 0.435847 0.240132
0.455193 0.447847 0.240132
0.467193 0.435847 0.240132
0.467193 0.447847 0.240132
0.383193 0.435847 0.252132
0.383193 0.447847 0.264132
0.395193 0.435847 0.252132
0.395193 0.447847 0.252132
0.383193 0.459847 0.264132
0.383193 0.471847 0.264132
0.395193 0.459847 0.264132
0.395193 0.471847 0.264132
0.407193 0.435847 0.252132
0.407193 0.447847 0.252132
0.419193 0.435847 0.252132
0.419193 0.447847 0.252132
0.407193 0.459847 0.252132
0.407193 0.471847 0.264132
0.419193 0.459847 0.252132
0.419193 0.471847 0.252132
0.419193 0.471847 0.264132
0.383193 0.483847 0.264132
0.383193 0.483847 0.276132
0.383193 0.495847 0.276132
0.395193 0.483847 0.276132
0.395193 0.495847 0.276132
0.383193 0.507847 0.276132
0.383193 0.507847 0.288132
0.383193 0.519847 0.288132
0.395193 0.507847 0.276132
0.395193 0.507847 0.288132
0.395193 0.519847 0.288132
0.407193 0.483847 0.264132
0.419193 0.483847 0.264132
0.407193 0.483847 0.276132
0.407193 0.495847 0.276132
0.419193 0.483847 0.276132
0.419193 0.495847 0.276132
0.407193 0.507847 0.288132
0.407193 0.519847 0.288132
0.419193 0.507847 0.288132
0.419193 0.519847 0.288132
0.431193 0.435847 0.252132
0.431193 0.447847 0.252132
0.431193 0.459847 0.252132
0.431193 0.471847 0.252132
0.431193 0.471847 0.264132
0.443193 0.459847 0.252132
0.443193 0.471847 0.252132
0.455193 0.459847 0.252132
0.455193 0.471847 0.252132
0.467193 0.459847 0.252132
0.467193 0.471847 0.252132
0.431193 0.483847 0.264132
0.443193 0.483847 0.252132
0.443193 0.483847 0.264132
0.443193 0.495847 0.264132
0.431193 0.495847 0.276132
0.443193 0.495847 0.276132
0.431193 0.507847 0.288132
0.431193 0.519847 0.288132
0.443193 0.507847 0.276132
0.443193 0.507847 0.288132
0.443193 0.519847 0.288132
0.455193 0.483847 0.252132
0.455193 0.483847 0.264132
0.455193 0.495847 0.264132
0.467193 0.483847 0.252132
0.467193 0.483847 0.264132
0.467193 0.495847 0.264132
0.455193 0.495847 0.276132
0.467193 0.495847 0.276132
0.455193 0.507847 0.276132
0.455193 0.507847 0.288132
0.455193 0.519847 0.288132
0.467193 0.507847 0.276132
0.467193 0.519847 0.288132
0.431193 0.519847 0.300132
0.443193 0.519847 0.300132
0.479193 0.339847 0.156132
0.479193 0.351847 0.156132
0.491193 0.351847 0.156132
0.479193 0.363847 0.156132
0.479193 0.375847 0.168132
0.491193 0.363847 0.156132
0.491193 0.375847 0.168132
0.503193 0.351847 0.156132
0.515193 0.351847 0.156132
0.503193 0.363847 0.156132
0.503193 0.375847 0.156132
0.503193 0.375847 0.168132
0.515193 0.363847 0.156132
0.515193 0.375847 0.156132
0.515193 0.375847 0.168132
0.491193 0.387847 0.168132
0.479193 0.387847 0.180132
0.479193 0.399847 0.192132
0.491193 0.387847 0.180132
0.491193 0.399847 0.192132
0.503193 0.387847 0.168132
0.515193 0.387847 0.168132
0.503193 0.387847 0.180132
0.503193 0.399847 0.192132
0.515193 0.387847 0.180132
0.515193 0.399847 0.180132
0.515193 0.399847 0.192132
0.479193 0.399847 0.204132
0.491193 0.399847 0.204132
0.479193 0.411847 0.216132
0.491193 0.411847 0.216132
0.479193 0.411847 0.228132
0.479193 0.411847 0.240132
0.479193 0.423847 0.240132
0.491193 0.411847 0.228132
0.491193 0.423847 0.240132
0.503193 0.411847 0.204132
0.503193 0.411847 0.216132
0.515193 0.411847 0.204132
0.515193 0.411847 0.216132
0.503193 0.411847 0.228132
0.503193 0.423847 0.240132
0.515193 0.423847 0.228132
0.515193 0.423847 0.240132
0.527193 0.351847 0.156132
0.539193 0.339847 0.156132
0.539193 0.351847 0.156132
0.527193 0.363847 0.156132
0.527193 0.375847 0.156132
0.527193 0.375847 0.168132
0.539193 0.363847 0.156132
0.539193 0.375847 0.168132
0.551193 0.339847 0.156132
0.551193 0.351847 0.156132
0.563193 0.339847 0.156132
0.563193 0.351847 0.156132
0.563193 0.351847 0.168132
0.551193 0.363847 0.168132
0.551193 0.375847 0.168132
0.563193 0.363847 0.168132
0.563193 0.375847 0.168132
0.527193 0.387847 0.168132
0.539193 0.387847 0.168132
0.527193 0.399847 0.180132
0.527193 0.399847 0.192132
0.539193 0.399847 0.180132
0.539193 0.411847 0.192132
0.551193 0.387847 0.168132
0.563193 0.387847 0.168132
0.551193 0.399847 0.180132
0.551193 0.399847 0.192132
0.563193 0.387847 0.180132
0.563193 0.399847 0.180132
0.563193 0.399847 0.192132
0.527193 0.411847 0.204132
0.527193 0.411847 0.216132
0.527193 0.423847 0.216132
0.539193 0.411847 0.204132
0.539193 0.423847 0.216132
0.527193 0.423847 0.228132
0.527193 0.423847 0.240132
0.539193 0.423847 0.228132
0.539193 0.423847 0.240132
0.551193 0.411847 0.204132
0.551193 0.423847 0.216132
0.563193 0.411847 0.204132
0.563193 0.423847 0.216132
0.551193 0.423847 0.228132
0.551193 0.423847 0.240132
0.563193 0.423847 0.228132
0.563193 0.423847 0.240132
0.479193 0.435847 0.240132
0.491193 0.435847 0.240132
0.503193 0.435847 0.240132
0.515193 0.435847 0.240132
0.527193 0.435847 0.240132
0.527193 0.447847 0.240132
0.539193 0.435847 0.240132
0.539193 0.447847 0.240132
0.551193 0.435847 0.240132
0.551193 0.447847 0.240132
0.563193 0.435847 0.240132
0.479193 0.447847 0.252132
0.491193 0.447847 0.252132
0.479193 0.459847 0.252132
0.479193 0.471847 0.252132
0.491193 0.459847 0.252132
0.491193 0.471847 0.252132
0.503193 0.447847 0.252132
0.515193 0.447847 0.252132
0.503193 0.459847 0.252132
0.503193 0.471847 0.252132
0.503193 0.471847 0.264132
0.515193 0.459847 0.252132
0.515193 0.471847 0.252132
0.515193 0.471847 0.264132
0.479193 0.483847 0.252132
0.479193 0.483847 0.264132
0.479193 0.495847 0.264132
0.491193 0.483847 0.252132
0.491193 0.483847 0.264132
0.491193 0.495847 0.264132
0.479193 0.495847 0.276132
0.491193 0.495847 0.276132
0.479193 0.507847 0.276132
0.479193 0.519847 0.276132
0.479193 0.519847 0.288132
0.491193 0.507847 0.276132
0.491193 0.519847 0.276132
0.491193 0.519847 0.288132
0.503193 0.483847 0.264132
0.503193 0.495847 0.264132
0.515193 0.483847 0.264132
0.515193 0.495847 0.264132
0.503193 0.495847 0.276132
0.515193 0.495847 0.276132
0.503193 0.507847 0.276132
0.503193 0.519847 0.276132
0.503193 0.519847 0.288132
0.515193 0.507847 0.276132
0.515193 0.519847 0.276132
0.515193 0.519847 0.288132
0.527193 0.459847 0.252132
0.527193 0.471847 0.252132
0.539193 0.459847 0.252132
0.539193 0.471847 0.252132
0.551193 0.447847 0.252132
0.563193 0.435847 0.252132
0.563193 0.447847 0.252132
0.551193 0.459847 0.252132
0.551193 0.471847 0.252132
0.563193 0.459847 0.252132
0.563193 0.471847 0.252132
0.527193 0.483847 0.252132
0.527193 0.483847 0.264132
0.527193 0.495847 0.264132
0.539193 0.483847 0.252132
0.539193 0.483847 0.264132
0.539193 0.495847 0.264132
0.527193 0.495847 0.276132
0.539193 0.507847 0.264132
0.527193 0.507847 0.276132
0.527193 0.519847 0.288132
0.539193 0.507847 0.276132
0.539193 0.519847 0.276132
0.539193 0.519847 0.288132
0.551193 0.483847 0.252132
0.551193 0.495847 0.252132
0.551193 0.495847 0.264132
0.563193 0.483847 0.252132
0.563193 0.495847 0.252132
0.563193 0.495847 0.264132
0.551193 0.507847 0.264132
0.563193 0.507847 0.264132
0.551193 0.507847 0.276132
0.551193 0.519847 0.276132
0.551193 0.519847 0.288132
0.563193 0.507847 0.276132
0.563193 0.519847 0.276132
0.563193 0.519847 0.288132
0.575193 0.147847 0.180132
0.575193 0.147847 0.192132
0.575193 0.159847 0.180132
0.587193 0.147847 0.180132
0.587193 0.147847 0.192132
0.587193 0.159847 0.180132
0.575193 0.183847 0.168132
0.575193 0.171847 0.180132
0.587193 0.171847 0.180132
0.587193 0.183847 0.180132
0.599193 0.147847 0.192132
0.599193 0.159847 0.180132
0.599193 0.159847 0.192132
0.611193 0.147847 0.192132
0.611193 0.159847 0.192132
0.599193 0.171847 0.180132
0.599193 0.183847 0.180132
0.611193 0.171847 0.180132
0.611193 0.183847 0.180132
0.575193 0.195847 0.168132
0.575193 0.207847 0.168132
0.587193 0.195847 0.168132
0.587193 0.207847 0.180132
0.575193 0.219847 0.168132
0.575193 0.231847 0.168132
0.587193 0.231847 0.168132
0.587193 0.219847 0.180132
0.587193 0.231847 0.180132
0.599193 0.195847 0.180132
0.599193 0.207847 0.180132
0.611193 0.195847 0.180132
0.611193 0.207847 0.180132
0.599193 0.219847 0.180132
0.599193 0.231847 0.180132
0.611193 0.219847 0.180132
0.611193 0.231847 0.180132
0.623193 0.147847 0.192132
0.623193 0.159847 0.192132
0.635193 0.147847 0.192132
0.635193 0.159847 0.192132
0.623193 0.171847 0.192132
0.623193 0.183847 0.180132
0.635193 0.171847 0.192132
0.635193 0.183847 0.192132
0.647193 0.183847 0.192132
0.659193 0.183847 0.192132
0.635193 0.147847 0.204132
0.647193 0.147847 0.204132
0.647193 0.159847 0.204132
0.659193 0.147847 0.204132
0.659193 0.159847 0.204132
0.647193 0.171847 0.204132
0.647193 0.183847 0.204132
0.659193 0.171847 0.204132
0.659193 0.183847 0.204132
0.623193 0.195847 0.180132
0.623193 0.207847 0.180132
0.635193 0.195847 0.180132
0.635193 0.195847 0.192132
0.635193 0.207847 0.180132
0.623193 0.219847 0.180132
0.623193 0.231847 0.180132
0.635193 0.219847 0.180132
0.635193 0.231847 0.180132
0.647193 0.195847 0.192132
0.647193 0.207847 0.180132
0.647193 0.207847 0.192132
0.659193 0.195847 0.192132
0.659193 0.207847 0.192132
0.647193 0.219847 0.192132
0.647193 0.231847 0.180132
0.647193 0.231847 0.192132
0.659193 0.219847 0.192132
0.659193 0.231847 0.192132
0.575193 0.243847 0.168132
0.575193 0.255847 0.168132
0.587193 0.243847 0.168132
0.587193 0.255847 0.168132
0.575193 0.267847 0.156132
0.575193 0.267847 0.168132
0.575193 0.279847 0.156132
0.587193 0.267847 0.168132
0.587193 0.279847 0.156132
0.587193 0.279847 0.168132
0.599193 0.243847 0.168132
0.599193 0.255847 0.168132
0.611193 0.243847 0.168132
0.611193 0.255847 0.168132
0.611193 0.243847 0.180132
0.599193 0.267847 0.168132
0.599193 0.279847 0.168132
0.611193 0.267847 0.168132
0.611193 0.279847 0.168132
0.575193 0.291847 0.156132
0.575193 0.303847 0.156132
0.587193 0.291847 0.156132
0.587193 0.291847 0.168132
0.587193 0.303847 0.156132
0.587193 0.303847 0.168132
0.575193 0.315847 0.156132
0.575193 0.327847 0.156132
0.587193 0.315847 0.156132
0.587193 0.327847 0.156132
0.599193 0.291847 0.168132
0.599193 0.303847 0.168132
0.611193 0.291847 0.168132
0.611193 0.303847 0.168132
0.599193 0.315847 0.156132
0.599193 0.327847 0.156132
0.611193 0.315847 0.168132
0.611193 0.327847 0.168132
0.623193 0.255847 0.168132
0.623193 0.243847 0.180132
0.623193 0.255847 0.180132
0.635193 0.243847 0.180132
0.635193 0.255847 0.180132
0.623193 0.267847 0.168132
0.623193 0.279847 0.168132
0.635193 0.267847 0.168132
0.635193 0.267847 0.180132
0.635193 0.279847 0.180132
0.647193 0.243847 0.180132
0.647193 0.255847 0.180132
0.659193 0.243847 0.180132
0.659193 0.255847 0.180132
0.647193 0.267847 0.180132
0.647193 0.279847 0.180132
0.659193 0.267847 0.180132
0.659193 0.279847 0.180132
0.623193 0.291847 0.168132
0.623193 0.303847 0.168132
0.623193 0.303847 0.180132
0.635193 0.291847 0.180132
0.635193 0.303847 0.180132
0.623193 0.315847 0.168132
0.623193 0.327847 0.168132
0.623193 0.315847 0.180132
0.623193 0.327847 0.180132
0.635193 0.315847 0.180132
0.635193 0.327847 0.180132
0.647193 0.291847 0.180132
0.647193 0.303847 0.180132
0.659193 0.291847 0.180132
0.659193 0.303847 0.180132
0.647193 0.315847 0.180132
0.647193 0.327847 0.180132
0.659193 0.315847 0.180132
0.659193 0.315847 0.192132
0.659193 0.327847 0.180132
0.659193 0.327847 0.192132
0.671193 0.183847 0.192132
0.671193 0.147847 0.204132
0.671193 0.159847 0.204132
0.683193 0.147847 0.204132
0.683193 0.159847 0.204132
0.671193 0.171847 0.204132
0.671193 0.183847 0.204132
0.683193 0.171847 0.204132
0.683193 0.183847 0.204132
0.695193 0.147847 0.204132
0.695193 0.147847 0.216132
0.695193 0.159847 0.204132
0.695193 0.159847 0.216132
0.707193 0.147847 0.216132
0.707193 0.159847 0.216132
0.695193 0.171847 0.216132
0.695193 0.183847 0.204132
0.695193 0.183847 0.216132
0.707193 0.171847 0.216132
0.707193 0.183847 0.204132
0.707193 0.183847 0.216132
0.671193 0.195847 0.192132
0.671193 0.207847 0.192132
0.671193 0.219847 0.192132
0.671193 0.231847 0.192132
0.683193 0.231847 0.192132
0.695193 0.219847 0.192132
0.695193 0.231847 0.192132
0.683193 0.195847 0.204132
0.683193 0.207847 0.204132
0.671193 0.219847 0.204132
0.683193 0.219847 0.204132
0.695193 0.195847 0.204132
0.695193 0.207847 0.204132
0.707193 0.195847 0.204132
0.707193 0.207847 0.204132
0.695193 0.219847 0.204132
0.707193 0.219847 0.204132
0.707193 0.231847 0.204132
0.719193 0.147847 0.216132
0.719193 0.159847 0.216132
0.731193 0.147847 0.216132
0.731193 0.159847 0.216132
0.719193 0.171847 0.216132
0.719193 0.183847 0.216132
0.731193 0.171847 0.216132
0.731193 0.183847 0.216132
0.731193 0.171847 0.228132
0.731193 0.183847 0.228132
0.743193 0.147847 0.228132
0.743193 0.159847 0.228132
0.755193 0.147847 0.228132
0.755193 0.159847 0.228132
0.743193 0.171847 0.228132
0.743193 0.183847 0.228132
0.755193 0.171847 0.228132
0.755193 0.171847 0.240132
0.755193 0.183847 0.228132
0.755193 0.183847 0.240132
0.719193 0.195847 0.216132
0.719193 0.207847 0.216132
0.731193 0.195847 0.216132
0.731193 0.207847 0.216132
0.719193 0.219847 0.204132
0.719193 0.219847 0.216132
0.719193 0.231847 0.204132
0.731193 0.219847 0.216132
0.731193 0.231847 0.216132
0.743193 0.207847 0.216132
0.743193 0.195847 0.228132
0.743193 0.207847 0.228132
0.755193 0.195847 0.228132
0.755193 0.195847 0.240132
0.755193 0.207847 0.228132
0.755193 0.207847 0.240132
0.743193 0.219847 0.216132
0.743193 0.231847 0.216132
0.755193 0.219847 0.228132
0.755193 0.231847 0.228132
0.671193 0.243847 0.192132
0.671193 0.255847 0.192132
0.683193 0.243847 0.192132
0.683193 0.255847 0.192132
0.671193 0.267847 0.180132
0.671193 0.267847 0.192132
0.671193 0.279847 0.180132
0.671193 0.279847 0.192132
0.683193 0.267847 0.192132
0.683193 0.279847 0.192132
0.695193 0.243847 0.192132
0.695193 0.255847 0.192132
0.683193 0.267847 0.204132
0.683193 0.279847 0.204132
0.695193 0.255847 0.204132
0.707193 0.243847 0.204132
0.707193 0.255847 0.204132
0.695193 0.267847 0.204132
0.695193 0.279847 0.204132
0.707193 0.267847 0.204132
0.707193 0.279847 0.204132
0.671193 0.291847 0.180132
0.671193 0.291847 0.192132
0.671193 0.303847 0.192132
0.683193 0.291847 0.192132
0.683193 0.303847 0.192132
0.671193 0.315847 0.192132
0.671193 0.327847 0.192132
0.683193 0.315847 0.192132
0.683193 0.327847 0.192132
0.695193 0.303847 0.192132
0.683193 0.315847 0.204132
0.683193 0.327847 0.204132
0.695193 0.291847 0.204132
0.695193 0.303847 0.204132
0.707193 0.291847 0.204132
0.707193 0.303847 0.204132
0.695193 0.315847 0.204132
0.695193 0.327847 0.204132
0.707193 0.315847 0.204132
0.707193 0.315847 0.216132
0.707193 0.327847 0.204132
0.707193 0.327847 0.216132
0.719193 0.243847 0.204132
0.719193 0.255847 0.204132
0.719193 0.255847 0.216132
0.731193 0.243847 0.204132
0.731193 0.243847 0.216132
0.731193 0.255847 0.216132
0.719193 0.267847 0.216132
0.719193 0.279847 0.216132
0.731193 0.267847 0.216132
0.731193 0.279847 0.216132
0.743193 0.243847 0.216132
0.743193 0.255847 0.216132
0.743193 0.255847 0.228132
0.755193 0.243847 0.228132
0.755193 0.255847 0.228132
0.743193 0.267847 0.228132
0.743193 0.279847 0.228132
0.755193 0.267847 0.228132
0.755193 0.279847 0.228132
0.719193 0.291847 0.216132
0.719193 0.303847 0.216132
0.731193 0.291847 0.216132
0.731193 0.303847 0.216132
0.719193 0.315847 0.216132
0.719193 0.327847 0.216132
0.731193 0.315847 0.216132
0.731193 0.327847 0.216132
0.743193 0.291847 0.228132
0.743193 0.303847 0.228132
0.755193 0.291847 0.228132
0.755193 0.303847 0.228132
0.743193 0.315847 0.228132
0.743193 0.327847 0.228132
0.755193 0.315847 0.228132
0.755193 0.315847 0.240132
0.755193 0.327847 0.228132
0.575193 0.339847 0.156132
0.575193 0.351847 0.156132
0.575193 0.351847 0.168132
0.587193 0.339847 0.156132
0.587193 0.339847 0.168132
0.587193 0.351847 0.168132
0.575193 0.363847 0.168132
0.575193 0.375847 0.168132
0.587193 0.363847 0.168132
0.587193 0.375847 0.168132
0.599193 0.339847 0.156132
0.599193 0.339847 0.168132
0.599193 0.351847 0.168132
0.611193 0.339847 0.168132
0.611193 0.351847 0.168132
0.611193 0.339847 0.180132
0.611193 0.351847 0.180132
0.599193 0.363847 0.168132
0.599193 0.375847 0.180132
0.611193 0.363847 0.180132
0.611193 0.375847 0.180132
0.575193 0.387847 0.180132
0.575193 0.399847 0.180132
0.575193 0.399847 0.192132
0.587193 0.387847 0.180132
0.587193 0.399847 0.192132
0.599193 0.387847 0.180132
0.599193 0.399847 0.192132
0.611193 0.387847 0.180132
0.611193 0.399847 0.192132
0.575193 0.411847 0.204132
0.575193 0.423847 0.216132
0.587193 0.411847 0.204132
0.587193 0.423847 0.216132
0.575193 0.423847 0.228132
0.575193 0.423847 0.240132
0.587193 0.423847 0.228132
0.587193 0.423847 0.240132
0.599193 0.411847 0.204132
0.599193 0.411847 0.216132
0.599193 0.423847 0.216132
0.611193 0.411847 0.204132
0.611193 0.411847 0.216132
0.599193 0.423847 0.228132
0.599193 0.423847 0.240132
0.611193 0.423847 0.228132
0.611193 0.423847 0.240132
0.623193 0.339847 0.180132
0.623193 0.351847 0.180132
0.635193 0.339847 0.180132
0.635193 0.351847 0.180132
0.623193 0.363847 0.180132
0.623193 0.375847 0.180132
0.635193 0.363847 0.180132
0.635193 0.375847 0.180132
0.635193 0.375847 0.192132
0.647193 0.339847 0.180132
0.647193 0.351847 0.180132
0.659193 0.339847 0.192132
0.659193 0.351847 0.180132
0.659193 0.351847 0.192132
0.647193 0.363847 0.180132
0.647193 0.375847 0.180132
0.647193 0.375847 0.192132
0.659193 0.363847 0.192132
0.659193 0.375847 0.192132
0.623193 0.387847 0.192132
0.623193 0.399847 0.192132
0.635193 0.387847 0.192132
0.647193 0.387847 0.192132
0.623193 0.399847 0.204132
0.635193 0.399847 0.204132
0.623193 0.411847 0.204132
0.623193 0.411847 0.216132
0.635193 0.411847 0.216132
0.623193 0.423847 0.228132
0.623193 0.423847 0.240132
0.635193 0.411847 0.228132
0.635193 0.423847 0.240132
0.647193 0.399847 0.204132
0.647193 0.399847 0.216132
0.659193 0.387847 0.204132
0.659193 0.399847 0.216132
0.647193 0.411847 0.216132
0.647193 0.411847 0.228132
0.647193 0.423847 0.240132
0.659193 0.411847 0.228132
0.659193 0.411847 0.240132
0.611193 0.423847 0.252132
0.623193 0.423847 0.252132
0.635193 0.423847 0.252132
0.647193 0.423847 0.252132
0.659193 0.423847 0.252132
0.575193 0.435847 0.240132
0.587193 0.435847 0.240132
0.599193 0.435847 0.240132
0.575193 0.435847 0.252132
0.575193 0.447847 0.252132
0.587193 0.435847 0.252132
0.587193 0.447847 0.252132
0.575193 0.459847 0.252132
0.575193 0.471847 0.252132
0.587193 0.459847 0.252132
0.587193 0.471847 0.252132
0.599193 0.435847 0.252132
0.599193 0.447847 0.252132
0.611193 0.435847 0.252132
0.611193 0.447847 0.252132
0.599193 0.459847 0.252132
0.599193 0.471847 0.252132
0.599193 0.471847 0.264132
0.611193 0.459847 0.252132
0.611193 0.471847 0.264132
0.575193 0.483847 0.252132
0.575193 0.495847 0.252132
0.575193 0.495847 0.264132
0.587193 0.483847 0.252132
0.587193 0.483847 0.264132
0.587193 0.495847 0.252132
0.587193 0.495847 0.264132
0.575193 0.507847 0.264132
0.587193 0.507847 0.264132
0.575193 0.507847 0.276132
0.575193 0.519847 0.276132
0.575193 0.519847 0.288132
0.587193 0.507847 0.276132
0.587193 0.519847 0.276132
0.587193 0.519847 0.288132
0.599193 0.483847 0.252132
0.599193 0.483847 0.264132
0.599193 0.495847 0.264132
0.611193 0.483847 0.264132
0.611193 0.495847 0.264132
0.599193 0.507847 0.264132
0.611193 0.507847 0.264132
0.611193 0.519847 0.264132
0.599193 0.507847 0.276132
0.599193 0.519847 0.276132
0.611193 0.507847 0.276132
0.611193 0.519847 0.276132
0.623193 0.435847 0.252132
0.623193 0.447847 0.252132
0.635193 0.435847 0.252132
0.635193 0.435847 0.264132
0.635193 0.447847 0.252132
0.623193 0.459847 0.252132
0.623193 0.459847 0.264132
0.623193 0.471847 0.264132
0.635193 0.459847 0.252132
0.635193 0.459847 0.264132
0.635193 0.471847 0.264132
0.647193 0.435847 0.252132
0.647193 0.435847 0.264132
0.647193 0.447847 0.264132
0.659193 0.435847 0.252132
0.659193 0.435847 0.264132
0.659193 0.447847 0.264132
0.647193 0.459847 0.264132
0.647193 0.471847 0.264132
0.659193 0.459847 0.264132
0.659193 0.471847 0.264132
0.623193 0.483847 0.264132
0.623193 0.495847 0.264132
0.635193 0.483847 0.264132
0.635193 0.495847 0.264132
0.623193 0.507847 0.264132
0.623193 0.519847 0.264132
0.635193 0.507847 0.264132
0.635193 0.519847 0.264132
0.623193 0.519847 0.276132
0.635193 0.519847 0.276132
0.647193 0.483847 0.264132
0.647193 0.495847 0.264132
0.659193 0.483847 0.264132
0.659193 0.495847 0.264132
0.659193 0.495847 0.276132
0.647193 0.507847 0.264132
0.647193 0.507847 0.276132
0.647193 0.519847 0.276132
