ply
format ascii 1.0
element vertex 1773
property float x
property float y
property float z
end_header
0.901943 0.187097 0.592382
0.873443 0.215597 0.592382
0.873443 0.225097 0.592382
0.873443 0.234597 0.592382
0.930443 0.092097 0.544882
0.939943 0.092097 0.544882
0.939943 0.101597 0.544882
0.911443 0.092097 0.563882
0.920943 0.092097 0.554382
0.920943 0.092097 0.563882
0.911443 0.092097 0.573382
0.911443 0.101597 0.573382
0.911443 0.101597 0.582882
0.920943 0.101597 0.573382
0.911443 0.111097 0.582882
0.920943 0.111097 0.582882
0.920943 0.120597 0.582882
0.930443 0.101597 0.554382
0.930443 0.101597 0.563882
0.939943 0.101597 0.554382
0.930443 0.111097 0.563882
0.939943 0.111097 0.554382
0.939943 0.111097 0.563882
0.939943 0.120597 0.563882
0.930443 0.111097 0.573382
0.930443 0.120597 0.573382
0.939943 0.120597 0.573382
0.930443 0.130097 0.582882
0.930443 0.139597 0.582882
0.939943 0.130097 0.573382
0.939943 0.139597 0.573382
0.939943 0.139597 0.582882
0.939943 0.149097 0.582882
0.939943 0.158597 0.582882
0.949443 0.092097 0.516382
0.949443 0.092097 0.525882
0.958943 0.092097 0.516382
0.958943 0.101597 0.525882
0.949443 0.092097 0.535382
0.949443 0.101597 0.544882
0.958943 0.101597 0.535382
0.949443 0.111097 0.544882
0.958943 0.111097 0.544882
0.958943 0.120597 0.544882
0.968443 0.101597 0.516382
0.968443 0.111097 0.516382
0.968443 0.111097 0.525882
0.977943 0.120597 0.516382
0.977943 0.120597 0.525882
0.968443 0.111097 0.535382
0.968443 0.120597 0.535382
0.968443 0.120597 0.544882
0.949443 0.120597 0.554382
0.958943 0.120597 0.554382
0.977943 0.130097 0.516382
0.977943 0.130097 0.525882
0.968443 0.130097 0.544882
0.977943 0.130097 0.535382
0.977943 0.130097 0.544882
0.977943 0.139597 0.535382
0.977943 0.139597 0.544882
0.977943 0.149097 0.544882
0.977943 0.158597 0.544882
0.949443 0.130097 0.563882
0.958943 0.130097 0.554382
0.958943 0.130097 0.563882
0.958943 0.139597 0.563882
0.949443 0.130097 0.573382
0.949443 0.139597 0.573382
0.949443 0.139597 0.582882
0.958943 0.139597 0.573382
0.958943 0.149097 0.563882
0.949443 0.149097 0.582882
0.949443 0.158597 0.582882
0.958943 0.149097 0.573382
0.958943 0.158597 0.573382
0.968443 0.130097 0.554382
0.968443 0.139597 0.554382
0.968443 0.139597 0.563882
0.968443 0.149097 0.554382
0.968443 0.149097 0.563882
0.968443 0.158597 0.554382
0.968443 0.158597 0.563882
0.977943 0.158597 0.554382
0.911443 0.111097 0.592382
0.911443 0.120597 0.592382
0.911443 0.130097 0.601882
0.911443 0.139597 0.601882
0.920943 0.130097 0.592382
0.920943 0.139597 0.592382
0.920943 0.139597 0.601882
0.911443 0.149097 0.601882
0.911443 0.158597 0.601882
0.920943 0.149097 0.592382
0.920943 0.149097 0.601882
0.920943 0.158597 0.592382
0.920943 0.158597 0.601882
0.930443 0.139597 0.592382
0.930443 0.149097 0.592382
0.930443 0.158597 0.592382
0.939943 0.149097 0.592382
0.939943 0.158597 0.592382
0.911443 0.196597 0.582882
0.920943 0.196597 0.582882
0.939943 0.168097 0.582882
0.939943 0.177597 0.582882
0.930443 0.196597 0.582882
0.939943 0.187097 0.582882
0.939943 0.196597 0.582882
0.911443 0.234597 0.544882
0.911443 0.206097 0.582882
0.911443 0.215597 0.573382
0.920943 0.206097 0.582882
0.920943 0.215597 0.573382
0.911443 0.225097 0.563882
0.911443 0.234597 0.554382
0.920943 0.225097 0.563882
0.920943 0.234597 0.554382
0.930443 0.206097 0.582882
0.930443 0.215597 0.573382
0.939943 0.206097 0.573382
0.939943 0.206097 0.582882
0.939943 0.215597 0.573382
0.930443 0.225097 0.563882
0.930443 0.234597 0.563882
0.939943 0.225097 0.563882
0.939943 0.234597 0.554382
0.939943 0.234597 0.563882
0.977943 0.168097 0.544882
0.949443 0.168097 0.582882
0.949443 0.177597 0.582882
0.958943 0.168097 0.573382
0.958943 0.177597 0.573382
0.949443 0.187097 0.582882
0.949443 0.196597 0.573382
0.949443 0.196597 0.582882
0.958943 0.187097 0.573382
0.958943 0.196597 0.573382
0.968443 0.168097 0.563882
0.968443 0.177597 0.563882
0.977943 0.168097 0.554382
0.977943 0.177597 0.554382
0.968443 0.187097 0.563882
0.968443 0.196597 0.563882
0.977943 0.187097 0.554382
0.977943 0.196597 0.554382
0.977943 0.215597 0.544882
0.977943 0.234597 0.525882
0.968443 0.225097 0.544882
0.968443 0.234597 0.535382
0.968443 0.234597 0.544882
0.977943 0.225097 0.535382
0.977943 0.225097 0.544882
0.977943 0.234597 0.535382
0.958943 0.215597 0.563882
0.949443 0.206097 0.573382
0.949443 0.215597 0.573382
0.958943 0.206097 0.573382
0.949443 0.225097 0.563882
0.949443 0.234597 0.554382
0.958943 0.225097 0.554382
0.958943 0.225097 0.563882
0.958943 0.234597 0.554382
0.968443 0.206097 0.563882
0.968443 0.215597 0.554382
0.968443 0.215597 0.563882
0.977943 0.206097 0.554382
0.977943 0.215597 0.554382
0.968443 0.225097 0.554382
0.911443 0.168097 0.601882
0.911443 0.177597 0.592382
0.920943 0.168097 0.592382
0.920943 0.177597 0.592382
0.911443 0.187097 0.592382
0.920943 0.187097 0.592382
0.930443 0.168097 0.592382
0.930443 0.177597 0.592382
0.939943 0.168097 0.592382
0.939943 0.177597 0.592382
0.930443 0.187097 0.592382
0.987443 0.158597 0.430882
0.987443 0.139597 0.440382
0.987443 0.139597 0.449882
0.987443 0.130097 0.459382
0.987443 0.130097 0.468882
0.987443 0.139597 0.459382
0.987443 0.139597 0.468882
0.987443 0.149097 0.440382
0.987443 0.149097 0.449882
0.987443 0.158597 0.440382
0.987443 0.158597 0.449882
0.987443 0.149097 0.459382
0.987443 0.149097 0.468882
0.996943 0.158597 0.459382
0.996943 0.158597 0.468882
0.987443 0.130097 0.478382
0.987443 0.130097 0.487882
0.987443 0.139597 0.478382
0.987443 0.139597 0.487882
0.987443 0.130097 0.497382
0.987443 0.130097 0.506882
0.987443 0.139597 0.497382
0.987443 0.139597 0.506882
0.987443 0.149097 0.478382
0.987443 0.149097 0.487882
0.996943 0.158597 0.478382
0.996943 0.158597 0.487882
0.987443 0.149097 0.497382
0.987443 0.149097 0.506882
0.996943 0.158597 0.497382
0.996943 0.158597 0.506882
0.987443 0.168097 0.421382
0.987443 0.168097 0.430882
0.987443 0.177597 0.421382
0.987443 0.177597 0.430882
0.987443 0.187097 0.421382
0.987443 0.187097 0.430882
0.987443 0.196597 0.421382
0.987443 0.196597 0.430882
0.987443 0.206097 0.421382
0.987443 0.206097 0.430882
0.987443 0.215597 0.421382
0.987443 0.215597 0.430882
0.987443 0.225097 0.430882
0.987443 0.168097 0.440382
0.987443 0.177597 0.440382
0.996943 0.168097 0.449882
0.996943 0.177597 0.440382
0.996943 0.177597 0.449882
0.996943 0.168097 0.459382
0.996943 0.168097 0.468882
0.996943 0.177597 0.459382
0.996943 0.177597 0.468882
0.987443 0.196597 0.440382
0.996943 0.187097 0.440382
0.996943 0.187097 0.449882
0.996943 0.196597 0.440382
0.996943 0.196597 0.449882
0.996943 0.187097 0.459382
0.996943 0.187097 0.468882
0.996943 0.196597 0.459382
0.996943 0.196597 0.468882
0.996943 0.168097 0.478382
0.996943 0.168097 0.487882
0.996943 0.177597 0.478382
0.996943 0.177597 0.487882
0.996943 0.168097 0.497382
0.996943 0.168097 0.506882
0.996943 0.177597 0.497382
0.996943 0.177597 0.506882
0.996943 0.187097 0.478382
0.996943 0.187097 0.487882
0.996943 0.196597 0.478382
0.996943 0.196597 0.487882
0.996943 0.187097 0.497382
0.996943 0.187097 0.506882
0.996943 0.196597 0.497382
0.996943 0.196597 0.506882
0.987443 0.206097 0.440382
0.987443 0.215597 0.440382
0.987443 0.215597 0.449882
0.996943 0.206097 0.449882
0.996943 0.206097 0.459382
0.996943 0.206097 0.468882
0.996943 0.215597 0.459382
0.996943 0.215597 0.468882
0.987443 0.225097 0.440382
0.987443 0.225097 0.449882
0.987443 0.234597 0.440382
0.987443 0.234597 0.449882
0.987443 0.234597 0.459382
0.987443 0.234597 0.468882
0.996943 0.225097 0.459382
0.996943 0.225097 0.468882
0.996943 0.206097 0.478382
0.996943 0.206097 0.487882
0.996943 0.215597 0.478382
0.996943 0.215597 0.487882
0.996943 0.206097 0.497382
0.996943 0.206097 0.506882
0.996943 0.215597 0.497382
0.996943 0.215597 0.506882
0.987443 0.234597 0.478382
0.996943 0.225097 0.478382
0.996943 0.225097 0.487882
0.996943 0.234597 0.478382
0.996943 0.234597 0.487882
0.987443 0.234597 0.497382
0.987443 0.234597 0.506882
0.996943 0.225097 0.497382
0.996943 0.225097 0.506882
0.996943 0.234597 0.497382
0.987443 0.130097 0.516382
0.987443 0.139597 0.516382
0.987443 0.139597 0.525882
0.987443 0.149097 0.516382
0.987443 0.149097 0.525882
0.987443 0.158597 0.516382
0.987443 0.158597 0.525882
0.987443 0.149097 0.535382
0.987443 0.158597 0.535382
0.987443 0.168097 0.516382
0.987443 0.168097 0.525882
0.987443 0.177597 0.525882
0.996943 0.168097 0.516382
0.996943 0.177597 0.516382
0.987443 0.168097 0.535382
0.987443 0.168097 0.544882
0.987443 0.177597 0.535382
0.987443 0.177597 0.544882
0.987443 0.187097 0.525882
0.987443 0.196597 0.525882
0.996943 0.187097 0.516382
0.996943 0.196597 0.516382
0.987443 0.187097 0.535382
0.987443 0.187097 0.544882
0.987443 0.196597 0.535382
0.987443 0.196597 0.544882
0.987443 0.206097 0.525882
0.987443 0.215597 0.525882
0.996943 0.206097 0.516382
0.996943 0.215597 0.516382
0.987443 0.206097 0.535382
0.987443 0.206097 0.544882
0.987443 0.215597 0.535382
0.987443 0.225097 0.516382
0.987443 0.225097 0.525882
0.987443 0.234597 0.516382
0.987443 0.234597 0.525882
0.987443 0.225097 0.535382
0.683443 0.244097 0.193382
0.683443 0.253597 0.193382
0.692943 0.244097 0.193382
0.692943 0.253597 0.193382
0.683443 0.263097 0.193382
0.683443 0.272597 0.193382
0.683443 0.272597 0.202882
0.692943 0.263097 0.202882
0.692943 0.272597 0.202882
0.702443 0.244097 0.193382
0.702443 0.244097 0.202882
0.702443 0.253597 0.202882
0.711943 0.244097 0.202882
0.711943 0.253597 0.202882
0.702443 0.263097 0.202882
0.702443 0.272597 0.202882
0.711943 0.263097 0.202882
0.683443 0.282097 0.193382
0.683443 0.282097 0.202882
0.683443 0.291597 0.193382
0.692943 0.282097 0.202882
0.692943 0.291597 0.202882
0.683443 0.301097 0.193382
0.683443 0.310597 0.193382
0.692943 0.301097 0.193382
0.692943 0.310597 0.202882
0.702443 0.282097 0.202882
0.702443 0.291597 0.202882
0.702443 0.301097 0.202882
0.702443 0.310597 0.202882
0.721443 0.244097 0.202882
0.683443 0.320097 0.193382
0.683443 0.320097 0.202882
0.683443 0.329597 0.193382
0.683443 0.329597 0.202882
0.692943 0.320097 0.202882
0.692943 0.329597 0.202882
0.683443 0.339097 0.193382
0.683443 0.339097 0.202882
0.683443 0.348597 0.193382
0.683443 0.348597 0.202882
0.692943 0.339097 0.202882
0.692943 0.348597 0.202882
0.702443 0.320097 0.202882
0.702443 0.329597 0.202882
0.702443 0.339097 0.202882
0.702443 0.348597 0.202882
0.683443 0.358097 0.202882
0.683443 0.367597 0.202882
0.692943 0.358097 0.202882
0.692943 0.367597 0.202882
0.683443 0.377097 0.202882
0.702443 0.358097 0.202882
0.711943 0.272597 0.212382
0.711943 0.282097 0.212382
0.711943 0.291597 0.212382
0.711943 0.301097 0.212382
0.711943 0.310597 0.212382
0.721443 0.244097 0.212382
0.721443 0.253597 0.212382
0.730943 0.244097 0.212382
0.730943 0.253597 0.212382
0.721443 0.263097 0.212382
0.721443 0.272597 0.212382
0.730943 0.263097 0.212382
0.730943 0.272597 0.221882
0.740443 0.244097 0.212382
0.740443 0.244097 0.221882
0.740443 0.253597 0.221882
0.749943 0.244097 0.221882
0.749943 0.253597 0.221882
0.740443 0.263097 0.221882
0.740443 0.272597 0.221882
0.749943 0.263097 0.221882
0.749943 0.272597 0.231382
0.721443 0.282097 0.212382
0.721443 0.291597 0.212382
0.730943 0.282097 0.221882
0.730943 0.291597 0.221882
0.721443 0.301097 0.212382
0.721443 0.310597 0.212382
0.730943 0.301097 0.221882
0.730943 0.310597 0.221882
0.740443 0.282097 0.221882
0.740443 0.291597 0.221882
0.749943 0.282097 0.231382
0.749943 0.291597 0.231382
0.740443 0.301097 0.221882
0.740443 0.310597 0.221882
0.749943 0.301097 0.231382
0.749943 0.310597 0.231382
0.711943 0.320097 0.212382
0.711943 0.329597 0.212382
0.702443 0.339097 0.212382
0.702443 0.348597 0.212382
0.711943 0.339097 0.212382
0.711943 0.348597 0.212382
0.692943 0.367597 0.212382
0.683443 0.377097 0.212382
0.683443 0.386597 0.212382
0.692943 0.377097 0.212382
0.692943 0.386597 0.212382
0.692943 0.386597 0.221882
0.702443 0.358097 0.212382
0.702443 0.367597 0.212382
0.711943 0.358097 0.212382
0.711943 0.367597 0.221882
0.702443 0.377097 0.221882
0.702443 0.386597 0.221882
0.711943 0.377097 0.221882
0.702443 0.386597 0.231382
0.711943 0.377097 0.231382
0.711943 0.386597 0.231382
0.711943 0.386597 0.240882
0.721443 0.320097 0.212382
0.721443 0.329597 0.212382
0.721443 0.329597 0.221882
0.730943 0.320097 0.221882
0.730943 0.329597 0.221882
0.721443 0.339097 0.212382
0.721443 0.348597 0.212382
0.721443 0.348597 0.221882
0.730943 0.339097 0.221882
0.730943 0.348597 0.221882
0.730943 0.348597 0.231382
0.740443 0.320097 0.221882
0.740443 0.329597 0.221882
0.740443 0.329597 0.231382
0.749943 0.320097 0.231382
0.749943 0.329597 0.231382
0.740443 0.339097 0.221882
0.740443 0.348597 0.231382
0.749943 0.339097 0.231382
0.749943 0.348597 0.240882
0.721443 0.358097 0.221882
0.721443 0.367597 0.221882
0.721443 0.367597 0.231382
0.730943 0.358097 0.231382
0.730943 0.367597 0.231382
0.721443 0.377097 0.231382
0.721443 0.386597 0.240882
0.730943 0.377097 0.231382
0.730943 0.377097 0.240882
0.730943 0.386597 0.240882
0.740443 0.358097 0.231382
0.740443 0.367597 0.231382
0.740443 0.367597 0.240882
0.749943 0.358097 0.240882
0.749943 0.367597 0.240882
0.740443 0.377097 0.240882
0.740443 0.386597 0.240882
0.740443 0.377097 0.250382
0.740443 0.386597 0.250382
0.749943 0.377097 0.250382
0.749943 0.386597 0.250382
0.759443 0.244097 0.231382
0.759443 0.253597 0.231382
0.768943 0.244097 0.240882
0.768943 0.253597 0.240882
0.759443 0.263097 0.231382
0.759443 0.272597 0.231382
0.768943 0.263097 0.231382
0.768943 0.272597 0.231382
0.778443 0.244097 0.240882
0.778443 0.253597 0.240882
0.778443 0.263097 0.240882
0.778443 0.272597 0.240882
0.787943 0.244097 0.250382
0.787943 0.253597 0.250382
0.787943 0.263097 0.250382
0.787943 0.272597 0.250382
0.759443 0.282097 0.231382
0.759443 0.291597 0.231382
0.768943 0.282097 0.240882
0.768943 0.291597 0.240882
0.759443 0.301097 0.231382
0.759443 0.310597 0.231382
0.768943 0.301097 0.240882
0.768943 0.310597 0.240882
0.778443 0.282097 0.240882
0.778443 0.291597 0.240882
0.778443 0.301097 0.240882
0.778443 0.310597 0.240882
0.778443 0.282097 0.250382
0.778443 0.291597 0.250382
0.787943 0.282097 0.250382
0.787943 0.291597 0.250382
0.778443 0.301097 0.250382
0.778443 0.310597 0.250382
0.787943 0.301097 0.250382
0.787943 0.301097 0.259882
0.787943 0.310597 0.250382
0.787943 0.310597 0.259882
0.797443 0.244097 0.259882
0.797443 0.253597 0.259882
0.806943 0.253597 0.259882
0.806943 0.244097 0.269382
0.806943 0.253597 0.269382
0.797443 0.263097 0.259882
0.797443 0.272597 0.259882
0.806943 0.263097 0.259882
0.806943 0.272597 0.259882
0.806943 0.263097 0.269382
0.816443 0.244097 0.278882
0.816443 0.253597 0.278882
0.816443 0.263097 0.278882
0.816443 0.272597 0.269382
0.816443 0.272597 0.278882
0.797443 0.282097 0.259882
0.797443 0.291597 0.259882
0.806943 0.282097 0.259882
0.806943 0.291597 0.259882
0.806943 0.291597 0.269382
0.797443 0.301097 0.259882
0.797443 0.310597 0.259882
0.797443 0.310597 0.269382
0.806943 0.301097 0.269382
0.806943 0.310597 0.269382
0.816443 0.282097 0.269382
0.816443 0.282097 0.278882
0.816443 0.291597 0.269382
0.816443 0.291597 0.278882
0.825943 0.282097 0.278882
0.825943 0.291597 0.278882
0.816443 0.301097 0.269382
0.816443 0.301097 0.278882
0.816443 0.310597 0.269382
0.825943 0.301097 0.278882
0.825943 0.310597 0.278882
0.825943 0.244097 0.288382
0.825943 0.253597 0.288382
0.825943 0.253597 0.297882
0.825943 0.263097 0.288382
0.825943 0.263097 0.297882
0.825943 0.272597 0.288382
0.825943 0.272597 0.297882
0.825943 0.282097 0.288382
0.825943 0.291597 0.288382
0.759443 0.320097 0.231382
0.759443 0.329597 0.231382
0.759443 0.329597 0.240882
0.768943 0.320097 0.240882
0.768943 0.329597 0.240882
0.759443 0.339097 0.240882
0.759443 0.348597 0.240882
0.768943 0.348597 0.240882
0.768943 0.339097 0.250382
0.768943 0.348597 0.250382
0.778443 0.320097 0.250382
0.778443 0.329597 0.250382
0.787943 0.320097 0.250382
0.787943 0.320097 0.259882
0.787943 0.329597 0.259882
0.778443 0.339097 0.250382
0.778443 0.348597 0.250382
0.787943 0.339097 0.259882
0.787943 0.348597 0.259882
0.759443 0.358097 0.240882
0.759443 0.367597 0.240882
0.768943 0.358097 0.240882
0.759443 0.367597 0.250382
0.768943 0.358097 0.250382
0.768943 0.367597 0.250382
0.759443 0.377097 0.250382
0.759443 0.386597 0.250382
0.768943 0.377097 0.250382
0.768943 0.386597 0.250382
0.768943 0.386597 0.259882
0.778443 0.358097 0.250382
0.778443 0.367597 0.250382
0.778443 0.367597 0.259882
0.787943 0.358097 0.259882
0.787943 0.367597 0.259882
0.778443 0.377097 0.250382
0.778443 0.377097 0.259882
0.778443 0.386597 0.259882
0.787943 0.377097 0.259882
0.778443 0.386597 0.269382
0.787943 0.386597 0.269382
0.797443 0.320097 0.259882
0.797443 0.329597 0.259882
0.806943 0.320097 0.269382
0.806943 0.329597 0.269382
0.797443 0.339097 0.259882
0.797443 0.348597 0.259882
0.797443 0.339097 0.269382
0.797443 0.348597 0.269382
0.806943 0.339097 0.269382
0.806943 0.348597 0.269382
0.816443 0.320097 0.269382
0.816443 0.329597 0.278882
0.825943 0.320097 0.278882
0.825943 0.329597 0.278882
0.816443 0.339097 0.269382
0.816443 0.348597 0.269382
0.816443 0.348597 0.278882
0.825943 0.339097 0.278882
0.825943 0.348597 0.278882
0.797443 0.358097 0.269382
0.797443 0.367597 0.269382
0.806943 0.358097 0.269382
0.806943 0.367597 0.269382
0.797443 0.377097 0.269382
0.797443 0.386597 0.269382
0.797443 0.386597 0.278882
0.806943 0.377097 0.278882
0.806943 0.386597 0.278882
0.816443 0.358097 0.269382
0.816443 0.358097 0.278882
0.816443 0.367597 0.278882
0.825943 0.358097 0.278882
0.825943 0.367597 0.278882
0.816443 0.377097 0.278882
0.816443 0.386597 0.278882
0.825943 0.367597 0.288382
0.816443 0.377097 0.288382
0.816443 0.386597 0.288382
0.825943 0.377097 0.288382
0.825943 0.386597 0.288382
0.825943 0.386597 0.297882
0.683443 0.396097 0.221882
0.683443 0.405597 0.231382
0.683443 0.405597 0.240882
0.692943 0.396097 0.231382
0.692943 0.396097 0.240882
0.692943 0.405597 0.231382
0.692943 0.405597 0.240882
0.683443 0.415097 0.240882
0.702443 0.396097 0.240882
0.702443 0.405597 0.240882
0.711943 0.396097 0.240882
0.683443 0.415097 0.250382
0.683443 0.424597 0.250382
0.692943 0.415097 0.250382
0.692943 0.424597 0.250382
0.711943 0.405597 0.250382
0.702443 0.415097 0.250382
0.702443 0.424597 0.250382
0.711943 0.415097 0.250382
0.711943 0.424597 0.250382
0.683443 0.434097 0.250382
0.683443 0.443597 0.259882
0.692943 0.434097 0.250382
0.692943 0.443597 0.259882
0.683443 0.453097 0.259882
0.692943 0.453097 0.259882
0.683443 0.453097 0.269382
0.683443 0.462597 0.269382
0.692943 0.453097 0.269382
0.692943 0.462597 0.269382
0.702443 0.434097 0.250382
0.702443 0.443597 0.259882
0.711943 0.434097 0.250382
0.711943 0.443597 0.259882
0.702443 0.453097 0.259882
0.711943 0.453097 0.259882
0.702443 0.453097 0.269382
0.702443 0.462597 0.269382
0.711943 0.453097 0.269382
0.711943 0.462597 0.269382
0.711943 0.462597 0.278882
0.721443 0.396097 0.240882
0.730943 0.396097 0.240882
0.721443 0.405597 0.250382
0.730943 0.396097 0.250382
0.730943 0.405597 0.250382
0.721443 0.415097 0.250382
0.721443 0.424597 0.250382
0.730943 0.415097 0.250382
0.730943 0.424597 0.250382
0.740443 0.396097 0.250382
0.740443 0.405597 0.250382
0.749943 0.396097 0.250382
0.749943 0.405597 0.259882
0.740443 0.415097 0.250382
0.740443 0.415097 0.259882
0.740443 0.424597 0.250382
0.749943 0.415097 0.259882
0.749943 0.424597 0.259882
0.721443 0.434097 0.250382
0.721443 0.443597 0.259882
0.730943 0.434097 0.250382
0.730943 0.434097 0.259882
0.730943 0.443597 0.259882
0.730943 0.443597 0.269382
0.721443 0.453097 0.259882
0.721443 0.453097 0.269382
0.721443 0.462597 0.278882
0.730943 0.453097 0.269382
0.730943 0.462597 0.278882
0.740443 0.434097 0.259882
0.749943 0.434097 0.259882
0.740443 0.443597 0.269382
0.749943 0.434097 0.269382
0.749943 0.443597 0.269382
0.740443 0.453097 0.269382
0.740443 0.462597 0.278882
0.749943 0.453097 0.278882
0.730943 0.462597 0.288382
0.740443 0.462597 0.288382
0.749943 0.462597 0.288382
0.683443 0.472097 0.269382
0.683443 0.481597 0.269382
0.683443 0.481597 0.278882
0.692943 0.472097 0.278882
0.692943 0.481597 0.278882
0.683443 0.491097 0.278882
0.683443 0.500597 0.278882
0.692943 0.491097 0.278882
0.692943 0.500597 0.278882
0.702443 0.472097 0.278882
0.702443 0.481597 0.278882
0.711943 0.472097 0.278882
0.711943 0.481597 0.278882
0.702443 0.491097 0.278882
0.683443 0.510097 0.278882
0.683443 0.519597 0.278882
0.702443 0.500597 0.288382
0.711943 0.491097 0.288382
0.711943 0.500597 0.288382
0.683443 0.519597 0.288382
0.692943 0.510097 0.288382
0.692943 0.519597 0.288382
0.683443 0.529097 0.288382
0.683443 0.538597 0.297882
0.692943 0.529097 0.297882
0.692943 0.538597 0.297882
0.702443 0.510097 0.288382
0.702443 0.519597 0.288382
0.711943 0.510097 0.288382
0.711943 0.510097 0.297882
0.711943 0.519597 0.297882
0.702443 0.529097 0.297882
0.702443 0.538597 0.297882
0.702443 0.538597 0.307382
0.711943 0.529097 0.307382
0.711943 0.538597 0.307382
0.721443 0.472097 0.288382
0.721443 0.481597 0.288382
0.730943 0.472097 0.288382
0.730943 0.481597 0.288382
0.721443 0.491097 0.288382
0.721443 0.500597 0.297882
0.730943 0.491097 0.297882
0.730943 0.500597 0.297882
0.740443 0.472097 0.288382
0.740443 0.481597 0.288382
0.740443 0.481597 0.297882
0.749943 0.472097 0.288382
0.749943 0.481597 0.297882
0.740443 0.491097 0.297882
0.740443 0.500597 0.297882
0.749943 0.491097 0.297882
0.749943 0.491097 0.307382
0.749943 0.500597 0.307382
0.721443 0.510097 0.297882
0.721443 0.519597 0.297882
0.730943 0.510097 0.297882
0.730943 0.519597 0.307382
0.721443 0.529097 0.307382
0.721443 0.538597 0.307382
0.721443 0.538597 0.316882
0.730943 0.529097 0.307382
0.730943 0.538597 0.316882
0.740443 0.510097 0.297882
0.740443 0.519597 0.307382
0.749943 0.510097 0.307382
0.749943 0.519597 0.316882
0.740443 0.529097 0.307382
0.740443 0.529097 0.316882
0.740443 0.538597 0.316882
0.749943 0.529097 0.316882
0.740443 0.538597 0.326382
0.749943 0.529097 0.326382
0.749943 0.538597 0.326382
0.749943 0.538597 0.335882
0.759443 0.396097 0.259882
0.759443 0.405597 0.259882
0.768943 0.396097 0.259882
0.768943 0.405597 0.259882
0.759443 0.415097 0.259882
0.759443 0.424597 0.259882
0.768943 0.415097 0.259882
0.759443 0.424597 0.269382
0.768943 0.424597 0.269382
0.778443 0.396097 0.269382
0.778443 0.405597 0.269382
0.787943 0.396097 0.269382
0.787943 0.405597 0.269382
0.787943 0.405597 0.278882
0.778443 0.415097 0.269382
0.778443 0.424597 0.278882
0.787943 0.415097 0.278882
0.787943 0.424597 0.278882
0.759443 0.434097 0.269382
0.759443 0.443597 0.269382
0.759443 0.443597 0.278882
0.768943 0.434097 0.269382
0.768943 0.434097 0.278882
0.768943 0.443597 0.278882
0.759443 0.453097 0.278882
0.778443 0.434097 0.278882
0.797443 0.396097 0.278882
0.797443 0.405597 0.278882
0.806943 0.396097 0.278882
0.787943 0.415097 0.288382
0.787943 0.424597 0.288382
0.759443 0.462597 0.288382
0.768943 0.453097 0.288382
0.768943 0.462597 0.288382
0.768943 0.462597 0.297882
0.778443 0.443597 0.288382
0.787943 0.434097 0.288382
0.787943 0.443597 0.288382
0.778443 0.453097 0.288382
0.778443 0.462597 0.297882
0.787943 0.453097 0.297882
0.787943 0.462597 0.297882
0.797443 0.405597 0.288382
0.806943 0.396097 0.288382
0.806943 0.405597 0.297882
0.797443 0.415097 0.288382
0.797443 0.424597 0.288382
0.806943 0.415097 0.288382
0.806943 0.415097 0.297882
0.806943 0.424597 0.297882
0.816443 0.396097 0.288382
0.816443 0.396097 0.297882
0.816443 0.405597 0.297882
0.825943 0.396097 0.297882
0.816443 0.405597 0.307382
0.825943 0.396097 0.307382
0.825943 0.405597 0.307382
0.816443 0.415097 0.297882
0.816443 0.424597 0.307382
0.825943 0.415097 0.307382
0.825943 0.424597 0.307382
0.825943 0.424597 0.316882
0.797443 0.434097 0.288382
0.797443 0.434097 0.297882
0.797443 0.443597 0.297882
0.806943 0.434097 0.297882
0.806943 0.434097 0.307382
0.806943 0.443597 0.307382
0.797443 0.453097 0.297882
0.797443 0.462597 0.307382
0.806943 0.453097 0.307382
0.806943 0.462597 0.307382
0.806943 0.462597 0.316882
0.816443 0.434097 0.307382
0.816443 0.443597 0.307382
0.825943 0.434097 0.316882
0.825943 0.443597 0.316882
0.816443 0.453097 0.307382
0.816443 0.453097 0.316882
0.816443 0.462597 0.316882
0.825943 0.453097 0.316882
0.816443 0.462597 0.326382
0.825943 0.453097 0.326382
0.825943 0.462597 0.326382
0.759443 0.472097 0.288382
0.759443 0.472097 0.297882
0.759443 0.481597 0.297882
0.768943 0.472097 0.297882
0.759443 0.481597 0.307382
0.768943 0.481597 0.307382
0.759443 0.491097 0.307382
0.759443 0.500597 0.307382
0.759443 0.500597 0.316882
0.768943 0.491097 0.307382
0.768943 0.500597 0.316882
0.778443 0.472097 0.297882
0.778443 0.481597 0.307382
0.787943 0.472097 0.307382
0.787943 0.481597 0.307382
0.787943 0.481597 0.316882
0.778443 0.491097 0.307382
0.778443 0.491097 0.316882
0.778443 0.500597 0.316882
0.787943 0.491097 0.316882
0.778443 0.500597 0.326382
0.787943 0.500597 0.326382
0.759443 0.510097 0.316882
0.759443 0.519597 0.316882
0.768943 0.510097 0.316882
0.768943 0.510097 0.326382
0.768943 0.519597 0.326382
0.759443 0.529097 0.326382
0.759443 0.538597 0.335882
0.768943 0.529097 0.335882
0.768943 0.538597 0.335882
0.768943 0.529097 0.345382
0.768943 0.538597 0.345382
0.778443 0.510097 0.326382
0.778443 0.510097 0.335882
0.778443 0.519597 0.335882
0.787943 0.510097 0.326382
0.787943 0.510097 0.335882
0.778443 0.519597 0.345382
0.787943 0.519597 0.345382
0.778443 0.529097 0.345382
0.778443 0.529097 0.354882
0.778443 0.538597 0.354882
0.787943 0.529097 0.345382
0.787943 0.529097 0.354882
0.797443 0.472097 0.316882
0.797443 0.481597 0.316882
0.806943 0.472097 0.316882
0.797443 0.491097 0.316882
0.806943 0.472097 0.326382
0.806943 0.481597 0.326382
0.797443 0.491097 0.326382
0.797443 0.500597 0.326382
0.797443 0.500597 0.335882
0.806943 0.491097 0.335882
0.806943 0.500597 0.335882
0.806943 0.500597 0.345382
0.816443 0.472097 0.326382
0.816443 0.481597 0.335882
0.825943 0.472097 0.335882
0.816443 0.481597 0.345382
0.825943 0.481597 0.345382
0.825943 0.481597 0.354882
0.816443 0.491097 0.335882
0.816443 0.491097 0.345382
0.816443 0.500597 0.345382
0.816443 0.500597 0.354882
0.825943 0.491097 0.354882
0.797443 0.510097 0.335882
0.797443 0.519597 0.345382
0.797443 0.519597 0.354882
0.806943 0.510097 0.345382
0.806943 0.510097 0.354882
0.806943 0.519597 0.354882
0.816443 0.510097 0.354882
0.835443 0.244097 0.297882
0.835443 0.253597 0.297882
0.835443 0.253597 0.307382
0.844943 0.244097 0.307382
0.844943 0.244097 0.316882
0.844943 0.253597 0.316882
0.835443 0.263097 0.297882
0.835443 0.272597 0.297882
0.835443 0.263097 0.307382
0.835443 0.272597 0.307382
0.844943 0.263097 0.316882
0.844943 0.272597 0.316882
0.854443 0.244097 0.326382
0.854443 0.253597 0.326382
0.863943 0.244097 0.326382
0.863943 0.244097 0.335882
0.863943 0.253597 0.326382
0.863943 0.253597 0.335882
0.854443 0.263097 0.326382
0.854443 0.272597 0.326382
0.863943 0.263097 0.335882
0.863943 0.272597 0.335882
0.863943 0.263097 0.345382
0.863943 0.272597 0.345382
0.835443 0.282097 0.297882
0.835443 0.291597 0.297882
0.835443 0.282097 0.307382
0.844943 0.282097 0.307382
0.844943 0.282097 0.316882
0.844943 0.291597 0.307382
0.844943 0.291597 0.316882
0.835443 0.301097 0.288382
0.835443 0.301097 0.297882
0.835443 0.310597 0.288382
0.844943 0.310597 0.297882
0.844943 0.301097 0.307382
0.854443 0.301097 0.307382
0.854443 0.301097 0.316882
0.854443 0.310597 0.307382
0.863943 0.310597 0.316882
0.854443 0.282097 0.326382
0.854443 0.291597 0.326382
0.863943 0.282097 0.335882
0.863943 0.291597 0.326382
0.863943 0.291597 0.335882
0.863943 0.282097 0.345382
0.863943 0.291597 0.345382
0.863943 0.301097 0.326382
0.863943 0.301097 0.335882
0.863943 0.310597 0.326382
0.873443 0.244097 0.345382
0.873443 0.244097 0.354882
0.873443 0.253597 0.345382
0.873443 0.253597 0.354882
0.873443 0.263097 0.345382
0.873443 0.263097 0.354882
0.873443 0.272597 0.345382
0.873443 0.272597 0.354882
0.873443 0.282097 0.345382
0.873443 0.282097 0.354882
0.873443 0.291597 0.345382
0.873443 0.291597 0.354882
0.873443 0.310597 0.335882
0.873443 0.301097 0.345382
0.873443 0.301097 0.354882
0.873443 0.310597 0.345382
0.882943 0.310597 0.354882
0.835443 0.320097 0.278882
0.835443 0.329597 0.278882
0.835443 0.329597 0.288382
0.844943 0.320097 0.288382
0.844943 0.320097 0.297882
0.844943 0.329597 0.288382
0.844943 0.329597 0.297882
0.835443 0.339097 0.288382
0.835443 0.348597 0.288382
0.844943 0.339097 0.288382
0.844943 0.339097 0.297882
0.844943 0.348597 0.288382
0.844943 0.348597 0.297882
0.854443 0.320097 0.297882
0.854443 0.329597 0.297882
0.854443 0.320097 0.307382
0.854443 0.329597 0.307382
0.863943 0.320097 0.316882
0.863943 0.329597 0.316882
0.854443 0.339097 0.297882
0.854443 0.339097 0.307382
0.854443 0.348597 0.307382
0.863943 0.339097 0.316882
0.863943 0.348597 0.316882
0.863943 0.320097 0.326382
0.863943 0.329597 0.326382
0.863943 0.339097 0.326382
0.863943 0.348597 0.326382
0.835443 0.358097 0.288382
0.835443 0.367597 0.288382
0.835443 0.367597 0.297882
0.844943 0.358097 0.297882
0.844943 0.367597 0.297882
0.844943 0.358097 0.307382
0.844943 0.367597 0.307382
0.835443 0.377097 0.288382
0.835443 0.377097 0.297882
0.835443 0.386597 0.307382
0.835443 0.386597 0.316882
0.844943 0.377097 0.307382
0.844943 0.377097 0.316882
0.844943 0.386597 0.316882
0.854443 0.358097 0.307382
0.854443 0.358097 0.316882
0.854443 0.367597 0.316882
0.854443 0.377097 0.316882
0.844943 0.386597 0.326382
0.863943 0.358097 0.326382
0.863943 0.367597 0.326382
0.854443 0.377097 0.326382
0.854443 0.386597 0.326382
0.863943 0.377097 0.326382
0.863943 0.377097 0.335882
0.863943 0.386597 0.335882
0.863943 0.386597 0.345382
0.873443 0.320097 0.335882
0.873443 0.329597 0.326382
0.873443 0.329597 0.335882
0.873443 0.320097 0.345382
0.873443 0.329597 0.345382
0.882943 0.320097 0.354882
0.882943 0.329597 0.354882
0.873443 0.339097 0.326382
0.873443 0.339097 0.335882
0.873443 0.348597 0.326382
0.873443 0.348597 0.335882
0.873443 0.339097 0.345382
0.873443 0.348597 0.345382
0.882943 0.339097 0.345382
0.882943 0.339097 0.354882
0.882943 0.348597 0.345382
0.882943 0.348597 0.354882
0.873443 0.358097 0.335882
0.873443 0.367597 0.335882
0.873443 0.358097 0.345382
0.873443 0.367597 0.345382
0.882943 0.358097 0.345382
0.882943 0.358097 0.354882
0.882943 0.367597 0.345382
0.882943 0.367597 0.354882
0.873443 0.377097 0.335882
0.873443 0.377097 0.345382
0.873443 0.386597 0.345382
0.873443 0.386597 0.354882
0.882943 0.377097 0.354882
0.835443 0.396097 0.307382
0.835443 0.396097 0.316882
0.835443 0.405597 0.316882
0.835443 0.415097 0.316882
0.835443 0.424597 0.316882
0.844943 0.396097 0.326382
0.844943 0.405597 0.326382
0.835443 0.424597 0.326382
0.844943 0.415097 0.326382
0.844943 0.415097 0.335882
0.844943 0.424597 0.326382
0.844943 0.424597 0.335882
0.854443 0.396097 0.335882
0.854443 0.405597 0.335882
0.863943 0.396097 0.345382
0.863943 0.396097 0.354882
0.863943 0.405597 0.345382
0.863943 0.405597 0.354882
0.854443 0.415097 0.345382
0.854443 0.424597 0.345382
0.863943 0.415097 0.354882
0.863943 0.424597 0.354882
0.835443 0.434097 0.316882
0.835443 0.434097 0.326382
0.835443 0.443597 0.326382
0.844943 0.434097 0.335882
0.844943 0.443597 0.335882
0.844943 0.443597 0.345382
0.835443 0.453097 0.335882
0.835443 0.462597 0.326382
0.835443 0.462597 0.335882
0.844943 0.453097 0.335882
0.835443 0.462597 0.345382
0.844943 0.453097 0.345382
0.844943 0.453097 0.354882
0.844943 0.462597 0.345382
0.844943 0.462597 0.354882
0.854443 0.434097 0.345382
0.854443 0.434097 0.354882
0.854443 0.443597 0.345382
0.854443 0.443597 0.354882
0.873443 0.396097 0.354882
0.835443 0.472097 0.345382
0.835443 0.472097 0.354882
0.835443 0.481597 0.354882
0.806943 0.244097 0.658882
0.806943 0.253597 0.658882
0.816443 0.244097 0.658882
0.816443 0.253597 0.658882
0.825943 0.244097 0.649382
0.825943 0.253597 0.649382
0.816443 0.263097 0.658882
0.816443 0.272597 0.658882
0.825943 0.263097 0.649382
0.825943 0.272597 0.649382
0.825943 0.272597 0.658882
0.825943 0.282097 0.658882
0.825943 0.291597 0.658882
0.825943 0.301097 0.658882
0.825943 0.310597 0.658882
0.825943 0.320097 0.658882
0.825943 0.329597 0.658882
0.825943 0.339097 0.658882
0.825943 0.348597 0.658882
0.825943 0.358097 0.658882
0.825943 0.367597 0.658882
0.816443 0.386597 0.658882
0.825943 0.377097 0.658882
0.825943 0.386597 0.649382
0.825943 0.386597 0.658882
0.787943 0.538597 0.364382
0.787943 0.538597 0.373882
0.825943 0.491097 0.364382
0.825943 0.500597 0.364382
0.825943 0.500597 0.373882
0.806943 0.519597 0.364382
0.797443 0.529097 0.364382
0.797443 0.538597 0.373882
0.806943 0.529097 0.373882
0.806943 0.538597 0.373882
0.797443 0.538597 0.383382
0.806943 0.529097 0.383382
0.806943 0.538597 0.383382
0.806943 0.538597 0.392882
0.816443 0.510097 0.364382
0.816443 0.510097 0.373882
0.816443 0.519597 0.364382
0.816443 0.519597 0.373882
0.825943 0.510097 0.373882
0.816443 0.519597 0.383382
0.825943 0.510097 0.383382
0.825943 0.510097 0.392882
0.825943 0.519597 0.383382
0.825943 0.519597 0.392882
0.816443 0.529097 0.383382
0.816443 0.529097 0.392882
0.806943 0.538597 0.402382
0.825943 0.519597 0.402382
0.825943 0.519597 0.411882
0.825943 0.519597 0.421382
0.816443 0.529097 0.402382
0.816443 0.538597 0.402382
0.816443 0.538597 0.411882
0.825943 0.529097 0.402382
0.825943 0.529097 0.411882
0.816443 0.538597 0.421382
0.816443 0.538597 0.430882
0.825943 0.529097 0.421382
0.825943 0.529097 0.430882
0.816443 0.538597 0.440382
0.816443 0.538597 0.449882
0.825943 0.529097 0.440382
0.825943 0.529097 0.449882
0.825943 0.538597 0.440382
0.825943 0.538597 0.449882
0.816443 0.538597 0.459382
0.825943 0.529097 0.459382
0.825943 0.529097 0.468882
0.825943 0.538597 0.459382
0.825943 0.538597 0.468882
0.816443 0.538597 0.478382
0.816443 0.538597 0.487882
0.825943 0.529097 0.478382
0.825943 0.529097 0.487882
0.825943 0.538597 0.487882
0.816443 0.538597 0.497382
0.816443 0.538597 0.506882
0.825943 0.529097 0.497382
0.825943 0.529097 0.506882
0.825943 0.538597 0.506882
0.683443 0.481597 0.658882
0.692943 0.481597 0.658882
0.683443 0.491097 0.649382
0.683443 0.500597 0.649382
0.692943 0.491097 0.649382
0.692943 0.491097 0.658882
0.692943 0.500597 0.649382
0.702443 0.481597 0.658882
0.711943 0.481597 0.658882
0.702443 0.491097 0.658882
0.702443 0.500597 0.649382
0.711943 0.491097 0.649382
0.711943 0.500597 0.649382
0.683443 0.519597 0.639882
0.692943 0.519597 0.639882
0.683443 0.510097 0.649382
0.692943 0.510097 0.649382
0.683443 0.529097 0.639882
0.683443 0.538597 0.630382
0.683443 0.538597 0.639882
0.692943 0.529097 0.639882
0.692943 0.538597 0.630382
0.702443 0.519597 0.639882
0.711943 0.510097 0.639882
0.711943 0.519597 0.639882
0.702443 0.510097 0.649382
0.711943 0.510097 0.649382
0.702443 0.529097 0.639882
0.702443 0.538597 0.630382
0.711943 0.529097 0.630382
0.711943 0.529097 0.639882
0.711943 0.538597 0.630382
0.721443 0.481597 0.658882
0.730943 0.472097 0.658882
0.730943 0.481597 0.649382
0.730943 0.481597 0.658882
0.730943 0.500597 0.639882
0.721443 0.491097 0.649382
0.721443 0.500597 0.649382
0.730943 0.491097 0.649382
0.740443 0.472097 0.658882
0.740443 0.481597 0.649382
0.749943 0.472097 0.649382
0.749943 0.472097 0.658882
0.749943 0.481597 0.649382
0.740443 0.500597 0.639882
0.749943 0.491097 0.639882
0.749943 0.500597 0.639882
0.740443 0.491097 0.649382
0.740443 0.538597 0.620882
0.749943 0.529097 0.620882
0.749943 0.538597 0.620882
0.721443 0.510097 0.639882
0.721443 0.519597 0.639882
0.730943 0.510097 0.639882
0.730943 0.519597 0.630382
0.730943 0.519597 0.639882
0.721443 0.529097 0.630382
0.721443 0.538597 0.630382
0.730943 0.529097 0.630382
0.730943 0.538597 0.630382
0.740443 0.510097 0.639882
0.740443 0.519597 0.630382
0.749943 0.510097 0.630382
0.749943 0.519597 0.630382
0.740443 0.529097 0.630382
0.787943 0.424597 0.658882
0.759443 0.462597 0.649382
0.759443 0.462597 0.658882
0.768943 0.453097 0.658882
0.768943 0.462597 0.649382
0.778443 0.434097 0.658882
0.778443 0.443597 0.658882
0.787943 0.434097 0.658882
0.787943 0.443597 0.649382
0.787943 0.443597 0.658882
0.787943 0.462597 0.639882
0.778443 0.453097 0.649382
0.778443 0.462597 0.649382
0.787943 0.453097 0.649382
0.806943 0.405597 0.658882
0.797443 0.415097 0.658882
0.797443 0.424597 0.658882
0.806943 0.415097 0.649382
0.806943 0.415097 0.658882
0.806943 0.424597 0.649382
0.825943 0.405597 0.639882
0.816443 0.396097 0.658882
0.816443 0.405597 0.649382
0.816443 0.405597 0.658882
0.825943 0.396097 0.649382
0.825943 0.405597 0.649382
0.816443 0.415097 0.639882
0.816443 0.424597 0.639882
0.825943 0.415097 0.639882
0.825943 0.424597 0.630382
0.816443 0.415097 0.649382
0.806943 0.462597 0.620882
0.825943 0.434097 0.620882
0.825943 0.443597 0.620882
0.825943 0.462597 0.601882
0.816443 0.453097 0.620882
0.816443 0.462597 0.611382
0.816443 0.462597 0.620882
0.825943 0.453097 0.611382
0.825943 0.453097 0.620882
0.825943 0.462597 0.611382
0.797443 0.443597 0.639882
0.806943 0.434097 0.639882
0.806943 0.443597 0.630382
0.806943 0.443597 0.639882
0.797443 0.434097 0.649382
0.797443 0.434097 0.658882
0.797443 0.443597 0.649382
0.806943 0.434097 0.649382
0.797443 0.453097 0.639882
0.797443 0.462597 0.630382
0.797443 0.462597 0.639882
0.806943 0.453097 0.630382
0.806943 0.462597 0.630382
0.816443 0.434097 0.630382
0.816443 0.434097 0.639882
0.816443 0.443597 0.630382
0.825943 0.434097 0.630382
0.816443 0.453097 0.630382
0.787943 0.538597 0.582882
0.825943 0.491097 0.582882
0.825943 0.500597 0.573382
0.825943 0.500597 0.582882
0.806943 0.538597 0.544882
0.825943 0.519597 0.535382
0.825943 0.519597 0.544882
0.816443 0.538597 0.516382
0.816443 0.538597 0.525882
0.825943 0.529097 0.516382
0.825943 0.529097 0.525882
0.816443 0.529097 0.544882
0.816443 0.538597 0.535382
0.816443 0.538597 0.544882
0.825943 0.529097 0.535382
0.825943 0.529097 0.544882
0.806943 0.519597 0.582882
0.797443 0.538597 0.563882
0.806943 0.538597 0.554382
0.806943 0.538597 0.563882
0.797443 0.529097 0.582882
0.797443 0.538597 0.573382
0.797443 0.538597 0.582882
0.806943 0.529097 0.573382
0.806943 0.529097 0.582882
0.806943 0.538597 0.573382
0.816443 0.519597 0.563882
0.825943 0.510097 0.563882
0.825943 0.519597 0.554382
0.816443 0.510097 0.582882
0.816443 0.519597 0.573382
0.816443 0.519597 0.582882
0.825943 0.510097 0.573382
0.816443 0.529097 0.554382
0.816443 0.529097 0.563882
0.816443 0.538597 0.554382
0.816443 0.529097 0.573382
0.778443 0.500597 0.620882
0.787943 0.500597 0.620882
0.759443 0.472097 0.649382
0.759443 0.481597 0.649382
0.768943 0.472097 0.649382
0.768943 0.481597 0.649382
0.759443 0.491097 0.639882
0.759443 0.500597 0.630382
0.759443 0.500597 0.639882
0.768943 0.491097 0.639882
0.768943 0.500597 0.630382
0.778443 0.472097 0.639882
0.778443 0.481597 0.639882
0.787943 0.472097 0.639882
0.787943 0.481597 0.639882
0.778443 0.491097 0.630382
0.778443 0.491097 0.639882
0.778443 0.500597 0.630382
0.787943 0.491097 0.630382
0.759443 0.519597 0.620882
0.768943 0.510097 0.620882
0.768943 0.519597 0.620882
0.768943 0.538597 0.601882
0.759443 0.529097 0.620882
0.759443 0.538597 0.611382
0.768943 0.529097 0.611382
0.787943 0.519597 0.601882
0.778443 0.510097 0.620882
0.778443 0.519597 0.611382
0.787943 0.510097 0.611382
0.787943 0.519597 0.611382
0.778443 0.529097 0.601882
0.778443 0.538597 0.592382
0.778443 0.538597 0.601882
0.787943 0.529097 0.601882
0.787943 0.538597 0.592382
0.778443 0.529097 0.611382
0.759443 0.510097 0.630382
0.806943 0.472097 0.620882
0.806943 0.481597 0.620882
0.806943 0.491097 0.601882
0.806943 0.500597 0.601882
0.797443 0.491097 0.620882
0.797443 0.500597 0.611382
0.806943 0.491097 0.611382
0.806943 0.491097 0.620882
0.816443 0.481597 0.601882
0.825943 0.472097 0.601882
0.825943 0.481597 0.592382
0.825943 0.481597 0.601882
0.816443 0.472097 0.611382
0.816443 0.472097 0.620882
0.816443 0.481597 0.611382
0.825943 0.472097 0.611382
0.816443 0.491097 0.592382
0.816443 0.491097 0.601882
0.816443 0.500597 0.592382
0.825943 0.491097 0.592382
0.797443 0.472097 0.630382
0.797443 0.481597 0.630382
0.806943 0.472097 0.630382
0.797443 0.491097 0.630382
0.797443 0.510097 0.601882
0.797443 0.519597 0.592382
0.797443 0.519597 0.601882
0.806943 0.510097 0.592382
0.806943 0.510097 0.601882
0.806943 0.519597 0.592382
0.797443 0.510097 0.611382
0.797443 0.529097 0.592382
0.882943 0.244097 0.364382
0.882943 0.244097 0.373882
0.882943 0.253597 0.364382
0.882943 0.253597 0.373882
0.882943 0.244097 0.383382
0.882943 0.253597 0.383382
0.882943 0.263097 0.364382
0.882943 0.263097 0.373882
0.882943 0.272597 0.364382
0.882943 0.272597 0.373882
0.882943 0.263097 0.383382
0.892443 0.244097 0.392882
0.892443 0.253597 0.392882
0.892443 0.263097 0.383382
0.892443 0.263097 0.392882
0.892443 0.272597 0.383382
0.892443 0.272597 0.392882
0.892443 0.244097 0.402382
0.892443 0.253597 0.402382
0.901943 0.244097 0.411882
0.901943 0.253597 0.411882
0.901943 0.244097 0.421382
0.901943 0.253597 0.421382
0.892443 0.263097 0.402382
0.892443 0.272597 0.402382
0.901943 0.263097 0.411882
0.901943 0.272597 0.402382
0.901943 0.272597 0.411882
0.901943 0.263097 0.421382
0.901943 0.272597 0.421382
0.901943 0.272597 0.430882
0.882943 0.282097 0.364382
0.882943 0.282097 0.373882
0.882943 0.291597 0.364382
0.882943 0.291597 0.373882
0.882943 0.301097 0.364382
0.882943 0.301097 0.373882
0.882943 0.310597 0.364382
0.882943 0.310597 0.373882
0.892443 0.282097 0.383382
0.892443 0.282097 0.392882
0.892443 0.291597 0.383382
0.892443 0.291597 0.392882
0.892443 0.301097 0.383382
0.892443 0.301097 0.392882
0.892443 0.310597 0.383382
0.892443 0.310597 0.392882
0.892443 0.282097 0.402382
0.901943 0.282097 0.402382
0.901943 0.282097 0.411882
0.901943 0.291597 0.402382
0.901943 0.291597 0.411882
0.901943 0.282097 0.421382
0.901943 0.282097 0.430882
0.901943 0.291597 0.421382
0.901943 0.291597 0.430882
0.892443 0.310597 0.402382
0.901943 0.301097 0.402382
0.901943 0.301097 0.411882
0.901943 0.310597 0.402382
0.901943 0.310597 0.411882
0.901943 0.301097 0.421382
0.901943 0.301097 0.430882
0.901943 0.310597 0.421382
0.901943 0.310597 0.430882
0.901943 0.272597 0.440382
0.901943 0.272597 0.506882
0.901943 0.282097 0.440382
0.901943 0.282097 0.449882
0.901943 0.291597 0.440382
0.901943 0.291597 0.449882
0.901943 0.282097 0.459382
0.901943 0.291597 0.459382
0.901943 0.301097 0.440382
0.901943 0.301097 0.449882
0.901943 0.310597 0.440382
0.901943 0.310597 0.449882
0.901943 0.301097 0.459382
0.901943 0.301097 0.468882
0.901943 0.310597 0.459382
0.901943 0.310597 0.468882
0.901943 0.282097 0.487882
0.901943 0.291597 0.478382
0.901943 0.291597 0.487882
0.901943 0.282097 0.497382
0.901943 0.282097 0.506882
0.901943 0.291597 0.497382
0.901943 0.291597 0.506882
0.901943 0.301097 0.478382
0.901943 0.301097 0.487882
0.901943 0.310597 0.478382
0.901943 0.310597 0.487882
0.901943 0.301097 0.497382
0.901943 0.301097 0.506882
0.901943 0.310597 0.497382
0.901943 0.310597 0.506882
0.882943 0.320097 0.364382
0.882943 0.320097 0.373882
0.882943 0.329597 0.364382
0.882943 0.339097 0.364382
0.882943 0.348597 0.364382
0.892443 0.329597 0.373882
0.892443 0.320097 0.383382
0.892443 0.320097 0.392882
0.892443 0.329597 0.383382
0.892443 0.329597 0.392882
0.892443 0.339097 0.373882
0.892443 0.348597 0.373882
0.892443 0.339097 0.383382
0.892443 0.339097 0.392882
0.892443 0.348597 0.383382
0.892443 0.348597 0.392882
0.892443 0.320097 0.402382
0.892443 0.329597 0.402382
0.892443 0.329597 0.411882
0.901943 0.320097 0.411882
0.901943 0.320097 0.421382
0.901943 0.320097 0.430882
0.901943 0.329597 0.421382
0.901943 0.329597 0.430882
0.892443 0.339097 0.402382
0.901943 0.339097 0.411882
0.901943 0.348597 0.402382
0.901943 0.348597 0.411882
0.901943 0.339097 0.421382
0.901943 0.339097 0.430882
0.901943 0.348597 0.421382
0.901943 0.348597 0.430882
0.882943 0.358097 0.364382
0.882943 0.367597 0.364382
0.882943 0.367597 0.373882
0.873443 0.386597 0.364382
0.882943 0.377097 0.364382
0.882943 0.377097 0.373882
0.882943 0.386597 0.364382
0.882943 0.386597 0.373882
0.882943 0.377097 0.383382
0.882943 0.386597 0.383382
0.892443 0.358097 0.373882
0.892443 0.358097 0.383382
0.892443 0.358097 0.392882
0.892443 0.367597 0.383382
0.892443 0.367597 0.392882
0.892443 0.377097 0.383382
0.892443 0.377097 0.392882
0.892443 0.386597 0.392882
0.892443 0.358097 0.402382
0.892443 0.367597 0.402382
0.901943 0.358097 0.402382
0.901943 0.358097 0.411882
0.901943 0.367597 0.411882
0.901943 0.358097 0.421382
0.901943 0.358097 0.430882
0.901943 0.367597 0.421382
0.901943 0.367597 0.430882
0.892443 0.377097 0.402382
0.892443 0.377097 0.411882
0.892443 0.386597 0.402382
0.892443 0.386597 0.411882
0.892443 0.386597 0.421382
0.901943 0.377097 0.421382
0.901943 0.377097 0.430882
0.901943 0.386597 0.430882
0.901943 0.320097 0.440382
0.901943 0.320097 0.449882
0.901943 0.329597 0.440382
0.901943 0.329597 0.449882
0.901943 0.320097 0.459382
0.901943 0.320097 0.468882
0.901943 0.329597 0.459382
0.901943 0.329597 0.468882
0.901943 0.339097 0.440382
0.901943 0.339097 0.449882
0.901943 0.348597 0.440382
0.901943 0.348597 0.449882
0.901943 0.339097 0.459382
0.901943 0.339097 0.468882
0.901943 0.348597 0.459382
0.901943 0.348597 0.468882
0.901943 0.320097 0.478382
0.901943 0.320097 0.487882
0.901943 0.329597 0.478382
0.901943 0.329597 0.487882
0.901943 0.320097 0.497382
0.901943 0.320097 0.506882
0.901943 0.329597 0.497382
0.901943 0.329597 0.506882
0.901943 0.339097 0.478382
0.901943 0.339097 0.487882
0.901943 0.348597 0.478382
0.901943 0.348597 0.487882
0.901943 0.339097 0.497382
0.901943 0.339097 0.506882
0.901943 0.348597 0.497382
0.901943 0.348597 0.506882
0.901943 0.358097 0.440382
0.901943 0.358097 0.449882
0.901943 0.367597 0.440382
0.901943 0.367597 0.449882
0.901943 0.358097 0.459382
0.901943 0.358097 0.468882
0.901943 0.367597 0.459382
0.901943 0.367597 0.468882
0.901943 0.377097 0.440382
0.901943 0.377097 0.449882
0.901943 0.386597 0.440382
0.901943 0.386597 0.449882
0.901943 0.377097 0.459382
0.901943 0.377097 0.468882
0.901943 0.386597 0.459382
0.901943 0.386597 0.468882
0.901943 0.358097 0.478382
0.901943 0.358097 0.487882
0.901943 0.367597 0.478382
0.901943 0.367597 0.487882
0.901943 0.358097 0.497382
0.901943 0.358097 0.506882
0.901943 0.367597 0.497382
0.901943 0.367597 0.506882
0.892443 0.386597 0.487882
0.901943 0.377097 0.478382
0.901943 0.377097 0.487882
0.901943 0.386597 0.478382
0.892443 0.377097 0.497382
0.892443 0.377097 0.506882
0.892443 0.386597 0.497382
0.892443 0.386597 0.506882
0.901943 0.377097 0.497382
0.911443 0.244097 0.421382
0.911443 0.244097 0.430882
0.911443 0.253597 0.430882
0.920943 0.244097 0.430882
0.930443 0.244097 0.421382
0.930443 0.244097 0.430882
0.939943 0.244097 0.421382
0.939943 0.244097 0.430882
0.949443 0.244097 0.430882
0.958943 0.244097 0.430882
0.968443 0.244097 0.430882
0.911443 0.253597 0.440382
0.911443 0.253597 0.449882
0.920943 0.244097 0.440382
0.920943 0.253597 0.440382
0.920943 0.253597 0.449882
0.911443 0.253597 0.459382
0.920943 0.253597 0.459382
0.920943 0.253597 0.468882
0.911443 0.263097 0.440382
0.911443 0.263097 0.449882
0.911443 0.272597 0.449882
0.911443 0.263097 0.459382
0.911443 0.263097 0.468882
0.911443 0.272597 0.459382
0.911443 0.272597 0.468882
0.920943 0.263097 0.468882
0.930443 0.253597 0.440382
0.930443 0.253597 0.449882
0.939943 0.253597 0.440382
0.939943 0.253597 0.449882
0.930443 0.253597 0.459382
0.930443 0.253597 0.468882
0.939943 0.253597 0.459382
0.939943 0.263097 0.459382
0.939943 0.263097 0.468882
0.911443 0.253597 0.506882
0.920943 0.253597 0.497382
0.920943 0.253597 0.506882
0.911443 0.263097 0.478382
0.911443 0.263097 0.487882
0.911443 0.272597 0.478382
0.911443 0.272597 0.487882
0.920943 0.263097 0.478382
0.920943 0.263097 0.487882
0.911443 0.263097 0.497382
0.911443 0.263097 0.506882
0.911443 0.272597 0.497382
0.930443 0.263097 0.478382
0.930443 0.263097 0.487882
0.939943 0.263097 0.478382
0.939943 0.263097 0.487882
0.930443 0.263097 0.497382
0.930443 0.263097 0.506882
0.939943 0.263097 0.497382
0.939943 0.263097 0.506882
0.911443 0.282097 0.468882
0.911443 0.291597 0.468882
0.911443 0.282097 0.478382
0.911443 0.291597 0.478382
0.949443 0.253597 0.440382
0.949443 0.253597 0.449882
0.958943 0.244097 0.440382
0.958943 0.253597 0.449882
0.958943 0.253597 0.459382
0.958943 0.253597 0.468882
