ply
format ascii 1.0
element vertex 1773
property float x
property float y
property float z
end_header
0.805193 0.553847 0.434132
0.821193 0.537847 0.418132
0.821193 0.537847 0.434132
0.789193 0.553847 0.450132
0.821193 0.521847 0.466132
0.821193 0.521847 0.482132
0.821193 0.521847 0.498132
0.805193 0.553847 0.450132
0.805193 0.553847 0.466132
0.821193 0.537847 0.450132
0.821193 0.537847 0.466132
0.821193 0.553847 0.466132
0.805193 0.553847 0.482132
0.805193 0.553847 0.498132
0.821193 0.537847 0.482132
0.821193 0.537847 0.498132
0.853193 0.457847 0.386132
0.837193 0.489847 0.386132
0.837193 0.489847 0.402132
0.853193 0.473847 0.386132
0.853193 0.473847 0.402132
0.853193 0.489847 0.386132
0.853193 0.489847 0.402132
0.853193 0.473847 0.418132
0.853193 0.489847 0.418132
0.853193 0.489847 0.434132
0.869193 0.441847 0.386132
0.869193 0.441847 0.402132
0.869193 0.457847 0.386132
0.869193 0.457847 0.402132
0.885193 0.441847 0.402132
0.869193 0.441847 0.418132
0.869193 0.457847 0.418132
0.869193 0.457847 0.434132
0.885193 0.441847 0.418132
0.885193 0.441847 0.434132
0.869193 0.473847 0.402132
0.869193 0.473847 0.418132
0.869193 0.473847 0.434132
0.853193 0.473847 0.450132
0.853193 0.489847 0.450132
0.853193 0.489847 0.466132
0.853193 0.489847 0.482132
0.853193 0.489847 0.498132
0.869193 0.457847 0.450132
0.869193 0.457847 0.466132
0.885193 0.441847 0.450132
0.885193 0.441847 0.466132
0.869193 0.441847 0.482132
0.869193 0.441847 0.498132
0.869193 0.457847 0.482132
0.869193 0.457847 0.498132
0.885193 0.441847 0.482132
0.885193 0.441847 0.498132
0.869193 0.473847 0.450132
0.869193 0.473847 0.466132
0.869193 0.473847 0.482132
0.869193 0.473847 0.498132
0.837193 0.505847 0.386132
0.837193 0.505847 0.402132
0.837193 0.521847 0.402132
0.837193 0.505847 0.418132
0.837193 0.505847 0.434132
0.837193 0.521847 0.418132
0.837193 0.521847 0.434132
0.853193 0.505847 0.418132
0.853193 0.505847 0.434132
0.837193 0.505847 0.450132
0.837193 0.505847 0.466132
0.837193 0.521847 0.450132
0.837193 0.521847 0.466132
0.853193 0.505847 0.450132
0.853193 0.505847 0.466132
0.837193 0.505847 0.482132
0.837193 0.505847 0.498132
0.837193 0.521847 0.482132
0.837193 0.521847 0.498132
0.853193 0.505847 0.482132
0.853193 0.505847 0.498132
0.773193 0.489847 0.626132
0.789193 0.473847 0.626132
0.789193 0.489847 0.626132
0.805193 0.441847 0.626132
0.805193 0.457847 0.626132
0.821193 0.441847 0.626132
0.821193 0.457847 0.610132
0.821193 0.457847 0.626132
0.821193 0.473847 0.594132
0.821193 0.489847 0.578132
0.821193 0.489847 0.594132
0.805193 0.473847 0.610132
0.805193 0.473847 0.626132
0.805193 0.489847 0.610132
0.805193 0.489847 0.626132
0.821193 0.473847 0.610132
0.821193 0.489847 0.610132
0.789193 0.553847 0.514132
0.789193 0.553847 0.530132
0.773193 0.553847 0.562132
0.789193 0.553847 0.546132
0.789193 0.553847 0.562132
0.821193 0.521847 0.514132
0.821193 0.521847 0.530132
0.821193 0.505847 0.562132
0.821193 0.521847 0.546132
0.821193 0.521847 0.562132
0.805193 0.537847 0.530132
0.805193 0.553847 0.514132
0.805193 0.553847 0.530132
0.821193 0.537847 0.514132
0.821193 0.537847 0.530132
0.805193 0.537847 0.546132
0.805193 0.537847 0.562132
0.805193 0.553847 0.546132
0.805193 0.553847 0.562132
0.821193 0.537847 0.546132
0.821193 0.537847 0.562132
0.789193 0.521847 0.594132
0.773193 0.505847 0.626132
0.773193 0.521847 0.610132
0.773193 0.521847 0.626132
0.789193 0.505847 0.610132
0.789193 0.505847 0.626132
0.789193 0.521847 0.610132
0.773193 0.537847 0.594132
0.773193 0.553847 0.578132
0.773193 0.553847 0.594132
0.789193 0.537847 0.578132
0.789193 0.537847 0.594132
0.789193 0.553847 0.578132
0.773193 0.537847 0.610132
0.805193 0.505847 0.594132
0.805193 0.521847 0.578132
0.805193 0.521847 0.594132
0.821193 0.505847 0.578132
0.821193 0.505847 0.594132
0.821193 0.521847 0.578132
0.805193 0.505847 0.610132
0.805193 0.537847 0.578132
0.853193 0.457847 0.562132
0.853193 0.473847 0.514132
0.853193 0.473847 0.530132
0.853193 0.489847 0.514132
0.853193 0.489847 0.530132
0.837193 0.489847 0.546132
0.837193 0.489847 0.562132
0.853193 0.473847 0.546132
0.853193 0.473847 0.562132
0.853193 0.489847 0.546132
0.853193 0.489847 0.562132
0.869193 0.441847 0.514132
0.869193 0.441847 0.530132
0.869193 0.457847 0.514132
0.869193 0.457847 0.530132
0.885193 0.441847 0.514132
0.869193 0.441847 0.546132
0.869193 0.441847 0.562132
0.869193 0.457847 0.546132
0.869193 0.473847 0.514132
0.869193 0.473847 0.530132
0.869193 0.473847 0.546132
0.837193 0.441847 0.594132
0.837193 0.457847 0.594132
0.853193 0.441847 0.578132
0.853193 0.441847 0.594132
0.853193 0.457847 0.578132
0.853193 0.457847 0.594132
0.837193 0.441847 0.610132
0.837193 0.441847 0.626132
0.837193 0.457847 0.610132
0.837193 0.473847 0.578132
0.837193 0.473847 0.594132
0.837193 0.489847 0.578132
0.853193 0.473847 0.578132
0.869193 0.441847 0.578132
0.837193 0.505847 0.514132
0.837193 0.505847 0.530132
0.837193 0.521847 0.514132
0.837193 0.521847 0.530132
0.853193 0.505847 0.514132
0.853193 0.505847 0.530132
0.837193 0.505847 0.546132
0.837193 0.505847 0.562132
0.837193 0.521847 0.546132
0.837193 0.505847 0.578132
0.645193 0.313847 0.754132
0.645193 0.329847 0.754132
0.661193 0.313847 0.754132
0.661193 0.329847 0.754132
0.645193 0.345847 0.754132
0.645193 0.361847 0.754132
0.661193 0.345847 0.754132
0.661193 0.361847 0.754132
0.677193 0.313847 0.738132
0.677193 0.313847 0.754132
0.677193 0.329847 0.738132
0.677193 0.329847 0.754132
0.693193 0.313847 0.738132
0.693193 0.329847 0.738132
0.677193 0.345847 0.738132
0.677193 0.345847 0.754132
0.677193 0.361847 0.738132
0.677193 0.361847 0.754132
0.693193 0.345847 0.738132
0.693193 0.361847 0.738132
0.645193 0.425847 0.690132
0.661193 0.393847 0.722132
0.645193 0.377847 0.738132
0.645193 0.377847 0.754132
0.645193 0.393847 0.738132
0.661193 0.377847 0.738132
0.661193 0.393847 0.738132
0.645193 0.409847 0.722132
0.645193 0.425847 0.706132
0.661193 0.409847 0.706132
0.661193 0.409847 0.722132
0.661193 0.425847 0.706132
0.645193 0.409847 0.738132
0.677193 0.393847 0.722132
0.693193 0.377847 0.722132
0.693193 0.393847 0.722132
0.677193 0.377847 0.738132
0.677193 0.393847 0.738132
0.693193 0.377847 0.738132
0.677193 0.409847 0.706132
0.677193 0.409847 0.722132
0.677193 0.425847 0.706132
0.693193 0.409847 0.706132
0.693193 0.409847 0.722132
0.693193 0.425847 0.706132
0.709193 0.329847 0.722132
0.725193 0.313847 0.722132
0.725193 0.329847 0.722132
0.709193 0.313847 0.738132
0.709193 0.329847 0.738132
0.725193 0.313847 0.738132
0.709193 0.345847 0.722132
0.709193 0.361847 0.722132
0.725193 0.345847 0.706132
0.725193 0.345847 0.722132
0.725193 0.361847 0.706132
0.725193 0.361847 0.722132
0.709193 0.361847 0.738132
0.741193 0.313847 0.722132
0.741193 0.329847 0.722132
0.757193 0.313847 0.706132
0.757193 0.313847 0.722132
0.757193 0.329847 0.706132
0.757193 0.329847 0.722132
0.741193 0.345847 0.706132
0.741193 0.345847 0.722132
0.741193 0.361847 0.706132
0.757193 0.345847 0.706132
0.757193 0.361847 0.706132
0.725193 0.425847 0.690132
0.757193 0.393847 0.690132
0.741193 0.409847 0.690132
0.741193 0.425847 0.690132
0.757193 0.409847 0.690132
0.757193 0.425847 0.674132
0.757193 0.425847 0.690132
0.709193 0.377847 0.706132
0.709193 0.377847 0.722132
0.709193 0.393847 0.706132
0.709193 0.393847 0.722132
0.725193 0.377847 0.706132
0.725193 0.377847 0.722132
0.725193 0.393847 0.706132
0.709193 0.409847 0.706132
0.709193 0.425847 0.706132
0.725193 0.409847 0.706132
0.725193 0.425847 0.706132
0.741193 0.377847 0.706132
0.741193 0.393847 0.706132
0.757193 0.377847 0.706132
0.757193 0.393847 0.706132
0.741193 0.409847 0.706132
0.645193 0.313847 0.770132
0.645193 0.329847 0.770132
0.645193 0.345847 0.770132
0.645193 0.441847 0.674132
0.645193 0.441847 0.690132
0.645193 0.457847 0.674132
0.661193 0.441847 0.690132
0.661193 0.457847 0.674132
0.661193 0.457847 0.690132
0.645193 0.473847 0.658132
0.645193 0.489847 0.658132
0.661193 0.473847 0.658132
0.661193 0.489847 0.658132
0.645193 0.473847 0.674132
0.645193 0.489847 0.674132
0.661193 0.473847 0.674132
0.677193 0.457847 0.690132
0.693193 0.457847 0.690132
0.677193 0.473847 0.658132
0.677193 0.489847 0.658132
0.693193 0.489847 0.658132
0.677193 0.473847 0.674132
0.693193 0.473847 0.674132
0.677193 0.441847 0.706132
0.693193 0.441847 0.706132
0.645193 0.505847 0.658132
0.645193 0.521847 0.658132
0.661193 0.505847 0.658132
0.661193 0.521847 0.642132
0.661193 0.521847 0.658132
0.645193 0.537847 0.642132
0.645193 0.537847 0.658132
0.645193 0.553847 0.642132
0.661193 0.537847 0.642132
0.661193 0.553847 0.642132
0.677193 0.505847 0.642132
0.677193 0.505847 0.658132
0.677193 0.521847 0.642132
0.693193 0.505847 0.642132
0.693193 0.505847 0.658132
0.693193 0.521847 0.642132
0.677193 0.537847 0.642132
0.677193 0.553847 0.642132
0.693193 0.537847 0.642132
0.709193 0.441847 0.690132
0.709193 0.457847 0.690132
0.725193 0.441847 0.690132
0.725193 0.457847 0.674132
0.725193 0.457847 0.690132
0.709193 0.473847 0.658132
0.709193 0.489847 0.658132
0.725193 0.473847 0.658132
0.725193 0.489847 0.642132
0.725193 0.489847 0.658132
0.709193 0.473847 0.674132
0.725193 0.473847 0.674132
0.757193 0.457847 0.658132
0.741193 0.441847 0.674132
0.741193 0.441847 0.690132
0.741193 0.457847 0.674132
0.757193 0.441847 0.674132
0.757193 0.441847 0.690132
0.757193 0.457847 0.674132
0.741193 0.473847 0.658132
0.741193 0.489847 0.642132
0.741193 0.489847 0.658132
0.757193 0.473847 0.642132
0.757193 0.473847 0.658132
0.757193 0.489847 0.642132
0.741193 0.473847 0.674132
0.709193 0.505847 0.642132
0.709193 0.505847 0.658132
0.709193 0.521847 0.642132
0.725193 0.505847 0.642132
0.725193 0.521847 0.642132
0.741193 0.505847 0.642132
0.741193 0.521847 0.642132
0.757193 0.505847 0.642132
0.789193 0.313847 0.674132
0.789193 0.313847 0.690132
0.789193 0.329847 0.674132
0.789193 0.329847 0.690132
0.773193 0.345847 0.690132
0.773193 0.361847 0.690132
0.789193 0.345847 0.674132
0.789193 0.345847 0.690132
0.789193 0.361847 0.674132
0.789193 0.361847 0.690132
0.821193 0.313847 0.658132
0.821193 0.329847 0.658132
0.805193 0.313847 0.674132
0.805193 0.329847 0.674132
0.821193 0.313847 0.674132
0.821193 0.329847 0.674132
0.821193 0.345847 0.658132
0.821193 0.361847 0.658132
0.805193 0.345847 0.674132
0.805193 0.361847 0.674132
0.821193 0.345847 0.674132
0.821193 0.361847 0.674132
0.773193 0.313847 0.706132
0.773193 0.329847 0.706132
0.773193 0.345847 0.706132
0.773193 0.361847 0.706132
0.773193 0.377847 0.690132
0.773193 0.393847 0.674132
0.773193 0.393847 0.690132
0.789193 0.377847 0.674132
0.789193 0.377847 0.690132
0.789193 0.393847 0.674132
0.789193 0.393847 0.690132
0.789193 0.425847 0.658132
0.773193 0.409847 0.674132
0.773193 0.409847 0.690132
0.773193 0.425847 0.674132
0.773193 0.425847 0.690132
0.789193 0.409847 0.674132
0.789193 0.425847 0.674132
0.805193 0.393847 0.658132
0.821193 0.377847 0.658132
0.821193 0.393847 0.642132
0.821193 0.393847 0.658132
0.805193 0.377847 0.674132
0.805193 0.393847 0.674132
0.805193 0.409847 0.658132
0.805193 0.425847 0.642132
0.805193 0.425847 0.658132
0.821193 0.409847 0.642132
0.821193 0.409847 0.658132
0.821193 0.425847 0.642132
0.805193 0.409847 0.674132
0.837193 0.313847 0.642132
0.837193 0.313847 0.658132
0.837193 0.329847 0.642132
0.837193 0.329847 0.658132
0.837193 0.345847 0.642132
0.837193 0.345847 0.658132
0.837193 0.361847 0.642132
0.837193 0.361847 0.658132
0.837193 0.377847 0.642132
0.837193 0.377847 0.658132
0.837193 0.393847 0.642132
0.773193 0.441847 0.658132
0.773193 0.457847 0.642132
0.773193 0.457847 0.658132
0.789193 0.441847 0.642132
0.789193 0.441847 0.658132
0.789193 0.457847 0.642132
0.789193 0.457847 0.658132
0.773193 0.441847 0.674132
0.773193 0.473847 0.642132
0.773193 0.489847 0.642132
0.789193 0.473847 0.642132
0.789193 0.489847 0.642132
0.805193 0.441847 0.642132
0.805193 0.441847 0.658132
0.805193 0.457847 0.642132
0.645193 0.617847 0.386132
0.645193 0.617847 0.402132
0.661193 0.617847 0.386132
0.661193 0.617847 0.402132
0.645193 0.617847 0.418132
0.661193 0.617847 0.418132
0.677193 0.617847 0.386132
0.677193 0.617847 0.402132
0.693193 0.601847 0.386132
0.693193 0.617847 0.402132
0.677193 0.617847 0.418132
0.677193 0.617847 0.434132
0.693193 0.617847 0.418132
0.693193 0.617847 0.434132
0.677193 0.617847 0.450132
0.693193 0.617847 0.450132
0.693193 0.617847 0.466132
0.693193 0.617847 0.482132
0.693193 0.617847 0.498132
0.645193 0.633847 0.402132
0.645193 0.633847 0.418132
0.645193 0.633847 0.434132
0.661193 0.633847 0.418132
0.661193 0.633847 0.434132
0.677193 0.633847 0.434132
0.645193 0.633847 0.450132
0.645193 0.633847 0.466132
0.661193 0.633847 0.450132
0.661193 0.633847 0.466132
0.645193 0.633847 0.482132
0.645193 0.633847 0.498132
0.661193 0.633847 0.482132
0.661193 0.633847 0.498132
0.677193 0.633847 0.450132
0.677193 0.633847 0.466132
0.693193 0.633847 0.466132
0.677193 0.633847 0.482132
0.677193 0.633847 0.498132
0.725193 0.585847 0.386132
0.709193 0.601847 0.386132
0.709193 0.601847 0.402132
0.709193 0.617847 0.402132
0.725193 0.601847 0.386132
0.725193 0.601847 0.402132
0.709193 0.617847 0.418132
0.709193 0.617847 0.434132
0.725193 0.601847 0.418132
0.725193 0.601847 0.434132
0.725193 0.617847 0.434132
0.741193 0.585847 0.386132
0.741193 0.585847 0.402132
0.757193 0.569847 0.386132
0.757193 0.569847 0.402132
0.757193 0.585847 0.386132
0.757193 0.585847 0.402132
0.741193 0.585847 0.418132
0.757193 0.585847 0.418132
0.757193 0.585847 0.434132
0.741193 0.601847 0.402132
0.741193 0.601847 0.418132
0.741193 0.601847 0.434132
0.709193 0.617847 0.450132
0.709193 0.617847 0.466132
0.725193 0.601847 0.450132
0.725193 0.601847 0.466132
0.725193 0.617847 0.450132
0.725193 0.617847 0.466132
0.709193 0.617847 0.482132
0.709193 0.617847 0.498132
0.725193 0.601847 0.482132
0.725193 0.601847 0.498132
0.725193 0.617847 0.482132
0.725193 0.617847 0.498132
0.757193 0.585847 0.450132
0.757193 0.585847 0.466132
0.757193 0.585847 0.482132
0.757193 0.585847 0.498132
0.741193 0.601847 0.450132
0.741193 0.601847 0.466132
0.757193 0.601847 0.450132
0.757193 0.601847 0.466132
0.741193 0.601847 0.482132
0.741193 0.601847 0.498132
0.757193 0.601847 0.482132
0.757193 0.601847 0.498132
0.661193 0.617847 0.530132
0.645193 0.617847 0.546132
0.645193 0.617847 0.562132
0.661193 0.617847 0.546132
0.661193 0.617847 0.562132
0.677193 0.617847 0.514132
0.677193 0.617847 0.530132
0.693193 0.617847 0.514132
0.693193 0.617847 0.530132
0.677193 0.617847 0.546132
0.677193 0.617847 0.562132
0.693193 0.601847 0.562132
0.693193 0.617847 0.546132
0.693193 0.617847 0.562132
0.645193 0.569847 0.626132
0.645193 0.585847 0.610132
0.661193 0.569847 0.626132
0.661193 0.585847 0.610132
0.661193 0.585847 0.626132
0.645193 0.601847 0.578132
0.645193 0.601847 0.594132
0.645193 0.617847 0.578132
0.661193 0.601847 0.578132
0.661193 0.601847 0.594132
0.661193 0.617847 0.578132
0.645193 0.601847 0.610132
0.677193 0.585847 0.594132
0.693193 0.585847 0.594132
0.677193 0.569847 0.610132
0.677193 0.569847 0.626132
0.677193 0.585847 0.610132
0.693193 0.569847 0.610132
0.693193 0.569847 0.626132
0.693193 0.585847 0.610132
0.677193 0.601847 0.578132
0.677193 0.601847 0.594132
0.677193 0.617847 0.578132
0.693193 0.601847 0.578132
0.693193 0.601847 0.594132
0.645193 0.633847 0.514132
0.645193 0.633847 0.530132
0.661193 0.633847 0.514132
0.661193 0.633847 0.530132
0.645193 0.633847 0.546132
0.677193 0.633847 0.514132
0.677193 0.633847 0.530132
0.725193 0.585847 0.562132
0.709193 0.601847 0.530132
0.709193 0.617847 0.514132
0.709193 0.617847 0.530132
0.725193 0.601847 0.514132
0.725193 0.601847 0.530132
0.725193 0.617847 0.514132
0.709193 0.601847 0.546132
0.709193 0.601847 0.562132
0.709193 0.617847 0.546132
0.725193 0.601847 0.546132
0.725193 0.601847 0.562132
0.757193 0.585847 0.514132
0.757193 0.585847 0.530132
0.741193 0.585847 0.546132
0.741193 0.585847 0.562132
0.757193 0.569847 0.562132
0.757193 0.585847 0.546132
0.757193 0.585847 0.562132
0.741193 0.601847 0.514132
0.741193 0.601847 0.530132
0.757193 0.601847 0.514132
0.741193 0.601847 0.546132
0.709193 0.569847 0.594132
0.709193 0.585847 0.578132
0.709193 0.585847 0.594132
0.725193 0.569847 0.594132
0.725193 0.585847 0.578132
0.725193 0.585847 0.594132
0.709193 0.569847 0.610132
0.709193 0.585847 0.610132
0.725193 0.569847 0.610132
0.709193 0.601847 0.578132
0.741193 0.569847 0.578132
0.741193 0.569847 0.594132
0.741193 0.585847 0.578132
0.757193 0.569847 0.578132
0.757193 0.569847 0.594132
0.741193 0.569847 0.610132
0.773193 0.569847 0.386132
0.773193 0.569847 0.402132
0.789193 0.569847 0.402132
0.773193 0.569847 0.418132
0.773193 0.569847 0.434132
0.773193 0.585847 0.434132
0.789193 0.569847 0.418132
0.789193 0.569847 0.434132
0.773193 0.569847 0.450132
0.773193 0.569847 0.466132
0.773193 0.585847 0.450132
0.773193 0.585847 0.466132
0.789193 0.569847 0.450132
0.789193 0.569847 0.466132
0.773193 0.569847 0.482132
0.773193 0.569847 0.498132
0.773193 0.585847 0.482132
0.773193 0.585847 0.498132
0.789193 0.569847 0.482132
0.789193 0.569847 0.498132
0.773193 0.569847 0.514132
0.773193 0.569847 0.530132
0.773193 0.585847 0.514132
0.773193 0.585847 0.530132
0.789193 0.569847 0.514132
0.789193 0.569847 0.530132
0.773193 0.569847 0.546132
0.773193 0.569847 0.562132
0.789193 0.569847 0.546132
0.773193 0.569847 0.578132
0.901193 0.089847 0.370132
0.901193 0.105847 0.370132
0.917193 0.105847 0.370132
0.901193 0.121847 0.354132
0.901193 0.121847 0.370132
0.901193 0.137847 0.354132
0.917193 0.121847 0.370132
0.917193 0.137847 0.354132
0.917193 0.137847 0.370132
0.901193 0.153847 0.354132
0.901193 0.169847 0.370132
0.917193 0.153847 0.354132
0.917193 0.153847 0.370132
0.917193 0.169847 0.370132
0.933193 0.121847 0.370132
0.933193 0.137847 0.370132
0.933193 0.153847 0.370132
0.933193 0.169847 0.370132
0.949193 0.153847 0.370132
0.949193 0.169847 0.370132
0.901193 0.185847 0.370132
0.917193 0.185847 0.370132
0.933193 0.185847 0.370132
0.949193 0.185847 0.370132
0.901193 0.073847 0.386132
0.901193 0.073847 0.402132
0.917193 0.073847 0.402132
0.901193 0.057847 0.418132
0.901193 0.057847 0.434132
0.917193 0.057847 0.434132
0.917193 0.073847 0.418132
0.901193 0.089847 0.386132
0.917193 0.089847 0.386132
0.917193 0.089847 0.402132
0.917193 0.105847 0.386132
0.933193 0.073847 0.434132
0.933193 0.089847 0.402132
0.933193 0.105847 0.386132
0.933193 0.105847 0.402132
0.949193 0.105847 0.402132
0.933193 0.089847 0.418132
0.933193 0.089847 0.434132
0.949193 0.089847 0.418132
0.949193 0.089847 0.434132
0.949193 0.105847 0.418132
0.901193 0.057847 0.450132
0.901193 0.057847 0.466132
0.917193 0.057847 0.450132
0.917193 0.057847 0.466132
0.901193 0.057847 0.482132
0.901193 0.057847 0.498132
0.917193 0.057847 0.482132
0.917193 0.057847 0.498132
0.917193 0.073847 0.498132
0.933193 0.073847 0.450132
0.933193 0.073847 0.466132
0.933193 0.073847 0.482132
0.933193 0.073847 0.498132
0.933193 0.089847 0.450132
0.949193 0.089847 0.450132
0.949193 0.089847 0.466132
0.949193 0.089847 0.482132
0.949193 0.089847 0.498132
0.933193 0.121847 0.386132
0.949193 0.121847 0.386132
0.949193 0.121847 0.402132
0.949193 0.137847 0.386132
0.949193 0.153847 0.386132
0.949193 0.169847 0.386132
0.965193 0.105847 0.418132
0.965193 0.105847 0.434132
0.965193 0.089847 0.466132
0.965193 0.105847 0.450132
0.965193 0.105847 0.466132
0.965193 0.089847 0.482132
0.965193 0.089847 0.498132
0.965193 0.105847 0.482132
0.965193 0.105847 0.498132
0.965193 0.121847 0.402132
0.965193 0.137847 0.402132
0.965193 0.121847 0.418132
0.965193 0.121847 0.434132
0.965193 0.137847 0.418132
0.981193 0.121847 0.434132
0.981193 0.137847 0.418132
0.981193 0.137847 0.434132
0.965193 0.153847 0.386132
0.965193 0.153847 0.402132
0.965193 0.169847 0.386132
0.965193 0.169847 0.402132
0.981193 0.169847 0.402132
0.965193 0.153847 0.418132
0.981193 0.153847 0.418132
0.981193 0.153847 0.434132
0.981193 0.169847 0.418132
0.981193 0.169847 0.434132
0.997193 0.169847 0.434132
0.965193 0.121847 0.450132
0.981193 0.121847 0.450132
0.981193 0.121847 0.466132
0.981193 0.137847 0.450132
0.981193 0.137847 0.466132
0.981193 0.121847 0.482132
0.981193 0.121847 0.498132
0.981193 0.137847 0.482132
0.981193 0.137847 0.498132
0.981193 0.153847 0.450132
0.997193 0.153847 0.450132
0.997193 0.153847 0.466132
0.997193 0.169847 0.450132
0.997193 0.169847 0.466132
0.997193 0.153847 0.482132
0.997193 0.153847 0.498132
0.997193 0.169847 0.482132
0.997193 0.169847 0.498132
0.901193 0.057847 0.514132
0.901193 0.057847 0.530132
0.917193 0.057847 0.514132
0.917193 0.073847 0.514132
0.917193 0.073847 0.530132
0.901193 0.057847 0.546132
0.901193 0.073847 0.546132
0.901193 0.073847 0.562132
0.917193 0.073847 0.546132
0.917193 0.073847 0.562132
0.901193 0.089847 0.562132
0.917193 0.089847 0.546132
0.917193 0.089847 0.562132
0.917193 0.105847 0.562132
0.933193 0.073847 0.514132
0.933193 0.073847 0.530132
0.933193 0.073847 0.546132
0.933193 0.089847 0.530132
0.949193 0.089847 0.514132
0.949193 0.089847 0.530132
0.949193 0.105847 0.530132
0.933193 0.089847 0.546132
0.933193 0.089847 0.562132
0.933193 0.105847 0.562132
0.949193 0.089847 0.546132
0.949193 0.105847 0.546132
0.901193 0.073847 0.578132
0.901193 0.089847 0.578132
0.901193 0.105847 0.578132
0.901193 0.105847 0.594132
0.917193 0.089847 0.578132
0.917193 0.105847 0.578132
0.917193 0.105847 0.594132
0.933193 0.105847 0.578132
0.933193 0.121847 0.562132
0.949193 0.121847 0.546132
0.949193 0.121847 0.562132
0.949193 0.137847 0.562132
0.901193 0.121847 0.594132
0.917193 0.121847 0.578132
0.917193 0.121847 0.594132
0.917193 0.137847 0.594132
0.901193 0.121847 0.610132
0.901193 0.137847 0.610132
0.901193 0.169847 0.594132
0.917193 0.153847 0.594132
0.917193 0.169847 0.594132
0.901193 0.153847 0.610132
0.901193 0.169847 0.610132
0.933193 0.121847 0.578132
0.933193 0.137847 0.578132
0.933193 0.137847 0.594132
0.949193 0.121847 0.578132
0.949193 0.137847 0.578132
0.933193 0.153847 0.594132
0.933193 0.169847 0.594132
0.949193 0.153847 0.578132
0.949193 0.169847 0.578132
0.949193 0.169847 0.594132
0.965193 0.105847 0.514132
0.965193 0.105847 0.530132
0.965193 0.121847 0.514132
0.965193 0.121847 0.530132
0.981193 0.121847 0.514132
0.981193 0.121847 0.530132
0.981193 0.137847 0.514132
0.981193 0.137847 0.530132
0.965193 0.121847 0.546132
0.965193 0.121847 0.562132
0.965193 0.137847 0.546132
0.965193 0.137847 0.562132
0.981193 0.137847 0.546132
0.981193 0.153847 0.514132
0.981193 0.153847 0.530132
0.981193 0.169847 0.530132
0.965193 0.153847 0.546132
0.965193 0.153847 0.562132
0.965193 0.169847 0.562132
0.981193 0.153847 0.546132
0.981193 0.169847 0.546132
0.981193 0.169847 0.562132
0.997193 0.153847 0.514132
0.997193 0.169847 0.514132
0.997193 0.169847 0.530132
0.965193 0.153847 0.578132
0.965193 0.169847 0.578132
0.901193 0.185847 0.386132
0.901193 0.201847 0.386132
0.917193 0.185847 0.386132
0.917193 0.201847 0.386132
0.901193 0.217847 0.402132
0.901193 0.233847 0.402132
0.917193 0.217847 0.402132
0.917193 0.233847 0.402132
0.901193 0.233847 0.418132
0.917193 0.233847 0.418132
0.933193 0.185847 0.386132
0.933193 0.201847 0.386132
0.949193 0.185847 0.386132
0.949193 0.201847 0.386132
0.949193 0.201847 0.402132
0.933193 0.217847 0.402132
0.933193 0.233847 0.402132
0.949193 0.217847 0.402132
0.949193 0.233847 0.402132
0.933193 0.233847 0.418132
0.949193 0.233847 0.418132
0.901193 0.249847 0.402132
0.901193 0.265847 0.386132
0.901193 0.265847 0.402132
0.901193 0.249847 0.418132
0.901193 0.249847 0.434132
0.901193 0.265847 0.418132
0.901193 0.265847 0.434132
0.917193 0.249847 0.434132
0.901193 0.281847 0.386132
0.901193 0.281847 0.402132
0.901193 0.297847 0.386132
0.901193 0.297847 0.402132
0.901193 0.281847 0.418132
0.901193 0.281847 0.434132
0.901193 0.297847 0.418132
0.901193 0.297847 0.434132
0.933193 0.249847 0.434132
0.949193 0.249847 0.434132
0.901193 0.265847 0.450132
0.901193 0.265847 0.466132
0.917193 0.249847 0.450132
0.917193 0.249847 0.466132
0.917193 0.265847 0.450132
0.917193 0.265847 0.466132
0.901193 0.265847 0.482132
0.901193 0.265847 0.498132
0.917193 0.249847 0.498132
0.917193 0.265847 0.482132
0.917193 0.265847 0.498132
0.901193 0.281847 0.450132
0.901193 0.281847 0.466132
0.901193 0.297847 0.450132
0.901193 0.297847 0.466132
0.901193 0.281847 0.482132
0.901193 0.281847 0.498132
0.901193 0.297847 0.482132
0.901193 0.297847 0.498132
0.933193 0.249847 0.450132
0.933193 0.249847 0.466132
0.933193 0.265847 0.466132
0.949193 0.249847 0.450132
0.949193 0.265847 0.466132
0.933193 0.265847 0.482132
0.933193 0.265847 0.498132
0.949193 0.265847 0.482132
0.949193 0.265847 0.498132
0.965193 0.185847 0.386132
0.965193 0.185847 0.402132
0.965193 0.201847 0.402132
0.981193 0.201847 0.402132
0.981193 0.185847 0.418132
0.981193 0.201847 0.418132
0.981193 0.201847 0.434132
0.965193 0.217847 0.402132
0.965193 0.217847 0.418132
0.965193 0.233847 0.418132
0.965193 0.233847 0.434132
0.981193 0.217847 0.418132
0.981193 0.217847 0.434132
0.981193 0.233847 0.418132
0.981193 0.233847 0.434132
0.997193 0.185847 0.434132
0.997193 0.201847 0.434132
0.981193 0.217847 0.450132
0.981193 0.233847 0.450132
0.981193 0.233847 0.466132
0.981193 0.233847 0.482132
0.981193 0.233847 0.498132
0.997193 0.185847 0.450132
0.997193 0.185847 0.466132
0.997193 0.201847 0.450132
0.997193 0.201847 0.466132
0.997193 0.185847 0.482132
0.997193 0.185847 0.498132
0.997193 0.201847 0.482132
0.997193 0.201847 0.498132
0.997193 0.217847 0.450132
0.997193 0.217847 0.466132
0.997193 0.233847 0.466132
0.997193 0.217847 0.482132
0.997193 0.217847 0.498132
0.997193 0.233847 0.482132
0.997193 0.233847 0.498132
0.965193 0.249847 0.434132
0.965193 0.249847 0.450132
0.965193 0.249847 0.466132
0.965193 0.265847 0.466132
0.981193 0.249847 0.450132
0.981193 0.249847 0.466132
0.965193 0.249847 0.482132
0.965193 0.249847 0.498132
0.965193 0.265847 0.482132
0.965193 0.265847 0.498132
0.981193 0.249847 0.482132
0.981193 0.249847 0.498132
0.901193 0.217847 0.562132
0.901193 0.233847 0.546132
0.901193 0.233847 0.562132
0.917193 0.217847 0.562132
0.917193 0.233847 0.546132
0.917193 0.233847 0.562132
0.933193 0.217847 0.562132
0.933193 0.233847 0.546132
0.933193 0.233847 0.562132
0.949193 0.217847 0.562132
0.949193 0.233847 0.546132
0.949193 0.233847 0.562132
0.901193 0.185847 0.594132
0.901193 0.201847 0.578132
0.917193 0.185847 0.594132
0.917193 0.201847 0.578132
0.917193 0.201847 0.594132
0.901193 0.217847 0.578132
0.917193 0.217847 0.578132
0.933193 0.185847 0.594132
0.933193 0.201847 0.578132
0.949193 0.185847 0.578132
0.949193 0.185847 0.594132
0.949193 0.201847 0.578132
0.933193 0.217847 0.578132
0.949193 0.217847 0.578132
0.901193 0.249847 0.514132
0.901193 0.249847 0.530132
0.901193 0.265847 0.514132
0.901193 0.265847 0.530132
0.917193 0.249847 0.514132
0.917193 0.249847 0.530132
0.901193 0.249847 0.546132
0.901193 0.265847 0.546132
0.917193 0.249847 0.546132
0.901193 0.281847 0.514132
0.901193 0.281847 0.530132
0.901193 0.297847 0.514132
0.901193 0.297847 0.530132
0.901193 0.281847 0.546132
0.901193 0.297847 0.546132
0.933193 0.249847 0.514132
0.933193 0.249847 0.530132
0.949193 0.249847 0.514132
0.949193 0.249847 0.530132
0.949193 0.265847 0.514132
0.933193 0.249847 0.546132
0.949193 0.249847 0.546132
0.981193 0.185847 0.530132
0.981193 0.201847 0.530132
0.965193 0.185847 0.562132
0.965193 0.201847 0.562132
0.981193 0.185847 0.546132
0.981193 0.185847 0.562132
0.981193 0.201847 0.546132
0.981193 0.201847 0.562132
0.965193 0.233847 0.530132
0.981193 0.217847 0.530132
0.981193 0.233847 0.514132
0.981193 0.233847 0.530132
0.965193 0.217847 0.546132
0.965193 0.217847 0.562132
0.965193 0.233847 0.546132
0.965193 0.233847 0.562132
0.981193 0.217847 0.546132
0.981193 0.233847 0.546132
0.997193 0.185847 0.514132
0.997193 0.185847 0.530132
0.997193 0.201847 0.514132
0.997193 0.201847 0.530132
0.997193 0.217847 0.514132
0.997193 0.217847 0.530132
0.997193 0.233847 0.514132
0.965193 0.185847 0.578132
0.965193 0.201847 0.578132
0.965193 0.249847 0.514132
0.965193 0.249847 0.530132
0.981193 0.249847 0.514132
0.965193 0.249847 0.546132
0.901193 0.313847 0.402132
0.901193 0.329847 0.386132
0.901193 0.329847 0.402132
0.901193 0.313847 0.418132
0.901193 0.313847 0.434132
0.901193 0.329847 0.418132
0.901193 0.329847 0.434132
0.901193 0.345847 0.386132
0.901193 0.345847 0.402132
0.901193 0.361847 0.386132
0.901193 0.361847 0.402132
0.901193 0.345847 0.418132
0.901193 0.345847 0.434132
0.901193 0.361847 0.418132
0.901193 0.361847 0.434132
0.901193 0.313847 0.450132
0.901193 0.313847 0.466132
0.901193 0.329847 0.450132
0.901193 0.329847 0.466132
0.901193 0.313847 0.482132
0.901193 0.313847 0.498132
0.901193 0.329847 0.482132
0.901193 0.329847 0.498132
0.901193 0.345847 0.450132
0.901193 0.345847 0.466132
0.901193 0.361847 0.450132
0.901193 0.361847 0.466132
0.901193 0.345847 0.482132
0.901193 0.345847 0.498132
0.901193 0.361847 0.482132
0.901193 0.361847 0.498132
0.901193 0.377847 0.402132
0.901193 0.393847 0.402132
0.901193 0.377847 0.418132
0.901193 0.377847 0.434132
0.901193 0.393847 0.418132
0.901193 0.393847 0.434132
0.901193 0.409847 0.434132
0.901193 0.377847 0.450132
0.901193 0.377847 0.466132
0.901193 0.393847 0.450132
0.901193 0.393847 0.466132
0.901193 0.377847 0.482132
0.901193 0.377847 0.498132
0.901193 0.393847 0.482132
0.901193 0.393847 0.498132
0.901193 0.409847 0.450132
0.901193 0.409847 0.466132
0.901193 0.409847 0.482132
0.901193 0.313847 0.514132
0.901193 0.313847 0.530132
0.901193 0.329847 0.514132
0.901193 0.329847 0.530132
0.901193 0.313847 0.546132
0.901193 0.329847 0.546132
0.901193 0.345847 0.514132
0.901193 0.345847 0.530132
0.901193 0.361847 0.514132
0.901193 0.361847 0.530132
0.901193 0.345847 0.546132
0.901193 0.361847 0.546132
0.901193 0.377847 0.514132
0.901193 0.377847 0.530132
0.901193 0.393847 0.514132
0.117193 0.873847 0.114132
0.117193 0.937847 0.050132
0.101193 0.905847 0.082132
0.117193 0.905847 0.082132
0.101193 0.889847 0.114132
0.101193 0.905847 0.098132
0.101193 0.905847 0.114132
0.117193 0.889847 0.098132
0.117193 0.889847 0.114132
0.117193 0.905847 0.114132
0.101193 0.921847 0.082132
0.101193 0.937847 0.082132
0.117193 0.921847 0.066132
0.117193 0.937847 0.066132
0.117193 0.937847 0.082132
0.101193 0.921847 0.098132
0.101193 0.921847 0.114132
0.117193 0.921847 0.098132
0.117193 0.921847 0.114132
0.117193 0.937847 0.098132
0.101193 0.841847 0.178132
0.117193 0.825847 0.178132
0.117193 0.841847 0.162132
0.117193 0.841847 0.178132
0.101193 0.873847 0.130132
0.101193 0.873847 0.146132
0.117193 0.857847 0.146132
0.117193 0.873847 0.130132
0.101193 0.857847 0.162132
0.101193 0.857847 0.178132
0.101193 0.873847 0.162132
0.101193 0.873847 0.178132
0.117193 0.873847 0.178132
0.101193 0.825847 0.210132
0.101193 0.841847 0.194132
0.101193 0.841847 0.210132
0.117193 0.825847 0.194132
0.117193 0.825847 0.210132
0.101193 0.825847 0.226132
0.101193 0.825847 0.242132
0.101193 0.841847 0.226132
0.101193 0.841847 0.242132
0.117193 0.841847 0.242132
0.101193 0.857847 0.194132
0.101193 0.857847 0.210132
0.101193 0.873847 0.194132
0.117193 0.857847 0.210132
0.117193 0.873847 0.194132
0.117193 0.873847 0.210132
0.101193 0.857847 0.226132
0.117193 0.857847 0.226132
0.117193 0.857847 0.242132
0.117193 0.873847 0.226132
0.117193 0.873847 0.242132
0.101193 0.889847 0.130132
0.101193 0.889847 0.146132
0.101193 0.905847 0.130132
0.117193 0.889847 0.146132
0.117193 0.905847 0.130132
0.117193 0.905847 0.146132
0.117193 0.889847 0.162132
0.117193 0.889847 0.178132
0.117193 0.921847 0.130132
0.117193 0.889847 0.194132
0.101193 0.825847 0.258132
0.101193 0.825847 0.274132
0.117193 0.825847 0.274132
0.117193 0.841847 0.258132
0.117193 0.841847 0.274132
0.117193 0.825847 0.290132
0.117193 0.825847 0.306132
0.117193 0.841847 0.290132
0.117193 0.825847 0.322132
0.181193 0.825847 0.018132
0.181193 0.841847 0.018132
0.165193 0.825847 0.050132
0.165193 0.841847 0.050132
0.181193 0.825847 0.034132
0.181193 0.841847 0.034132
0.181193 0.857847 0.018132
0.181193 0.873847 0.018132
0.165193 0.857847 0.050132
0.165193 0.873847 0.050132
0.181193 0.857847 0.034132
0.181193 0.873847 0.034132
0.149193 0.841847 0.082132
0.149193 0.825847 0.098132
0.149193 0.825847 0.114132
0.149193 0.841847 0.098132
0.149193 0.841847 0.114132
0.149193 0.857847 0.082132
0.149193 0.873847 0.066132
0.149193 0.873847 0.082132
0.133193 0.857847 0.114132
0.133193 0.873847 0.098132
0.133193 0.873847 0.114132
0.149193 0.857847 0.098132
0.149193 0.857847 0.114132
0.149193 0.873847 0.098132
0.165193 0.825847 0.066132
0.165193 0.825847 0.082132
0.165193 0.841847 0.066132
0.165193 0.841847 0.082132
0.165193 0.857847 0.066132
0.165193 0.857847 0.082132
0.165193 0.873847 0.066132
0.149193 0.889847 0.050132
0.149193 0.905847 0.050132
0.133193 0.921847 0.050132
0.133193 0.937847 0.050132
0.149193 0.921847 0.034132
0.149193 0.921847 0.050132
0.149193 0.937847 0.034132
0.149193 0.937847 0.050132
0.165193 0.905847 0.018132
0.181193 0.889847 0.018132
0.181193 0.905847 0.002132
0.181193 0.905847 0.018132
0.165193 0.889847 0.034132
0.165193 0.889847 0.050132
0.165193 0.905847 0.034132
0.165193 0.905847 0.050132
0.181193 0.889847 0.034132
0.165193 0.921847 0.018132
0.165193 0.937847 0.018132
0.181193 0.921847 0.002132
0.181193 0.921847 0.018132
0.181193 0.937847 0.002132
0.181193 0.937847 0.018132
0.165193 0.921847 0.034132
0.165193 0.937847 0.034132
0.165193 0.937847 0.050132
0.181193 0.921847 0.050132
0.181193 0.937847 0.034132
0.181193 0.937847 0.050132
0.133193 0.889847 0.082132
0.133193 0.905847 0.066132
0.133193 0.905847 0.082132
0.149193 0.889847 0.066132
0.149193 0.889847 0.082132
0.149193 0.905847 0.066132
0.133193 0.889847 0.098132
0.149193 0.905847 0.114132
0.133193 0.937847 0.066132
0.133193 0.937847 0.082132
0.149193 0.937847 0.066132
0.149193 0.937847 0.082132
0.133193 0.921847 0.098132
0.133193 0.921847 0.114132
0.133193 0.937847 0.098132
0.149193 0.921847 0.098132
0.149193 0.921847 0.114132
0.149193 0.937847 0.098132
0.181193 0.905847 0.066132
0.181193 0.905847 0.082132
0.165193 0.905847 0.098132
0.165193 0.905847 0.114132
0.181193 0.889847 0.114132
0.181193 0.905847 0.098132
0.181193 0.905847 0.114132
0.165193 0.921847 0.082132
0.165193 0.937847 0.066132
0.165193 0.937847 0.082132
0.181193 0.921847 0.066132
0.181193 0.921847 0.082132
0.181193 0.937847 0.066132
0.165193 0.921847 0.098132
0.165193 0.921847 0.114132
0.197193 0.825847 0.018132
0.197193 0.841847 0.018132
0.213193 0.841847 0.018132
0.197193 0.825847 0.034132
0.197193 0.825847 0.050132
0.213193 0.825847 0.034132
0.213193 0.841847 0.034132
0.213193 0.841847 0.050132
0.197193 0.857847 0.002132
0.197193 0.857847 0.018132
0.197193 0.873847 0.002132
0.197193 0.873847 0.018132
0.213193 0.857847 0.002132
0.213193 0.857847 0.018132
0.213193 0.873847 0.002132
0.213193 0.873847 0.018132
0.213193 0.857847 0.034132
0.213193 0.857847 0.050132
0.213193 0.873847 0.034132
0.213193 0.873847 0.050132
0.197193 0.825847 0.066132
0.197193 0.825847 0.082132
0.213193 0.841847 0.066132
0.213193 0.841847 0.082132
0.197193 0.825847 0.098132
0.213193 0.825847 0.098132
0.213193 0.825847 0.114132
0.213193 0.841847 0.098132
0.213193 0.841847 0.114132
0.197193 0.873847 0.082132
0.213193 0.857847 0.066132
0.213193 0.857847 0.082132
0.213193 0.873847 0.066132
0.213193 0.873847 0.082132
0.197193 0.873847 0.098132
0.197193 0.873847 0.114132
0.213193 0.857847 0.098132
0.213193 0.857847 0.114132
0.213193 0.873847 0.098132
0.197193 0.889847 0.002132
0.197193 0.905847 0.002132
0.213193 0.889847 0.002132
0.213193 0.889847 0.018132
0.213193 0.905847 0.002132
0.213193 0.905847 0.018132
0.197193 0.905847 0.050132
0.213193 0.889847 0.034132
0.213193 0.889847 0.050132
0.213193 0.905847 0.034132
0.213193 0.905847 0.050132
0.197193 0.921847 0.002132
0.197193 0.937847 0.002132
0.197193 0.937847 0.018132
0.213193 0.921847 0.002132
0.213193 0.921847 0.018132
0.213193 0.937847 0.002132
0.197193 0.921847 0.034132
0.197193 0.921847 0.050132
0.197193 0.937847 0.034132
0.197193 0.937847 0.050132
0.213193 0.921847 0.034132
0.197193 0.889847 0.066132
0.197193 0.889847 0.082132
0.197193 0.905847 0.066132
0.197193 0.905847 0.082132
0.213193 0.889847 0.066132
0.197193 0.889847 0.098132
0.197193 0.889847 0.114132
0.197193 0.921847 0.066132
0.133193 0.953847 0.050132
0.149193 0.953847 0.034132
0.149193 0.953847 0.050132
0.165193 0.953847 0.018132
0.181193 0.953847 0.018132
0.165193 0.953847 0.034132
0.165193 0.953847 0.050132
0.181193 0.953847 0.034132
0.133193 0.953847 0.066132
0.149193 0.953847 0.066132
0.133193 0.825847 0.146132
0.133193 0.841847 0.130132
0.133193 0.841847 0.146132
0.149193 0.825847 0.130132
0.149193 0.825847 0.146132
0.149193 0.841847 0.130132
0.133193 0.825847 0.162132
0.133193 0.825847 0.178132
0.133193 0.841847 0.162132
0.133193 0.857847 0.130132
0.133193 0.857847 0.146132
0.133193 0.873847 0.130132
0.181193 0.873847 0.146132
0.181193 0.873847 0.162132
0.181193 0.873847 0.178132
0.133193 0.825847 0.194132
0.133193 0.873847 0.210132
0.149193 0.873847 0.210132
0.133193 0.857847 0.242132
0.133193 0.873847 0.226132
0.133193 0.873847 0.242132
0.149193 0.873847 0.226132
0.149193 0.873847 0.242132
0.181193 0.841847 0.242132
0.165193 0.873847 0.194132
0.165193 0.873847 0.210132
0.181193 0.857847 0.210132
0.181193 0.873847 0.194132
0.181193 0.873847 0.210132
0.165193 0.857847 0.226132
0.165193 0.857847 0.242132
0.165193 0.873847 0.226132
0.165193 0.873847 0.242132
0.181193 0.857847 0.226132
0.181193 0.857847 0.242132
0.181193 0.873847 0.226132
0.133193 0.905847 0.130132
0.133193 0.905847 0.146132
0.149193 0.905847 0.130132
0.149193 0.905847 0.146132
0.133193 0.889847 0.162132
0.133193 0.889847 0.178132
0.133193 0.905847 0.162132
0.149193 0.889847 0.162132
0.149193 0.889847 0.178132
0.149193 0.905847 0.162132
0.133193 0.921847 0.130132
0.149193 0.921847 0.130132
0.165193 0.889847 0.130132
0.165193 0.889847 0.146132
0.165193 0.905847 0.130132
0.165193 0.905847 0.146132
0.181193 0.889847 0.130132
0.181193 0.889847 0.146132
0.165193 0.889847 0.162132
0.165193 0.889847 0.178132
0.181193 0.889847 0.162132
0.133193 0.889847 0.194132
0.133193 0.889847 0.210132
0.149193 0.889847 0.194132
0.149193 0.889847 0.210132
0.165193 0.889847 0.194132
0.213193 0.825847 0.130132
0.213193 0.825847 0.146132
0.213193 0.841847 0.130132
0.213193 0.841847 0.146132
0.197193 0.841847 0.162132
0.197193 0.841847 0.178132
0.213193 0.825847 0.162132
0.213193 0.825847 0.178132
0.213193 0.841847 0.162132
0.213193 0.841847 0.178132
0.197193 0.857847 0.130132
0.197193 0.857847 0.146132
0.197193 0.873847 0.130132
0.197193 0.873847 0.146132
0.197193 0.857847 0.162132
0.197193 0.857847 0.178132
0.197193 0.873847 0.162132
0.197193 0.873847 0.178132
0.197193 0.841847 0.194132
0.197193 0.841847 0.210132
0.213193 0.825847 0.194132
0.213193 0.825847 0.210132
0.213193 0.841847 0.194132
0.213193 0.841847 0.210132
0.197193 0.825847 0.242132
0.197193 0.841847 0.226132
0.197193 0.841847 0.242132
0.213193 0.825847 0.226132
0.213193 0.825847 0.242132
0.197193 0.857847 0.194132
0.197193 0.857847 0.210132
0.197193 0.857847 0.226132
0.133193 0.841847 0.274132
0.133193 0.825847 0.306132
0.133193 0.841847 0.290132
0.133193 0.841847 0.306132
0.149193 0.841847 0.290132
0.149193 0.841847 0.306132
0.133193 0.857847 0.258132
0.133193 0.857847 0.274132
0.149193 0.857847 0.258132
0.149193 0.857847 0.274132
0.149193 0.873847 0.258132
0.149193 0.857847 0.290132
0.165193 0.841847 0.274132
0.181193 0.841847 0.258132
0.181193 0.841847 0.274132
0.165193 0.825847 0.306132
0.165193 0.841847 0.290132
0.165193 0.841847 0.306132
0.181193 0.825847 0.290132
0.181193 0.825847 0.306132
0.181193 0.841847 0.290132
0.165193 0.857847 0.258132
0.165193 0.857847 0.274132
0.181193 0.857847 0.258132
0.133193 0.825847 0.322132
0.133193 0.825847 0.338132
0.149193 0.825847 0.322132
0.149193 0.825847 0.338132
0.149193 0.841847 0.322132
0.165193 0.825847 0.322132
0.165193 0.825847 0.338132
0.181193 0.825847 0.322132
0.197193 0.825847 0.258132
0.197193 0.825847 0.274132
0.197193 0.841847 0.258132
0.197193 0.825847 0.290132
0.277193 0.825847 0.370132
0.309193 0.825847 0.338132
0.293193 0.825847 0.354132
0.293193 0.825847 0.370132
0.293193 0.841847 0.354132
0.293193 0.841847 0.370132
0.309193 0.825847 0.354132
0.309193 0.841847 0.354132
0.293193 0.857847 0.370132
0.309193 0.857847 0.354132
0.309193 0.857847 0.370132
0.309193 0.873847 0.354132
0.309193 0.873847 0.370132
0.357193 0.825847 0.306132
0.357193 0.841847 0.306132
0.373193 0.825847 0.306132
0.373193 0.841847 0.306132
0.357193 0.857847 0.306132
0.373193 0.857847 0.306132
0.373193 0.873847 0.306132
0.325193 0.825847 0.338132
0.325193 0.841847 0.338132
0.341193 0.825847 0.322132
0.341193 0.841847 0.322132
0.325193 0.857847 0.338132
0.325193 0.873847 0.338132
0.341193 0.857847 0.322132
0.341193 0.857847 0.338132
0.341193 0.873847 0.322132
0.341193 0.873847 0.338132
0.325193 0.857847 0.354132
0.325193 0.873847 0.354132
0.325193 0.873847 0.370132
0.357193 0.825847 0.322132
0.357193 0.841847 0.322132
0.357193 0.857847 0.322132
0.357193 0.873847 0.322132
0.373193 0.889847 0.306132
0.341193 0.889847 0.338132
0.325193 0.889847 0.354132
0.325193 0.889847 0.370132
0.341193 0.889847 0.354132
0.341193 0.889847 0.370132
0.341193 0.905847 0.354132
0.357193 0.889847 0.322132
0.357193 0.889847 0.338132
0.357193 0.905847 0.338132
0.373193 0.889847 0.322132
0.373193 0.905847 0.322132
0.357193 0.905847 0.354132
0.357193 0.905847 0.370132
0.373193 0.905847 0.370132
0.373193 0.921847 0.322132
0.373193 0.921847 0.338132
0.373193 0.921847 0.354132
0.373193 0.921847 0.370132
0.245193 0.825847 0.418132
0.261193 0.825847 0.386132
0.261193 0.825847 0.402132
0.277193 0.825847 0.386132
0.277193 0.841847 0.386132
0.277193 0.841847 0.402132
0.261193 0.825847 0.418132
0.261193 0.825847 0.434132
0.277193 0.825847 0.434132
0.277193 0.841847 0.418132
0.293193 0.825847 0.434132
0.293193 0.841847 0.434132
0.309193 0.825847 0.434132
0.309193 0.841847 0.434132
0.293193 0.857847 0.386132
0.293193 0.857847 0.402132
0.309193 0.873847 0.386132
0.309193 0.873847 0.402132
0.293193 0.857847 0.418132
0.309193 0.857847 0.418132
0.277193 0.825847 0.450132
0.293193 0.825847 0.450132
0.309193 0.825847 0.450132
0.325193 0.825847 0.434132
0.325193 0.841847 0.434132
0.341193 0.825847 0.418132
0.341193 0.825847 0.434132
0.341193 0.841847 0.418132
0.341193 0.841847 0.434132
0.325193 0.873847 0.386132
0.325193 0.873847 0.402132
0.341193 0.873847 0.402132
0.325193 0.857847 0.418132
0.341193 0.857847 0.418132
0.341193 0.873847 0.418132
0.357193 0.825847 0.402132
0.357193 0.841847 0.402132
0.373193 0.825847 0.386132
0.373193 0.825847 0.402132
0.373193 0.841847 0.386132
0.373193 0.841847 0.402132
0.357193 0.825847 0.418132
0.357193 0.841847 0.418132
0.357193 0.857847 0.402132
0.357193 0.873847 0.402132
0.373193 0.857847 0.386132
0.373193 0.857847 0.402132
0.373193 0.873847 0.386132
0.373193 0.873847 0.402132
0.357193 0.857847 0.418132
0.357193 0.873847 0.418132
0.325193 0.889847 0.386132
0.341193 0.889847 0.386132
0.341193 0.889847 0.402132
0.357193 0.889847 0.386132
0.357193 0.889847 0.402132
0.357193 0.905847 0.386132
0.373193 0.889847 0.386132
0.373193 0.889847 0.402132
0.373193 0.905847 0.386132
0.485193 0.905847 0.242132
0.501193 0.889847 0.242132
0.501193 0.905847 0.242132
0.485193 0.921847 0.242132
0.485193 0.937847 0.242132
0.501193 0.921847 0.226132
0.501193 0.921847 0.242132
0.501193 0.937847 0.226132
0.501193 0.937847 0.242132
0.389193 0.825847 0.306132
0.389193 0.841847 0.306132
0.405193 0.825847 0.306132
0.405193 0.841847 0.290132
0.405193 0.841847 0.306132
0.389193 0.857847 0.290132
0.389193 0.857847 0.306132
0.389193 0.873847 0.290132
0.389193 0.873847 0.306132
0.405193 0.857847 0.290132
0.405193 0.873847 0.290132
0.421193 0.825847 0.306132
0.421193 0.841847 0.290132
0.437193 0.825847 0.306132
0.437193 0.841847 0.290132
0.421193 0.873847 0.274132
0.437193 0.873847 0.274132
0.421193 0.857847 0.290132
0.421193 0.873847 0.290132
0.437193 0.857847 0.290132
0.437193 0.873847 0.290132
0.389193 0.841847 0.370132
0.405193 0.825847 0.370132
0.405193 0.841847 0.354132
0.405193 0.841847 0.370132
0.389193 0.857847 0.370132
0.389193 0.873847 0.370132
0.405193 0.857847 0.354132
0.405193 0.857847 0.370132
0.405193 0.873847 0.354132
0.405193 0.873847 0.370132
0.421193 0.825847 0.370132
0.421193 0.841847 0.354132
0.421193 0.841847 0.370132
0.437193 0.825847 0.370132
0.437193 0.841847 0.354132
0.421193 0.873847 0.338132
0.437193 0.857847 0.338132
0.437193 0.873847 0.322132
0.437193 0.873847 0.338132
0.421193 0.857847 0.354132
0.421193 0.873847 0.354132
0.437193 0.857847 0.354132
0.389193 0.889847 0.306132
0.389193 0.905847 0.306132
0.405193 0.889847 0.290132
0.405193 0.905847 0.290132
0.405193 0.905847 0.306132
0.405193 0.921847 0.306132
0.405193 0.937847 0.306132
0.421193 0.889847 0.274132
0.437193 0.889847 0.274132
0.437193 0.905847 0.274132
0.421193 0.889847 0.290132
0.421193 0.905847 0.290132
0.437193 0.921847 0.274132
0.437193 0.937847 0.274132
0.421193 0.921847 0.290132
0.421193 0.937847 0.290132
0.421193 0.937847 0.306132
0.437193 0.937847 0.290132
0.437193 0.937847 0.306132
0.389193 0.905847 0.322132
0.405193 0.889847 0.354132
0.405193 0.889847 0.370132
0.405193 0.905847 0.370132
0.389193 0.921847 0.322132
0.389193 0.921847 0.338132
0.389193 0.937847 0.338132
0.405193 0.937847 0.322132
0.405193 0.937847 0.338132
0.389193 0.921847 0.354132
0.389193 0.921847 0.370132
0.405193 0.921847 0.370132
0.405193 0.937847 0.354132
0.405193 0.937847 0.370132
0.421193 0.889847 0.338132
0.437193 0.889847 0.322132
0.437193 0.889847 0.338132
0.437193 0.905847 0.322132
0.437193 0.905847 0.338132
0.421193 0.889847 0.354132
0.421193 0.905847 0.354132
0.421193 0.905847 0.370132
0.421193 0.937847 0.322132
0.421193 0.937847 0.338132
0.437193 0.921847 0.322132
0.437193 0.921847 0.338132
0.437193 0.937847 0.338132
0.421193 0.921847 0.354132
0.421193 0.921847 0.370132
0.421193 0.937847 0.354132
0.437193 0.921847 0.354132
0.437193 0.937847 0.354132
0.453193 0.825847 0.306132
0.453193 0.841847 0.290132
0.469193 0.825847 0.306132
0.469193 0.841847 0.290132
0.453193 0.857847 0.274132
0.453193 0.873847 0.274132
0.469193 0.857847 0.274132
0.469193 0.873847 0.274132
0.453193 0.857847 0.290132
0.469193 0.873847 0.306132
0.501193 0.841847 0.274132
0.485193 0.825847 0.290132
0.485193 0.825847 0.306132
0.485193 0.841847 0.290132
0.501193 0.825847 0.290132
0.501193 0.825847 0.306132
0.501193 0.841847 0.290132
0.485193 0.857847 0.274132
0.485193 0.873847 0.258132
0.485193 0.873847 0.274132
0.501193 0.857847 0.274132
0.501193 0.873847 0.258132
0.485193 0.857847 0.290132
0.485193 0.873847 0.306132
0.501193 0.857847 0.306132
0.501193 0.873847 0.290132
0.501193 0.873847 0.306132
0.469193 0.841847 0.338132
0.453193 0.825847 0.354132
0.453193 0.825847 0.370132
0.453193 0.841847 0.354132
0.469193 0.825847 0.354132
0.469193 0.825847 0.370132
0.453193 0.857847 0.322132
0.453193 0.857847 0.338132
0.453193 0.873847 0.322132
0.453193 0.873847 0.338132
0.469193 0.857847 0.322132
0.469193 0.857847 0.338132
0.469193 0.873847 0.322132
0.485193 0.825847 0.322132
0.485193 0.841847 0.338132
0.501193 0.825847 0.322132
0.501193 0.825847 0.338132
0.501193 0.841847 0.322132
0.501193 0.841847 0.338132
0.485193 0.825847 0.354132
0.485193 0.825847 0.370132
0.501193 0.825847 0.354132
0.485193 0.857847 0.322132
0.485193 0.857847 0.338132
0.501193 0.857847 0.322132
0.453193 0.889847 0.258132
0.453193 0.889847 0.274132
0.453193 0.905847 0.258132
0.453193 0.905847 0.274132
0.469193 0.889847 0.258132
0.469193 0.905847 0.258132
0.453193 0.889847 0.306132
0.453193 0.905847 0.306132
0.469193 0.889847 0.306132
0.469193 0.905847 0.306132
0.453193 0.921847 0.258132
0.453193 0.921847 0.274132
0.453193 0.937847 0.258132
0.453193 0.937847 0.274132
0.469193 0.921847 0.258132
0.469193 0.937847 0.258132
0.453193 0.921847 0.306132
0.469193 0.921847 0.290132
0.469193 0.921847 0.306132
0.469193 0.937847 0.290132
0.469193 0.937847 0.306132
0.485193 0.889847 0.258132
0.485193 0.905847 0.258132
0.501193 0.889847 0.258132
0.501193 0.905847 0.274132
0.485193 0.889847 0.290132
0.485193 0.889847 0.306132
0.485193 0.905847 0.290132
0.485193 0.905847 0.306132
0.501193 0.889847 0.290132
0.501193 0.905847 0.290132
