ply
format ascii 1.0
element vertex 1773
property float x
property float y
property float z
end_header
0.137693 0.760347 0.149632
0.144693 0.767347 0.142632
0.144693 0.767347 0.149632
0.144693 0.774347 0.128632
0.144693 0.774347 0.135632
0.144693 0.774347 0.142632
0.144693 0.774347 0.149632
0.060693 0.571347 0.373632
0.060693 0.578347 0.373632
0.060693 0.592347 0.373632
0.060693 0.599347 0.373632
0.067693 0.564347 0.373632
0.067693 0.571347 0.373632
0.074693 0.564347 0.373632
0.074693 0.571347 0.373632
0.067693 0.578347 0.373632
0.074693 0.585347 0.366632
0.081693 0.564347 0.366632
0.081693 0.571347 0.366632
0.088693 0.564347 0.366632
0.088693 0.571347 0.366632
0.081693 0.585347 0.366632
0.088693 0.585347 0.366632
0.067693 0.592347 0.373632
0.067693 0.599347 0.373632
0.074693 0.592347 0.366632
0.074693 0.599347 0.366632
0.067693 0.613347 0.373632
0.074693 0.613347 0.366632
0.088693 0.599347 0.359632
0.081693 0.592347 0.366632
0.081693 0.599347 0.366632
0.088693 0.592347 0.366632
0.088693 0.613347 0.359632
0.081693 0.613347 0.366632
0.067693 0.620347 0.373632
0.074693 0.620347 0.373632
0.074693 0.627347 0.373632
0.081693 0.620347 0.366632
0.081693 0.627347 0.373632
0.088693 0.620347 0.366632
0.088693 0.627347 0.366632
0.081693 0.641347 0.373632
0.088693 0.641347 0.373632
0.088693 0.648347 0.373632
0.088693 0.655347 0.373632
0.095693 0.564347 0.359632
0.095693 0.571347 0.359632
0.102693 0.564347 0.359632
0.102693 0.571347 0.359632
0.095693 0.585347 0.359632
0.102693 0.585347 0.359632
0.109693 0.564347 0.352632
0.109693 0.571347 0.352632
0.116693 0.564347 0.352632
0.116693 0.571347 0.352632
0.109693 0.585347 0.352632
0.116693 0.585347 0.352632
0.116693 0.599347 0.345632
0.095693 0.592347 0.359632
0.095693 0.599347 0.359632
0.102693 0.592347 0.359632
0.102693 0.599347 0.359632
0.095693 0.613347 0.359632
0.102693 0.613347 0.359632
0.109693 0.592347 0.352632
0.109693 0.599347 0.352632
0.116693 0.592347 0.352632
0.109693 0.613347 0.352632
0.116693 0.613347 0.352632
0.130693 0.564347 0.345632
0.130693 0.571347 0.345632
0.123693 0.585347 0.345632
0.130693 0.585347 0.345632
0.137693 0.564347 0.345632
0.137693 0.571347 0.345632
0.144693 0.564347 0.345632
0.144693 0.571347 0.345632
0.137693 0.585347 0.345632
0.144693 0.585347 0.345632
0.123693 0.564347 0.352632
0.123693 0.571347 0.352632
0.123693 0.592347 0.345632
0.123693 0.599347 0.345632
0.130693 0.592347 0.345632
0.130693 0.599347 0.345632
0.123693 0.613347 0.345632
0.130693 0.613347 0.345632
0.137693 0.592347 0.345632
0.137693 0.599347 0.338632
0.144693 0.592347 0.338632
0.144693 0.599347 0.338632
0.137693 0.613347 0.338632
0.144693 0.613347 0.338632
0.102693 0.620347 0.359632
0.102693 0.627347 0.359632
0.095693 0.620347 0.366632
0.095693 0.627347 0.366632
0.095693 0.641347 0.366632
0.102693 0.641347 0.366632
0.109693 0.620347 0.352632
0.109693 0.627347 0.359632
0.116693 0.620347 0.352632
0.116693 0.627347 0.352632
0.109693 0.641347 0.359632
0.116693 0.641347 0.352632
0.095693 0.648347 0.366632
0.095693 0.655347 0.373632
0.102693 0.648347 0.366632
0.102693 0.655347 0.366632
0.095693 0.669347 0.373632
0.102693 0.669347 0.366632
0.109693 0.648347 0.359632
0.116693 0.648347 0.359632
0.116693 0.655347 0.359632
0.109693 0.655347 0.366632
0.116693 0.669347 0.359632
0.109693 0.669347 0.366632
0.123693 0.620347 0.345632
0.123693 0.627347 0.345632
0.130693 0.620347 0.345632
0.130693 0.627347 0.345632
0.130693 0.641347 0.345632
0.137693 0.620347 0.345632
0.137693 0.627347 0.345632
0.144693 0.620347 0.338632
0.144693 0.627347 0.345632
0.137693 0.641347 0.345632
0.144693 0.641347 0.345632
0.123693 0.627347 0.352632
0.123693 0.641347 0.352632
0.130693 0.648347 0.345632
0.137693 0.648347 0.345632
0.144693 0.648347 0.345632
0.144693 0.655347 0.345632
0.123693 0.648347 0.352632
0.123693 0.655347 0.352632
0.123693 0.655347 0.359632
0.130693 0.655347 0.352632
0.123693 0.669347 0.352632
0.123693 0.669347 0.359632
0.130693 0.669347 0.352632
0.137693 0.655347 0.352632
0.137693 0.669347 0.352632
0.144693 0.669347 0.352632
0.144693 0.725347 0.240632
0.144693 0.725347 0.261632
0.130693 0.753347 0.177632
0.144693 0.739347 0.170632
0.137693 0.753347 0.156632
0.137693 0.753347 0.163632
0.144693 0.746347 0.163632
0.137693 0.753347 0.170632
0.144693 0.746347 0.170632
0.144693 0.746347 0.177632
0.130693 0.753347 0.184632
0.130693 0.753347 0.191632
0.130693 0.753347 0.198632
0.130693 0.753347 0.205632
0.144693 0.739347 0.184632
0.137693 0.739347 0.205632
0.144693 0.739347 0.198632
0.137693 0.746347 0.184632
0.137693 0.746347 0.191632
0.137693 0.746347 0.205632
0.130693 0.760347 0.177632
0.137693 0.760347 0.156632
0.137693 0.760347 0.163632
0.137693 0.767347 0.156632
0.137693 0.767347 0.163632
0.137693 0.760347 0.170632
0.137693 0.767347 0.170632
0.137693 0.767347 0.177632
0.137693 0.774347 0.163632
0.144693 0.774347 0.156632
0.144693 0.774347 0.163632
0.137693 0.774347 0.170632
0.137693 0.774347 0.177632
0.130693 0.760347 0.184632
0.130693 0.760347 0.191632
0.130693 0.760347 0.198632
0.130693 0.760347 0.205632
0.130693 0.767347 0.198632
0.130693 0.767347 0.205632
0.137693 0.767347 0.184632
0.137693 0.767347 0.191632
0.137693 0.774347 0.184632
0.137693 0.774347 0.191632
0.137693 0.774347 0.198632
0.137693 0.774347 0.205632
0.130693 0.753347 0.212632
0.130693 0.753347 0.219632
0.123693 0.753347 0.226632
0.123693 0.753347 0.233632
0.137693 0.739347 0.212632
0.137693 0.739347 0.219632
0.144693 0.732347 0.219632
0.144693 0.739347 0.212632
0.137693 0.739347 0.226632
0.137693 0.739347 0.233632
0.144693 0.739347 0.226632
0.130693 0.739347 0.254632
0.130693 0.739347 0.261632
0.123693 0.753347 0.240632
0.123693 0.753347 0.247632
0.123693 0.753347 0.254632
0.123693 0.753347 0.261632
0.137693 0.739347 0.240632
0.137693 0.739347 0.247632
0.144693 0.732347 0.240632
0.144693 0.732347 0.247632
0.137693 0.732347 0.261632
0.144693 0.732347 0.254632
0.130693 0.760347 0.212632
0.130693 0.760347 0.219632
0.130693 0.767347 0.212632
0.130693 0.767347 0.219632
0.123693 0.760347 0.226632
0.123693 0.760347 0.233632
0.130693 0.767347 0.226632
0.130693 0.767347 0.233632
0.130693 0.774347 0.226632
0.130693 0.774347 0.233632
0.137693 0.774347 0.212632
0.137693 0.774347 0.219632
0.123693 0.760347 0.240632
0.123693 0.760347 0.247632
0.130693 0.767347 0.240632
0.130693 0.767347 0.247632
0.123693 0.760347 0.254632
0.123693 0.760347 0.261632
0.123693 0.767347 0.254632
0.130693 0.767347 0.261632
0.130693 0.781347 0.240632
0.130693 0.781347 0.247632
0.130693 0.781347 0.254632
0.130693 0.781347 0.261632
0.144693 0.725347 0.268632
0.144693 0.725347 0.275632
0.144693 0.718347 0.282632
0.144693 0.725347 0.282632
0.144693 0.725347 0.289632
0.137693 0.711347 0.317632
0.144693 0.711347 0.310632
0.144693 0.711347 0.317632
0.137693 0.725347 0.296632
0.137693 0.725347 0.303632
0.144693 0.718347 0.296632
0.137693 0.725347 0.310632
0.137693 0.725347 0.317632
0.095693 0.676347 0.373632
0.095693 0.683347 0.373632
0.102693 0.676347 0.366632
0.102693 0.683347 0.366632
0.095693 0.690347 0.373632
0.095693 0.697347 0.373632
0.102693 0.690347 0.366632
0.116693 0.676347 0.359632
0.116693 0.683347 0.359632
0.109693 0.676347 0.366632
0.109693 0.683347 0.366632
0.116693 0.697347 0.359632
0.109693 0.697347 0.366632
0.102693 0.704347 0.373632
0.109693 0.704347 0.366632
0.116693 0.725347 0.359632
0.109693 0.718347 0.373632
0.109693 0.725347 0.373632
0.116693 0.718347 0.366632
0.116693 0.725347 0.366632
0.144693 0.697347 0.345632
0.123693 0.676347 0.352632
0.123693 0.676347 0.359632
0.123693 0.683347 0.352632
0.130693 0.676347 0.352632
0.130693 0.683347 0.352632
0.123693 0.697347 0.352632
0.130693 0.697347 0.352632
0.137693 0.676347 0.352632
0.137693 0.683347 0.352632
0.144693 0.676347 0.352632
0.144693 0.683347 0.352632
0.137693 0.697347 0.352632
0.130693 0.725347 0.324632
0.130693 0.725347 0.331632
0.123693 0.725347 0.338632
0.123693 0.725347 0.345632
0.130693 0.718347 0.338632
0.130693 0.718347 0.345632
0.137693 0.711347 0.324632
0.144693 0.704347 0.331632
0.144693 0.711347 0.331632
0.137693 0.704347 0.345632
0.144693 0.704347 0.338632
0.137693 0.718347 0.331632
0.123693 0.704347 0.359632
0.130693 0.704347 0.352632
0.123693 0.718347 0.352632
0.123693 0.718347 0.359632
0.123693 0.725347 0.352632
0.116693 0.753347 0.289632
0.116693 0.753347 0.296632
0.116693 0.753347 0.303632
0.116693 0.753347 0.310632
0.116693 0.753347 0.317632
0.116693 0.767347 0.317632
0.116693 0.781347 0.296632
0.116693 0.781347 0.303632
0.109693 0.781347 0.317632
0.116693 0.781347 0.310632
0.116693 0.781347 0.317632
0.130693 0.739347 0.268632
0.130693 0.739347 0.275632
0.123693 0.739347 0.289632
0.130693 0.732347 0.289632
0.130693 0.739347 0.282632
0.123693 0.753347 0.268632
0.123693 0.753347 0.275632
0.123693 0.753347 0.282632
0.137693 0.732347 0.268632
0.137693 0.732347 0.275632
0.137693 0.732347 0.282632
0.123693 0.739347 0.296632
0.123693 0.739347 0.303632
0.130693 0.732347 0.296632
0.130693 0.732347 0.303632
0.123693 0.739347 0.310632
0.123693 0.739347 0.317632
0.130693 0.732347 0.310632
0.130693 0.732347 0.317632
0.123693 0.760347 0.268632
0.123693 0.760347 0.275632
0.123693 0.767347 0.268632
0.123693 0.767347 0.275632
0.123693 0.760347 0.282632
0.123693 0.760347 0.289632
0.123693 0.767347 0.282632
0.123693 0.767347 0.289632
0.130693 0.774347 0.275632
0.130693 0.781347 0.268632
0.123693 0.774347 0.282632
0.123693 0.774347 0.289632
0.123693 0.760347 0.296632
0.123693 0.760347 0.303632
0.123693 0.767347 0.296632
0.123693 0.767347 0.303632
0.123693 0.760347 0.310632
0.123693 0.760347 0.317632
0.123693 0.767347 0.310632
0.123693 0.767347 0.317632
0.116693 0.739347 0.324632
0.116693 0.739347 0.331632
0.116693 0.732347 0.338632
0.116693 0.732347 0.345632
0.116693 0.739347 0.338632
0.116693 0.739347 0.345632
0.116693 0.753347 0.324632
0.116693 0.753347 0.331632
0.116693 0.753347 0.345632
0.109693 0.739347 0.359632
0.116693 0.732347 0.352632
0.116693 0.732347 0.359632
0.116693 0.739347 0.352632
0.109693 0.732347 0.366632
0.109693 0.732347 0.373632
0.109693 0.739347 0.373632
0.109693 0.753347 0.359632
0.116693 0.753347 0.352632
0.109693 0.746347 0.366632
0.109693 0.753347 0.366632
0.109693 0.753347 0.373632
0.116693 0.767347 0.324632
0.116693 0.767347 0.331632
0.116693 0.760347 0.345632
0.116693 0.767347 0.338632
0.116693 0.767347 0.345632
0.109693 0.781347 0.324632
0.116693 0.781347 0.331632
0.116693 0.781347 0.338632
0.116693 0.781347 0.345632
0.109693 0.760347 0.359632
0.109693 0.767347 0.359632
0.116693 0.760347 0.352632
0.116693 0.767347 0.352632
0.109693 0.760347 0.366632
0.109693 0.760347 0.373632
0.109693 0.767347 0.366632
0.109693 0.767347 0.373632
0.116693 0.781347 0.352632
0.116693 0.781347 0.359632
0.116693 0.781347 0.366632
0.116693 0.781347 0.373632
0.123693 0.732347 0.324632
0.123693 0.732347 0.331632
0.123693 0.753347 0.338632
0.123693 0.760347 0.324632
0.123693 0.760347 0.331632
0.123693 0.760347 0.338632
0.228693 0.347347 0.261632
0.228693 0.354347 0.261632
0.228693 0.361347 0.261632
0.235693 0.340347 0.261632
0.235693 0.347347 0.261632
0.242693 0.340347 0.261632
0.242693 0.347347 0.261632
0.235693 0.354347 0.261632
0.235693 0.361347 0.261632
0.242693 0.354347 0.261632
0.249693 0.340347 0.261632
0.249693 0.347347 0.261632
0.256693 0.340347 0.261632
0.256693 0.347347 0.261632
0.249693 0.354347 0.254632
0.256693 0.354347 0.254632
0.235693 0.375347 0.261632
0.242693 0.368347 0.254632
0.242693 0.375347 0.254632
0.235693 0.382347 0.261632
0.235693 0.389347 0.261632
0.242693 0.382347 0.261632
0.242693 0.389347 0.261632
0.249693 0.368347 0.254632
0.249693 0.375347 0.254632
0.256693 0.368347 0.254632
0.256693 0.375347 0.254632
0.249693 0.382347 0.254632
0.256693 0.382347 0.254632
0.235693 0.403347 0.261632
0.242693 0.403347 0.261632
0.235693 0.410347 0.261632
0.242693 0.410347 0.261632
0.249693 0.396347 0.254632
0.249693 0.403347 0.261632
0.256693 0.396347 0.254632
0.256693 0.403347 0.261632
0.249693 0.410347 0.261632
0.249693 0.417347 0.261632
0.256693 0.410347 0.261632
0.256693 0.417347 0.261632
0.256693 0.431347 0.261632
0.151693 0.340347 0.289632
0.158693 0.347347 0.289632
0.151693 0.354347 0.289632
0.151693 0.361347 0.289632
0.158693 0.354347 0.289632
0.158693 0.361347 0.289632
0.165693 0.347347 0.282632
0.172693 0.347347 0.282632
0.165693 0.354347 0.289632
0.165693 0.361347 0.289632
0.172693 0.354347 0.282632
0.172693 0.361347 0.289632
0.151693 0.368347 0.289632
0.158693 0.368347 0.289632
0.158693 0.382347 0.289632
0.158693 0.389347 0.289632
0.165693 0.368347 0.289632
0.172693 0.375347 0.289632
0.165693 0.382347 0.289632
0.165693 0.389347 0.289632
0.172693 0.382347 0.289632
0.172693 0.389347 0.289632
0.151693 0.382347 0.296632
0.151693 0.389347 0.296632
0.186693 0.347347 0.275632
0.179693 0.347347 0.282632
0.186693 0.354347 0.275632
0.179693 0.354347 0.282632
0.179693 0.361347 0.282632
0.186693 0.361347 0.282632
0.193693 0.347347 0.275632
0.200693 0.347347 0.275632
0.193693 0.354347 0.275632
0.193693 0.361347 0.275632
0.200693 0.354347 0.275632
0.200693 0.361347 0.275632
0.179693 0.375347 0.282632
0.186693 0.375347 0.282632
0.179693 0.382347 0.289632
0.179693 0.389347 0.289632
0.186693 0.382347 0.282632
0.186693 0.389347 0.282632
0.193693 0.375347 0.275632
0.200693 0.375347 0.275632
0.193693 0.382347 0.275632
0.200693 0.382347 0.275632
0.200693 0.389347 0.275632
0.193693 0.389347 0.282632
0.165693 0.396347 0.289632
0.172693 0.396347 0.289632
0.172693 0.410347 0.289632
0.151693 0.396347 0.296632
0.158693 0.396347 0.296632
0.151693 0.410347 0.296632
0.151693 0.417347 0.296632
0.158693 0.410347 0.296632
0.158693 0.417347 0.296632
0.165693 0.410347 0.296632
0.165693 0.417347 0.296632
0.172693 0.417347 0.296632
0.151693 0.424347 0.303632
0.158693 0.424347 0.303632
0.151693 0.438347 0.303632
0.158693 0.438347 0.303632
0.158693 0.445347 0.303632
0.151693 0.445347 0.310632
0.165693 0.424347 0.296632
0.172693 0.424347 0.296632
0.165693 0.438347 0.303632
0.165693 0.445347 0.303632
0.172693 0.438347 0.296632
0.172693 0.445347 0.296632
0.179693 0.403347 0.289632
0.186693 0.403347 0.282632
0.179693 0.410347 0.289632
0.179693 0.417347 0.289632
0.186693 0.410347 0.289632
0.186693 0.417347 0.289632
0.193693 0.403347 0.282632
0.200693 0.403347 0.282632
0.193693 0.410347 0.282632
0.193693 0.417347 0.289632
0.200693 0.410347 0.282632
0.200693 0.417347 0.289632
0.186693 0.424347 0.289632
0.186693 0.438347 0.289632
0.186693 0.445347 0.289632
0.193693 0.424347 0.289632
0.200693 0.431347 0.282632
0.193693 0.438347 0.289632
0.193693 0.445347 0.289632
0.200693 0.438347 0.282632
0.200693 0.445347 0.282632
0.179693 0.424347 0.296632
0.179693 0.438347 0.296632
0.179693 0.445347 0.296632
0.207693 0.347347 0.275632
0.214693 0.347347 0.268632
0.214693 0.347347 0.275632
0.207693 0.354347 0.275632
0.207693 0.361347 0.275632
0.214693 0.354347 0.275632
0.214693 0.361347 0.275632
0.221693 0.347347 0.268632
0.221693 0.354347 0.268632
0.221693 0.361347 0.268632
0.207693 0.375347 0.275632
0.214693 0.375347 0.275632
0.207693 0.382347 0.275632
0.207693 0.389347 0.275632
0.214693 0.382347 0.275632
0.214693 0.389347 0.275632
0.221693 0.375347 0.268632
0.228693 0.375347 0.268632
0.221693 0.382347 0.268632
0.221693 0.389347 0.275632
0.228693 0.382347 0.268632
0.228693 0.389347 0.268632
0.207693 0.403347 0.275632
0.214693 0.403347 0.275632
0.214693 0.410347 0.275632
0.214693 0.417347 0.275632
0.207693 0.410347 0.282632
0.207693 0.417347 0.282632
0.221693 0.403347 0.268632
0.228693 0.403347 0.268632
0.221693 0.410347 0.275632
0.221693 0.417347 0.275632
0.228693 0.410347 0.268632
0.228693 0.417347 0.268632
0.214693 0.431347 0.275632
0.207693 0.431347 0.282632
0.207693 0.438347 0.275632
0.214693 0.438347 0.275632
0.214693 0.445347 0.275632
0.207693 0.438347 0.282632
0.207693 0.445347 0.282632
0.221693 0.431347 0.275632
0.228693 0.431347 0.275632
0.221693 0.438347 0.275632
0.221693 0.445347 0.275632
0.228693 0.438347 0.275632
0.228693 0.445347 0.275632
0.235693 0.417347 0.268632
0.242693 0.417347 0.268632
0.235693 0.431347 0.275632
0.242693 0.431347 0.268632
0.235693 0.438347 0.275632
0.235693 0.445347 0.275632
0.242693 0.438347 0.275632
0.242693 0.445347 0.275632
0.249693 0.431347 0.268632
0.249693 0.438347 0.268632
0.249693 0.445347 0.275632
0.256693 0.438347 0.268632
0.256693 0.445347 0.268632
0.151693 0.452347 0.310632
0.158693 0.452347 0.310632
0.151693 0.466347 0.317632
0.151693 0.473347 0.317632
0.158693 0.466347 0.310632
0.158693 0.473347 0.317632
0.165693 0.452347 0.303632
0.172693 0.452347 0.303632
0.172693 0.466347 0.303632
0.165693 0.466347 0.310632
0.165693 0.473347 0.317632
0.172693 0.473347 0.310632
0.165693 0.480347 0.317632
0.172693 0.480347 0.317632
0.172693 0.494347 0.317632
0.193693 0.452347 0.289632
0.200693 0.452347 0.289632
0.200693 0.459347 0.282632
0.200693 0.466347 0.289632
0.179693 0.452347 0.296632
0.186693 0.452347 0.296632
0.179693 0.466347 0.303632
0.186693 0.466347 0.303632
0.186693 0.473347 0.303632
0.179693 0.473347 0.310632
0.193693 0.466347 0.296632
0.193693 0.473347 0.303632
0.200693 0.473347 0.296632
0.179693 0.480347 0.310632
0.186693 0.480347 0.310632
0.179693 0.494347 0.317632
0.179693 0.501347 0.317632
0.186693 0.494347 0.310632
0.186693 0.501347 0.317632
0.193693 0.480347 0.303632
0.200693 0.480347 0.296632
0.200693 0.480347 0.303632
0.200693 0.494347 0.303632
0.200693 0.501347 0.303632
0.193693 0.494347 0.310632
0.193693 0.501347 0.310632
0.200693 0.501347 0.310632
0.151693 0.480347 0.324632
0.151693 0.487347 0.331632
0.158693 0.480347 0.324632
0.158693 0.487347 0.324632
0.151693 0.501347 0.331632
0.158693 0.501347 0.331632
0.165693 0.494347 0.324632
0.165693 0.501347 0.324632
0.172693 0.501347 0.324632
0.186693 0.508347 0.317632
0.193693 0.508347 0.317632
0.200693 0.508347 0.310632
0.200693 0.515347 0.310632
0.193693 0.522347 0.317632
0.200693 0.522347 0.317632
0.158693 0.508347 0.331632
0.151693 0.508347 0.338632
0.151693 0.515347 0.338632
0.158693 0.515347 0.338632
0.151693 0.529347 0.345632
0.158693 0.529347 0.345632
0.165693 0.508347 0.331632
0.165693 0.515347 0.331632
0.172693 0.508347 0.324632
0.172693 0.515347 0.331632
0.165693 0.529347 0.338632
0.172693 0.529347 0.338632
0.151693 0.536347 0.345632
0.151693 0.543347 0.345632
0.158693 0.536347 0.345632
0.158693 0.543347 0.345632
0.151693 0.557347 0.345632
0.158693 0.557347 0.338632
0.165693 0.536347 0.345632
0.165693 0.543347 0.345632
0.172693 0.536347 0.338632
0.172693 0.543347 0.338632
0.165693 0.557347 0.338632
0.172693 0.557347 0.338632
0.179693 0.508347 0.324632
0.179693 0.515347 0.324632
0.179693 0.529347 0.331632
0.186693 0.522347 0.324632
0.186693 0.529347 0.331632
0.193693 0.529347 0.324632
0.200693 0.529347 0.324632
0.179693 0.536347 0.338632
0.179693 0.543347 0.338632
0.186693 0.536347 0.338632
0.186693 0.543347 0.338632
0.179693 0.557347 0.338632
0.186693 0.557347 0.338632
0.193693 0.536347 0.331632
0.200693 0.536347 0.331632
0.200693 0.543347 0.331632
0.193693 0.543347 0.338632
0.200693 0.543347 0.338632
0.193693 0.557347 0.338632
0.200693 0.557347 0.338632
0.207693 0.459347 0.282632
0.214693 0.459347 0.282632
0.207693 0.466347 0.282632
0.207693 0.473347 0.289632
0.214693 0.466347 0.282632
0.214693 0.473347 0.289632
0.221693 0.459347 0.275632
0.228693 0.459347 0.275632
0.221693 0.466347 0.282632
0.221693 0.473347 0.282632
0.228693 0.466347 0.282632
0.228693 0.473347 0.282632
0.207693 0.473347 0.296632
0.214693 0.480347 0.289632
0.221693 0.480347 0.289632
0.228693 0.480347 0.282632
0.221693 0.494347 0.289632
0.228693 0.494347 0.289632
0.228693 0.501347 0.289632
0.207693 0.480347 0.296632
0.207693 0.494347 0.296632
0.207693 0.501347 0.303632
0.214693 0.494347 0.296632
0.214693 0.501347 0.296632
0.221693 0.501347 0.296632
0.235693 0.459347 0.275632
0.242693 0.459347 0.275632
0.235693 0.466347 0.282632
0.235693 0.473347 0.282632
0.242693 0.466347 0.282632
0.242693 0.473347 0.282632
0.249693 0.459347 0.275632
0.256693 0.459347 0.275632
0.249693 0.466347 0.275632
0.256693 0.466347 0.275632
0.256693 0.473347 0.275632
0.249693 0.473347 0.282632
0.235693 0.487347 0.282632
0.242693 0.487347 0.282632
0.235693 0.494347 0.289632
0.235693 0.501347 0.289632
0.242693 0.494347 0.282632
0.242693 0.501347 0.289632
0.249693 0.487347 0.282632
0.256693 0.487347 0.282632
0.249693 0.494347 0.282632
0.249693 0.501347 0.289632
0.256693 0.494347 0.282632
0.256693 0.501347 0.282632
0.207693 0.508347 0.303632
0.214693 0.508347 0.303632
0.214693 0.515347 0.310632
0.214693 0.522347 0.310632
0.214693 0.529347 0.317632
0.221693 0.508347 0.296632
0.228693 0.508347 0.296632
0.221693 0.522347 0.303632
0.228693 0.522347 0.303632
0.221693 0.529347 0.310632
0.228693 0.529347 0.310632
0.221693 0.536347 0.317632
0.228693 0.536347 0.317632
0.228693 0.543347 0.317632
0.242693 0.508347 0.289632
0.249693 0.508347 0.289632
0.256693 0.508347 0.289632
0.235693 0.508347 0.296632
0.242693 0.515347 0.296632
0.235693 0.522347 0.303632
0.235693 0.529347 0.303632
0.242693 0.522347 0.303632
0.242693 0.529347 0.303632
0.249693 0.515347 0.296632
0.256693 0.515347 0.296632
0.249693 0.522347 0.296632
0.249693 0.529347 0.303632
0.256693 0.522347 0.296632
0.235693 0.536347 0.310632
0.235693 0.543347 0.317632
0.242693 0.536347 0.310632
0.242693 0.543347 0.317632
0.256693 0.536347 0.303632
0.249693 0.543347 0.310632
0.256693 0.543347 0.310632
0.249693 0.550347 0.317632
0.249693 0.557347 0.317632
0.256693 0.550347 0.310632
0.256693 0.557347 0.317632
0.207693 0.536347 0.324632
0.207693 0.543347 0.331632
0.214693 0.536347 0.324632
0.214693 0.543347 0.331632
0.214693 0.557347 0.331632
0.207693 0.557347 0.338632
0.221693 0.543347 0.324632
0.221693 0.550347 0.324632
0.221693 0.557347 0.331632
0.228693 0.550347 0.324632
0.228693 0.557347 0.331632
0.235693 0.550347 0.324632
0.235693 0.557347 0.331632
0.242693 0.550347 0.324632
0.242693 0.557347 0.331632
0.249693 0.557347 0.324632
0.263693 0.340347 0.261632
0.263693 0.347347 0.254632
0.270693 0.340347 0.261632
0.270693 0.347347 0.261632
0.263693 0.354347 0.254632
0.270693 0.354347 0.254632
0.277693 0.340347 0.261632
0.277693 0.347347 0.261632
0.284693 0.340347 0.261632
0.284693 0.347347 0.261632
0.277693 0.354347 0.254632
0.284693 0.354347 0.261632
0.263693 0.368347 0.254632
0.263693 0.375347 0.254632
0.270693 0.368347 0.254632
0.270693 0.375347 0.254632
0.263693 0.382347 0.254632
0.270693 0.382347 0.254632
0.277693 0.368347 0.254632
0.277693 0.375347 0.254632
0.284693 0.368347 0.254632
0.284693 0.375347 0.254632
0.277693 0.382347 0.254632
0.284693 0.382347 0.254632
0.284693 0.382347 0.261632
0.291693 0.340347 0.254632
0.291693 0.347347 0.254632
0.298693 0.340347 0.254632
0.298693 0.347347 0.254632
0.291693 0.354347 0.254632
0.298693 0.354347 0.254632
0.305693 0.340347 0.254632
0.305693 0.347347 0.254632
0.312693 0.340347 0.254632
0.312693 0.347347 0.254632
0.305693 0.354347 0.254632
0.312693 0.354347 0.254632
0.291693 0.368347 0.254632
0.291693 0.375347 0.254632
0.298693 0.368347 0.254632
0.298693 0.375347 0.254632
0.291693 0.382347 0.261632
0.298693 0.382347 0.261632
0.305693 0.368347 0.254632
0.305693 0.375347 0.254632
0.312693 0.368347 0.254632
0.312693 0.375347 0.254632
0.305693 0.382347 0.261632
0.312693 0.382347 0.254632
0.263693 0.396347 0.254632
0.263693 0.403347 0.254632
0.270693 0.396347 0.254632
0.270693 0.403347 0.254632
0.263693 0.410347 0.254632
0.263693 0.417347 0.254632
0.270693 0.410347 0.254632
0.270693 0.417347 0.254632
0.277693 0.396347 0.254632
0.277693 0.403347 0.254632
0.284693 0.396347 0.254632
0.284693 0.396347 0.261632
0.284693 0.403347 0.254632
0.277693 0.410347 0.254632
0.277693 0.417347 0.254632
0.284693 0.410347 0.254632
0.263693 0.431347 0.261632
0.270693 0.431347 0.261632
0.263693 0.438347 0.261632
0.270693 0.438347 0.261632
0.277693 0.431347 0.254632
0.284693 0.424347 0.254632
0.284693 0.431347 0.254632
0.277693 0.438347 0.261632
0.277693 0.445347 0.261632
0.284693 0.438347 0.261632
0.284693 0.445347 0.261632
0.291693 0.396347 0.254632
0.291693 0.403347 0.254632
0.298693 0.396347 0.254632
0.298693 0.403347 0.254632
0.291693 0.410347 0.254632
0.298693 0.410347 0.254632
0.305693 0.396347 0.254632
0.305693 0.403347 0.254632
0.312693 0.396347 0.254632
0.312693 0.403347 0.254632
0.305693 0.410347 0.254632
0.312693 0.410347 0.254632
0.291693 0.424347 0.254632
0.291693 0.431347 0.254632
0.298693 0.424347 0.254632
0.298693 0.431347 0.254632
0.291693 0.438347 0.261632
0.291693 0.445347 0.261632
0.298693 0.438347 0.261632
0.298693 0.445347 0.261632
0.305693 0.424347 0.254632
0.305693 0.431347 0.254632
0.312693 0.424347 0.254632
0.312693 0.431347 0.261632
0.305693 0.438347 0.261632
0.305693 0.445347 0.261632
0.312693 0.438347 0.261632
0.312693 0.445347 0.261632
0.319693 0.340347 0.261632
0.319693 0.347347 0.254632
0.326693 0.340347 0.261632
0.326693 0.347347 0.254632
0.319693 0.354347 0.254632
0.326693 0.354347 0.254632
0.333693 0.340347 0.261632
0.333693 0.347347 0.261632
0.340693 0.340347 0.261632
0.340693 0.347347 0.261632
0.333693 0.354347 0.254632
0.340693 0.354347 0.254632
0.319693 0.368347 0.254632
0.319693 0.375347 0.254632
0.326693 0.368347 0.254632
0.326693 0.375347 0.254632
0.319693 0.382347 0.254632
0.326693 0.382347 0.254632
0.340693 0.375347 0.247632
0.333693 0.368347 0.254632
0.333693 0.375347 0.254632
0.340693 0.368347 0.254632
0.333693 0.382347 0.247632
0.340693 0.382347 0.247632
0.347693 0.340347 0.261632
0.347693 0.347347 0.261632
0.354693 0.340347 0.254632
0.354693 0.347347 0.254632
0.347693 0.354347 0.254632
0.354693 0.354347 0.254632
0.368693 0.347347 0.247632
0.361693 0.340347 0.254632
0.361693 0.347347 0.254632
0.368693 0.340347 0.254632
0.368693 0.347347 0.254632
0.361693 0.354347 0.247632
0.368693 0.354347 0.240632
0.368693 0.354347 0.247632
0.347693 0.368347 0.247632
0.347693 0.375347 0.247632
0.354693 0.368347 0.247632
0.354693 0.375347 0.247632
0.347693 0.382347 0.247632
0.354693 0.382347 0.247632
0.361693 0.368347 0.247632
0.361693 0.375347 0.247632
0.368693 0.368347 0.240632
0.368693 0.368347 0.247632
0.368693 0.375347 0.247632
0.361693 0.382347 0.247632
0.368693 0.382347 0.247632
0.319693 0.396347 0.254632
0.319693 0.403347 0.254632
0.326693 0.396347 0.254632
0.326693 0.403347 0.254632
0.319693 0.410347 0.254632
0.319693 0.417347 0.261632
0.326693 0.410347 0.254632
0.326693 0.417347 0.261632
0.340693 0.396347 0.247632
0.333693 0.396347 0.254632
0.333693 0.403347 0.254632
0.340693 0.403347 0.254632
0.333693 0.410347 0.254632
0.340693 0.410347 0.254632
0.319693 0.431347 0.261632
0.326693 0.431347 0.261632
0.319693 0.438347 0.261632
0.319693 0.445347 0.261632
0.326693 0.438347 0.261632
0.326693 0.445347 0.261632
0.333693 0.424347 0.261632
0.333693 0.431347 0.261632
0.340693 0.424347 0.261632
0.340693 0.431347 0.261632
0.333693 0.438347 0.261632
0.333693 0.445347 0.261632
0.340693 0.438347 0.261632
0.340693 0.445347 0.261632
0.347693 0.396347 0.247632
0.354693 0.396347 0.247632
0.347693 0.403347 0.254632
0.354693 0.403347 0.254632
0.347693 0.410347 0.254632
0.354693 0.410347 0.254632
0.361693 0.396347 0.247632
0.361693 0.403347 0.247632
0.368693 0.396347 0.247632
0.368693 0.403347 0.247632
0.361693 0.403347 0.254632
0.361693 0.410347 0.254632
0.368693 0.410347 0.254632
0.347693 0.424347 0.254632
0.347693 0.431347 0.261632
0.354693 0.424347 0.254632
0.354693 0.431347 0.254632
0.347693 0.438347 0.261632
0.347693 0.445347 0.261632
0.354693 0.438347 0.261632
0.354693 0.445347 0.261632
0.361693 0.424347 0.254632
0.361693 0.431347 0.254632
0.368693 0.424347 0.254632
0.368693 0.431347 0.254632
0.361693 0.438347 0.261632
0.361693 0.445347 0.261632
0.368693 0.438347 0.254632
0.368693 0.445347 0.261632
0.263693 0.445347 0.268632
0.270693 0.445347 0.268632
0.305693 0.459347 0.261632
0.312693 0.459347 0.261632
0.319693 0.459347 0.261632
0.326693 0.459347 0.261632
0.333693 0.459347 0.261632
0.340693 0.459347 0.261632
0.263693 0.459347 0.268632
0.270693 0.459347 0.268632
0.263693 0.466347 0.275632
0.263693 0.473347 0.275632
0.270693 0.466347 0.275632
0.270693 0.473347 0.275632
0.277693 0.459347 0.268632
0.284693 0.459347 0.268632
0.277693 0.466347 0.275632
0.277693 0.473347 0.275632
0.284693 0.466347 0.268632
0.284693 0.466347 0.275632
0.284693 0.473347 0.275632
0.263693 0.487347 0.275632
0.270693 0.487347 0.275632
0.263693 0.494347 0.282632
0.263693 0.501347 0.282632
0.270693 0.494347 0.282632
0.270693 0.501347 0.282632
0.277693 0.487347 0.275632
0.284693 0.487347 0.275632
0.277693 0.494347 0.275632
0.284693 0.494347 0.275632
0.277693 0.501347 0.282632
0.284693 0.501347 0.282632
0.291693 0.459347 0.268632
0.298693 0.459347 0.268632
0.291693 0.466347 0.268632
0.291693 0.473347 0.275632
0.298693 0.466347 0.268632
0.298693 0.473347 0.275632
0.305693 0.466347 0.268632
0.305693 0.473347 0.275632
0.312693 0.466347 0.268632
0.312693 0.473347 0.275632
0.291693 0.487347 0.275632
0.298693 0.487347 0.275632
0.291693 0.494347 0.275632
0.291693 0.501347 0.282632
0.298693 0.494347 0.282632
0.298693 0.501347 0.282632
0.305693 0.487347 0.275632
0.312693 0.487347 0.275632
0.305693 0.494347 0.282632
0.305693 0.501347 0.282632
0.312693 0.494347 0.282632
0.312693 0.501347 0.282632
0.263693 0.508347 0.289632
0.263693 0.515347 0.289632
0.270693 0.508347 0.289632
0.270693 0.522347 0.289632
0.277693 0.508347 0.289632
0.284693 0.515347 0.289632
0.277693 0.522347 0.289632
0.284693 0.522347 0.289632
0.263693 0.529347 0.296632
0.270693 0.529347 0.296632
0.277693 0.529347 0.296632
0.284693 0.529347 0.296632
0.263693 0.536347 0.303632
0.263693 0.543347 0.303632
0.270693 0.536347 0.303632
0.270693 0.543347 0.303632
0.263693 0.550347 0.310632
0.263693 0.557347 0.317632
0.270693 0.550347 0.310632
0.270693 0.557347 0.317632
0.277693 0.536347 0.303632
0.277693 0.543347 0.303632
0.284693 0.536347 0.296632
0.284693 0.543347 0.303632
0.277693 0.550347 0.310632
0.277693 0.557347 0.317632
0.284693 0.550347 0.310632
0.284693 0.557347 0.310632
0.291693 0.508347 0.289632
0.298693 0.508347 0.289632
0.298693 0.515347 0.289632
0.291693 0.522347 0.289632
0.305693 0.508347 0.289632
0.305693 0.515347 0.289632
0.312693 0.508347 0.289632
0.291693 0.529347 0.296632
0.298693 0.529347 0.296632
0.312693 0.515347 0.296632
0.305693 0.529347 0.296632
0.312693 0.529347 0.296632
0.291693 0.536347 0.303632
0.291693 0.543347 0.303632
0.298693 0.536347 0.296632
0.298693 0.543347 0.303632
0.291693 0.550347 0.310632
0.291693 0.557347 0.310632
0.298693 0.550347 0.310632
0.298693 0.557347 0.310632
0.305693 0.536347 0.296632
0.305693 0.543347 0.303632
0.312693 0.536347 0.296632
0.312693 0.543347 0.303632
0.312693 0.550347 0.303632
0.305693 0.550347 0.310632
0.319693 0.466347 0.268632
0.319693 0.473347 0.268632
0.326693 0.466347 0.268632
0.326693 0.473347 0.268632
0.333693 0.466347 0.268632
0.333693 0.473347 0.268632
0.340693 0.466347 0.268632
0.340693 0.473347 0.268632
0.319693 0.487347 0.275632
0.326693 0.487347 0.275632
0.319693 0.494347 0.282632
0.319693 0.501347 0.282632
0.326693 0.494347 0.282632
0.326693 0.501347 0.282632
0.333693 0.487347 0.275632
0.340693 0.487347 0.275632
0.333693 0.494347 0.275632
0.340693 0.494347 0.275632
0.333693 0.501347 0.282632
0.340693 0.501347 0.282632
0.347693 0.459347 0.268632
0.354693 0.459347 0.268632
0.347693 0.466347 0.268632
0.347693 0.473347 0.268632
0.354693 0.466347 0.268632
0.354693 0.473347 0.268632
0.361693 0.459347 0.268632
0.368693 0.459347 0.268632
0.361693 0.466347 0.268632
0.361693 0.473347 0.268632
0.368693 0.466347 0.268632
0.368693 0.473347 0.268632
0.347693 0.487347 0.268632
0.354693 0.487347 0.268632
0.347693 0.494347 0.275632
0.354693 0.494347 0.275632
0.347693 0.501347 0.282632
0.361693 0.487347 0.268632
0.368693 0.487347 0.268632
0.361693 0.494347 0.275632
0.368693 0.494347 0.275632
0.319693 0.508347 0.289632
0.326693 0.508347 0.289632
0.333693 0.508347 0.289632
0.340693 0.515347 0.289632
0.319693 0.515347 0.296632
0.326693 0.515347 0.296632
0.319693 0.529347 0.296632
0.326693 0.529347 0.296632
0.333693 0.515347 0.296632
0.333693 0.529347 0.296632
0.340693 0.529347 0.296632
0.319693 0.536347 0.296632
0.319693 0.543347 0.303632
0.326693 0.536347 0.296632
0.326693 0.543347 0.303632
0.319693 0.550347 0.303632
0.326693 0.550347 0.310632
0.326693 0.557347 0.310632
0.333693 0.536347 0.296632
0.333693 0.543347 0.303632
0.340693 0.536347 0.303632
0.340693 0.543347 0.303632
0.333693 0.550347 0.310632
0.333693 0.557347 0.310632
0.340693 0.550347 0.310632
0.340693 0.557347 0.310632
0.347693 0.508347 0.289632
0.354693 0.508347 0.282632
0.354693 0.515347 0.289632
0.347693 0.522347 0.289632
0.354693 0.522347 0.289632
0.361693 0.508347 0.282632
0.361693 0.515347 0.282632
0.368693 0.508347 0.282632
0.368693 0.515347 0.282632
0.361693 0.522347 0.289632
0.368693 0.522347 0.289632
0.347693 0.529347 0.296632
0.354693 0.529347 0.296632
0.361693 0.529347 0.296632
0.368693 0.529347 0.296632
0.347693 0.536347 0.303632
0.347693 0.543347 0.303632
0.354693 0.536347 0.303632
0.354693 0.543347 0.303632
0.347693 0.550347 0.310632
0.347693 0.557347 0.317632
0.354693 0.550347 0.310632
0.354693 0.557347 0.317632
0.361693 0.536347 0.303632
0.361693 0.543347 0.303632
0.368693 0.536347 0.303632
0.368693 0.543347 0.310632
0.361693 0.550347 0.310632
0.361693 0.557347 0.317632
0.368693 0.550347 0.310632
0.368693 0.557347 0.317632
0.172693 0.781347 0.065632
0.151693 0.767347 0.093632
0.158693 0.774347 0.079632
0.151693 0.774347 0.093632
0.165693 0.767347 0.093632
0.172693 0.767347 0.086632
0.165693 0.774347 0.079632
0.172693 0.774347 0.079632
0.172693 0.781347 0.072632
0.165693 0.774347 0.086632
0.179693 0.767347 0.093632
0.179693 0.774347 0.079632
0.179693 0.781347 0.072632
0.186693 0.781347 0.079632
0.179693 0.774347 0.086632
0.186693 0.774347 0.093632
0.186693 0.781347 0.086632
0.151693 0.753347 0.121632
0.158693 0.753347 0.121632
0.165693 0.753347 0.121632
0.151693 0.753347 0.128632
0.158693 0.746347 0.135632
0.151693 0.746347 0.149632
0.158693 0.746347 0.149632
0.165693 0.746347 0.135632
0.172693 0.753347 0.128632
0.172693 0.753347 0.135632
0.165693 0.746347 0.142632
0.172693 0.753347 0.149632
0.151693 0.760347 0.107632
0.151693 0.767347 0.100632
0.151693 0.767347 0.107632
0.158693 0.760347 0.107632
0.158693 0.767347 0.100632
0.151693 0.760347 0.114632
0.151693 0.760347 0.121632
0.151693 0.774347 0.100632
0.151693 0.774347 0.107632
0.151693 0.774347 0.114632
0.165693 0.767347 0.100632
0.172693 0.760347 0.100632
0.165693 0.760347 0.114632
0.172693 0.760347 0.114632
0.172693 0.760347 0.121632
0.179693 0.753347 0.142632
0.179693 0.767347 0.107632
0.179693 0.767347 0.114632
0.179693 0.767347 0.121632
0.186693 0.774347 0.100632
0.186693 0.781347 0.100632
0.186693 0.781347 0.107632
0.186693 0.774347 0.114632
0.186693 0.774347 0.121632
0.193693 0.781347 0.114632
0.179693 0.760347 0.128632
0.179693 0.760347 0.135632
0.186693 0.767347 0.128632
0.179693 0.760347 0.149632
0.186693 0.767347 0.142632
0.186693 0.767347 0.149632
0.186693 0.774347 0.128632
0.186693 0.774347 0.135632
0.193693 0.781347 0.128632
0.193693 0.781347 0.135632
0.193693 0.774347 0.149632
0.193693 0.781347 0.142632
0.200693 0.781347 0.149632
0.151693 0.564347 0.338632
0.151693 0.571347 0.338632
0.158693 0.564347 0.338632
0.158693 0.571347 0.338632
0.151693 0.585347 0.338632
0.158693 0.585347 0.338632
0.165693 0.564347 0.338632
0.165693 0.571347 0.338632
0.172693 0.564347 0.338632
0.172693 0.571347 0.338632
0.165693 0.585347 0.338632
0.172693 0.585347 0.338632
0.151693 0.592347 0.338632
0.151693 0.599347 0.338632
0.158693 0.592347 0.338632
0.158693 0.599347 0.338632
0.151693 0.613347 0.338632
0.158693 0.613347 0.338632
0.165693 0.592347 0.338632
0.165693 0.599347 0.338632
0.172693 0.592347 0.338632
0.172693 0.599347 0.338632
0.165693 0.613347 0.338632
0.172693 0.613347 0.338632
0.179693 0.564347 0.338632
0.179693 0.571347 0.338632
0.186693 0.564347 0.338632
0.186693 0.571347 0.338632
0.179693 0.585347 0.338632
0.186693 0.585347 0.338632
0.193693 0.564347 0.338632
0.193693 0.571347 0.338632
0.200693 0.564347 0.338632
0.200693 0.571347 0.338632
0.193693 0.585347 0.338632
0.200693 0.585347 0.338632
0.179693 0.592347 0.338632
0.179693 0.599347 0.338632
0.186693 0.592347 0.338632
0.186693 0.599347 0.338632
0.179693 0.613347 0.338632
0.186693 0.613347 0.338632
0.193693 0.592347 0.338632
0.193693 0.599347 0.338632
0.200693 0.592347 0.338632
0.200693 0.599347 0.338632
0.200693 0.599347 0.345632
0.193693 0.613347 0.338632
0.200693 0.613347 0.345632
0.151693 0.620347 0.338632
0.151693 0.627347 0.345632
0.158693 0.620347 0.338632
0.158693 0.627347 0.338632
0.151693 0.641347 0.345632
0.158693 0.641347 0.345632
0.165693 0.620347 0.338632
0.165693 0.627347 0.338632
0.172693 0.620347 0.338632
0.172693 0.627347 0.338632
0.165693 0.641347 0.345632
0.172693 0.641347 0.345632
0.151693 0.648347 0.345632
0.151693 0.655347 0.345632
0.158693 0.648347 0.345632
0.158693 0.655347 0.345632
0.151693 0.669347 0.345632
0.158693 0.669347 0.345632
0.165693 0.648347 0.345632
0.165693 0.655347 0.345632
0.172693 0.648347 0.345632
0.172693 0.655347 0.345632
0.165693 0.669347 0.345632
0.172693 0.669347 0.345632
0.179693 0.620347 0.338632
0.179693 0.627347 0.338632
0.186693 0.620347 0.338632
0.186693 0.627347 0.338632
0.179693 0.641347 0.345632
0.186693 0.641347 0.345632
0.193693 0.620347 0.338632
0.193693 0.627347 0.338632
0.200693 0.620347 0.345632
0.200693 0.627347 0.345632
0.193693 0.641347 0.345632
0.200693 0.641347 0.345632
0.179693 0.648347 0.345632
0.179693 0.655347 0.345632
0.186693 0.648347 0.345632
0.186693 0.655347 0.345632
0.179693 0.669347 0.345632
0.186693 0.669347 0.345632
0.193693 0.648347 0.345632
0.193693 0.655347 0.345632
0.200693 0.648347 0.345632
0.193693 0.669347 0.345632
0.200693 0.655347 0.352632
0.200693 0.669347 0.352632
0.207693 0.564347 0.338632
0.207693 0.571347 0.338632
0.214693 0.564347 0.338632
0.214693 0.571347 0.338632
0.207693 0.585347 0.338632
0.214693 0.585347 0.345632
0.221693 0.564347 0.338632
0.221693 0.571347 0.338632
0.228693 0.564347 0.338632
0.228693 0.571347 0.338632
0.221693 0.585347 0.345632
0.228693 0.578347 0.345632
0.228693 0.585347 0.345632
0.207693 0.592347 0.345632
0.207693 0.599347 0.345632
0.214693 0.592347 0.345632
0.214693 0.599347 0.345632
0.207693 0.613347 0.345632
0.214693 0.613347 0.345632
0.221693 0.592347 0.345632
0.221693 0.599347 0.345632
0.228693 0.592347 0.345632
0.221693 0.613347 0.345632
0.228693 0.599347 0.352632
0.228693 0.613347 0.352632
0.242693 0.564347 0.331632
0.235693 0.564347 0.338632
0.235693 0.571347 0.338632
0.242693 0.571347 0.338632
0.235693 0.578347 0.345632
0.242693 0.578347 0.345632
0.249693 0.564347 0.331632
0.256693 0.564347 0.324632
0.256693 0.564347 0.331632
0.249693 0.571347 0.338632
0.256693 0.571347 0.338632
0.249693 0.578347 0.345632
0.256693 0.578347 0.345632
0.235693 0.585347 0.352632
0.242693 0.585347 0.352632
0.249693 0.585347 0.352632
0.256693 0.585347 0.352632
0.235693 0.592347 0.352632
0.235693 0.599347 0.352632
0.242693 0.592347 0.352632
0.242693 0.599347 0.352632
0.235693 0.613347 0.352632
0.242693 0.613347 0.352632
0.249693 0.592347 0.352632
0.249693 0.599347 0.359632
0.256693 0.592347 0.359632
0.256693 0.599347 0.359632
0.249693 0.613347 0.359632
0.256693 0.613347 0.359632
0.207693 0.620347 0.345632
0.207693 0.627347 0.345632
0.214693 0.620347 0.345632
0.214693 0.627347 0.345632
0.207693 0.641347 0.345632
0.214693 0.641347 0.352632
0.221693 0.620347 0.352632
0.221693 0.627347 0.352632
0.228693 0.620347 0.352632
0.228693 0.627347 0.352632
0.221693 0.641347 0.352632
0.228693 0.641347 0.352632
0.207693 0.648347 0.352632
0.207693 0.655347 0.352632
0.214693 0.648347 0.352632
0.214693 0.655347 0.352632
0.207693 0.669347 0.352632
0.214693 0.669347 0.352632
0.221693 0.648347 0.352632
0.221693 0.655347 0.352632
0.228693 0.648347 0.352632
0.228693 0.655347 0.359632
0.221693 0.669347 0.352632
0.228693 0.669347 0.359632
0.235693 0.620347 0.352632
0.235693 0.627347 0.352632
0.242693 0.620347 0.359632
0.242693 0.627347 0.359632
0.235693 0.641347 0.359632
0.242693 0.641347 0.359632
0.249693 0.620347 0.359632
0.249693 0.627347 0.359632
0.256693 0.620347 0.359632
0.256693 0.627347 0.359632
0.249693 0.634347 0.359632
0.256693 0.634347 0.366632
0.256693 0.641347 0.366632
0.235693 0.648347 0.359632
0.235693 0.655347 0.359632
0.242693 0.648347 0.359632
0.242693 0.655347 0.366632
0.235693 0.662347 0.359632
0.235693 0.669347 0.359632
0.242693 0.662347 0.366632
0.242693 0.669347 0.366632
0.249693 0.648347 0.366632
0.249693 0.655347 0.366632
0.256693 0.648347 0.373632
0.249693 0.662347 0.373632
0.249693 0.669347 0.373632
0.256693 0.662347 0.373632
0.172693 0.725347 0.233632
0.158693 0.725347 0.240632
0.165693 0.725347 0.247632
0.172693 0.725347 0.240632
0.172693 0.725347 0.254632
0.179693 0.725347 0.247632
0.186693 0.725347 0.247632
0.179693 0.725347 0.261632
0.151693 0.739347 0.177632
0.158693 0.739347 0.177632
0.151693 0.746347 0.156632
0.158693 0.746347 0.156632
0.158693 0.746347 0.163632
0.165693 0.739347 0.177632
0.165693 0.746347 0.156632
0.165693 0.746347 0.163632
0.172693 0.753347 0.156632
0.172693 0.746347 0.170632
0.151693 0.739347 0.191632
0.158693 0.739347 0.191632
0.151693 0.739347 0.205632
0.158693 0.732347 0.205632
0.165693 0.739347 0.191632
0.172693 0.739347 0.184632
0.165693 0.732347 0.205632
0.165693 0.739347 0.198632
0.172693 0.739347 0.205632
0.179693 0.753347 0.163632
0.179693 0.746347 0.177632
0.179693 0.753347 0.170632
0.186693 0.753347 0.170632
0.186693 0.753347 0.177632
0.179693 0.739347 0.191632
0.179693 0.739347 0.198632
0.179693 0.739347 0.205632
0.186693 0.746347 0.184632
0.186693 0.746347 0.191632
0.186693 0.746347 0.205632
0.193693 0.753347 0.184632
0.193693 0.753347 0.191632
0.193693 0.746347 0.198632
0.193693 0.753347 0.205632
0.186693 0.760347 0.156632
0.186693 0.760347 0.163632
0.193693 0.767347 0.156632
0.193693 0.767347 0.163632
0.193693 0.760347 0.170632
0.193693 0.760347 0.177632
0.193693 0.767347 0.170632
0.200693 0.767347 0.177632
0.193693 0.774347 0.156632
0.200693 0.774347 0.163632
0.200693 0.774347 0.170632
0.200693 0.774347 0.177632
0.193693 0.760347 0.184632
0.200693 0.767347 0.191632
0.200693 0.760347 0.198632
0.200693 0.760347 0.205632
0.200693 0.767347 0.198632
0.200693 0.774347 0.184632
0.151693 0.732347 0.219632
0.158693 0.732347 0.219632
0.151693 0.732347 0.226632
0.151693 0.732347 0.233632
0.158693 0.732347 0.226632
0.165693 0.732347 0.212632
0.165693 0.732347 0.219632
0.172693 0.732347 0.219632
0.165693 0.732347 0.233632
0.151693 0.732347 0.240632
0.179693 0.739347 0.212632
0.186693 0.739347 0.219632
0.179693 0.732347 0.226632
0.179693 0.732347 0.233632
0.186693 0.739347 0.226632
0.186693 0.746347 0.212632
0.193693 0.739347 0.226632
0.193693 0.739347 0.233632
0.193693 0.746347 0.219632
0.200693 0.753347 0.212632
0.200693 0.753347 0.219632
0.193693 0.746347 0.226632
0.200693 0.746347 0.233632
0.200693 0.753347 0.226632
0.200693 0.753347 0.233632
0.186693 0.732347 0.240632
0.186693 0.732347 0.254632
0.193693 0.732347 0.247632
0.200693 0.739347 0.240632
0.193693 0.732347 0.261632
0.193693 0.739347 0.254632
0.200693 0.739347 0.261632
0.200693 0.746347 0.240632
0.200693 0.753347 0.247632
0.200693 0.746347 0.254632
0.200693 0.746347 0.261632
0.200693 0.760347 0.212632
0.207693 0.767347 0.205632
0.207693 0.774347 0.184632
0.207693 0.774347 0.191632
0.207693 0.774347 0.198632
0.207693 0.774347 0.205632
0.207693 0.753347 0.240632
0.207693 0.753347 0.247632
0.207693 0.753347 0.254632
0.207693 0.753347 0.261632
0.207693 0.767347 0.212632
0.207693 0.767347 0.219632
0.207693 0.760347 0.233632
0.207693 0.767347 0.226632
0.207693 0.767347 0.233632
0.207693 0.774347 0.212632
0.207693 0.774347 0.219632
0.207693 0.774347 0.226632
0.207693 0.774347 0.233632
0.207693 0.767347 0.240632
0.207693 0.767347 0.247632
0.207693 0.767347 0.254632
0.207693 0.767347 0.261632
0.207693 0.774347 0.240632
0.207693 0.774347 0.247632
0.207693 0.774347 0.254632
0.207693 0.774347 0.261632
0.151693 0.718347 0.282632
0.158693 0.718347 0.282632
0.165693 0.718347 0.268632
0.172693 0.718347 0.268632
0.172693 0.718347 0.275632
0.165693 0.718347 0.282632
0.172693 0.718347 0.289632
0.151693 0.711347 0.303632
0.158693 0.711347 0.296632
0.158693 0.711347 0.303632
0.151693 0.711347 0.317632
0.158693 0.704347 0.317632
0.151693 0.718347 0.296632
0.165693 0.711347 0.303632
0.165693 0.704347 0.317632
0.172693 0.711347 0.310632
0.172693 0.718347 0.296632
0.179693 0.718347 0.275632
0.186693 0.725347 0.268632
0.186693 0.725347 0.275632
0.179693 0.718347 0.282632
0.186693 0.718347 0.289632
0.193693 0.725347 0.282632
0.193693 0.725347 0.289632
0.186693 0.711347 0.303632
0.179693 0.711347 0.310632
0.179693 0.711347 0.317632
0.186693 0.711347 0.317632
0.179693 0.718347 0.296632
0.186693 0.718347 0.303632
0.193693 0.718347 0.296632
0.193693 0.718347 0.303632
0.200693 0.725347 0.296632
0.200693 0.725347 0.303632
0.193693 0.718347 0.310632
0.200693 0.718347 0.317632
0.200693 0.725347 0.310632
0.151693 0.676347 0.345632
0.158693 0.676347 0.345632
0.151693 0.697347 0.345632
0.158693 0.690347 0.345632
0.158693 0.697347 0.345632
0.165693 0.676347 0.345632
0.172693 0.676347 0.345632
0.172693 0.683347 0.345632
0.165693 0.697347 0.331632
0.165693 0.690347 0.345632
0.165693 0.697347 0.338632
0.172693 0.690347 0.345632
0.172693 0.697347 0.338632
0.151693 0.683347 0.352632
0.151693 0.704347 0.331632
0.158693 0.704347 0.331632
0.165693 0.704347 0.331632
0.172693 0.704347 0.324632
0.179693 0.676347 0.345632
0.186693 0.676347 0.345632
0.179693 0.690347 0.345632
0.179693 0.697347 0.338632
0.186693 0.690347 0.345632
0.186693 0.697347 0.345632
0.193693 0.676347 0.345632
0.193693 0.697347 0.345632
0.193693 0.676347 0.352632
0.193693 0.683347 0.352632
0.200693 0.676347 0.352632
0.200693 0.683347 0.352632
0.193693 0.697347 0.352632
0.200693 0.697347 0.352632
0.179693 0.704347 0.331632
0.186693 0.704347 0.331632
0.186693 0.704347 0.338632
0.193693 0.711347 0.324632
0.193693 0.711347 0.331632
0.193693 0.704347 0.338632
0.200693 0.704347 0.345632
0.200693 0.711347 0.338632
0.200693 0.711347 0.345632
0.200693 0.718347 0.324632
0.200693 0.718347 0.331632
0.200693 0.725347 0.324632
0.200693 0.718347 0.338632
0.200693 0.704347 0.352632
0.193693 0.732347 0.268632
0.200693 0.732347 0.275632
0.200693 0.739347 0.268632
0.200693 0.732347 0.282632
0.200693 0.739347 0.282632
0.200693 0.739347 0.289632
0.200693 0.746347 0.268632
0.200693 0.746347 0.275632
0.200693 0.732347 0.303632
0.200693 0.753347 0.373632
0.200693 0.760347 0.345632
0.200693 0.767347 0.338632
0.200693 0.767347 0.345632
0.200693 0.774347 0.331632
0.193693 0.774347 0.345632
0.200693 0.774347 0.345632
0.200693 0.781347 0.338632
0.186693 0.781347 0.352632
0.186693 0.781347 0.359632
0.179693 0.781347 0.373632
0.186693 0.781347 0.366632
0.200693 0.760347 0.359632
0.200693 0.767347 0.352632
0.193693 0.767347 0.373632
0.200693 0.760347 0.366632
0.200693 0.760347 0.373632
0.200693 0.767347 0.366632
0.193693 0.774347 0.359632
0.193693 0.781347 0.352632
0.193693 0.781347 0.359632
0.200693 0.774347 0.352632
0.193693 0.774347 0.373632
0.207693 0.676347 0.352632
0.207693 0.683347 0.352632
0.214693 0.676347 0.352632
0.214693 0.683347 0.352632
0.214693 0.683347 0.359632
0.207693 0.697347 0.352632
0.207693 0.697347 0.359632
0.214693 0.690347 0.359632
0.214693 0.697347 0.359632
0.221693 0.676347 0.359632
0.221693 0.683347 0.359632
0.228693 0.676347 0.359632
0.228693 0.683347 0.359632
0.221693 0.690347 0.366632
0.221693 0.697347 0.373632
0.228693 0.690347 0.366632
0.228693 0.697347 0.373632
0.207693 0.725347 0.331632
0.207693 0.718347 0.345632
0.207693 0.725347 0.338632
0.207693 0.725347 0.345632
0.207693 0.704347 0.359632
0.207693 0.711347 0.352632
0.214693 0.704347 0.359632
0.214693 0.704347 0.366632
0.207693 0.718347 0.352632
0.207693 0.718347 0.359632
0.207693 0.725347 0.352632
0.207693 0.725347 0.359632
0.214693 0.718347 0.366632
0.214693 0.725347 0.366632
0.214693 0.725347 0.373632
0.221693 0.704347 0.366632
0.221693 0.711347 0.373632
0.228693 0.704347 0.373632
0.221693 0.718347 0.373632
0.235693 0.683347 0.366632
0.242693 0.676347 0.366632
0.235693 0.690347 0.366632
0.235693 0.697347 0.373632
0.242693 0.690347 0.373632
0.242693 0.697347 0.373632
0.249693 0.676347 0.373632
0.249693 0.683347 0.373632
0.207693 0.746347 0.268632
0.207693 0.753347 0.268632
