ply
format ascii 1.0
element vertex 1773
property float x
property float y
property float z
end_header
0.096912 0.781990 0.541931
0.103168 0.885244 0.154341
0.109532 0.409689 0.320948
0.508699 0.600347 0.415765
0.609941 0.637578 0.442142
0.635296 0.640374 0.443236
0.699072 0.629468 0.481703
0.507610 0.148545 0.711141
0.500083 0.150773 0.722094
0.513901 0.156901 0.734585
0.516617 0.151753 0.729505
0.514147 0.143477 0.723695
0.542400 0.152193 0.739858
0.536797 0.148813 0.737097
0.544697 0.151677 0.732167
0.552915 0.149004 0.736926
0.564214 0.144109 0.754298
0.554959 0.148230 0.744499
0.587512 0.154055 0.741923
0.579469 0.142101 0.737556
0.588756 0.156951 0.746291
0.593350 0.142259 0.748583
0.606313 0.146177 0.756850
0.610339 0.135313 0.739966
0.618246 0.153080 0.746752
0.619856 0.149000 0.745391
0.629876 0.147071 0.742150
0.615638 0.139461 0.735903
0.647617 0.142402 0.742249
0.643345 0.140470 0.731065
0.649429 0.153653 0.742411
0.656279 0.156534 0.751776
0.673747 0.157692 0.730460
0.679742 0.154260 0.737101
0.674029 0.152082 0.737754
0.636599 0.572824 0.620818
0.617512 0.581015 0.617172
0.630986 0.580375 0.608237
0.869072 0.327507 0.324709
0.676221 0.624189 0.485741
0.125031 0.521170 0.364666
0.386469 0.529714 0.603552
0.627386 0.531469 0.660761
0.366988 0.527463 0.608157
0.070494 0.592343 0.736267
0.582502 0.637207 0.504865
0.891350 0.383257 0.468984
0.649864 0.509646 0.668680
0.643564 0.517510 0.664942
0.749741 0.576707 0.577097
0.804495 0.539279 0.537587
0.254315 0.764026 0.510664
0.478987 0.603844 0.524182
0.624833 0.613935 0.575812
0.582991 0.633116 0.487213
0.664511 0.627883 0.512491
0.426583 0.591422 0.437396
0.486780 0.607563 0.456756
0.423217 0.943970 0.339370
0.110779 0.704753 0.701891
0.847441 0.135896 0.611271
0.851798 0.135747 0.598659
0.855628 0.134161 0.604645
0.858669 0.128577 0.610278
0.884654 0.146665 0.598418
0.863208 0.130459 0.606028
0.881693 0.143817 0.606436
0.880604 0.145365 0.608951
0.890978 0.137802 0.609530
0.909499 0.135878 0.617987
0.118637 0.679507 0.713375
0.435965 0.375809 0.221079
0.400658 0.557960 0.331726
0.291776 0.806434 0.469009
0.497449 0.371032 0.761659
0.722877 0.600031 0.541968
0.076394 0.747536 0.591742
0.860375 0.443477 0.360543
0.102492 0.893162 0.138506
0.817191 0.517346 0.586039
0.795687 0.534302 0.572469
0.215540 0.709813 0.349786
0.131471 0.823768 0.331155
0.507258 0.616095 0.458069
0.186612 0.778384 0.523031
0.117152 0.787568 0.593567
0.551610 0.630324 0.522944
0.217134 0.779624 0.460767
0.547549 0.617874 0.548530
0.786878 0.521875 0.344273
0.374918 0.607167 0.495442
0.510790 0.599586 0.441330
0.611714 0.608675 0.558721
0.477395 0.591863 0.432102
0.145378 0.851908 0.298137
0.330894 0.157063 0.649512
0.330166 0.156277 0.652946
0.342590 0.147151 0.647532
0.346402 0.162821 0.650203
0.356318 0.148343 0.653146
0.367460 0.168057 0.658003
0.363966 0.141172 0.659456
0.367137 0.155550 0.652238
0.365367 0.161559 0.649208
0.363180 0.138166 0.655119
0.402617 0.144435 0.644587
0.390302 0.147965 0.623084
0.383672 0.148985 0.638763
0.427124 0.159311 0.638702
0.420115 0.139151 0.648038
0.414063 0.154270 0.652028
0.416889 0.157844 0.632967
0.441900 0.140175 0.640745
0.456540 0.589833 0.547385
0.708555 0.622892 0.557698
0.085935 0.771069 0.554352
0.003797 0.609224 0.533918
0.110600 0.422334 0.332091
0.539140 0.622551 0.414141
0.593030 0.629367 0.452274
0.625029 0.641102 0.452704
0.673101 0.636912 0.481220
0.727725 0.602934 0.492126
0.506018 0.168492 0.724183
0.516362 0.156653 0.730644
0.503250 0.143932 0.720818
0.514830 0.156646 0.737041
0.374772 0.917489 0.356354
0.526153 0.166831 0.739090
0.547312 0.161575 0.751933
0.551882 0.158098 0.734623
0.558549 0.167031 0.750753
0.552583 0.160094 0.750189
0.563108 0.156444 0.735220
0.566655 0.153647 0.744608
0.580450 0.156959 0.738941
0.580598 0.145803 0.744814
0.576038 0.158277 0.742248
0.599909 0.158361 0.747229
0.609126 0.155748 0.757031
0.608392 0.160879 0.752459
0.617290 0.153332 0.745850
0.627480 0.164413 0.750188
0.635038 0.171234 0.737053
0.649140 0.153613 0.749532
0.645087 0.160364 0.739409
0.644109 0.159290 0.736834
0.663840 0.162872 0.745650
0.671946 0.171341 0.736789
0.675257 0.165650 0.736736
0.672498 0.144433 0.745749
0.384373 0.532562 0.613673
0.494902 0.576069 0.600321
0.492864 0.565923 0.602219
0.512091 0.556385 0.592478
0.182410 0.835143 0.052605
0.459664 0.591395 0.496015
0.379395 0.518441 0.599388
0.371058 0.531230 0.610290
0.414958 0.535340 0.613107
0.669682 0.580565 0.624323
0.824868 0.531438 0.543193
0.372955 0.904229 0.381591
0.203948 0.813068 0.309759
0.198008 0.814798 0.303739
0.484066 0.561686 0.619536
0.029245 0.530915 0.644027
0.205219 0.781134 0.147161
0.861795 0.472502 0.426070
0.279225 0.738999 0.501387
0.773376 0.453559 0.661603
0.365968 0.604767 0.407783
0.493272 0.557407 0.599425
0.218744 0.773021 0.612063
0.882208 0.474853 0.445787
0.001880 0.602231 0.589486
0.109781 0.601332 0.735866
0.845808 0.160749 0.613423
0.856067 0.138705 0.596778
0.863200 0.143096 0.600031
0.858780 0.151600 0.617437
0.881411 0.147818 0.606026
0.889919 0.162002 0.582116
0.891869 0.143173 0.605776
0.904923 0.155424 0.614194
0.893487 0.127944 0.602994
0.898418 0.154249 0.612455
0.119265 0.635595 0.734449
0.119660 0.655422 0.733062
0.091459 0.648814 0.726386
0.109679 0.244792 0.467635
0.116348 0.853900 0.254160
0.355249 0.599393 0.404530
0.724266 0.591104 0.540633
0.657133 0.514401 0.652933
0.887541 0.449751 0.485218
0.545297 0.907679 0.228130
0.847154 0.480561 0.482526
0.460465 0.986602 0.308294
0.133784 0.819570 0.344559
0.328852 0.877423 0.381268
0.562387 0.419245 0.715726
0.138122 0.361786 0.662889
0.263965 0.147007 0.465168
0.564464 0.611620 0.587187
0.181269 0.780091 0.537800
0.602470 0.429084 0.699398
0.213146 0.765480 0.609838
0.490700 0.596932 0.434606
0.644033 0.614240 0.582056
0.479696 0.604673 0.403690
0.475633 0.607713 0.477778
0.092345 0.774602 0.549631
0.342788 0.154505 0.654246
0.328271 0.140650 0.654452
0.329328 0.157483 0.655713
0.361651 0.160991 0.654349
0.345074 0.149096 0.658330
0.354973 0.168808 0.644443
0.364045 0.157455 0.666795
0.380731 0.158768 0.649716
0.373289 0.164889 0.644306
0.399246 0.146685 0.651741
0.384002 0.146654 0.648733
0.395062 0.154263 0.654206
0.405171 0.160526 0.639486
0.407395 0.149065 0.628838
0.411138 0.155340 0.637202
0.426230 0.150201 0.632028
0.430407 0.155915 0.630348
0.453285 0.590843 0.391222
0.447842 0.589537 0.399736
0.384278 0.933519 0.317512
0.102223 0.417700 0.340988
0.557056 0.603987 0.433559
0.578422 0.619797 0.454458
0.636376 0.636882 0.477176
0.678036 0.621123 0.475550
0.733211 0.600008 0.495068
0.506158 0.163341 0.721842
0.505542 0.162476 0.743587
0.513759 0.172644 0.722087
0.519735 0.154683 0.726702
0.529397 0.172485 0.745495
0.524903 0.161706 0.740710
0.545374 0.166981 0.738765
0.546821 0.168008 0.755472
0.535074 0.164346 0.757091
0.560569 0.169626 0.752944
0.557313 0.156011 0.761376
0.567592 0.169037 0.739292
0.572461 0.181767 0.755162
0.555778 0.165454 0.742120
0.582406 0.167716 0.752218
0.595943 0.164362 0.737265
0.599346 0.170067 0.734281
0.594883 0.171957 0.726907
0.629881 0.171917 0.746838
0.606609 0.165008 0.754180
0.623331 0.159224 0.747260
0.628229 0.167504 0.745388
0.629706 0.175789 0.750361
0.643209 0.164431 0.743687
0.643931 0.168810 0.750856
0.658258 0.160715 0.743433
0.677692 0.175995 0.745063
0.660686 0.158795 0.728137
0.663284 0.153207 0.740923
0.533490 0.564873 0.615055
0.526037 0.574954 0.626266
0.510098 0.568095 0.625074
0.503628 0.557479 0.613135
0.495473 0.565551 0.608543
0.155419 0.528340 0.735694
0.361684 0.515988 0.619024
0.370671 0.516314 0.618144
0.271822 0.525988 0.617240
0.476626 0.575768 0.594766
0.649543 0.573523 0.616373
0.654190 0.572458 0.631875
0.668885 0.586396 0.632915
0.522080 0.535550 0.649234
0.827492 0.520342 0.547545
0.397579 0.585235 0.397034
0.349084 0.621750 0.502314
0.187244 0.780888 0.567566
0.591506 0.632229 0.486610
0.636584 0.635421 0.516950
0.430191 0.603817 0.447229
0.548028 0.622875 0.493080
0.533864 0.617114 0.473497
0.861607 0.422649 0.359389
0.682512 0.605932 0.531709
0.388803 0.902671 0.380903
0.369805 0.869755 0.408988
0.861127 0.154681 0.595262
0.845994 0.142513 0.605505
0.867115 0.149789 0.603429
0.864718 0.152816 0.608144
0.886390 0.159146 0.602624
0.888016 0.155339 0.611962
0.892082 0.143846 0.607538
0.891355 0.148251 0.598135
0.902938 0.154998 0.598581
0.915264 0.161659 0.602141
0.892721 0.395710 0.490762
0.882638 0.400362 0.423649
0.091914 0.645135 0.728657
0.103385 0.636607 0.725258
0.107630 0.594895 0.715692
0.052744 0.496430 0.444686
0.856954 0.462646 0.509704
0.138275 0.719176 0.291362
0.207387 0.773675 0.241142
0.138636 0.608904 0.742480
0.464177 0.969104 0.321875
0.697021 0.578159 0.593430
0.575728 0.622829 0.549753
0.082886 0.395149 0.619976
0.110250 0.383717 0.630215
0.425042 0.566339 0.573206
0.561364 0.594753 0.601291
0.246561 0.768235 0.566231
0.163987 0.795147 0.594548
0.218230 0.772581 0.594850
0.493115 0.615515 0.432786
0.158169 0.788154 0.398672
0.458382 0.588518 0.423845
0.676174 0.584980 0.600476
0.127124 0.773483 0.557092
0.323450 0.174338 0.660858
0.346330 0.163637 0.650269
0.336415 0.179710 0.658291
0.347041 0.170265 0.641202
0.356286 0.175234 0.657580
0.369738 0.169635 0.640971
0.356616 0.172735 0.622214
0.355091 0.167601 0.654269
0.380204 0.165693 0.647234
0.385767 0.168660 0.653554
0.389837 0.165130 0.652937
0.404555 0.176680 0.647384
0.408596 0.172110 0.640181
0.412711 0.162668 0.625765
0.420956 0.165538 0.641410
0.424999 0.167992 0.632845
0.435408 0.164746 0.641151
0.453067 0.168274 0.633640
0.507943 0.611752 0.413930
0.097983 0.424179 0.331700
0.554645 0.617301 0.424110
0.586422 0.625443 0.430982
0.645888 0.636248 0.458106
0.687120 0.639491 0.468470
0.733825 0.602653 0.504304
0.797731 0.560425 0.521083
0.502400 0.171888 0.728154
0.513595 0.179492 0.733220
0.505775 0.174593 0.719162
0.505425 0.165266 0.744427
0.512263 0.166462 0.720824
0.524884 0.169020 0.768832
0.538345 0.176472 0.750724
0.555108 0.180320 0.756158
0.557489 0.165870 0.762303
0.556202 0.175845 0.739222
0.571385 0.173791 0.756219
0.556728 0.183541 0.753706
0.584608 0.160903 0.759120
0.583325 0.180626 0.749338
0.581146 0.163447 0.751472
0.585274 0.170539 0.755148
0.587907 0.170618 0.737138
0.592703 0.181913 0.744963
0.611029 0.169168 0.753309
0.621337 0.173050 0.765651
0.622429 0.184306 0.773050
0.633139 0.162535 0.765284
0.633878 0.183277 0.743126
0.653808 0.175816 0.768804
0.679317 0.550476 0.633746
0.517706 0.611013 0.461513
0.503439 0.548470 0.625114
0.603517 0.566205 0.641095
-0.008426 0.546637 0.530050
0.438532 0.573746 0.571880
0.454822 0.555168 0.578480
0.460717 0.554345 0.592277
0.461960 0.567660 0.603361
0.466894 0.557619 0.601670
0.299820 0.524248 0.616070
0.307032 0.511232 0.612352
0.366366 0.523794 0.622386
0.353442 0.515968 0.625729
0.268519 0.537177 0.613185
0.482944 0.578231 0.575893
0.462027 0.569895 0.581884
0.459769 0.585132 0.571736
0.459292 0.576028 0.580531
0.137752 0.709684 0.676309
0.258287 0.712051 0.550990
0.750518 0.586758 0.532767
0.083776 0.767693 0.499397
0.688423 0.622417 0.503429
0.856319 0.477563 0.560888
0.204356 0.787370 0.192389
0.316939 0.595416 0.334053
0.876886 0.443593 0.397789
0.866292 0.438524 0.459134
0.154012 0.670001 0.350784
0.061877 0.523982 0.395323
0.462780 0.791964 0.408142
0.856475 0.167942 0.605444
0.859869 0.170701 0.581095
0.881105 0.164194 0.588983
0.864222 0.154026 0.622846
0.880433 0.163229 0.590028
0.880807 0.155706 0.601554
0.879546 0.152607 0.606723
0.901767 0.173858 0.593383
0.926267 0.155047 0.599899
0.922891 0.158571 0.591441
0.933164 0.154446 0.605684
0.048649 0.686707 0.436731
0.887249 0.381791 0.536177
0.201464 0.882168 0.075138
0.134105 0.785529 0.489401
0.116799 0.559301 0.748848
0.087407 0.495899 0.680851
0.320393 0.847936 0.429273
0.034433 0.613300 0.420753
0.210118 0.753729 0.226358
0.139824 0.840827 0.292114
0.009431 0.545403 0.560691
0.685065 0.496998 0.659933
0.693907 0.518186 0.642564
0.228401 0.178495 0.531396
0.679945 0.504780 0.636152
0.699926 0.500098 0.657965
0.385144 0.588622 0.571766
0.154346 0.771470 0.571297
0.546787 0.621925 0.527251
0.253756 0.776990 0.554421
0.744302 0.570598 0.602426
0.097524 0.784480 0.458120
0.471122 0.609042 0.433294
0.560676 0.601889 0.576778
0.434307 0.596500 0.400310
0.125444 0.796432 0.545313
0.288217 0.638897 0.577523
0.329109 0.182218 0.666330
0.333332 0.177916 0.665129
0.352434 0.175615 0.661740
0.359335 0.177343 0.665621
0.357727 0.177765 0.668718
0.357572 0.169161 0.648575
0.374604 0.180300 0.652236
0.374240 0.183565 0.647234
0.380434 0.173457 0.637607
0.366749 0.177022 0.646275
0.396112 0.174283 0.656017
0.386744 0.186515 0.651857
0.396626 0.177645 0.640649
0.405230 0.187979 0.643283
0.420402 0.166569 0.634565
0.433710 0.180352 0.630991
0.421087 0.184477 0.641343
0.440235 0.168128 0.645091
0.555187 0.633362 0.430090
0.583015 0.640163 0.433262
0.606953 0.643788 0.459937
0.653202 0.634860 0.477825
0.705435 0.619463 0.495212
0.757061 0.583957 0.512379
0.783072 0.566120 0.537718
0.816388 0.537802 0.521340
0.578109 0.619063 0.563284
0.494741 0.175148 0.732625
0.512245 0.176990 0.728110
0.531830 0.176026 0.751015
0.528522 0.180424 0.757435
0.535522 0.193134 0.748369
0.542852 0.186165 0.745706
0.551539 0.179550 0.752733
0.551837 0.195492 0.761603
0.554773 0.184645 0.756594
0.568334 0.192263 0.767282
0.564372 0.167937 0.749224
0.572562 0.177304 0.743233
0.593947 0.180755 0.758080
0.597251 0.196826 0.755717
0.583158 0.196492 0.751395
0.599716 0.180506 0.760781
0.611918 0.200570 0.757377
0.619402 0.188854 0.760282
0.605584 0.192911 0.761022
0.638589 0.189103 0.763301
0.628090 0.203281 0.756191
0.629379 0.179490 0.757456
0.643297 0.192867 0.749541
0.645590 0.197234 0.750345
0.685011 0.547099 0.612137
0.832691 0.455502 0.616464
0.509759 0.559396 0.630197
0.608087 0.574012 0.638030
0.592748 0.562919 0.636837
0.598780 0.564200 0.636655
0.577601 0.553702 0.635135
0.583849 0.555147 0.647292
0.565907 0.562654 0.631256
0.571305 0.564708 0.631808
0.571926 0.561915 0.648643
0.190626 0.579513 0.345274
0.350489 0.385282 0.245018
-0.010889 0.570765 0.556952
0.531458 0.561581 0.627412
0.542030 0.554295 0.628635
0.535155 0.565785 0.620030
0.560574 0.557506 0.635955
0.002809 0.565242 0.550587
0.003022 0.567828 0.527884
0.263909 0.141615 0.513704
0.199473 0.768125 0.332077
0.206530 0.766106 0.231502
0.894175 0.418186 0.517016
0.105790 0.680475 0.711581
0.853533 0.501322 0.542461
0.037629 0.414547 0.547878
0.843296 0.467112 0.372623
0.391650 0.419812 0.247026
0.868622 0.412460 0.558093
0.878462 0.414453 0.577513
0.861358 0.411043 0.579048
0.854095 0.172897 0.590417
0.887970 0.172057 0.593657
0.873779 0.178934 0.600932
0.885926 0.170403 0.595366
0.879542 0.173997 0.588098
0.896960 0.173343 0.602611
0.892555 0.180904 0.601490
0.901537 0.180970 0.595168
0.904189 0.177516 0.579188
0.916769 0.167935 0.593841
0.915839 0.171324 0.587118
0.929151 0.173689 0.592268
0.873618 0.405861 0.360730
0.804470 0.552563 0.542377
0.788784 0.560679 0.530751
0.864437 0.365364 0.324228
0.671490 0.628371 0.521208
0.454280 0.364974 0.176187
0.867565 0.472032 0.459126
0.668540 0.523138 0.632993
0.871658 0.422600 0.409012
0.688961 0.514434 0.637631
0.702182 0.509978 0.640988
0.114259 0.784016 0.499005
0.700638 0.605563 0.514468
0.208833 0.757005 0.356072
0.198965 0.787656 0.362467
0.229891 0.163342 0.552817
0.236097 0.170879 0.560132
0.716706 0.505998 0.648146
0.713504 0.506710 0.637229
0.260848 0.185843 0.561526
0.268480 0.191197 0.586713
0.698629 0.582839 0.585078
0.400765 0.601760 0.524120
0.692628 0.566158 0.618489
0.465413 0.596184 0.411666
0.295572 0.659540 0.482521
0.439850 0.600213 0.408680
0.608505 0.417173 0.724300
0.717879 0.569442 0.610892
0.761083 0.570832 0.527214
0.337065 0.190107 0.663864
0.327350 0.190392 0.654969
0.340095 0.195588 0.657746
0.349970 0.203722 0.664637
0.364515 0.186666 0.675988
0.380522 0.182078 0.659971
0.360352 0.200930 0.649567
0.385437 0.194021 0.657542
0.382353 0.190201 0.664248
0.390045 0.181090 0.642825
0.400989 0.186252 0.651728
0.400198 0.175746 0.647280
0.408750 0.191885 0.644058
0.395783 0.177199 0.655116
0.420812 0.183441 0.620562
0.425302 0.176627 0.633005
0.433622 0.176651 0.639973
0.439153 0.189054 0.653900
0.621626 0.629713 0.448420
0.609852 0.641946 0.449023
0.643478 0.636848 0.461389
0.713601 0.609469 0.484088
0.753792 0.576013 0.510833
0.787441 0.574431 0.525823
0.830601 0.541061 0.530592
0.653273 0.595753 0.606439
0.232663 0.793227 0.542787
0.499696 0.186823 0.734191
0.502247 0.182326 0.745463
0.521101 0.184307 0.728668
0.376167 0.907085 0.356265
0.531778 0.179845 0.758537
0.545013 0.184618 0.746626
0.534091 0.202145 0.747177
0.543304 0.211291 0.754227
0.548281 0.190264 0.761128
0.563645 0.205490 0.759366
0.555210 0.189795 0.756786
0.558636 0.188753 0.750331
0.576781 0.193638 0.752950
0.594417 0.198160 0.758183
0.595851 0.191986 0.760478
0.597344 0.198933 0.767392
0.601386 0.186751 0.747019
0.605553 0.198383 0.764414
0.632600 0.199889 0.774164
0.639740 0.194969 0.758523
0.634271 0.200919 0.759054
0.634617 0.196632 0.759791
0.639256 0.183371 0.757432
0.648644 0.206227 0.747634
0.668995 0.203095 0.760391
0.684139 0.546082 0.636790
0.032421 0.556930 0.396200
0.520268 0.560667 0.626810
0.527566 0.562203 0.635019
0.525686 0.557191 0.639025
0.539817 0.560794 0.625161
0.556508 0.555792 0.632433
0.048216 0.760253 0.560853
0.163598 0.705560 0.679365
0.125985 0.698157 0.710455
0.513139 0.555745 0.630626
0.620900 0.557355 0.647429
0.894193 0.407165 0.492208
0.195638 0.783426 0.191763
0.201054 0.712135 0.346013
0.893064 0.373772 0.361906
0.891521 0.371036 0.357887
0.562352 0.556554 0.631417
0.566440 0.565018 0.627039
0.565361 0.577934 0.632636
0.578471 0.559268 0.643731
0.588602 0.566250 0.634017
0.594300 0.560175 0.643954
0.620177 0.568060 0.635237
0.111118 0.673199 0.700042
0.378874 0.610741 0.408977
0.510202 0.586786 0.600676
0.504360 0.588505 0.584913
0.540021 0.596115 0.604620
0.544752 0.580825 0.590471
0.867381 0.407492 0.399776
0.891173 0.399595 0.398339
0.861777 0.195327 0.580534
0.880479 0.190589 0.592961
0.883011 0.180971 0.595692
0.876417 0.199094 0.588255
0.884802 0.184274 0.589307
0.887129 0.170516 0.588857
0.908311 0.187669 0.587014
0.922066 0.194927 0.588203
0.923316 0.177311 0.578684
0.931229 0.181188 0.598687
0.933034 0.182195 0.581290
0.934125 0.181624 0.576661
0.585387 0.594595 0.578655
0.735672 0.510534 0.635664
0.712188 0.608183 0.558613
0.393202 0.898441 0.392508
0.836543 0.481674 0.381548
0.861308 0.480255 0.495058
0.720604 0.501546 0.645153
0.428993 0.908253 0.368457
0.475933 0.985918 0.302308
0.730139 0.502790 0.630136
0.440187 0.602482 0.447923
0.366633 0.615123 0.419416
0.327900 0.611366 0.409564
0.161021 0.787531 0.410886
0.614330 0.429911 0.709248
0.707306 0.600128 0.521998
0.183370 0.786986 0.356718
0.352567 0.817977 0.311940
0.337556 0.777762 0.339090
0.238874 0.183643 0.579235
0.248622 0.175775 0.585879
0.246510 0.192598 0.585831
0.273139 0.191420 0.589856
0.247979 0.186833 0.591218
0.272213 0.199806 0.588109
0.277533 0.175088 0.604187
0.285515 0.200433 0.603556
0.169812 0.786099 0.414872
0.441335 0.589735 0.392150
0.634312 0.608135 0.581755
0.601477 0.605282 0.581524
0.793561 0.573981 0.525831
0.484350 0.617928 0.536132
0.333804 0.200818 0.650593
0.328647 0.207543 0.660213
0.344121 0.194615 0.664427
0.344574 0.204642 0.669728
0.353364 0.198361 0.678125
0.371447 0.204672 0.661491
0.371742 0.191521 0.659381
0.379163 0.187572 0.678672
0.375711 0.195653 0.663134
0.372841 0.171573 0.654838
0.375018 0.208022 0.662954
0.403271 0.187700 0.651175
0.405391 0.191934 0.646510
0.413885 0.184982 0.633678
0.424252 0.191083 0.648569
0.428280 0.189934 0.651632
0.423230 0.196801 0.647688
0.443642 0.202155 0.663304
0.666506 0.619162 0.472273
0.654785 0.640033 0.467187
0.734681 0.621493 0.491410
0.762273 0.582868 0.512216
0.790790 0.565939 0.502902
0.820559 0.526334 0.538964
0.661393 0.602798 0.594465
0.320388 0.633946 0.469256
0.664463 0.626051 0.504064
0.509989 0.212799 0.728914
0.501488 0.202561 0.744240
0.513475 0.205347 0.742058
0.524187 0.210649 0.747421
0.537450 0.201681 0.760122
0.541027 0.216081 0.748204
0.546451 0.200615 0.756436
0.556150 0.209336 0.763784
0.574394 0.199631 0.763136
0.575536 0.209226 0.760184
0.567407 0.213599 0.770755
0.565427 0.209779 0.759707
0.580015 0.207906 0.758355
0.600144 0.195465 0.766699
0.591579 0.208108 0.763889
0.585383 0.203061 0.751159
0.599515 0.212763 0.758563
0.606491 0.203707 0.761798
0.612986 0.206753 0.756912
0.623905 0.207465 0.757447
0.616306 0.191691 0.768673
0.634972 0.214026 0.769103
0.646718 0.196025 0.758077
0.636429 0.209370 0.745307
0.647709 0.201125 0.767153
0.666622 0.210245 0.745886
0.702375 0.542710 0.626613
0.109832 0.775864 0.363774
0.127515 0.780725 0.204997
0.066353 0.428785 0.388348
0.875352 0.446840 0.395841
0.133816 0.698802 0.700339
0.160843 0.736750 0.661818
0.104859 0.900500 0.086003
0.626046 0.645247 0.501751
0.501615 0.553231 0.627581
0.632281 0.553434 0.646401
0.619548 0.555911 0.642587
0.639671 0.567497 0.635805
0.644963 0.555666 0.616963
0.663869 0.567060 0.627101
0.647211 0.561410 0.638876
0.470071 0.521662 0.638744
0.503896 0.992115 0.259423
0.875979 0.325706 0.337536
0.294607 0.565657 0.590818
0.321544 0.556885 0.566655
0.597512 0.593985 0.651845
0.609522 0.567879 0.642473
0.129604 0.682543 0.717164
0.015882 0.533504 0.632242
0.519075 0.576704 0.599441
0.533771 0.599712 0.604391
0.549690 0.589979 0.594090
0.277396 0.580795 0.323153
0.753518 0.477864 0.288124
0.003797 0.575269 0.491349
0.864124 0.175037 0.596518
0.871107 0.186811 0.574963
0.875071 0.184421 0.595111
0.869377 0.185134 0.579608
0.894878 0.176853 0.583583
0.913427 0.179136 0.601267
0.914221 0.193572 0.593518
0.911975 0.188368 0.588363
0.915151 0.182532 0.584472
0.921973 0.197396 0.589425
0.920951 0.185721 0.598764
0.954055 0.188423 0.570669
0.841377 0.484908 0.563714
0.561788 0.632770 0.482830
0.325416 0.850658 0.417129
0.318289 0.866489 0.358984
0.309053 0.637204 0.426220
0.017049 0.549940 0.467235
0.033753 0.402577 0.412796
0.110364 0.823996 0.230206
0.103350 0.574343 0.726419
0.626090 0.633890 0.517377
0.577725 0.620895 0.501398
0.529706 0.613185 0.479923
0.495859 0.621411 0.457396
0.417794 0.603542 0.452718
0.351506 0.604308 0.395698
0.328104 0.616759 0.406332
0.562949 0.598927 0.575781
0.601686 0.634835 0.548211
0.440866 0.263484 0.701397
0.196509 0.765473 0.359546
0.191127 0.795088 0.360034
0.221364 0.453881 0.296649
0.224098 0.462143 0.286948
0.142952 0.533922 0.349122
0.210427 0.366728 0.270839
0.415463 0.375310 0.222943
0.264488 0.203634 0.617780
0.267551 0.196608 0.613669
0.274388 0.205208 0.625885
0.295338 0.186519 0.617626
0.297855 0.202053 0.624079
0.470267 0.605905 0.465113
0.459647 0.588053 0.549338
0.799055 0.563271 0.522835
0.568634 0.614816 0.562554
0.183197 0.833800 0.288805
0.328090 0.197269 0.643561
0.341822 0.199473 0.657620
0.340655 0.206207 0.667553
0.327688 0.203718 0.659827
0.358568 0.211230 0.669325
0.368028 0.194392 0.660534
0.366316 0.204657 0.663978
0.372834 0.216265 0.667074
0.377385 0.206424 0.659001
0.385973 0.206255 0.664367
0.403455 0.197496 0.650439
0.391557 0.196049 0.647908
0.401239 0.202704 0.649948
0.427393 0.211397 0.655189
0.417142 0.198736 0.650106
0.415211 0.214814 0.642861
0.429373 0.202912 0.641749
0.437022 0.198745 0.646517
0.697447 0.632017 0.496258
0.706093 0.611617 0.471780
0.761960 0.588291 0.503657
0.769821 0.573900 0.513681
0.840880 0.522041 0.528071
0.537699 0.630371 0.474897
0.305000 0.646429 0.475664
0.911003 0.224027 0.548840
0.914074 0.213285 0.572180
0.505404 0.198442 0.733240
0.515930 0.201042 0.736138
0.518822 0.193680 0.741155
0.515088 0.213465 0.735321
0.532133 0.207932 0.742335
0.541153 0.202072 0.743334
0.536806 0.210906 0.761050
0.540991 0.213378 0.757702
0.549947 0.212872 0.748434
0.559283 0.223713 0.746492
0.566610 0.209109 0.757076
0.576957 0.208752 0.761041
0.581179 0.206742 0.764892
0.591391 0.220356 0.771077
0.609272 0.212422 0.763700
0.589793 0.209542 0.751668
0.600472 0.197990 0.756180
0.620496 0.213724 0.759369
0.617141 0.214215 0.757717
0.620642 0.223579 0.762632
0.632416 0.208143 0.752942
0.624590 0.211563 0.753049
0.640931 0.220351 0.770939
0.641427 0.216003 0.750523
0.650994 0.219673 0.748146
0.671100 0.216933 0.767410
0.674154 0.198737 0.736180
0.702235 0.535920 0.622694
0.702040 0.539709 0.629017
0.726469 0.545592 0.623904
0.728915 0.549441 0.611508
0.730212 0.540243 0.623906
0.360810 0.618278 0.385560
0.449806 0.548168 0.602634
0.668933 0.551030 0.636802
0.624680 0.640647 0.492179
0.474003 0.556991 0.623577
0.489070 0.544561 0.611206
0.487440 0.570945 0.602714
0.448014 0.544777 0.599444
0.476284 0.555225 0.599173
0.662724 0.555547 0.630134
0.650466 0.557646 0.640462
0.380644 0.594205 0.399776
0.686369 0.558969 0.624296
0.686313 0.552908 0.629036
0.306538 0.564764 0.571605
0.676484 0.629015 0.534777
0.734438 0.597491 0.539882
0.139674 0.690624 0.691758
0.694129 0.621052 0.541646
0.529327 0.581329 0.599596
0.538895 0.593611 0.598227
-0.001634 0.565411 0.531315
0.297606 0.584305 0.339279
0.874769 0.417682 0.427148
0.891623 0.405374 0.489742
0.867986 0.181613 0.595438
0.864054 0.202986 0.565910
0.881874 0.194955 0.579847
0.880066 0.210603 0.580152
0.896915 0.197637 0.568060
0.893066 0.193638 0.571625
0.900514 0.194145 0.589900
0.915382 0.211730 0.586444
0.937171 0.200526 0.571886
0.929622 0.202710 0.584633
0.926798 0.195608 0.590515
0.945909 0.192908 0.580364
0.138655 0.791226 0.510466
0.720978 0.607885 0.521362
0.463133 0.957292 0.264087
0.815585 0.533969 0.581873
0.846822 0.487352 0.404599
0.853838 0.478708 0.429715
0.204049 0.235182 0.653545
0.440332 0.590068 0.427740
0.205073 0.805961 0.217873
0.705048 0.613204 0.545941
0.663883 0.620131 0.548157
0.608415 0.617214 0.506149
0.578793 0.610676 0.486048
0.534717 0.608344 0.478909
0.475387 0.621688 0.468321
0.412715 0.595034 0.454549
0.367371 0.599459 0.397529
0.330879 0.608355 0.408051
0.209461 0.787846 0.517699
0.175792 0.812728 0.336103
0.186831 0.797661 0.348498
0.176339 0.793909 0.343893
0.192939 0.358953 0.289193
0.198980 0.363562 0.267662
0.147427 0.507307 0.344212
0.193880 0.362021 0.271002
0.402902 0.366897 0.245208
0.371190 0.861996 0.297646
0.319697 0.785893 0.354171
0.257097 0.368624 0.263605
0.346799 0.364613 0.264058
0.281738 0.218005 0.616617
0.289295 0.211531 0.645597
0.331861 0.633755 0.454442
0.800382 0.570969 0.526940
0.633376 0.600295 0.579916
0.310082 0.215441 0.655837
0.327146 0.206744 0.657842
0.329559 0.217962 0.674403
0.331311 0.221910 0.666307
0.339138 0.214377 0.664013
0.341522 0.215111 0.662505
0.361250 0.213610 0.664188
0.358158 0.217545 0.640522
0.379325 0.209515 0.674716
0.366724 0.218420 0.666254
0.375619 0.216745 0.675466
0.382797 0.209805 0.651458
0.384176 0.215531 0.651636
0.389407 0.214927 0.650890
0.419695 0.193091 0.633542
0.420322 0.215238 0.656968
0.415023 0.205721 0.643687
0.409527 0.217286 0.642646
0.433062 0.217411 0.647972
0.446174 0.207746 0.645540
0.735456 0.611971 0.487523
0.774737 0.577060 0.522386
0.797282 0.562362 0.508886
0.845651 0.512678 0.536664
0.866486 0.478492 0.528960
0.135014 0.790767 0.409734
0.892614 0.236965 0.553633
0.762217 0.580418 0.581436
0.096379 0.785977 0.499908
0.502027 0.223797 0.736845
0.516326 0.232204 0.746987
0.510825 0.215533 0.736043
0.518838 0.229376 0.742926
0.528393 0.220827 0.733497
0.533087 0.214359 0.740429
0.540608 0.240100 0.746571
0.546175 0.216659 0.754956
0.556864 0.219116 0.753703
0.549806 0.219698 0.763865
0.565716 0.240034 0.753265
0.567599 0.237612 0.757000
0.584607 0.228431 0.765208
0.584004 0.214256 0.752182
0.596143 0.215444 0.753669
0.600482 0.224765 0.772342
0.594645 0.217914 0.763438
0.616949 0.222940 0.753518
0.618576 0.220965 0.747949
0.619338 0.219800 0.756665
0.631421 0.217919 0.753842
0.648167 0.210566 0.743203
0.651775 0.220128 0.754104
0.659365 0.218605 0.740072
0.654257 0.224252 0.756428
0.663627 0.216302 0.751026
0.675098 0.216933 0.740733
0.682868 0.214147 0.742322
0.289092 0.541988 0.590006
0.287801 0.547826 0.597529
0.750895 0.508162 0.638688
0.120584 0.615234 0.743540
0.025018 0.688917 0.513655
0.835714 0.489605 0.379519
0.017040 0.719181 0.559723
0.670435 0.543821 0.632586
0.134442 0.792829 0.521686
0.261322 0.763429 0.577544
0.655177 0.611894 0.580706
0.116037 0.775617 0.568837
0.459327 0.557461 0.611504
0.455886 0.563994 0.590161
0.451370 0.548652 0.588406
0.393198 0.557482 0.590042
0.382564 0.561302 0.598008
0.687166 0.563505 0.635998
0.280946 0.714341 0.467403
0.158994 0.196468 0.542178
0.302095 0.703476 0.478530
0.113133 0.788898 0.283299
0.140741 0.766291 0.611165
0.524078 0.570844 0.611277
0.883746 0.418247 0.510482
0.899857 0.413757 0.494569
0.046573 0.495416 0.494852
0.022282 0.458792 0.462742
0.776197 0.561781 0.556322
0.132636 0.783958 0.571041
0.770388 0.595626 0.529751
0.882332 0.205657 0.577777
0.890641 0.209820 0.559776
0.879819 0.202884 0.570935
0.909698 0.198852 0.573414
0.909258 0.204182 0.578093
0.916303 0.204981 0.585559
0.911620 0.205513 0.569183
0.927159 0.208726 0.579304
0.923543 0.203049 0.582038
0.944888 0.215149 0.575516
0.937576 0.211532 0.568510
0.954885 0.201020 0.577812
0.342982 0.855786 0.419357
0.884220 0.440328 0.389182
0.055800 0.607284 0.399492
0.890029 0.341297 0.554734
0.898721 0.372073 0.532084
0.692331 0.631241 0.490135
0.114214 0.799755 0.313888
0.714046 0.616266 0.552104
0.689666 0.624478 0.532162
0.652111 0.641951 0.526656
0.598940 0.635508 0.504038
0.565268 0.632892 0.500714
0.516169 0.617266 0.489417
0.468788 0.599998 0.467891
0.345805 0.619861 0.404057
0.360659 0.602625 0.395007
0.721659 0.556021 0.588438
0.142491 0.827340 0.325823
0.108219 0.787512 0.590316
0.099053 0.778667 0.578740
0.094621 0.636520 0.365635
0.348046 0.450850 0.260326
0.208979 0.353708 0.279241
0.240176 0.366728 0.270403
0.397727 0.367463 0.245747
0.086255 0.536448 0.381102
0.553253 0.374161 0.174445
0.571638 0.356912 0.162930
0.158006 0.214286 0.536698
0.207554 0.509068 0.304761
0.693530 0.468330 0.280882
0.579271 0.473414 0.238630
0.788765 0.551455 0.535779
0.377842 0.601235 0.530719
0.311813 0.217048 0.657235
0.315121 0.226438 0.657284
0.323606 0.224918 0.663626
0.326691 0.232392 0.666636
0.318685 0.231570 0.650101
0.322791 0.215475 0.651102
0.350868 0.233188 0.667481
0.346897 0.225093 0.680462
0.354574 0.228452 0.660987
0.378471 0.222917 0.658925
0.376192 0.228149 0.654922
0.384267 0.221237 0.662471
0.380955 0.218965 0.641510
0.403178 0.222311 0.662592
0.403910 0.208436 0.659794
0.413059 0.219375 0.646107
0.422676 0.221115 0.650168
0.418340 0.205951 0.651841
0.411933 0.227813 0.647481
0.434110 0.200680 0.652504
0.431017 0.217154 0.663523
0.816084 0.549681 0.539005
0.793696 0.550870 0.522566
0.834801 0.511509 0.523298
0.498577 0.606079 0.545520
0.614381 0.572529 0.626400
0.495975 0.619108 0.472249
0.180744 0.846454 0.277574
0.169879 0.838545 0.281677
0.509871 0.235214 0.750270
0.493903 0.217381 0.742497
0.513501 0.237876 0.763944
0.518277 0.226874 0.751329
0.522012 0.236163 0.758848
0.526282 0.228524 0.743329
0.530717 0.238682 0.766521
0.552941 0.227095 0.749854
0.556613 0.224780 0.752033
0.554198 0.225388 0.758246
0.559994 0.235232 0.758998
0.567376 0.228735 0.759620
0.563299 0.238333 0.779227
0.589412 0.238595 0.748171
0.580413 0.242659 0.758865
0.606960 0.220097 0.757060
0.589181 0.224484 0.770320
0.620073 0.255300 0.758559
0.619301 0.235977 0.767599
0.606042 0.233725 0.748326
0.640579 0.228792 0.751107
0.628164 0.225296 0.748178
0.628190 0.242166 0.765047
0.650857 0.249244 0.744244
0.633680 0.235952 0.760113
0.653658 0.226725 0.744761
0.663459 0.223441 0.750181
0.668347 0.227468 0.763726
0.687744 0.223265 0.752639
0.836260 0.465656 0.361984
0.853353 0.462588 0.395791
0.624547 0.630451 0.491346
0.628268 0.639070 0.501181
0.214569 0.777194 0.539681
0.742836 0.604378 0.527066
0.878091 0.438036 0.525761
0.295325 0.548773 0.576707
0.656479 0.554200 0.636064
0.646492 0.535852 0.636099
0.647314 0.541982 0.640237
0.641263 0.537386 0.642213
0.196575 0.816445 0.280389
0.382471 0.921925 0.352026
0.075221 0.446995 0.372528
0.004727 0.597151 0.477998
0.361659 0.550437 0.596506
0.501640 0.592973 0.443571
0.194164 0.794474 0.300635
0.086142 0.738662 0.637181
0.419761 0.767375 0.381742
0.829143 0.519872 0.552677
0.126513 0.802946 0.349073
0.540103 0.588077 0.616479
0.880829 0.401797 0.509132
0.885102 0.413699 0.482016
0.015578 0.605594 0.603294
0.160655 0.578817 0.746410
0.733705 0.604962 0.527486
0.864674 0.433582 0.547121
0.871681 0.437742 0.412686
0.880103 0.215753 0.584967
0.873795 0.222469 0.555327
0.889924 0.216687 0.573364
0.891546 0.207361 0.562149
0.907180 0.218780 0.588800
0.922351 0.221662 0.559088
0.907510 0.202861 0.569953
0.921767 0.196261 0.560671
0.933067 0.222510 0.582516
0.947048 0.220486 0.559907
0.933739 0.203003 0.564792
0.951399 0.224314 0.561609
0.843055 0.460687 0.339465
0.863137 0.473694 0.454775
0.040050 0.650925 0.458185
0.897793 0.338130 0.539003
0.110727 0.916993 0.089545
0.881630 0.351511 0.554210
0.607401 0.624105 0.489193
0.721441 0.606727 0.555780
0.698856 0.597271 0.552214
0.649487 0.625901 0.525041
0.606285 0.627741 0.516806
0.560991 0.611398 0.490095
0.594298 0.595789 0.600236
0.664705 0.615055 0.576775
0.163966 0.837746 0.318911
0.147969 0.834682 0.314960
0.541186 0.603814 0.575637
0.524906 0.609075 0.580672
0.225068 0.801897 0.531029
0.215620 0.564596 0.340273
0.473776 0.454648 0.242898
0.403392 0.357676 0.252330
0.389114 0.368123 0.242360
0.379332 0.382792 0.251212
0.079134 0.527116 0.383012
0.370513 0.784518 0.332718
0.224553 0.035079 0.701458
0.584990 0.370057 0.187327
0.589917 0.366397 0.174362
0.689701 0.481198 0.260741
0.574972 0.470090 0.250026
0.670740 0.451869 0.259464
0.156189 0.809425 0.377643
0.186930 0.829043 0.286503
0.316841 0.228769 0.667446
0.316727 0.227197 0.662193
0.322703 0.225925 0.661518
0.330445 0.222968 0.662517
0.333283 0.213762 0.652435
0.329180 0.228361 0.661687
0.354038 0.236054 0.673558
0.353253 0.226603 0.666243
0.358904 0.232915 0.670103
0.384887 0.228084 0.657880
0.367999 0.240212 0.664095
0.361405 0.230352 0.662467
0.393201 0.239145 0.661878
0.388078 0.238548 0.667829
0.392001 0.241360 0.651929
0.401184 0.243597 0.657257
0.415790 0.241710 0.653678
0.424146 0.232506 0.654073
0.433686 0.228243 0.653959
0.436820 0.230519 0.643857
0.433251 0.238286 0.664219
0.805441 0.547529 0.528222
0.818731 0.529248 0.526766
0.420694 0.586406 0.522347
0.089303 0.759879 0.625862
0.247972 0.769328 0.577246
0.455820 0.575101 0.571600
0.156180 0.838866 0.280407
0.171198 0.834823 0.288988
0.506183 0.240980 0.750831
0.500264 0.237463 0.746127
0.510384 0.224846 0.754901
0.506187 0.229566 0.747702
0.522749 0.246180 0.746362
0.528071 0.229733 0.763974
0.540412 0.251839 0.758752
0.541699 0.244382 0.747882
0.543478 0.241086 0.753371
0.534559 0.244535 0.759135
0.552983 0.234554 0.756828
0.564845 0.244593 0.757031
0.577547 0.233219 0.757623
0.572610 0.232082 0.759921
0.585674 0.239729 0.765736
0.590425 0.233563 0.755042
0.597482 0.230865 0.755317
0.614157 0.230051 0.759967
0.616067 0.241873 0.759594
0.624807 0.233888 0.774833
0.621310 0.232056 0.756929
0.619477 0.239876 0.739141
0.634123 0.232975 0.760447
0.658683 0.245107 0.752499
0.660010 0.246611 0.750208
0.650552 0.235319 0.740460
0.662436 0.235870 0.738178
0.660263 0.244446 0.759287
0.720597 0.522544 0.613285
0.711210 0.535600 0.629068
0.717556 0.536533 0.641738
0.690321 0.527735 0.632543
0.712438 0.539089 0.616850
0.696055 0.547139 0.625939
0.692127 0.538266 0.635702
0.653949 0.531432 0.652342
0.106759 0.447055 0.351590
0.298677 0.549582 0.595790
0.304432 0.550326 0.589591
0.318668 0.551875 0.592746
0.322535 0.546620 0.602050
0.624428 0.555936 0.638287
0.555833 0.543499 0.636853
0.573791 0.555399 0.642814
0.033010 0.421792 0.521105
0.349833 0.538951 0.592232
0.032759 0.657640 0.466510
0.518034 0.624005 0.449253
0.519209 0.525599 0.629291
0.270207 0.733873 0.550182
0.210397 0.810042 0.280455
0.553505 0.578452 0.617367
0.555966 0.584201 0.613841
0.041319 0.462416 0.512201
0.045116 0.667730 0.623136
0.865097 0.480643 0.518033
0.153298 0.590718 0.737374
0.173007 0.616879 0.337880
0.136688 0.654158 0.728450
0.106237 0.711856 0.678162
0.873759 0.217357 0.586550
0.906730 0.223413 0.561626
0.884172 0.226106 0.557109
0.907317 0.223941 0.562458
0.886586 0.211685 0.569241
0.918252 0.223400 0.574082
0.921511 0.226303 0.549256
0.930170 0.215481 0.581734
0.940519 0.217936 0.566463
0.927575 0.223810 0.572029
0.950860 0.208430 0.549536
0.947706 0.230655 0.562936
0.049007 0.650478 0.445455
0.806092 0.435145 0.622845
0.899133 0.342417 0.537587
0.235751 0.169902 0.565921
0.018742 0.604585 0.635571
0.040650 0.409020 0.508591
0.876125 0.426728 0.381492
0.881254 0.425973 0.435265
0.707271 0.614048 0.554385
0.691029 0.618911 0.544114
0.227536 0.795101 0.448298
0.594765 0.608745 0.590337
0.704460 0.572703 0.606782
0.170727 0.822514 0.330267
0.166233 0.816697 0.314933
0.305054 0.665082 0.501158
0.053463 0.774404 0.564156
0.112213 0.776713 0.624996
0.179091 0.832675 0.275285
0.344000 0.463903 0.271385
0.189697 0.612875 0.336125
0.230385 0.713233 0.385622
0.116446 0.550324 0.355482
0.475766 0.452556 0.252545
0.143478 0.545128 0.345480
0.379994 0.861529 0.305113
0.158648 0.497799 0.347657
0.339859 0.362392 0.258210
0.579382 0.378757 0.151855
0.566354 0.369165 0.158323
0.544581 0.371095 0.171574
0.567407 0.465090 0.225218
0.184281 0.819840 0.047439
0.604994 0.368457 0.175162
0.179283 0.641945 0.354040
0.325672 0.229471 0.657069
0.311334 0.244689 0.651590
0.321446 0.239077 0.656587
0.324897 0.226348 0.664374
0.325065 0.233151 0.673118
0.337065 0.244887 0.663004
0.346192 0.238620 0.672090
0.360459 0.229660 0.656421
0.360025 0.245215 0.673756
0.373079 0.244024 0.651067
0.366979 0.234183 0.669840
0.383059 0.236641 0.679895
0.377784 0.249657 0.671336
0.394199 0.250753 0.654653
0.389422 0.245437 0.662785
0.403711 0.234067 0.653075
0.408698 0.235426 0.641034
0.414817 0.244561 0.642428
0.430496 0.229575 0.650518
0.434688 0.229178 0.670744
0.851773 0.478584 0.539632
0.833964 0.494692 0.553917
0.516930 0.605871 0.544165
0.236324 0.794528 0.509318
0.904146 0.242597 0.553022
0.575870 0.617951 0.567403
0.148672 0.859219 0.261323
0.181249 0.817775 0.283789
0.255794 0.774435 0.486954
0.499417 0.254673 0.740659
0.497164 0.233502 0.739991
0.511042 0.256913 0.745647
0.513476 0.247867 0.762973
0.514580 0.267617 0.754863
0.534211 0.238864 0.747101
0.527489 0.256241 0.758997
0.531947 0.243583 0.756418
0.539854 0.241206 0.776758
0.551338 0.239565 0.767858
0.565880 0.259390 0.766195
0.567162 0.244266 0.771719
0.563400 0.260617 0.782412
0.569441 0.239180 0.779415
0.598073 0.257868 0.765662
0.593046 0.243042 0.778939
0.613881 0.265224 0.768252
0.602832 0.249453 0.756017
0.613685 0.258398 0.769270
0.619247 0.256217 0.739461
0.616244 0.259061 0.758021
0.612885 0.241838 0.756567
0.648672 0.239981 0.754572
0.646074 0.247450 0.764349
0.664372 0.226292 0.757270
0.666519 0.253063 0.752436
0.658309 0.240799 0.756445
0.673656 0.247034 0.752451
0.682445 0.540285 0.649142
0.216537 0.899748 0.053896
0.132391 0.593466 0.729500
0.574335 0.546030 0.660201
0.573231 0.542355 0.650526
0.588802 0.559399 0.662044
0.591502 0.533152 0.644948
0.681840 0.526599 0.638126
0.266657 0.836117 0.430584
0.304154 0.828437 0.437968
0.027434 0.599314 0.424247
0.329719 0.562649 0.308795
0.136208 0.547451 0.722396
0.344869 0.531967 0.594739
0.346304 0.537138 0.608814
0.555721 0.541462 0.646893
0.146389 0.576112 0.744231
0.353203 0.555386 0.598331
0.839705 0.498248 0.563087
0.273045 0.758401 0.504785
0.519133 0.531855 0.657479
0.258060 0.732889 0.550368
0.825308 0.540388 0.542293
0.765104 0.573099 0.537496
0.875310 0.452848 0.405789
0.863890 0.466250 0.364952
0.055710 0.494672 0.437040
0.409541 0.372400 0.174188
0.605547 0.627108 0.573785
0.876131 0.446500 0.463605
0.106751 0.720760 0.682432
0.123848 0.724610 0.685793
0.014634 0.577860 0.630164
0.885639 0.237704 0.558409
0.886300 0.241856 0.564069
0.559036 0.873258 0.271695
0.884973 0.453713 0.453446
0.198480 0.761814 0.352384
0.909366 0.245668 0.551317
0.915286 0.240760 0.548903
0.007166 0.574529 0.471233
0.952820 0.242497 0.565706
0.955747 0.220538 0.568653
0.319276 0.849810 0.347145
0.269221 0.820696 0.362921
0.144375 0.950750 0.025448
0.147721 0.826938 0.319155
0.447367 0.576767 0.540405
0.472818 0.961316 0.312246
0.875849 0.359063 0.350673
0.202978 0.859934 0.129478
0.796647 0.437929 0.655943
0.790547 0.564270 0.573475
0.764733 0.573372 0.575251
0.720785 0.596085 0.557320
0.640382 0.615179 0.559718
0.246672 0.811538 0.438522
0.199704 0.793659 0.330785
0.193435 0.787549 0.323775
0.203866 0.816538 0.325847
0.014880 0.765356 0.499914
0.408862 0.588448 0.534509
0.552768 0.626119 0.450647
0.540282 0.610797 0.448780
0.523860 0.605037 0.448585
0.359973 0.445647 0.271841
0.629744 0.364036 0.172321
0.495018 0.921606 0.245266
0.433267 0.844661 0.285184
0.268956 0.777323 0.370461
0.122391 0.621298 0.355136
0.111573 0.249722 0.556637
0.258713 0.253724 0.638596
0.328720 0.366167 0.254744
0.542896 0.452392 0.259151
0.657740 0.472701 0.271704
0.267548 0.772616 0.382413
0.151514 0.656471 0.342287
0.559278 0.446690 0.257880
0.589985 0.468079 0.251565
0.304290 0.239606 0.663877
0.306918 0.253139 0.663105
0.315002 0.254502 0.667697
0.325346 0.253054 0.664509
0.322192 0.259210 0.670926
0.331085 0.256627 0.670330
0.333359 0.245424 0.679891
0.342592 0.245215 0.652196
0.336213 0.261128 0.660454
0.344745 0.243121 0.673440
0.356730 0.252510 0.673821
0.361214 0.247675 0.678084
0.373639 0.236515 0.674007
0.369557 0.260048 0.672179
0.386526 0.239094 0.676517
0.405236 0.262332 0.660897
0.403686 0.259205 0.650386
0.397511 0.242265 0.649882
0.415643 0.241220 0.651729
0.431792 0.242896 0.650727
0.431566 0.246051 0.658906
0.441317 0.253926 0.662288
0.557969 0.603077 0.578137
0.438577 0.589464 0.536087
0.469465 0.617275 0.474661
0.500744 1.003769 0.283680
0.306942 0.858901 0.419032
0.174540 0.853513 0.279924
0.193691 0.847692 0.284255
0.165499 0.785304 0.486735
0.489818 0.259337 0.737392
0.489498 0.245292 0.750738
0.485036 0.255499 0.752502
0.523382 0.248460 0.753235
0.492994 0.252458 0.750296
0.514107 0.253430 0.748081
0.531463 0.252392 0.756452
0.534207 0.246258 0.757578
0.537253 0.269446 0.773231
0.549997 0.244963 0.756419
0.562035 0.256733 0.772303
0.561066 0.255788 0.766525
0.544347 0.253856 0.763187
0.576573 0.275249 0.763424
0.580795 0.262637 0.762925
0.588953 0.256467 0.786241
0.593509 0.254757 0.775178
0.594831 0.256873 0.767168
0.614221 0.254850 0.770227
0.615888 0.268020 0.770379
0.628617 0.255575 0.787817
0.620801 0.249694 0.766739
0.610628 0.254400 0.765867
0.635330 0.250486 0.762138
0.647226 0.257798 0.764064
0.640767 0.267624 0.763292
0.661257 0.244878 0.766989
0.671919 0.265400 0.763980
0.480060 0.535463 0.637034
0.522731 0.546795 0.659266
0.484307 0.525419 0.634656
0.524115 0.573496 0.620120
0.142280 0.907140 0.030217
0.506981 0.546910 0.633782
0.545419 0.534658 0.639344
0.523512 0.541876 0.650512
0.638573 0.531607 0.665717
0.495069 0.617398 0.442949
0.080224 0.553603 0.712693
0.149294 0.572106 0.740919
0.697017 0.626194 0.511280
0.170227 0.738730 0.661227
0.136835 0.560368 0.742037
0.334818 0.553425 0.608068
0.547755 0.553330 0.642498
0.142582 0.569090 0.721258
0.355212 0.545979 0.603101
0.024751 0.538366 0.558606
0.447358 0.381209 0.208248
0.522913 0.537469 0.641112
0.037685 0.461434 0.506983
0.074843 0.578346 0.741919
0.872857 0.408365 0.397414
0.872100 0.457616 0.406567
0.209023 0.751966 0.278726
0.873905 0.451082 0.450979
0.086443 0.621464 0.737421
0.128116 0.640219 0.750438
0.911120 0.376912 0.519495
0.100590 0.716516 0.686212
0.067332 0.472600 0.568485
0.872555 0.379144 0.333119
0.895513 0.240345 0.561878
0.533663 0.829561 0.282128
0.218243 0.575184 0.323739
0.262776 0.704748 0.537441
0.012667 0.577606 0.512883
0.883077 0.407940 0.530464
0.876016 0.423619 0.546102
0.890128 0.422103 0.471338
0.609772 0.472059 0.251326
0.891391 0.402383 0.455540
0.894761 0.392259 0.464321
0.886048 0.404130 0.460798
0.128236 0.842306 0.327645
0.365649 0.597158 0.426891
0.803953 0.514228 0.561358
0.486419 0.983681 0.301010
0.019485 0.602603 0.520790
0.639448 0.588018 0.592266
0.310059 0.638517 0.492113
0.399408 0.587261 0.527988
0.604340 0.428412 0.713772
0.799533 0.511317 0.571094
0.798848 0.515602 0.582303
0.819923 0.513223 0.597852
0.318375 0.613848 0.483540
0.214494 0.758785 0.336168
0.137332 0.787835 0.575448
0.533307 0.935293 0.206253
0.145714 0.740247 0.658012
0.548612 0.621240 0.458214
0.549439 0.633697 0.455695
0.266345 0.775837 0.507701
0.191359 0.778920 0.545640
0.646723 0.387621 0.190433
0.629784 0.379959 0.184062
0.201748 0.216791 0.591158
0.263474 0.355565 0.260090
0.270375 0.368006 0.263929
0.264245 0.362956 0.255418
0.226211 0.256744 0.644351
0.236061 0.268343 0.661321
0.249679 0.260692 0.673842
0.244291 0.259404 0.670202
0.265528 0.255077 0.648942
0.273166 0.247372 0.654668
0.274794 0.267078 0.670122
0.272489 0.258811 0.658859
0.272035 0.250645 0.670401
0.295453 0.263474 0.667393
0.309288 0.272875 0.666998
0.298336 0.249438 0.681995
0.308855 0.256074 0.671332
0.318503 0.238316 0.662904
0.337143 0.248880 0.675726
0.310131 0.264429 0.665272
0.340766 0.264142 0.667616
0.345261 0.266785 0.686975
0.333931 0.246880 0.676819
0.340979 0.266066 0.671126
0.367454 0.248791 0.649580
0.373184 0.251081 0.669913
0.367462 0.258166 0.662220
0.374711 0.257481 0.670917
0.388824 0.251791 0.671247
0.406299 0.258861 0.660546
0.395934 0.257767 0.656974
0.399182 0.251294 0.670855
0.407349 0.279673 0.665715
0.419982 0.259907 0.647276
0.425825 0.266657 0.666836
0.424539 0.269465 0.686126
0.483807 0.605859 0.559417
0.200035 0.784325 0.598513
0.681205 0.616046 0.515773
0.308722 0.646722 0.514911
0.146171 0.860663 0.276211
0.195848 0.832408 0.289014
0.633892 0.591562 0.623264
0.037657 0.585902 0.415808
0.485228 0.264514 0.755715
0.509206 0.272636 0.752536
0.506552 0.260737 0.751909
0.520549 0.256167 0.746228
0.523431 0.268444 0.752034
0.515352 0.266435 0.749986
0.544839 0.277739 0.754436
0.535748 0.268147 0.756498
0.542206 0.268549 0.764709
0.554572 0.268732 0.766439
0.541331 0.268003 0.763412
0.557279 0.258394 0.766403
0.571500 0.264277 0.789739
0.572123 0.280437 0.773376
0.590208 0.267961 0.773851
0.576908 0.263865 0.786896
0.588893 0.247736 0.777394
0.588136 0.267501 0.776253
0.617451 0.258920 0.778350
0.616099 0.275966 0.756174
0.629564 0.262705 0.765701
0.630473 0.264440 0.754026
0.625046 0.269301 0.765341
0.648088 0.261180 0.756381
0.640880 0.276207 0.749311
0.653872 0.270893 0.761557
0.646189 0.253584 0.756674
0.656299 0.265738 0.754613
0.429314 0.537732 0.596612
0.489188 0.540609 0.627860
0.629167 0.533668 0.633982
0.480110 0.536714 0.633095
0.502485 0.525914 0.635431
0.481347 0.535438 0.640319
0.485782 0.555520 0.642753
0.504188 0.552160 0.642739
0.600503 0.520612 0.646709
0.611319 0.536077 0.655887
0.621376 0.628302 0.517821
0.598893 0.544328 0.660166
0.615806 0.545132 0.654901
0.173813 0.752584 0.643199
0.131784 0.560408 0.749422
0.406886 0.544332 0.590895
0.546421 0.551811 0.623959
0.147202 0.570758 0.742845
0.337948 0.552718 0.598536
0.218451 0.879792 0.049284
0.344721 0.621274 0.409088
0.429137 0.784388 0.381314
0.212228 0.865967 0.009155
0.091257 0.582753 0.731826
0.660932 0.580840 0.605070
0.030891 0.697493 0.462599
0.000977 0.596390 0.490609
0.813896 0.554887 0.542380
0.342423 0.906006 0.359200
0.118215 0.642616 0.713006
0.135790 0.710497 0.711403
0.105803 0.723801 0.668946
0.876021 0.365726 0.340904
0.763947 0.442391 0.652593
0.688544 0.378807 0.734569
0.195649 0.863092 0.128408
0.201603 0.809552 0.065324
0.886307 0.375353 0.549416
0.855199 0.495524 0.400073
0.031044 0.693171 0.580506
0.429364 0.395420 0.205373
0.131401 0.718219 0.352019
0.891854 0.429267 0.489540
0.902214 0.408461 0.499507
0.879078 0.420417 0.461459
0.837690 0.463016 0.373720
0.579249 0.630744 0.496828
0.146366 0.798066 0.396237
0.471792 0.971327 0.318654
0.007573 0.567693 0.544074
0.169257 0.781399 0.428548
0.116953 0.772240 0.481303
0.249881 0.779969 0.540786
0.788583 0.539727 0.562171
0.358283 0.886437 0.401279
0.248613 0.765368 0.590043
0.117097 0.787207 0.551736
0.680846 0.596587 0.594520
0.321153 0.620494 0.520714
0.573019 0.635980 0.459888
0.562239 0.631113 0.470219
0.572865 0.634453 0.475585
0.369947 0.902240 0.388904
0.530597 0.435752 0.722251
