ply
format ascii 1.0
element vertex 1773
property float x
property float y
property float z
end_header
0.303477 0.658070 0.543646
0.365346 0.890667 0.364825
0.382642 0.870415 0.349548
0.534975 0.607788 0.466827
0.246277 0.075198 0.702288
0.231313 0.064597 0.684306
0.270591 0.068841 0.675994
0.267446 0.041758 0.696043
0.274980 0.054288 0.702206
0.271805 0.042485 0.664261
0.358929 0.852055 0.405228
0.571136 0.615378 0.438685
0.046346 0.681770 0.533620
0.570208 0.579349 0.314662
0.298363 0.090595 0.668119
0.281451 0.036452 0.678602
0.322278 0.042624 0.682127
0.313446 0.055065 0.667839
0.324835 0.073182 0.657075
0.345416 0.062281 0.684176
0.338306 0.066920 0.664733
0.213566 0.906265 -0.001918
0.219670 0.855088 0.287534
0.400987 0.567816 0.515866
0.093165 0.766550 0.598727
0.192998 0.792710 0.427677
0.554331 0.604164 0.563425
0.017130 0.394601 0.484899
0.734664 0.560374 0.596754
0.741011 0.573817 0.610359
0.212471 0.835586 0.313136
0.381409 0.579317 0.374944
0.387451 0.605281 0.405567
0.404166 0.584703 0.425906
0.387681 0.616447 0.379258
0.372599 0.604096 0.403395
0.065224 0.464842 0.411276
0.513415 0.514245 0.649500
0.893156 0.447553 0.514897
0.866023 0.416965 0.577768
0.863918 0.456663 0.561169
0.858479 0.473888 0.531869
0.283841 0.816244 0.411052
0.318894 0.821099 0.461363
0.277738 0.793396 0.458301
0.538584 0.478468 0.641514
0.383470 0.882155 0.378687
0.873088 0.449599 0.529145
0.870867 0.369539 0.523322
0.405946 0.943996 0.353394
0.449740 0.788472 0.384446
0.461781 0.799441 0.383999
0.744856 0.590659 0.591156
0.553183 0.629287 0.480629
0.884451 0.445778 0.553954
0.850261 0.487942 0.518590
0.427705 0.515749 0.587536
0.436806 0.517408 0.643355
0.435841 0.535742 0.652437
0.509904 0.542886 0.634153
0.126892 0.549771 0.743865
0.585436 0.061800 0.701075
0.600138 0.060784 0.698238
0.615592 0.065056 0.719387
0.603430 0.029070 0.691676
0.603164 0.045046 0.682447
0.606966 0.062314 0.699774
0.667236 0.072411 0.704338
0.617837 0.024225 0.687195
0.635192 0.056655 0.673893
0.644026 0.058846 0.659880
0.320313 0.799341 0.435918
0.285220 0.813316 0.445219
0.295812 0.840252 0.451741
0.518568 0.518295 0.690031
0.577026 0.543282 0.668994
0.124138 0.622418 0.713392
0.789960 0.585135 0.551035
0.228609 0.804810 0.550683
0.514000 0.495863 0.647079
0.801664 0.558100 0.562161
0.877520 0.463932 0.378029
0.065764 0.658516 0.388118
0.853786 0.444716 0.346807
0.540987 0.521960 0.661332
0.390465 0.885491 0.378273
0.130321 0.557258 0.759417
0.813897 0.474795 0.345151
0.123336 0.571031 0.753067
0.838573 0.462069 0.368702
0.885332 0.431497 0.542085
0.903712 0.348545 0.455147
0.134107 0.393300 0.279124
0.137442 0.364576 0.303830
0.131630 0.401887 0.302347
0.153789 0.360738 0.302955
0.123505 0.387491 0.319927
0.431071 0.942302 0.342001
0.424340 0.948132 0.343799
0.642988 0.600920 0.526752
0.263944 0.796387 0.448091
0.231573 0.785928 0.444328
0.210778 0.763113 0.428155
0.166439 0.793861 0.428742
0.374821 0.598262 0.519035
0.479382 0.586263 0.460944
0.403632 0.583392 0.434551
0.181565 0.742802 0.667921
0.163972 0.820730 0.315248
0.284878 0.608869 0.507057
0.137520 0.766573 0.593457
0.139938 0.408755 0.646950
0.373832 0.921616 0.381912
0.213924 0.064670 0.662551
0.234664 0.062470 0.696116
0.236892 0.033277 0.702714
0.218631 0.068829 0.698306
0.250971 0.051090 0.687303
0.255945 0.050433 0.703037
0.266386 0.055245 0.672784
0.373383 0.572383 0.407061
0.837504 0.439202 0.365328
0.058424 0.657619 0.404137
0.273064 0.080802 0.703691
0.339184 0.052457 0.679180
0.319291 0.087157 0.684485
0.294865 0.052883 0.678116
0.309641 0.099494 0.661607
0.323435 0.100619 0.664182
0.316758 0.074686 0.683004
0.338252 0.062073 0.684084
0.338146 0.069517 0.656292
0.343623 0.070936 0.678892
0.350558 0.051606 0.661549
0.140995 0.819403 0.308259
0.157144 0.829171 0.321288
0.148562 0.859335 0.338802
0.154668 0.810107 0.311685
0.199871 0.841412 0.318238
0.200989 0.842464 0.334952
0.187445 0.824652 0.329714
0.443627 0.587689 0.407359
0.431318 0.034517 0.724197
0.446577 0.050096 0.737808
0.406377 0.083124 0.750220
0.441577 0.057937 0.733636
0.458111 0.081963 0.728464
0.448027 0.065448 0.742307
0.457287 0.082447 0.754129
0.444244 0.066979 0.736969
0.493520 0.053083 0.732859
0.685807 0.607365 0.518705
0.332011 0.858305 0.438897
0.320507 0.871408 0.454694
0.758731 0.594417 0.576298
0.461078 0.790813 0.368074
0.586321 0.623986 0.487731
0.529430 0.061102 0.707754
0.518795 0.079376 0.689131
0.527374 0.066687 0.735178
0.519972 0.065410 0.734187
0.530526 0.054119 0.698572
0.543225 0.077877 0.706907
0.535445 0.073830 0.709189
0.544688 0.070831 0.707681
0.535119 0.054738 0.695119
0.559547 0.053773 0.702611
0.581025 0.071585 0.703149
0.589771 0.064083 0.721341
0.567178 0.050021 0.753852
0.613497 0.082106 0.695521
0.618043 0.056704 0.705235
0.629891 0.102504 0.682928
0.623498 0.023792 0.683731
0.611113 0.030111 0.678792
0.638679 0.085737 0.671152
0.656719 0.059545 0.701125
0.647148 0.076415 0.693706
0.648316 0.056896 0.681156
0.653301 0.083463 0.713775
0.634221 0.042667 0.709769
0.657576 0.073061 0.660134
0.411631 0.599797 0.402130
0.726349 0.514918 0.634674
0.497959 0.580647 0.512154
0.542308 0.518177 0.630209
0.506810 0.548407 0.666518
0.497835 0.514906 0.680507
0.449651 0.528574 0.624163
0.268033 0.704079 0.531010
0.237738 0.891966 0.046220
0.334812 0.894630 0.324671
0.284887 0.608985 0.633836
0.203161 0.643009 0.680076
0.893467 0.435800 0.469810
0.817603 0.542225 0.606378
0.369775 0.912413 0.412329
0.377391 0.904958 0.373140
-0.002602 0.562984 0.570977
0.886587 0.361421 0.446278
0.555464 0.494224 0.672116
0.583151 0.523477 0.640652
0.097290 0.510796 0.360207
0.342334 0.788468 0.336764
0.355719 0.850978 0.334642
0.286034 0.228716 0.636681
0.374671 0.401299 0.274307
0.357080 0.378524 0.249108
0.591647 0.530876 0.658969
0.846017 0.474093 0.464525
0.152188 0.696748 0.705199
0.071840 0.747736 0.602219
0.581860 0.515135 0.659350
0.684065 0.625314 0.512041
0.208231 0.794616 0.449675
0.157418 0.825496 0.054896
0.191166 0.785794 0.363679
0.228245 0.787990 0.343820
0.554348 0.575628 0.628089
0.449391 0.593011 0.464445
0.343929 0.587112 0.411565
0.143753 0.742781 0.676153
0.681222 0.604424 0.594513
0.144848 0.830067 0.328958
0.723646 0.555271 0.625589
0.159755 0.789098 0.610929
0.202284 0.773649 0.630698
0.233762 0.074298 0.683774
0.229577 0.085609 0.677780
0.253670 0.078189 0.682410
0.247901 0.058262 0.702325
0.231248 0.065089 0.711975
0.251253 0.072670 0.694495
0.278079 0.079654 0.700205
0.244813 0.055508 0.701202
0.274230 0.079121 0.690475
0.276149 0.100661 0.681290
0.310420 0.055061 0.641064
0.316535 0.048031 0.683401
0.310077 0.055025 0.667751
0.290499 0.101201 0.639436
0.317452 0.089327 0.659565
0.319552 0.071753 0.671506
0.316213 0.066744 0.655673
0.334543 0.062624 0.691427
0.359087 0.061402 0.646115
0.344803 0.061059 0.664873
0.386909 0.077458 0.661237
0.498634 0.617732 0.538330
0.455419 0.589644 0.457304
0.467247 0.605261 0.422653
0.414999 0.567753 0.392320
0.447918 0.591793 0.387294
0.438863 0.608943 0.412609
0.454984 0.607394 0.393275
0.416103 0.582247 0.406225
0.430166 0.072732 0.708660
0.436129 0.087399 0.723343
0.431439 0.098086 0.727502
0.424110 0.064217 0.699200
0.484404 0.083466 0.732027
0.458348 0.067585 0.730081
0.429606 0.075688 0.711813
0.459674 0.073528 0.760827
0.475158 0.075843 0.724196
0.464204 0.078974 0.748941
0.465974 0.084292 0.707096
0.163694 0.714349 0.661964
0.523831 0.086053 0.713145
0.517130 0.093090 0.709756
0.489701 0.065040 0.709517
0.513438 0.072175 0.705594
0.523663 0.095862 0.717811
0.552115 0.071234 0.734703
0.561744 0.082612 0.740912
0.535275 0.066627 0.679665
0.544101 0.094143 0.701767
0.550968 0.095124 0.712855
0.562819 0.075259 0.706694
0.556305 0.057531 0.757717
0.577690 0.061689 0.674935
0.594900 0.071443 0.709262
0.549403 0.063774 0.716026
0.593823 0.082784 0.699226
0.609651 0.058747 0.683484
0.629171 0.062316 0.713504
0.630174 0.045167 0.706667
0.664940 0.075972 0.722169
0.637776 0.077917 0.696821
0.629349 0.094489 0.692025
0.630816 0.057532 0.689219
0.657750 0.087577 0.706771
0.653873 0.103267 0.681018
0.677744 0.083975 0.701236
0.689863 0.102586 0.695828
0.680368 0.086343 0.692071
0.766688 0.500931 0.620978
0.597275 0.553578 0.626988
0.645241 0.551888 0.652282
0.547728 0.552838 0.623816
0.512149 0.558500 0.695983
0.454994 0.499286 0.654410
0.431333 0.514612 0.618036
0.502222 0.509518 0.635024
0.087256 0.753541 0.637376
0.069288 0.737772 0.688513
0.061819 0.743121 0.653692
0.102095 0.749547 0.636296
0.364680 0.627000 0.517830
0.098018 0.631303 0.747292
0.268893 0.778280 0.503487
0.369103 0.859402 0.410128
0.359925 0.873611 0.431655
0.875362 0.434260 0.352164
0.849627 0.395923 0.324677
0.879810 0.369223 0.518810
0.628847 0.477976 0.266232
0.141022 0.372108 0.262959
0.169533 0.375310 0.334254
0.147700 0.375613 0.293106
0.149091 0.372689 0.315471
0.156053 0.404895 0.268514
0.147520 0.378906 0.294797
0.388053 0.586855 0.397055
0.760615 0.545004 0.573773
0.364892 0.845195 0.434252
0.345227 0.834308 0.405971
0.573831 0.617019 0.486600
0.138229 0.666651 0.718238
0.676430 0.638033 0.512635
0.522088 0.590512 0.590287
0.183594 0.775927 0.430582
0.177979 0.785411 0.320412
0.178378 0.802049 0.347877
0.458775 0.365923 0.728575
0.393811 0.611909 0.447348
0.364709 0.593710 0.446178
0.041180 0.522265 0.646205
0.577793 0.429121 0.739449
0.165911 0.849514 0.322676
0.538263 0.597238 0.552413
0.504164 0.611179 0.581836
0.897029 0.243635 0.567299
0.220600 0.065031 0.655641
0.237964 0.091199 0.656187
0.252412 0.091946 0.690453
0.237556 0.115698 0.665553
0.267125 0.065185 0.672476
0.290046 0.055056 0.680490
0.268550 0.064566 0.684126
0.294781 0.074759 0.682927
0.339944 0.069910 0.653824
0.279311 0.072206 0.652602
0.296867 0.075513 0.666328
0.317875 0.084562 0.663794
0.294959 0.083694 0.661878
0.352381 0.109585 0.656955
0.341411 0.097970 0.661945
0.329828 0.064070 0.676715
0.361863 0.069929 0.628673
0.332764 0.075034 0.642891
0.336293 0.070452 0.641683
0.351733 0.103168 0.646688
0.357810 0.093306 0.651206
0.147718 0.805652 0.380352
0.022655 0.760158 0.572114
0.135551 0.758908 0.566651
0.149973 0.776415 0.553780
0.561304 0.407771 0.730229
0.807124 0.550156 0.375370
0.026001 0.532539 0.595117
0.408830 0.083807 0.720879
0.445926 0.095914 0.719347
0.427266 0.077170 0.732921
0.437014 0.066181 0.735836
0.432027 0.099618 0.702033
0.444495 0.089191 0.735569
0.465222 0.086498 0.730502
0.481714 0.104918 0.734781
0.488727 0.068239 0.740864
0.428336 0.112434 0.745849
0.472152 0.073545 0.698337
0.488555 0.074628 0.755081
0.496955 0.062280 0.750049
0.513658 0.100192 0.739196
0.508863 0.078564 0.714090
0.524077 0.074941 0.714502
0.542337 0.075001 0.715561
0.527027 0.094949 0.699309
0.520810 0.093783 0.716725
0.552539 0.067962 0.706560
0.533360 0.073028 0.695941
0.518763 0.064619 0.710667
0.573577 0.091364 0.703975
0.587901 0.072733 0.709836
0.594664 0.072126 0.708575
0.589591 0.080708 0.700850
0.571416 0.090125 0.706237
0.578481 0.088832 0.696675
0.611041 0.102328 0.707095
0.596227 0.062980 0.682184
0.624727 0.065599 0.671860
0.619285 0.101118 0.726021
0.605648 0.025352 0.680689
0.619537 0.074316 0.695118
0.659756 0.091036 0.715187
0.637048 0.066252 0.721776
0.670394 0.075208 0.714949
0.645895 0.098585 0.704184
0.675063 0.078563 0.689456
0.697879 0.076280 0.694028
0.387885 0.506484 0.590309
0.404776 0.516245 0.637389
0.383178 0.514527 0.604981
0.317565 0.504974 0.624982
0.610005 0.530243 0.680388
0.913714 0.356242 0.370418
0.550874 0.492947 0.678816
0.575211 0.527481 0.651842
0.389686 0.607430 0.448827
0.184739 0.701303 0.662677
0.193403 0.747096 0.672220
0.127646 0.741227 0.611692
0.167646 0.730997 0.681839
0.327418 0.935276 0.368533
0.877143 0.454365 0.561276
0.247902 0.781343 0.459409
0.717642 0.569989 0.558923
0.493583 0.665224 0.452457
0.581597 0.536794 0.648083
0.453930 0.599133 0.573254
0.875245 0.463350 0.507329
0.808429 0.056535 0.593111
0.812760 0.068920 0.568988
0.292396 0.768979 0.375078
0.447748 0.891032 0.275544
0.780357 0.378654 0.265332
0.428342 0.363255 0.236707
0.394105 0.376630 0.247093
0.417209 0.379509 0.265058
0.302090 0.802748 0.460324
0.420207 0.596173 0.423969
0.036202 0.740448 0.489861
0.820034 0.473673 0.547253
0.852601 0.500404 0.541013
0.435725 0.947724 0.349070
0.780477 0.380939 0.654051
0.589965 0.511411 0.650602
0.650217 0.635813 0.515346
0.590441 0.633475 0.516078
0.632577 0.604357 0.586111
0.638617 0.577258 0.583522
0.311360 0.634345 0.517275
0.416150 0.634575 0.456492
0.311500 0.608233 0.425676
0.012621 0.586880 0.401984
0.594987 0.450332 0.720395
0.290710 0.890439 0.391406
0.182360 0.798042 0.342615
0.186871 0.781147 0.317766
0.190784 0.751280 0.324006
0.480070 0.373818 0.726500
0.227953 0.055324 0.665549
0.264042 0.075182 0.646464
0.269995 0.099312 0.656430
0.282551 0.085148 0.672991
0.303688 0.088004 0.670127
0.312621 0.101883 0.666945
0.290640 0.096242 0.656229
0.291221 0.077706 0.650150
0.312854 0.074957 0.648357
0.302713 0.088544 0.656078
0.325547 0.070591 0.654513
0.312509 0.075014 0.652501
0.334536 0.080697 0.665036
0.353680 0.077041 0.653806
0.337162 0.116671 0.664512
0.335904 0.085596 0.666246
0.331269 0.100388 0.674403
0.340752 0.092327 0.650681
0.345325 0.054721 0.645731
0.359790 0.098695 0.641047
0.335813 0.062370 0.638793
0.458276 0.407425 0.197254
0.414913 0.595506 0.390082
0.398440 0.630931 0.383264
0.390162 0.630811 0.403435
0.399444 0.586902 0.387772
0.427794 0.593667 0.398852
0.403975 0.579127 0.392060
0.414288 0.080145 0.738446
0.439348 0.089185 0.707731
0.431320 0.091521 0.715546
0.458285 0.104022 0.733190
0.457325 0.104285 0.682176
0.445997 0.082954 0.724913
0.451496 0.095840 0.724522
0.465731 0.091737 0.710888
0.482774 0.104939 0.708006
0.468628 0.065006 0.710945
0.490567 0.103677 0.722458
0.498157 0.077922 0.732038
0.493375 0.067684 0.713619
0.502361 0.107260 0.702050
0.533112 0.094229 0.696567
0.510501 0.093771 0.687570
0.528943 0.063848 0.676474
0.544125 0.075777 0.696497
0.542445 0.069248 0.709991
0.524208 0.111710 0.667999
0.578332 0.091294 0.681714
0.578813 0.125131 0.687415
0.559388 0.093082 0.729843
0.563129 0.077966 0.694169
0.587019 0.106611 0.720330
0.606155 0.088249 0.729955
0.590814 0.120616 0.696574
0.589848 0.106219 0.701144
0.623576 0.079420 0.692163
0.639418 0.069528 0.689338
0.604736 0.081419 0.713939
0.610494 0.096411 0.702332
0.638613 0.090496 0.723878
0.621508 0.110810 0.718683
0.635728 0.104762 0.756382
0.645070 0.070855 0.710597
0.656700 0.062634 0.701350
0.672359 0.070114 0.699911
0.693574 0.117328 0.718831
0.687320 0.096676 0.709005
0.118665 0.675345 0.683061
0.148550 0.650264 0.708238
0.400805 0.516422 0.638361
0.244762 0.740685 0.612151
0.846962 0.513412 0.560153
0.553077 0.514263 0.664333
0.132827 0.663949 0.728369
0.111153 0.664650 0.708206
0.134770 0.693397 0.710224
0.158403 0.709553 0.694496
0.161886 0.744183 0.707334
0.149515 0.726620 0.634377
0.180794 0.736362 0.643216
0.182329 0.750122 0.645906
0.075480 0.363274 0.343761
0.890364 0.429372 0.462431
0.281012 0.787831 0.468110
0.865859 0.461298 0.506346
0.074362 0.720348 0.727554
0.108465 0.776184 0.638555
0.411640 0.929210 0.356975
0.821870 0.083416 0.578217
0.834194 0.077789 0.589430
0.829609 0.070688 0.566864
0.852127 0.063495 0.599817
0.850825 0.092054 0.606689
0.844436 0.064718 0.593626
0.852697 0.107585 0.611700
0.524064 0.493088 0.656622
0.291288 0.823592 0.434197
0.315091 0.819492 0.448399
0.502322 0.866923 0.324503
0.793730 0.508461 0.554500
0.343645 0.893409 0.415101
0.852773 0.433877 0.548115
0.811524 0.413354 0.677210
0.442216 0.955169 0.327513
0.455411 0.986607 0.340127
0.485901 0.976632 0.337822
0.545489 0.644255 0.482145
0.489423 0.646425 0.487212
0.589649 0.607691 0.552522
0.662458 0.557946 0.595908
0.144980 0.738913 0.666965
0.123327 0.829747 0.310888
0.155775 0.785358 0.322482
0.328455 0.835402 0.418199
0.589872 0.615782 0.542123
0.186539 0.774059 0.363426
0.191800 0.766405 0.361553
0.162087 0.823243 0.335283
0.220907 0.089887 0.649158
0.256829 0.099731 0.658985
0.259404 0.081689 0.672353
0.278610 0.102423 0.626825
0.232311 0.083532 0.635198
0.271212 0.083842 0.674106
0.267961 0.103653 0.690855
0.298037 0.074106 0.651601
0.302987 0.093047 0.650323
0.308615 0.102232 0.627350
0.319205 0.087947 0.621436
0.320584 0.112436 0.679201
0.283833 0.079596 0.665020
0.323903 0.088367 0.647583
0.368626 0.084912 0.643943
0.309279 0.110219 0.665875
0.360492 0.087935 0.617860
0.339228 0.103684 0.656275
0.366232 0.089161 0.645010
0.389641 0.097060 0.659850
0.378470 0.090149 0.670277
0.353988 0.076564 0.654288
0.146598 0.856606 0.291676
0.185788 0.813300 0.301491
0.173041 0.826814 0.323248
0.145786 0.860568 0.271620
0.165620 0.831798 0.296259
0.187304 0.836479 0.312342
0.162651 0.805630 0.294514
0.428006 0.090313 0.685043
0.419329 0.105034 0.738079
0.436326 0.109895 0.729914
0.457403 0.114566 0.689975
0.472533 0.088142 0.725460
0.458090 0.072299 0.703080
0.461177 0.113557 0.723394
0.485250 0.108153 0.713794
0.495513 0.128761 0.715833
0.463224 0.097292 0.694009
0.534115 0.093273 0.702643
0.498672 0.095192 0.724464
0.507579 0.115979 0.689401
0.503430 0.098821 0.689625
0.546632 0.061526 0.712437
0.515114 0.107609 0.712126
0.524217 0.099442 0.677627
0.538235 0.094031 0.693197
0.549833 0.103340 0.715191
0.545875 0.106281 0.730081
0.556299 0.124919 0.768606
0.583695 0.107704 0.706976
0.560478 0.122004 0.718829
0.596799 0.113233 0.748223
0.601213 0.101194 0.732116
0.565387 0.105833 0.726782
0.603003 0.092168 0.713971
0.596582 0.101123 0.724847
0.644939 0.076032 0.755904
0.639069 0.109438 0.731686
0.625577 0.094630 0.755800
0.611646 0.105185 0.729532
0.640885 0.110952 0.709944
0.648205 0.100450 0.739594
0.656537 0.113341 0.681052
0.634752 0.121660 0.696792
0.663040 0.085837 0.728089
0.676870 0.103760 0.698953
0.663993 0.096432 0.717679
0.153904 0.600142 0.734912
0.557602 0.582335 0.655705
0.901602 0.386319 0.449748
0.044268 0.522194 0.524587
0.607712 0.519221 0.668172
0.105358 0.590736 0.752606
0.253951 0.806375 0.487516
0.648962 0.618580 0.464682
0.140176 0.681663 0.713639
0.129987 0.603506 0.738807
0.146257 0.717921 0.679657
0.116279 0.741626 0.695742
0.137671 0.726306 0.685429
0.124855 0.743935 0.669787
0.178300 0.751977 0.626847
0.185649 0.753925 0.635040
0.195528 0.719492 0.635309
0.203181 0.731858 0.611355
0.224343 0.746013 0.646984
0.616472 0.622049 0.488385
0.601053 0.632260 0.496572
0.820517 0.081127 0.591410
0.823642 0.070671 0.597954
0.813176 0.078172 0.629070
0.841128 0.093060 0.610974
0.828225 0.068281 0.571425
0.852175 0.055560 0.606257
0.854572 0.092344 0.601132
0.860647 0.122206 0.596328
0.886566 0.074833 0.607944
0.042775 0.697092 0.582672
0.624167 0.500669 0.667989
0.128838 0.650564 0.739685
0.601057 0.649484 0.489347
0.200152 0.746916 0.632788
0.905097 0.374984 0.524402
0.596439 0.517804 0.684497
0.870911 0.446551 0.519362
0.391595 0.880498 0.391087
0.496449 0.992565 0.305233
0.870652 0.394437 0.547174
0.420041 0.603238 0.459637
0.376193 0.608567 0.441798
0.321035 0.600145 0.439074
0.168219 0.850429 0.331085
0.171668 0.845691 0.326411
0.149724 0.835994 0.326149
0.214371 0.756216 0.347604
0.192811 0.764299 0.360731
0.176501 0.820110 0.341901
0.139432 0.795242 0.365986
0.170791 0.832437 0.308475
0.232954 0.115397 0.653025
0.630822 0.528333 0.665455
0.280699 0.140726 0.627837
0.287841 0.081230 0.632557
0.303781 0.101922 0.659858
0.247197 0.099013 0.634769
0.303951 0.133570 0.662062
0.305078 0.109164 0.612996
0.324971 0.076282 0.663101
0.322672 0.081840 0.661102
0.288360 0.098461 0.646626
0.322697 0.108187 0.675180
0.322740 0.106043 0.665058
0.359510 0.101945 0.658509
0.353858 0.107565 0.653399
0.352073 0.109410 0.670582
0.361059 0.106808 0.669429
0.366394 0.115486 0.664451
0.354284 0.141580 0.671151
0.375988 0.076988 0.643802
0.385516 0.116645 0.636674
0.360076 0.089793 0.656858
0.610958 0.422396 0.733024
0.365463 0.577369 0.482505
0.571546 0.440290 0.697077
0.324037 0.634087 0.467544
0.212708 0.822086 0.492983
0.126512 0.803966 0.427190
0.419118 0.099947 0.678998
0.450207 0.126604 0.686860
0.424194 0.106254 0.689457
0.452436 0.114172 0.701032
0.473546 0.093258 0.695139
0.472931 0.136772 0.708718
0.468428 0.086126 0.704287
0.500861 0.103280 0.700425
0.512276 0.080636 0.691562
0.479965 0.128812 0.688365
0.497465 0.111792 0.685149
0.504275 0.112971 0.708238
0.515151 0.105386 0.697385
0.530288 0.102324 0.714035
0.533967 0.129112 0.726679
0.512199 0.090433 0.708663
0.542476 0.108531 0.716956
0.532835 0.115263 0.718945
0.534466 0.106963 0.738902
0.569470 0.128675 0.733727
0.570680 0.101717 0.744642
0.569871 0.137610 0.685513
0.601644 0.092306 0.737904
0.585132 0.110129 0.760893
0.572594 0.121324 0.735994
0.573613 0.111321 0.709882
0.600474 0.118160 0.757978
0.599572 0.098343 0.719931
0.624018 0.118544 0.720136
0.614173 0.128111 0.730379
0.615910 0.088847 0.718710
0.630076 0.117710 0.762106
0.644882 0.153195 0.753103
0.671675 0.110006 0.723899
0.674144 0.111934 0.713939
0.652210 0.109904 0.714741
0.676072 0.121019 0.723739
0.677203 0.097746 0.749255
0.195241 0.741169 0.308502
0.021287 0.583262 0.427708
0.190229 0.832096 0.232111
0.420856 0.348875 0.174155
0.152038 0.905491 0.051541
0.147551 0.628463 0.731570
0.209275 0.713221 0.365652
0.013493 0.567080 0.504420
0.822198 0.509837 0.385029
0.549294 0.621172 0.481755
0.260389 0.677860 0.556076
0.559347 0.559618 0.605014
0.541227 0.615467 0.479356
0.216954 0.772467 0.216156
0.067188 0.501437 0.503884
0.115179 0.719450 0.661285
0.074817 0.752552 0.685742
0.633508 0.634631 0.491630
0.015353 0.715394 0.578340
0.450522 0.568093 0.502218
0.417015 0.609725 0.392512
0.320385 0.853980 0.424728
0.821319 0.090858 0.607172
0.829263 0.116194 0.580368
0.842636 0.107795 0.601111
0.838954 0.105666 0.609390
0.849390 0.114950 0.609252
0.820188 0.102536 0.561922
0.885728 0.094173 0.604844
0.869600 0.099600 0.627087
0.859846 0.119656 0.625354
0.871330 0.128279 0.629318
0.318174 0.519536 0.616295
0.028777 0.580185 0.388378
0.191545 0.775462 0.148806
0.866129 0.487738 0.529325
0.833711 0.417344 0.564965
0.110015 0.727099 0.670607
0.356509 0.855094 0.430862
0.155405 0.581421 0.734258
0.796751 0.444406 0.640536
0.028167 0.563978 0.369826
0.043489 0.632768 0.435529
0.412837 0.957127 0.299842
0.400254 0.577552 0.447304
0.110844 0.801674 0.555543
0.320008 0.849426 0.446149
0.229953 0.755019 0.382199
0.168643 0.773405 0.356292
0.238797 0.743622 0.335416
0.112131 0.424601 0.630671
0.717475 0.618828 0.497434
0.598239 0.623327 0.511478
0.497842 0.415841 0.707312
0.542487 0.616993 0.533019
0.348325 0.586660 0.566068
0.248017 0.084357 0.648429
0.285073 0.118747 0.638943
0.269805 0.114925 0.613971
0.276106 0.109178 0.638211
0.338847 0.122109 0.642984
0.311311 0.103596 0.642932
0.288952 0.148260 0.639062
0.327925 0.114570 0.629418
0.326113 0.110073 0.656691
0.342395 0.117820 0.649197
0.354086 0.117997 0.649310
0.350276 0.089236 0.656885
0.346450 0.123127 0.649518
0.373736 0.119012 0.643928
0.360552 0.119960 0.645910
0.365057 0.108038 0.664090
0.378500 0.106400 0.631815
0.375208 0.106866 0.657048
0.359708 0.093207 0.643518
0.397883 0.136081 0.632707
0.800607 0.546838 0.551912
0.821547 0.562202 0.551340
0.802597 0.528730 0.548261
0.796418 0.540369 0.546429
0.835036 0.526531 0.492687
0.469623 0.115165 0.694924
0.422990 0.130573 0.694145
0.469347 0.102855 0.656799
0.461608 0.115065 0.649331
0.454993 0.111727 0.681731
0.467817 0.130264 0.648525
0.470966 0.129339 0.670539
0.464360 0.126018 0.677782
0.488412 0.137293 0.708068
0.514045 0.081267 0.702886
0.526431 0.133718 0.726091
0.484111 0.143696 0.716161
0.486086 0.126892 0.712063
0.521335 0.142297 0.710286
0.550100 0.148564 0.713165
0.527202 0.133630 0.732455
0.559986 0.143558 0.719684
0.561870 0.133873 0.750088
0.565861 0.136669 0.739009
0.568613 0.102885 0.723849
0.583060 0.100890 0.750625
0.582547 0.113349 0.729254
0.553290 0.121324 0.747462
0.578616 0.117063 0.732578
0.613134 0.111432 0.765632
0.610881 0.114792 0.725839
0.601132 0.131949 0.743372
0.630020 0.128169 0.742053
0.645406 0.100728 0.733431
0.634636 0.129455 0.738887
0.613837 0.100378 0.729103
0.644131 0.121869 0.771194
0.626195 0.107962 0.740793
0.665934 0.152275 0.728779
0.650087 0.123260 0.748004
0.675175 0.122321 0.719018
0.696649 0.116240 0.717020
0.155856 0.625699 0.762001
0.140127 0.630117 0.746956
0.893104 0.416771 0.368899
0.913870 0.375277 0.472352
0.884992 0.415125 0.499388
0.106804 0.629267 0.763634
0.643577 0.518503 0.647801
0.122549 0.613393 0.751739
0.107403 0.600776 0.766030
0.080872 0.526262 0.689393
0.034306 0.568337 0.428591
0.142027 0.659207 0.732982
0.146091 0.646102 0.702579
0.131433 0.640022 0.736705
0.126625 0.641403 0.720321
0.815584 0.510189 0.414060
-0.000221 0.536599 0.447200
0.625767 0.512465 0.682762
0.580000 0.575473 0.628427
0.589520 0.612852 0.528192
0.731078 0.584698 0.504922
0.897589 0.431476 0.435140
0.716942 0.630468 0.539131
0.802267 0.058361 0.643342
0.831712 0.113398 0.608455
0.829752 0.165564 0.597017
0.822505 0.105999 0.588361
0.855146 0.127717 0.591788
0.865898 0.095946 0.591310
0.844692 0.087713 0.606298
0.882176 0.092184 0.596332
0.864662 0.121065 0.612651
0.896176 0.130292 0.582888
0.142686 0.533242 0.717437
0.746998 0.599390 0.518475
0.735323 0.626530 0.555420
0.591348 0.605452 0.585959
0.863551 0.488013 0.489598
0.100146 0.662394 0.691352
0.763148 0.579482 0.573177
0.513709 0.823552 0.335248
0.484436 0.813281 0.336413
0.126575 0.725804 0.376884
0.037039 0.570009 0.399846
0.422079 0.591567 0.439908
0.767008 0.582250 0.540238
0.203793 0.806217 0.350265
0.696225 0.590413 0.543688
0.504624 0.615048 0.586640
0.091663 0.747469 0.595775
0.348490 0.878637 0.378589
0.346599 0.916770 0.387760
0.134548 0.746072 0.552833
0.332697 0.616534 0.535867
0.136630 0.797468 0.401120
0.700124 0.607504 0.597096
0.299728 0.090189 0.625879
0.299315 0.092382 0.644822
0.301579 0.128370 0.624181
0.325952 0.140445 0.630527
0.317387 0.094091 0.630728
0.329976 0.132859 0.626131
0.342483 0.114741 0.658897
0.344540 0.124111 0.669475
0.326596 0.113382 0.650464
0.343579 0.097142 0.633086
0.362576 0.142929 0.655410
0.350133 0.128622 0.661343
0.363305 0.104801 0.631752
0.406021 0.125157 0.646881
0.394046 0.120418 0.628916
0.413939 0.121407 0.651799
0.398156 0.141453 0.660333
0.371503 0.162612 0.641472
0.432499 0.092763 0.623631
0.216591 0.814327 0.294266
0.229107 0.793527 0.302518
0.378637 0.577841 0.604495
0.379056 0.548421 0.593072
0.376186 0.551472 0.575936
0.412290 0.097961 0.627106
0.447638 0.115235 0.668750
0.454867 0.129161 0.638669
0.456709 0.135345 0.667412
0.483433 0.109388 0.681955
0.470191 0.127218 0.698111
0.485609 0.129738 0.683126
0.452554 0.132861 0.703705
0.489897 0.122095 0.706963
0.516249 0.139770 0.731415
0.517337 0.139800 0.703837
0.507731 0.114368 0.701084
0.531622 0.123963 0.733804
0.518027 0.116594 0.736298
0.544837 0.127747 0.707922
0.546922 0.145057 0.729878
0.577182 0.143554 0.721972
0.524747 0.108076 0.751879
0.541274 0.129840 0.765875
0.588513 0.150296 0.748196
0.559031 0.137316 0.767141
0.575691 0.137326 0.789003
0.578970 0.131837 0.707371
0.600449 0.111883 0.747304
0.584848 0.109547 0.707611
0.583847 0.120112 0.766812
0.613270 0.129670 0.746741
0.625335 0.128424 0.736508
0.617584 0.132394 0.747943
0.646259 0.128188 0.757875
0.647129 0.125472 0.714269
0.638625 0.148241 0.723772
0.641355 0.124921 0.753336
0.711436 0.101881 0.700219
0.653999 0.128313 0.753671
0.680480 0.166298 0.745958
0.667011 0.125167 0.742230
0.488458 0.582056 0.612850
0.827994 0.475797 0.354217
0.136057 0.642887 0.734210
0.226396 0.882943 0.060017
0.251938 0.535099 0.622524
0.654772 0.542175 0.646276
0.628016 0.515577 0.682302
0.323267 0.515957 0.609158
0.132814 0.616776 0.725382
0.132348 0.578143 0.714611
0.840435 0.439279 0.322561
0.461962 0.941046 0.304557
0.458891 0.508183 0.659897
0.208733 0.849660 0.204777
0.130814 0.635200 0.710626
0.100559 0.676733 0.741118
0.102846 0.644794 0.732728
0.120301 0.654181 0.741027
0.615242 0.626791 0.450954
0.128807 0.686740 0.667810
0.782116 0.555879 0.546468
0.424658 0.606890 0.466814
0.870849 0.482676 0.491737
0.822769 0.143368 0.598295
0.831533 0.129891 0.610825
0.838465 0.130206 0.580870
0.836733 0.094471 0.616498
0.843968 0.112790 0.584838
0.879969 0.109581 0.626727
0.867902 0.117517 0.588852
0.877540 0.110793 0.600322
0.895306 0.138612 0.600776
0.899531 0.092414 0.595382
0.454311 0.536062 0.613301
0.234549 0.763374 0.614139
0.056148 0.754692 0.604236
0.180710 0.727674 0.630359
0.206089 0.751708 0.643352
0.218031 0.762944 0.629958
0.781207 0.428056 0.655747
0.814209 0.453220 0.620160
0.813792 0.522797 0.601509
0.840559 0.526592 0.594344
0.881233 0.443290 0.430299
0.371674 0.597282 0.540573
0.857496 0.468006 0.496605
0.167237 0.828170 0.347047
0.678705 0.599111 0.600919
0.416478 0.549506 0.582088
0.325103 0.586002 0.521022
0.694651 0.600760 0.559973
0.726554 0.593542 0.578556
0.135928 0.765530 0.650312
0.181809 0.771195 0.599878
0.149807 0.764155 0.410608
0.132378 0.767881 0.483508
0.311036 0.157274 0.640355
0.323076 0.101161 0.593772
0.323102 0.094221 0.658311
0.309863 0.156457 0.653309
0.326471 0.138386 0.665968
0.329868 0.146036 0.664112
0.350309 0.128835 0.641518
0.338467 0.110301 0.648673
0.345312 0.123866 0.649439
0.368560 0.138082 0.647445
0.367560 0.141431 0.651316
0.353852 0.133420 0.650156
0.360101 0.118531 0.614028
0.401526 0.117815 0.620918
0.385195 0.136076 0.663055
0.351242 0.118914 0.641611
0.384325 0.135010 0.629894
0.402341 0.127398 0.633504
0.383103 0.107195 0.638202
0.242040 0.772528 0.448476
0.206945 0.799630 0.307406
0.193736 0.801186 0.317690
0.044926 0.559229 0.413455
0.187008 0.774627 0.594922
0.454859 0.111890 0.678242
0.436800 0.142282 0.688909
0.462106 0.132443 0.663923
0.445178 0.152467 0.679808
0.473510 0.139442 0.681462
0.490202 0.136094 0.682267
0.494199 0.155427 0.710824
0.503318 0.141116 0.775764
0.512128 0.113791 0.715548
0.510032 0.130457 0.724170
0.513780 0.136996 0.720753
0.537301 0.125481 0.738914
0.542238 0.107573 0.703760
0.537360 0.150165 0.736269
0.526916 0.159007 0.744046
0.568161 0.113751 0.741767
0.556488 0.140423 0.725262
0.559563 0.131201 0.733316
0.551263 0.127214 0.757905
0.566753 0.135175 0.730331
0.595455 0.115154 0.727182
0.609814 0.128637 0.747003
0.582517 0.132369 0.751453
0.590426 0.119467 0.736982
0.603685 0.155642 0.778687
0.626689 0.135998 0.756251
0.599516 0.125126 0.734352
0.618191 0.144464 0.711801
0.626843 0.150566 0.750056
0.638988 0.149762 0.707378
0.646009 0.128214 0.745702
0.655718 0.151588 0.714731
0.674359 0.134478 0.718187
0.667269 0.137640 0.772391
0.681098 0.159973 0.739063
0.668401 0.144672 0.725361
0.094454 0.605091 0.738618
0.098555 0.618294 0.718353
0.092197 0.605595 0.720595
0.115250 0.610832 0.758849
0.314728 0.512641 0.603289
0.235145 0.528580 0.636261
0.660322 0.508899 0.665177
0.304402 0.529290 0.629224
0.315500 0.527089 0.632966
0.407944 0.915280 0.398203
0.078316 0.619599 0.754001
0.117658 0.612128 0.696082
0.825261 0.505769 0.583805
0.350865 0.884954 0.372568
0.210543 0.800143 0.282179
0.525682 0.918032 0.236936
0.883052 0.357539 0.284540
0.921510 0.401203 0.463758
0.867354 0.472103 0.401431
0.097436 0.877728 0.156833
0.412284 0.936140 0.372260
0.030781 0.403032 0.475990
0.612928 0.531052 0.668672
0.132806 0.711704 0.707651
0.833694 0.152150 0.623765
0.866680 0.123783 0.606625
0.842106 0.124834 0.587231
0.836450 0.077725 0.600079
0.864566 0.122343 0.631016
0.858596 0.114144 0.595558
0.897053 0.145734 0.591649
0.883121 0.128292 0.637399
0.905043 0.138463 0.603020
0.875361 0.138948 0.608442
0.705416 0.536996 0.615985
0.766572 0.558128 0.529905
0.761257 0.584895 0.537176
0.407817 0.581378 0.429442
0.583367 0.623621 0.479684
0.180336 0.740323 0.637626
0.232987 0.760311 0.612204
0.071083 0.427461 0.440253
0.305569 0.845704 0.419235
0.716084 0.623775 0.559978
0.106797 0.823372 0.328098
0.474826 0.617633 0.438092
0.142852 0.750404 0.654988
0.143203 0.815762 0.334976
0.182085 0.778608 0.565351
0.161635 0.764374 0.604461
0.711640 0.575017 0.572925
0.577866 0.642138 0.537809
0.199717 0.819797 0.454234
0.194748 0.741210 0.622765
0.113157 0.769073 0.417093
0.428762 0.550647 0.519150
0.142809 0.845584 0.350355
0.497404 0.607715 0.447341
0.239155 0.766891 0.603698
0.460314 0.604898 0.397899
0.343850 0.125024 0.650246
0.325137 0.149819 0.653506
0.338213 0.111039 0.666884
0.323829 0.122010 0.678684
0.335181 0.144226 0.654753
0.344070 0.163564 0.649547
0.331331 0.133173 0.641675
0.379080 0.117999 0.664865
0.372764 0.120632 0.650229
0.379433 0.122288 0.675422
0.384590 0.147203 0.623837
0.420132 0.150512 0.658129
0.380003 0.159122 0.645323
0.398573 0.151549 0.628539
0.390165 0.127101 0.612920
0.425854 0.159024 0.664686
0.416350 0.127220 0.616778
0.530721 0.623688 0.536415
0.540783 0.622753 0.534303
0.416485 0.601763 0.516598
0.159398 0.787761 0.614240
0.134440 0.781906 0.551383
0.077840 0.874571 0.171171
0.108081 0.402343 0.336980
0.527779 0.602964 0.426874
0.583848 0.644901 0.440119
0.626349 0.655501 0.459897
0.674887 0.615200 0.504674
0.496838 0.143942 0.725967
0.506265 0.120633 0.723394
0.549143 0.166513 0.717736
0.521182 0.148687 0.709552
0.484181 0.148747 0.718801
0.514048 0.133648 0.753362
0.524565 0.131519 0.746040
0.559866 0.155618 0.738989
0.602896 0.141932 0.763350
0.567735 0.124371 0.734238
0.543335 0.156967 0.760310
0.565550 0.171316 0.767131
0.576893 0.156211 0.764546
0.575209 0.148786 0.764170
0.587674 0.147518 0.744908
0.606512 0.179446 0.756030
0.593343 0.142753 0.787334
0.589687 0.128641 0.755544
0.591066 0.140834 0.716171
0.618947 0.130532 0.724598
0.627359 0.143058 0.748683
0.637910 0.138064 0.723849
0.637663 0.105232 0.706921
0.662390 0.118683 0.736439
0.661157 0.154443 0.735078
0.673073 0.151746 0.729504
0.651560 0.157798 0.731821
0.684550 0.133454 0.727349
0.666550 0.560107 0.636018
0.601366 0.618432 0.628750
0.601886 0.569788 0.644882
0.877142 0.322334 0.345640
0.683338 0.623471 0.501829
0.110552 0.526154 0.352454
0.391935 0.532726 0.645791
0.639788 0.525718 0.614528
0.391379 0.536523 0.591232
0.079679 0.611525 0.728171
0.571734 0.607223 0.483717
0.905694 0.397097 0.475304
0.641470 0.499103 0.655495
0.633947 0.521334 0.669222
0.750327 0.575746 0.611131
0.796859 0.555285 0.544235
0.284395 0.812551 0.522912
0.486254 0.601851 0.548182
0.623684 0.612765 0.581638
0.591926 0.630808 0.431165
0.653588 0.626145 0.527880
0.414580 0.608023 0.436131
0.459447 0.584392 0.467554
0.432490 0.928482 0.360861
0.096729 0.694331 0.699373
0.855931 0.123561 0.601285
0.851754 0.125725 0.580868
0.865433 0.151695 0.586352
0.858299 0.134341 0.599307
0.894729 0.144951 0.608493
0.874965 0.131382 0.590586
0.881228 0.130274 0.618774
0.935491 0.134907 0.627314
0.876247 0.138946 0.598074
0.880635 0.134190 0.589911
0.118343 0.663707 0.699480
0.421217 0.379547 0.210022
0.421208 0.565648 0.342044
0.285714 0.791783 0.446982
0.472446 0.365121 0.740597
0.725880 0.582449 0.517618
0.041477 0.725197 0.595315
0.869810 0.454291 0.361966
0.132262 0.873461 0.146107
0.815785 0.532833 0.584671
0.789237 0.555769 0.576074
0.187611 0.710781 0.392216
0.148656 0.814108 0.380391
0.481090 0.617716 0.428973
0.176488 0.790683 0.518446
0.133038 0.759296 0.558840
0.554432 0.624885 0.543770
0.185709 0.746493 0.472146
0.540083 0.605789 0.527446
0.810478 0.520992 0.312785
0.381469 0.596083 0.487368
0.485792 0.612238 0.461871
0.598257 0.619462 0.572524
0.466496 0.595592 0.444141
0.180939 0.864469 0.291243
0.309330 0.142985 0.669687
0.300730 0.146627 0.614841
0.349113 0.107120 0.645231
0.327942 0.159038 0.657762
0.355175 0.136539 0.660143
0.352802 0.186545 0.661396
0.353995 0.125685 0.634355
0.363268 0.155958 0.680269
0.394107 0.146736 0.648141
0.389276 0.153403 0.669941
0.423159 0.128646 0.639212
0.397927 0.138601 0.649618
0.410908 0.144246 0.632682
0.401523 0.113251 0.647914
0.428718 0.160971 0.661526
0.400138 0.147275 0.628749
0.421766 0.118662 0.631711
0.420369 0.158113 0.625319
0.435643 0.583069 0.541096
0.713534 0.603525 0.544446
0.090498 0.789849 0.539282
0.033713 0.610559 0.546917
0.102900 0.411097 0.316985
0.551812 0.617745 0.420579
0.609521 0.607636 0.441204
0.609956 0.611040 0.455552
0.697304 0.638016 0.485792
0.721995 0.636404 0.478324
0.505520 0.148240 0.735789
0.517255 0.149524 0.703344
0.513413 0.161716 0.736886
0.507704 0.140130 0.733609
0.390590 0.914353 0.345204
0.518293 0.158487 0.763211
0.540401 0.140950 0.736642
0.523771 0.170489 0.755545
0.565777 0.145427 0.726390
0.559772 0.142408 0.746786
0.592225 0.145101 0.768018
0.564629 0.125947 0.734646
0.553713 0.187216 0.761585
0.555448 0.158068 0.749839
0.587670 0.156980 0.748955
0.611804 0.185745 0.760801
0.618815 0.146129 0.736149
0.611647 0.166555 0.729594
0.620151 0.157003 0.744867
0.611474 0.169030 0.769205
0.645818 0.160776 0.754812
0.626287 0.135230 0.735328
0.629750 0.151909 0.716304
0.653629 0.128531 0.743062
0.639563 0.130233 0.753693
0.684508 0.149281 0.717309
0.671960 0.159202 0.728014
0.681683 0.133234 0.779118
0.422862 0.518221 0.620832
0.502349 0.555524 0.571294
0.483657 0.596199 0.612178
0.479121 0.578804 0.597465
0.141054 0.833524 0.053975
0.454447 0.579127 0.497712
0.366864 0.523133 0.630709
0.400555 0.518373 0.639848
0.393928 0.520030 0.610997
0.635006 0.568882 0.623851
0.827022 0.530928 0.533283
0.404529 0.900274 0.392962
0.193248 0.789865 0.295615
0.162073 0.812582 0.334845
0.483500 0.539245 0.568944
0.004184 0.547628 0.636110
0.204371 0.788815 0.141134
0.860460 0.468225 0.416229
0.297459 0.754541 0.501718
0.787273 0.438764 0.618573
0.331272 0.611139 0.412236
0.508959 0.546870 0.588437
0.224949 0.727912 0.619440
0.885369 0.460702 0.467307
0.018038 0.590745 0.569812
0.083923 0.591913 0.737598
0.846335 0.156187 0.609671
0.856930 0.148451 0.614332
0.857187 0.137476 0.592053
0.855259 0.152403 0.593949
0.886105 0.149165 0.581821
0.862667 0.143513 0.606711
0.906931 0.151239 0.544105
0.880515 0.175488 0.607025
0.888666 0.111733 0.584122
0.884353 0.116556 0.598174
0.102171 0.625852 0.744786
0.114949 0.647999 0.764278
0.087073 0.621705 0.685340
0.120009 0.223779 0.481189
0.132634 0.855389 0.245575
0.369049 0.616812 0.399812
0.714549 0.573882 0.542608
0.660519 0.545622 0.630449
0.860191 0.406859 0.493291
0.539341 0.933114 0.220656
0.858252 0.497332 0.467801
0.490967 0.950918 0.318416
0.145002 0.804797 0.312381
0.363485 0.901659 0.386789
0.540384 0.426303 0.688478
0.136386 0.330274 0.675334
0.278833 0.143868 0.484696
0.558385 0.610470 0.592275
0.175420 0.822492 0.531047
0.564529 0.421150 0.734174
0.229465 0.746418 0.634468
0.463035 0.614924 0.447048
0.654987 0.616537 0.576182
0.482735 0.609810 0.446516
0.466413 0.612461 0.488321
0.083327 0.808800 0.579900
0.316516 0.153913 0.666746
0.325303 0.134461 0.670517
0.353777 0.122427 0.654007
0.340653 0.134260 0.638661
0.351761 0.171929 0.631496
0.362940 0.185815 0.667761
0.373371 0.147542 0.662631
0.338400 0.175825 0.637285
0.373173 0.166982 0.651583
0.369584 0.116192 0.651506
0.396926 0.185696 0.635977
0.403816 0.157558 0.605558
0.394813 0.155505 0.626265
0.416073 0.162794 0.664767
0.402969 0.150055 0.631003
0.438776 0.193069 0.677109
0.448546 0.157540 0.639421
0.425841 0.574836 0.380514
0.431203 0.596752 0.436676
0.402525 0.927501 0.314791
0.074802 0.419489 0.333745
0.531100 0.623930 0.408474
0.587497 0.631334 0.379518
0.578348 0.636864 0.442895
0.689575 0.624485 0.487830
0.740061 0.600871 0.507894
0.500473 0.163016 0.723452
0.505941 0.164382 0.732894
0.508657 0.160109 0.727581
0.496304 0.180881 0.734079
0.520334 0.146662 0.729133
0.532444 0.200694 0.776336
0.562963 0.210019 0.752832
0.580678 0.156922 0.779740
0.551220 0.180763 0.712071
0.570254 0.171507 0.753672
0.555998 0.170581 0.742350
0.561682 0.143251 0.745854
0.580398 0.178672 0.722943
0.616939 0.158890 0.753613
0.548991 0.165841 0.730564
0.597506 0.159654 0.774288
0.593460 0.149151 0.775373
0.608421 0.211338 0.742081
0.614179 0.172261 0.768907
0.625636 0.174649 0.736439
0.660678 0.190423 0.782507
0.658020 0.192557 0.724604
0.602173 0.199114 0.739565
0.656529 0.152933 0.743885
0.665596 0.162409 0.761115
0.626442 0.146462 0.739183
0.642146 0.153047 0.708259
0.673726 0.180024 0.754525
0.657887 0.182454 0.709128
0.517743 0.578079 0.612960
0.540561 0.570456 0.636143
0.496008 0.549694 0.616474
0.509102 0.592696 0.599514
0.476755 0.593725 0.652452
0.185605 0.546018 0.731131
0.361283 0.504766 0.620324
0.374193 0.510340 0.624500
0.304751 0.552253 0.617010
0.500901 0.560688 0.593910
0.652868 0.548562 0.631653
0.653402 0.597018 0.627580
0.655968 0.563051 0.627035
0.529393 0.508845 0.662307
0.829656 0.523088 0.562593
0.394076 0.608793 0.374177
0.349187 0.599180 0.474121
0.188014 0.784075 0.560786
0.592033 0.651645 0.508345
0.626502 0.637864 0.496457
0.421626 0.579468 0.447476
0.553678 0.626991 0.476096
0.530621 0.616040 0.482245
0.858705 0.409900 0.371919
0.653859 0.637768 0.528049
0.372242 0.895296 0.368638
0.352448 0.887424 0.390730
0.857585 0.157357 0.617079
0.872355 0.139043 0.580711
0.896868 0.143421 0.595454
0.900678 0.138424 0.606872
0.909342 0.168593 0.593446
0.926754 0.155574 0.614644
0.877834 0.145878 0.613101
0.895710 0.166453 0.575943
0.926282 0.165734 0.622001
0.900882 0.170301 0.577374
0.866099 0.425474 0.508216
0.932842 0.397753 0.423161
0.096343 0.637249 0.714807
0.057162 0.634139 0.742597
0.083012 0.586574 0.749887
0.034359 0.514415 0.442307
0.864520 0.501630 0.501158
0.170665 0.716000 0.307025
0.196200 0.754837 0.223824
0.127411 0.613370 0.745910
0.480679 0.996878 0.284789
0.699955 0.574768 0.583020
0.555473 0.643998 0.546228
0.134570 0.436669 0.601666
0.151511 0.410374 0.636437
0.438317 0.565669 0.579997
0.541124 0.581031 0.593068
0.272371 0.780371 0.587228
0.163143 0.755555 0.639822
0.208528 0.783834 0.623125
0.483830 0.648135 0.453841
0.175680 0.804934 0.395513
0.473917 0.590766 0.419794
0.690566 0.582994 0.591128
0.092575 0.806299 0.583933
0.343935 0.191396 0.655125
0.337850 0.175924 0.661131
0.343127 0.171684 0.662365
0.348091 0.182791 0.652563
0.353554 0.187467 0.664346
0.337529 0.160308 0.679492
0.368909 0.151596 0.637531
0.382441 0.158404 0.681204
0.384964 0.163239 0.668309
0.394076 0.179071 0.640211
0.385005 0.172612 0.626086
0.402505 0.184381 0.653522
0.434399 0.166990 0.649048
0.407143 0.156915 0.631607
0.436089 0.143620 0.643101
0.431017 0.191741 0.655761
0.427116 0.184449 0.662225
0.446888 0.155590 0.654781
0.500490 0.612226 0.421692
0.095805 0.406483 0.303683
0.561397 0.597939 0.435856
0.572287 0.624553 0.419268
0.657273 0.602986 0.498133
0.695830 0.633959 0.457172
0.736737 0.603968 0.500843
0.818137 0.573342 0.482993
0.484131 0.201097 0.730209
0.504977 0.170635 0.721759
0.511382 0.177613 0.744622
0.506290 0.158155 0.747101
0.501893 0.157595 0.706888
0.522374 0.200075 0.767801
0.511320 0.177585 0.754723
0.518283 0.161680 0.749340
0.542898 0.160215 0.748406
0.539316 0.189139 0.735821
0.561052 0.174463 0.774324
0.557444 0.179690 0.743926
0.551481 0.164583 0.782787
0.565375 0.189330 0.783470
0.615642 0.193252 0.742315
0.619346 0.186903 0.746179
0.608937 0.165653 0.757949
0.618388 0.183546 0.758342
0.631779 0.156874 0.777430
0.639930 0.177937 0.775941
0.602772 0.175222 0.764548
0.628541 0.181205 0.729161
0.607205 0.181100 0.745864
0.603105 0.135358 0.760085
0.650778 0.552077 0.636025
0.494275 0.622441 0.488992
0.502002 0.577797 0.629790
0.623931 0.555517 0.640167
-0.016828 0.548920 0.547208
0.457507 0.579485 0.591021
0.450598 0.542188 0.580830
0.441967 0.539802 0.606686
0.455216 0.565268 0.584045
0.473367 0.540233 0.607037
0.313905 0.519039 0.633435
0.318964 0.549747 0.616803
0.352397 0.490950 0.596790
0.349688 0.517603 0.630352
0.254753 0.527306 0.627730
0.480919 0.578516 0.591421
0.468686 0.570994 0.594709
0.476958 0.572392 0.603671
0.445306 0.583615 0.563460
0.143769 0.697013 0.707134
0.233580 0.720566 0.586021
0.732813 0.622539 0.538463
0.070841 0.791707 0.530923
0.671984 0.598512 0.511630
0.825532 0.466888 0.558698
0.230226 0.809186 0.187821
0.315290 0.608311 0.344963
0.868103 0.434236 0.405144
0.871379 0.435683 0.453726
0.132273 0.649199 0.368353
0.075182 0.539044 0.390121
0.449263 0.824758 0.389800
0.871031 0.184744 0.591072
0.857720 0.152148 0.604880
0.863073 0.148110 0.574943
0.882861 0.135464 0.577819
0.856749 0.173156 0.599572
0.886179 0.182162 0.625191
0.891967 0.159769 0.575720
0.899632 0.153156 0.585838
0.925850 0.181595 0.624089
0.912183 0.164448 0.611191
0.903663 0.157020 0.617314
0.064864 0.692826 0.427752
0.861296 0.410761 0.527063
0.194029 0.914580 0.102227
0.144378 0.789816 0.482440
0.132389 0.558416 0.722810
0.074970 0.513174 0.693407
0.319936 0.870193 0.382346
0.014294 0.621641 0.429160
0.224709 0.754242 0.230571
0.152478 0.829127 0.276518
-0.012787 0.544041 0.580894
0.683077 0.502743 0.638858
0.668232 0.510047 0.685943
0.213720 0.183449 0.516277
0.700447 0.522438 0.641433
0.694953 0.523090 0.637210
0.373168 0.570218 0.566840
0.144290 0.802454 0.598859
0.535034 0.639856 0.525943
0.268448 0.771747 0.580050
0.737641 0.566176 0.591638
0.076929 0.773252 0.463581
0.486932 0.565388 0.410698
0.567682 0.634848 0.567742
0.453906 0.592915 0.409560
0.121556 0.775574 0.524806
0.247149 0.640784 0.562823
0.322375 0.197349 0.647504
0.334593 0.166701 0.656999
0.368423 0.175081 0.696879
0.367166 0.168400 0.654552
0.374667 0.164753 0.656977
0.340379 0.152605 0.676466
0.376188 0.177109 0.650193
0.358090 0.167095 0.648521
0.394966 0.171833 0.625388
0.384351 0.190285 0.655777
0.392781 0.203483 0.657836
0.422468 0.156953 0.643983
0.409452 0.170341 0.663511
0.444595 0.185945 0.622664
0.404309 0.185733 0.631616
0.424402 0.182116 0.633284
0.419256 0.192566 0.623832
0.418969 0.199149 0.648123
0.564415 0.650157 0.415546
0.564951 0.633018 0.432317
0.591623 0.610516 0.436963
0.694849 0.658714 0.480039
0.714517 0.627549 0.487364
0.746705 0.635503 0.489557
0.782488 0.580822 0.509029
0.791317 0.553918 0.550097
0.586607 0.604691 0.542956
0.494340 0.162269 0.720221
0.484543 0.173489 0.727359
0.542443 0.176591 0.719548
0.521619 0.151969 0.764098
0.529720 0.185467 0.740492
0.546909 0.163852 0.758978
0.544356 0.199354 0.738621
0.552308 0.190774 0.766448
0.545179 0.212453 0.746107
0.567271 0.176712 0.747218
0.551031 0.180850 0.764185
0.567178 0.184576 0.766535
0.588111 0.162963 0.755363
0.592589 0.189483 0.772890
0.590955 0.182378 0.760353
0.600804 0.188273 0.770930
0.596677 0.225495 0.734333
0.612733 0.200574 0.733264
0.587392 0.180301 0.766807
0.619136 0.171227 0.740205
0.621667 0.172319 0.743211
0.639689 0.210005 0.748463
0.652933 0.182028 0.793708
0.647220 0.166933 0.740873
0.692669 0.575867 0.647487
0.846412 0.451184 0.617357
0.524080 0.541267 0.639269
0.638247 0.537147 0.639646
0.600947 0.567993 0.659019
0.592502 0.547770 0.666765
0.595042 0.585838 0.634835
0.574595 0.529364 0.657227
0.552857 0.557545 0.647125
0.578202 0.584225 0.636060
0.557269 0.546941 0.606125
0.174074 0.558761 0.368972
0.334944 0.354064 0.236210
0.000739 0.575756 0.530358
0.565507 0.581475 0.614705
0.561957 0.568313 0.637296
0.535225 0.590699 0.626264
0.534971 0.572945 0.616761
0.024090 0.565801 0.545215
-0.009118 0.582638 0.550284
0.252827 0.187782 0.498996
0.204337 0.738433 0.330951
0.209400 0.758586 0.241477
0.885863 0.382686 0.537479
0.136288 0.681193 0.696598
0.829861 0.501885 0.543459
0.029542 0.434611 0.555280
0.840146 0.477128 0.374963
0.380769 0.421773 0.237818
0.863754 0.416932 0.569479
0.874568 0.397084 0.562037
0.849749 0.417336 0.571613
0.868420 0.151850 0.609862
0.851128 0.135671 0.582787
0.866223 0.158316 0.605417
0.899534 0.145894 0.598591
0.890473 0.178908 0.581186
0.876222 0.172877 0.614265
0.917393 0.167766 0.590891
0.904406 0.178673 0.610882
0.905571 0.167204 0.567756
0.933386 0.164413 0.584879
0.944416 0.164532 0.580866
0.959027 0.163126 0.604473
0.871499 0.383368 0.359712
0.804237 0.552796 0.563346
0.813872 0.553458 0.520076
0.889379 0.359026 0.356340
0.696860 0.606103 0.504140
0.450128 0.388862 0.222388
0.876032 0.483591 0.418693
0.705877 0.518687 0.639976
0.895754 0.438792 0.396454
0.677923 0.505624 0.659106
0.699619 0.528964 0.633381
0.129267 0.786110 0.459132
0.696796 0.622081 0.485902
0.193158 0.725353 0.374542
0.166621 0.802859 0.375876
0.233107 0.155513 0.545146
0.261973 0.173021 0.562087
0.740768 0.513945 0.621958
0.736399 0.527007 0.651116
0.258168 0.192149 0.582124
0.273829 0.196097 0.595098
0.680879 0.620518 0.614480
0.404737 0.591311 0.511644
0.692012 0.587504 0.613234
0.477033 0.602463 0.433516
0.293765 0.652637 0.520137
0.425930 0.593950 0.422797
0.608076 0.415437 0.709451
0.709298 0.600468 0.629650
