ply
format ascii 1.0
element vertex 1773
property float x
property float y
property float z
end_header
0.587787 0.033591 0.481760
0.594154 0.027434 0.484142
0.594323 0.022265 0.489487
0.597439 0.023972 0.496086
0.605418 0.017395 0.497450
0.606473 0.012613 0.502283
0.616443 0.013045 0.499722
0.622065 0.007812 0.510205
0.625278 0.010592 0.509283
0.634661 0.007594 0.513401
0.638030 0.008577 0.517003
0.645572 0.008528 0.514563
0.651624 0.010436 0.517739
0.659554 0.014547 0.514355
0.662325 0.012596 0.517053
0.672488 0.014904 0.517607
0.731241 0.017959 0.518559
0.733704 0.016532 0.525465
0.732937 0.012233 0.528579
0.743583 0.016817 0.528169
0.751136 0.014635 0.531928
0.758257 0.009575 0.531001
0.765224 0.012680 0.534450
0.772069 0.016481 0.534521
0.783801 0.017758 0.533899
0.789870 0.020016 0.535731
0.798245 0.020544 0.532298
0.803427 0.023853 0.530693
0.810928 0.024978 0.532907
0.819462 0.030255 0.533048
0.826280 0.031965 0.531654
0.830480 0.032732 0.532073
0.838986 0.035720 0.531104
0.849537 0.035133 0.532813
0.861001 0.042384 0.526689
0.867852 0.044597 0.522974
0.874942 0.048493 0.522318
0.885930 0.049267 0.526162
0.893949 0.055866 0.519827
0.902204 0.059813 0.520316
0.910624 0.064403 0.521534
0.916654 0.069165 0.513929
0.926864 0.074327 0.510320
0.127782 0.224307 0.517783
0.132828 0.276944 0.624441
0.159488 0.523593 0.719993
0.172001 0.293377 0.655003
0.152215 0.736613 0.172584
0.143324 0.018084 0.417267
0.147370 0.011613 0.424336
0.151177 0.010721 0.424870
0.154866 0.006810 0.427885
0.163498 0.004167 0.429212
0.168586 0.005325 0.432864
0.175295 0.005618 0.429290
0.182528 0.006569 0.438785
0.186766 0.005259 0.435914
0.194316 0.005178 0.436946
0.199931 0.002703 0.440929
0.205883 0.002453 0.438061
0.211625 0.001814 0.442918
0.221654 0.005671 0.442882
0.226487 0.001391 0.447232
0.234568 0.002324 0.448660
0.241888 0.004104 0.449208
0.245083 0.001845 0.449933
0.253220 0.004063 0.453140
0.258205 0.000214 0.452823
0.268190 0.005233 0.451408
0.272096 0.005082 0.455441
0.279491 0.007318 0.451857
0.287635 0.004427 0.455197
0.292732 0.013728 0.452879
0.307681 0.017377 0.448279
0.314203 0.016739 0.452290
0.322216 0.018067 0.455733
0.326819 0.020243 0.452553
0.330270 0.020262 0.453460
0.340270 0.016135 0.452493
0.344517 0.016479 0.459276
0.349807 0.014902 0.458324
0.357610 0.010998 0.460566
0.366210 0.016754 0.462142
0.366405 0.011122 0.468113
0.374969 0.009749 0.470583
0.379575 0.006489 0.477074
0.386110 0.007821 0.475639
0.390865 0.006469 0.477045
0.397606 0.002065 0.476007
0.408068 0.005273 0.480789
0.408670 0.007251 0.477245
0.430490 0.032656 0.463037
0.438542 0.033033 0.461945
0.444035 0.031855 0.460361
0.448375 0.033995 0.466125
0.461152 0.032896 0.468446
0.462558 0.033509 0.465849
0.468018 0.032526 0.467213
0.477195 0.033937 0.469746
0.485804 0.035593 0.471542
0.493827 0.036283 0.470901
0.497227 0.033553 0.474707
0.506137 0.035552 0.477726
0.512096 0.033931 0.477416
0.515865 0.035507 0.478851
0.523668 0.038007 0.478923
0.528690 0.033389 0.479621
0.538363 0.033325 0.481770
0.543422 0.034202 0.484430
0.549765 0.035971 0.484128
0.558050 0.033634 0.484856
0.562403 0.037913 0.481060
0.573579 0.038168 0.482992
0.575967 0.033452 0.487838
0.583189 0.030940 0.488102
0.590645 0.033025 0.489880
0.591529 0.027968 0.495190
0.598012 0.024091 0.499271
0.598964 0.019301 0.507370
0.606333 0.015687 0.509665
0.607358 0.014504 0.511380
0.616420 0.013096 0.514291
0.622865 0.010716 0.518594
0.628438 0.012899 0.524435
0.633830 0.011536 0.519932
0.641240 0.009095 0.526487
0.642976 0.007816 0.527978
0.651649 0.010448 0.526599
0.658473 0.010588 0.526472
0.667361 0.012073 0.528852
0.676415 0.013042 0.527936
0.681941 0.013652 0.531423
0.685310 0.009773 0.534159
0.694600 0.005630 0.534822
0.699874 0.008381 0.534647
0.703147 0.007124 0.536820
0.716616 0.009021 0.540100
0.722285 0.009009 0.541507
0.726675 0.009210 0.539862
0.732405 0.011641 0.541049
0.740319 0.011038 0.543175
0.742017 0.016150 0.545456
0.752461 0.017303 0.545061
0.761976 0.012721 0.540955
0.769106 0.019745 0.544134
0.774791 0.021437 0.540336
0.784414 0.017264 0.545273
0.796001 0.023595 0.543188
0.801686 0.026660 0.541233
0.808070 0.028276 0.545888
0.810250 0.029432 0.537808
0.824938 0.033584 0.538578
0.828758 0.032401 0.542093
0.836971 0.038559 0.544005
0.847018 0.040514 0.536382
0.853977 0.041428 0.540434
0.864354 0.046290 0.538617
0.870464 0.048814 0.536378
0.877354 0.054198 0.533999
0.886416 0.054298 0.533183
0.897090 0.062034 0.531455
0.906068 0.064128 0.530148
0.913356 0.067370 0.526693
0.923424 0.069281 0.523024
0.935180 0.075595 0.521259
0.254735 0.198014 0.608732
0.068585 0.522863 0.701299
0.084524 0.497558 0.657949
0.026212 0.528066 0.570593
0.141810 0.012469 0.432563
0.150625 0.012129 0.435870
0.152554 0.005495 0.439906
0.157779 0.006516 0.438784
0.161606 0.003921 0.443779
0.170513 0.004316 0.445009
0.181531 0.004600 0.448924
0.182744 0.003675 0.444464
0.190354 0.003129 0.447789
0.196406 0.004249 0.452291
0.202979 0.002910 0.447186
0.208613 0.004789 0.455982
0.219509 0.008753 0.454133
0.223837 0.004348 0.455532
0.227642 0.002265 0.456281
0.233751 0.002486 0.460378
0.241097 0.002918 0.459630
0.248044 0.002549 0.460462
0.251410 0.001973 0.465514
0.263696 0.001535 0.464204
0.268751 0.002073 0.464359
0.277541 0.009749 0.459871
0.289084 0.010674 0.461407
0.292622 0.020791 0.458716
0.356183 0.025296 0.468377
0.358132 0.021169 0.467297
0.364825 0.016538 0.473867
0.374644 0.012255 0.475089
0.381733 0.014161 0.480096
0.380416 0.007652 0.483982
0.389576 0.003995 0.486589
0.393111 -0.000755 0.489889
0.400998 0.008099 0.491051
0.404982 0.009028 0.491219
0.415675 0.007042 0.490195
0.432123 0.030164 0.478371
0.439274 0.029017 0.475576
0.444751 0.030870 0.476718
0.452125 0.032921 0.474723
0.457918 0.032737 0.479129
0.468455 0.035400 0.480299
0.471387 0.032004 0.480667
0.482041 0.033457 0.478133
0.485999 0.033483 0.481856
0.494774 0.033554 0.485970
0.500732 0.032332 0.484778
0.504738 0.033500 0.481702
0.512469 0.039194 0.488862
0.519428 0.036817 0.490536
0.524186 0.034317 0.489037
0.532138 0.032718 0.488574
0.538918 0.035178 0.491255
0.549383 0.034454 0.496559
0.553585 0.036761 0.490864
0.561889 0.035847 0.496093
0.566589 0.032604 0.495871
0.571867 0.035806 0.499061
0.582653 0.033986 0.495991
0.584910 0.033837 0.501968
0.589785 0.029061 0.504010
0.591990 0.033030 0.503518
0.599210 0.024336 0.511758
0.606619 0.023148 0.516359
0.611597 0.019223 0.517903
0.615626 0.016422 0.524820
0.622778 0.018059 0.526759
0.621808 0.011966 0.527688
0.631223 0.012137 0.530372
0.639243 0.010898 0.531449
0.641746 0.013732 0.537507
0.645123 0.011079 0.537513
0.657104 0.004690 0.539987
0.658646 0.011598 0.536356
0.670889 0.010875 0.538600
0.677432 0.010010 0.544660
0.687173 0.009391 0.546660
0.688380 0.010747 0.547474
0.692716 0.006949 0.545515
0.705124 0.009833 0.548123
0.710869 0.011112 0.543422
0.714443 0.009645 0.553590
0.722912 0.011370 0.552075
0.728950 0.008605 0.554101
0.735139 0.014216 0.552493
0.744683 0.017073 0.553457
0.749611 0.011698 0.550076
0.755489 0.016687 0.555319
0.768031 0.017541 0.553237
0.777492 0.024244 0.549878
0.781044 0.025145 0.553234
0.790474 0.025826 0.551132
0.793987 0.029300 0.548861
0.810727 0.030920 0.552254
0.812612 0.029362 0.553911
0.823809 0.030061 0.545887
0.830676 0.038587 0.549992
0.836806 0.038251 0.546839
0.843053 0.041381 0.544500
0.850279 0.044590 0.547907
0.862595 0.046414 0.546437
0.868006 0.047729 0.545141
0.875353 0.054309 0.542990
0.886695 0.060520 0.544022
0.892147 0.062147 0.541752
0.904508 0.069241 0.534784
0.913171 0.070148 0.536625
0.917531 0.073146 0.536679
0.927709 0.073835 0.530851
0.936926 0.087444 0.528484
0.146387 0.517170 0.717802
0.251108 0.206189 0.619810
0.032536 0.512852 0.664688
0.214243 0.197349 0.587805
0.137893 0.015250 0.442150
0.145674 0.008856 0.446852
0.148140 0.009289 0.444245
0.155793 0.008006 0.449935
0.158429 0.004879 0.449562
0.167097 0.005870 0.453050
0.171889 0.003315 0.456628
0.180227 0.006573 0.455534
0.186294 0.000659 0.460265
0.194193 0.004979 0.457000
0.202699 0.002979 0.460737
0.204351 0.007257 0.466397
0.212909 0.004990 0.465707
0.219417 0.003741 0.462266
0.223414 0.003504 0.461188
0.230660 0.002513 0.465787
0.239895 0.008571 0.471787
0.242732 0.000923 0.472279
0.253337 0.005252 0.471849
0.254472 0.005098 0.472908
0.267695 0.003250 0.475974
0.267398 0.003934 0.478972
0.371272 0.021947 0.483011
0.375396 0.021603 0.485868
0.381820 0.016628 0.488621
0.384282 0.010944 0.493302
0.388589 0.005021 0.502062
0.391171 0.005260 0.499648
0.401984 0.007815 0.503451
0.410755 0.004741 0.504083
0.417589 0.007762 0.503607
0.435950 0.028239 0.485939
0.442106 0.029282 0.488867
0.451174 0.032329 0.487822
0.455339 0.030785 0.491266
0.461788 0.032154 0.488175
0.469539 0.033924 0.490540
0.474293 0.033979 0.489086
0.484382 0.032550 0.495232
0.487205 0.032898 0.495642
0.498178 0.030892 0.492725
0.504641 0.036165 0.494620
0.508943 0.032099 0.498567
0.517553 0.032242 0.497759
0.523001 0.036002 0.497715
0.530023 0.031814 0.500957
0.535966 0.034193 0.502940
0.540997 0.033456 0.504366
0.545119 0.036088 0.502706
0.557254 0.035612 0.508253
0.560366 0.033009 0.503856
0.570042 0.037111 0.505403
0.578021 0.034054 0.508860
0.582701 0.034011 0.511984
0.587288 0.032257 0.513934
0.592754 0.032203 0.515734
0.599724 0.030838 0.514837
0.604446 0.030127 0.519283
0.609582 0.021980 0.522827
0.617661 0.027445 0.529814
0.619699 0.021008 0.537557
0.623741 0.020040 0.535510
0.625684 0.017421 0.542603
0.636652 0.017267 0.538084
0.640130 0.012302 0.543702
0.648379 0.013864 0.543341
0.655654 0.011685 0.547799
0.657862 0.011328 0.550496
0.667753 0.008652 0.551813
0.672393 0.012397 0.552657
0.680226 0.012166 0.555958
0.686255 0.008870 0.554945
0.693309 0.009528 0.560129
0.699772 0.007487 0.558160
0.706365 0.011745 0.563118
0.711210 0.010962 0.559552
0.722514 0.015258 0.562503
0.728466 0.013059 0.564472
0.733968 0.013209 0.563693
0.741434 0.014810 0.561187
0.747415 0.017002 0.564222
0.755237 0.018738 0.560828
0.762602 0.023914 0.562148
0.769443 0.023466 0.561677
0.778963 0.028285 0.560750
0.792403 0.030843 0.560760
0.797125 0.030444 0.558742
0.800247 0.033177 0.562123
0.809681 0.036934 0.557811
0.814611 0.036736 0.559256
0.824048 0.037575 0.561209
0.832091 0.041175 0.561245
0.841664 0.045565 0.561152
0.848765 0.047976 0.558653
0.857927 0.051358 0.550297
0.865979 0.053524 0.551374
0.875428 0.054885 0.555329
0.879276 0.060818 0.548397
0.888841 0.060452 0.549067
0.899914 0.068511 0.544045
0.907686 0.065994 0.545220
0.918173 0.079093 0.542815
0.925571 0.082670 0.540861
0.938806 0.082747 0.540223
0.280302 0.250626 0.658739
0.088767 0.283658 0.570860
0.173048 0.496839 0.641395
0.169388 0.497276 0.649694
0.094788 0.492871 0.660997
0.288342 0.223006 0.639197
0.149236 0.018962 0.454121
0.148505 0.009847 0.457141
0.157582 0.008966 0.459921
0.163840 0.008931 0.460994
0.166157 0.005365 0.464425
0.178079 0.005681 0.467693
0.180018 0.009952 0.468425
0.186883 0.010096 0.470965
0.196976 0.005872 0.468626
0.199279 0.004096 0.471852
0.210934 0.006075 0.473072
0.214934 0.003841 0.476705
0.217100 0.005620 0.477028
0.225544 0.003785 0.482320
0.235067 0.005580 0.481869
0.242807 0.004642 0.480959
0.247283 0.002926 0.485341
0.254199 0.004559 0.483039
0.260020 0.002178 0.483055
0.267899 0.002215 0.485680
0.379043 0.015844 0.497499
0.379661 0.007514 0.502564
0.387242 0.007482 0.505887
0.390923 0.005892 0.509306
0.399976 0.002121 0.512310
0.403588 0.004933 0.512591
0.413378 0.006916 0.514867
0.422455 0.015408 0.510278
0.437209 0.031724 0.495481
0.446437 0.032189 0.498765
0.449122 0.036771 0.497307
0.463266 0.034030 0.504084
0.464378 0.032569 0.499891
0.468248 0.032300 0.506085
0.481650 0.035540 0.504301
0.483512 0.030867 0.503662
0.492214 0.037286 0.507274
0.497676 0.031476 0.509907
0.506613 0.032092 0.508382
0.509753 0.030803 0.511697
0.517691 0.028529 0.510750
0.523098 0.032912 0.513534
0.533992 0.030500 0.515628
0.535158 0.034807 0.513524
0.542849 0.036053 0.516685
0.552001 0.034597 0.516530
0.556396 0.035953 0.520597
0.565571 0.033122 0.518857
0.569507 0.036446 0.523640
0.579517 0.035549 0.521421
0.584429 0.037234 0.522181
0.587283 0.037591 0.526114
0.596444 0.037425 0.523070
0.606478 0.032798 0.529512
0.606318 0.033823 0.531749
0.612334 0.029431 0.538349
0.618807 0.024763 0.540722
0.625546 0.025361 0.544236
0.631370 0.022170 0.543870
0.635858 0.021550 0.549365
0.638324 0.018735 0.552257
0.643350 0.016325 0.551678
0.651065 0.012151 0.556147
0.658697 0.013071 0.555112
0.662976 0.014418 0.559889
0.670002 0.008755 0.560249
0.676789 0.010868 0.563456
0.682358 0.011937 0.564113
0.689870 0.009797 0.565103
0.696536 0.005317 0.566800
0.702600 0.008236 0.570281
0.708960 0.014422 0.568283
0.720428 0.011498 0.571789
0.724526 0.016111 0.572501
0.727306 0.014939 0.575600
0.735556 0.012847 0.574488
0.744247 0.013108 0.574686
0.751751 0.018825 0.573892
0.760577 0.022485 0.575692
0.763298 0.025620 0.566697
0.778392 0.030372 0.570761
0.785366 0.032308 0.565719
0.793807 0.033483 0.566079
0.800955 0.035614 0.570102
0.809949 0.042430 0.565074
0.818535 0.042652 0.561937
0.823085 0.044241 0.564753
0.831114 0.047979 0.567451
0.839650 0.049063 0.565473
0.842287 0.055282 0.560656
0.854060 0.048474 0.564509
0.864014 0.057695 0.559350
0.872648 0.058382 0.559714
0.878985 0.061098 0.560187
0.888083 0.067973 0.557915
0.896362 0.067911 0.553265
0.904559 0.075731 0.554103
0.913246 0.078721 0.550035
0.919557 0.083858 0.553794
0.129943 0.221469 0.521401
0.139244 0.266877 0.617154
0.267694 0.231647 0.644072
0.062501 0.498244 0.658872
0.073015 0.498199 0.662584
0.178733 0.237269 0.618132
0.219284 0.199569 0.591240
0.147406 0.021562 0.455305
0.062086 0.509885 0.682123
0.136618 0.217059 0.523839
0.164042 0.011142 0.470545
0.167493 0.014616 0.474554
0.175008 0.009893 0.475219
0.178198 0.005141 0.475804
0.185196 0.008756 0.479266
0.189940 0.007752 0.482356
0.199832 0.005796 0.482519
0.204684 0.007734 0.480717
0.211329 0.004114 0.488958
0.216226 0.005548 0.486725
0.225640 0.003468 0.487303
0.229189 0.001662 0.487227
0.231613 0.008370 0.491454
0.241556 0.004619 0.494090
0.248568 0.002644 0.499487
0.257422 0.003101 0.495599
0.261786 -0.000647 0.501058
0.378724 0.015525 0.514172
0.384758 0.013087 0.515341
0.387944 0.007159 0.518406
0.393192 0.005967 0.527622
0.401629 0.006826 0.523004
0.410145 0.010158 0.524079
0.416069 0.016864 0.517882
0.433086 0.030465 0.508323
0.437553 0.028996 0.510914
0.446503 0.031946 0.509727
0.456218 0.028793 0.512318
0.459347 0.032756 0.512331
0.465990 0.029265 0.514993
0.473122 0.033891 0.515627
0.478262 0.033350 0.517576
0.483983 0.033990 0.516714
0.489611 0.038348 0.517376
0.499396 0.033136 0.518075
0.509525 0.032799 0.519359
0.511094 0.030651 0.522585
0.516205 0.036208 0.522170
0.526105 0.033039 0.525522
0.529276 0.032096 0.524464
0.535959 0.035794 0.527247
0.551832 0.033231 0.526998
0.554150 0.033476 0.527303
0.562890 0.036824 0.531372
0.565180 0.033972 0.532011
0.575350 0.035376 0.533564
0.581167 0.033263 0.535038
0.584572 0.037152 0.536807
0.592166 0.032961 0.536875
0.597557 0.039578 0.541820
0.605579 0.037087 0.543213
0.614600 0.033803 0.540007
0.615310 0.031868 0.545203
0.625255 0.031023 0.549387
0.624382 0.032494 0.550125
0.634010 0.030520 0.555517
0.639898 0.026560 0.563158
0.643684 0.024623 0.557526
0.643880 0.023527 0.560661
0.654111 0.024031 0.564656
0.660822 0.017296 0.568299
0.669018 0.014449 0.572574
0.671588 0.014189 0.573695
0.678603 0.013143 0.573362
0.686724 0.014058 0.577251
0.689252 0.013873 0.577359
0.697737 0.011809 0.578812
0.704694 0.008721 0.582967
0.708781 0.014405 0.584889
0.717993 0.015773 0.584077
0.720506 0.012386 0.579067
0.727049 0.015653 0.582545
0.737243 0.014851 0.586188
0.744862 0.017518 0.583332
0.754830 0.023342 0.578148
0.769225 0.030747 0.579020
0.774174 0.030771 0.577582
0.780580 0.037935 0.576091
0.789289 0.036924 0.576060
0.799358 0.040626 0.576713
0.805302 0.045211 0.573613
0.814497 0.045940 0.567510
0.823758 0.051644 0.569483
0.830613 0.048604 0.570338
0.835563 0.052038 0.569238
0.844763 0.053986 0.573274
0.850742 0.054809 0.567563
0.859261 0.059099 0.570715
0.869311 0.062326 0.572336
0.874446 0.064383 0.569009
0.885670 0.069710 0.569135
0.895484 0.072459 0.566732
0.904625 0.074183 0.560946
0.910461 0.083430 0.561800
0.920745 0.082410 0.558384
0.161659 0.733775 0.222053
0.224843 0.195927 0.590103
0.150878 0.499465 0.677906
0.139968 0.514512 0.715056
0.070638 0.296158 0.538843
0.238203 0.201741 0.613794
0.125873 0.226942 0.504227
0.080078 0.491830 0.647188
0.142318 0.213964 0.531652
0.235080 0.203662 0.608772
0.168340 0.014702 0.475794
0.170332 0.014221 0.481701
0.179427 0.010949 0.485712
0.185113 0.007359 0.485126
0.184345 0.009108 0.491026
0.194138 0.010754 0.491042
0.200132 0.008498 0.495870
0.204815 0.003944 0.497246
0.217735 0.003206 0.497459
0.216545 0.003789 0.498500
0.224294 0.002742 0.497954
0.231012 0.007173 0.501006
0.241008 0.004899 0.504305
0.243956 0.003177 0.506457
0.250732 0.006075 0.505649
0.259088 0.007192 0.505747
0.263403 0.000072 0.510016
0.374488 0.017328 0.520796
0.378838 0.011836 0.526419
0.382753 0.011095 0.529637
0.389155 0.006326 0.532025
0.397334 0.006922 0.533187
0.402818 0.007401 0.532864
0.411076 0.011190 0.529108
0.428049 0.030870 0.518766
0.433683 0.030087 0.521930
0.444863 0.026695 0.523993
0.450439 0.034108 0.522491
0.455644 0.031083 0.523617
0.462414 0.033943 0.519774
0.469383 0.032931 0.525776
0.470421 0.031008 0.529094
0.481585 0.033195 0.527939
0.489578 0.035782 0.532251
0.496621 0.034956 0.528932
0.502194 0.032217 0.533873
0.512088 0.033527 0.533511
0.513181 0.030497 0.530988
0.522074 0.034031 0.535684
0.528868 0.036109 0.536026
0.537250 0.035580 0.541270
0.540242 0.035746 0.536927
0.549009 0.037110 0.535937
0.553957 0.032338 0.545203
0.560033 0.036519 0.540924
0.569757 0.035315 0.541430
0.576322 0.035828 0.544270
0.584331 0.033255 0.546012
0.587435 0.034672 0.551387
0.593069 0.034017 0.548767
0.598201 0.037718 0.550263
0.604577 0.039747 0.551010
0.614949 0.034526 0.554263
0.618561 0.037786 0.551825
0.626285 0.034968 0.553553
0.633829 0.031981 0.565988
0.636270 0.032103 0.564854
0.643598 0.027431 0.566149
0.650008 0.028919 0.567948
0.656228 0.027767 0.571094
0.658778 0.028215 0.570231
0.663427 0.023139 0.577026
0.671753 0.019687 0.576890
0.680258 0.020235 0.580608
0.679653 0.014636 0.587513
0.686828 0.016606 0.588370
0.693278 0.011119 0.589587
0.699463 0.011628 0.593576
0.705306 0.010775 0.594356
0.716948 0.010521 0.593515
0.721287 0.013593 0.595900
0.725182 0.015752 0.597311
0.733278 0.011280 0.598613
0.739816 0.017528 0.596369
0.749951 0.020769 0.594085
0.762126 0.025567 0.592954
0.767787 0.036081 0.586185
0.779400 0.036026 0.583870
0.790954 0.043747 0.580172
0.794118 0.042669 0.576784
0.802033 0.047437 0.581496
0.814725 0.054710 0.578411
0.825148 0.057264 0.576509
0.827726 0.059655 0.575458
0.833747 0.056515 0.581192
0.844242 0.056563 0.577786
0.848220 0.062200 0.577130
0.856854 0.061176 0.577015
0.863623 0.062553 0.573681
0.876675 0.070012 0.574076
0.885500 0.071656 0.568372
0.887227 0.077952 0.569913
0.897952 0.082651 0.572363
0.907717 0.085209 0.566647
0.157644 0.740429 0.171873
0.258258 0.199641 0.609430
0.098696 0.258955 0.535564
0.859267 0.041514 0.410948
0.113404 0.514789 0.705293
0.139499 0.261775 0.620428
0.112993 0.246069 0.560758
0.114484 0.280125 0.604109
0.031766 0.524090 0.564195
0.160790 0.243449 0.616000
0.021332 0.531054 0.605304
0.051608 0.503249 0.633011
0.081898 0.491146 0.645302
0.104619 0.490802 0.654564
0.174925 0.505991 0.658470
0.131485 0.248224 0.597511
0.086559 0.275328 0.547932
0.152954 0.762054 0.109124
0.182380 0.015718 0.497658
0.187495 0.012033 0.497505
0.191188 0.012700 0.500137
0.198906 0.010188 0.501185
0.202400 0.002035 0.503685
0.208910 0.008643 0.506284
0.216414 0.008194 0.510858
0.219299 0.006607 0.513162
0.231695 0.009986 0.511703
0.233309 0.008553 0.518409
0.242174 0.002251 0.516654
0.242511 0.002513 0.518417
0.251847 0.004200 0.519357
0.262299 0.005638 0.520862
0.264697 0.001024 0.524507
0.378915 0.015043 0.533789
0.381126 0.008098 0.540270
0.383322 0.006883 0.540820
0.395283 0.004549 0.549763
0.398156 0.005424 0.544104
0.407025 0.011603 0.546612
0.426026 0.027172 0.528669
0.428420 0.029490 0.531354
0.437119 0.033674 0.532792
0.443911 0.034481 0.534578
0.452165 0.032726 0.535742
0.456544 0.034451 0.534679
0.461657 0.031077 0.534086
0.471318 0.030615 0.535608
0.478670 0.030811 0.539634
0.485152 0.035320 0.544403
0.492638 0.035037 0.541454
0.498284 0.032685 0.540406
0.503497 0.033325 0.543841
0.512872 0.031944 0.543987
0.518884 0.035456 0.544801
0.523910 0.032679 0.546188
0.533033 0.034179 0.548771
0.536680 0.035388 0.547927
0.541247 0.033738 0.549186
0.552603 0.034983 0.552724
0.557437 0.035014 0.553942
0.562600 0.031586 0.550661
0.567955 0.038696 0.556735
0.578103 0.033604 0.557238
0.584745 0.033009 0.556255
0.590494 0.036878 0.556269
0.596901 0.036142 0.558053
0.600648 0.039090 0.562977
0.610917 0.035615 0.560942
0.617482 0.038370 0.561198
0.623836 0.035235 0.562310
0.630150 0.041196 0.567180
0.634544 0.036853 0.567743
0.643098 0.037312 0.571183
0.649311 0.034932 0.572499
0.659270 0.033383 0.576062
0.657935 0.033404 0.578466
0.665096 0.026971 0.578892
0.671000 0.023706 0.583660
0.675689 0.023862 0.589969
0.679786 0.019933 0.595865
0.685771 0.014468 0.600258
0.690042 0.015907 0.605456
0.692279 0.012145 0.605325
0.699970 0.011739 0.605647
0.706824 0.008359 0.604048
0.716025 0.011417 0.608048
0.723542 0.013878 0.606849
0.728346 0.014767 0.605935
0.735036 0.014568 0.606682
0.746971 0.020685 0.605778
0.758861 0.026692 0.600013
0.766969 0.032871 0.597576
0.772654 0.038661 0.592445
0.783063 0.048046 0.592005
0.791741 0.048410 0.584038
0.803409 0.056625 0.582266
0.813232 0.062890 0.583185
0.820313 0.061915 0.579522
0.827763 0.067363 0.583532
0.836717 0.069293 0.583497
0.840672 0.065694 0.585067
0.848537 0.068008 0.584444
0.853887 0.066096 0.583089
0.862131 0.071086 0.582779
0.870188 0.075035 0.584715
0.879283 0.078032 0.577699
0.890901 0.079932 0.580691
0.897682 0.087832 0.576569
0.072422 0.283973 0.532280
0.192310 0.210751 0.594098
0.175949 0.260344 0.643456
0.216570 0.242453 0.644477
0.102592 0.496102 0.670602
0.079037 0.514066 0.692771
0.027059 0.526729 0.593916
0.085443 0.289193 0.584035
0.190045 0.249088 0.637186
0.144416 0.488598 0.649196
0.174559 0.213170 0.586658
0.031186 0.523516 0.671194
0.269405 0.201125 0.611224
0.189298 0.268553 0.648603
0.027790 0.519609 0.610194
0.055972 0.500610 0.633626
0.029915 0.517846 0.652774
0.115106 0.490272 0.657833
0.233431 0.199631 0.595595
0.237336 0.198505 0.595800
0.120426 0.470408 0.629100
0.180132 0.219110 0.597538
0.016223 0.535849 0.548497
0.165758 0.222655 0.592677
0.291919 0.247077 0.657860
0.287427 0.247964 0.655067
0.195072 0.224260 0.613499
0.206547 0.012081 0.514942
0.215230 0.011074 0.518665
0.219614 0.010279 0.518829
0.225391 0.006401 0.523566
0.227423 0.006467 0.520888
0.240645 0.004970 0.525460
0.245003 0.009666 0.528537
0.248290 0.006821 0.530849
0.257996 0.004648 0.532752
0.264610 0.004308 0.534353
0.265979 0.004019 0.535933
0.372734 0.012647 0.545907
0.379732 0.008703 0.548109
0.380928 0.004704 0.551994
0.385445 0.005530 0.556093
0.394754 0.008809 0.551765
0.400240 0.012235 0.555934
0.413165 0.022337 0.549473
0.426473 0.031413 0.543366
0.429068 0.031137 0.548166
0.436498 0.033240 0.542463
0.446867 0.028452 0.548208
0.452789 0.032318 0.544479
0.462430 0.029023 0.545209
0.471059 0.038174 0.549427
0.475276 0.034252 0.550507
0.479128 0.037927 0.547895
0.486813 0.034194 0.553870
0.489827 0.030632 0.552022
0.497557 0.033550 0.557328
0.504699 0.030078 0.555574
0.512171 0.033862 0.556226
0.522631 0.037006 0.555704
0.531128 0.038156 0.561483
0.533165 0.036357 0.560038
0.540044 0.037601 0.562202
0.544298 0.038426 0.560651
0.552748 0.033664 0.562177
0.556589 0.038269 0.563956
0.571888 0.040608 0.569580
0.575518 0.036435 0.566898
0.581059 0.037545 0.567781
0.586644 0.037715 0.567475
0.597241 0.034735 0.569381
0.595590 0.039455 0.572154
0.606559 0.039652 0.575124
0.613412 0.039265 0.574431
0.623812 0.038350 0.577744
0.628623 0.035461 0.574046
0.632990 0.040156 0.578308
0.639638 0.039181 0.576421
0.647867 0.039415 0.581729
0.650591 0.036666 0.584180
0.658981 0.037098 0.582950
0.663544 0.034154 0.588725
0.669230 0.030881 0.590268
0.673214 0.022795 0.596023
0.677823 0.021643 0.601309
0.680988 0.015510 0.607567
0.682799 0.013592 0.609769
0.693701 0.012131 0.612506
0.695891 0.011981 0.620206
0.702273 0.013241 0.612162
0.708466 0.010929 0.614981
0.718298 0.014658 0.613643
0.725357 0.012967 0.618418
0.732067 0.013263 0.614666
0.740274 0.018177 0.614215
0.752580 0.029593 0.610784
0.761585 0.034738 0.610081
0.770368 0.044974 0.601570
0.783372 0.046067 0.598788
0.292420 0.237901 0.651275
0.087924 0.493378 0.624397
0.811035 0.071095 0.587108
0.821330 0.074955 0.584723
0.831685 0.067468 0.590730
0.834913 0.072100 0.588384
0.839408 0.073417 0.589655
0.845506 0.072767 0.591023
0.854462 0.075157 0.589959
0.861404 0.077709 0.591473
0.868222 0.078907 0.587600
0.873837 0.077978 0.588603
0.885313 0.083523 0.588303
0.242914 0.199481 0.597328
0.216662 0.213253 0.614964
0.149713 0.260524 0.626564
0.126894 0.491362 0.662366
0.147670 0.253269 0.617317
0.120980 0.488423 0.659127
0.071429 0.509408 0.681378
0.036086 0.520275 0.604246
0.056440 0.501235 0.626163
0.032664 0.520177 0.597087
0.040753 0.513371 0.608734
0.049549 0.506493 0.616221
0.064788 0.496232 0.626732
0.093295 0.491291 0.639686
0.115947 0.490908 0.646432
0.225332 0.246490 0.656814
0.036781 0.519087 0.546905
0.073507 0.495482 0.622742
0.184181 0.218296 0.599961
0.033833 0.521072 0.616584
0.221058 0.240472 0.643456
0.076605 0.496627 0.593836
0.249504 0.198498 0.601180
0.234060 0.174787 0.376248
0.255473 0.197341 0.599704
0.029547 0.510167 0.631636
0.261175 0.192295 0.600934
0.063214 0.500583 0.646156
0.109692 0.490355 0.668322
0.166765 0.506217 0.667075
0.134290 0.474183 0.637078
0.204054 0.014794 0.521568
0.205651 0.012148 0.520845
0.211427 0.008820 0.523522
0.216578 0.004894 0.534076
0.221565 0.005761 0.532284
0.225671 0.006373 0.535930
0.234813 0.009302 0.533509
0.237968 0.004508 0.536583
0.247341 0.004701 0.540351
0.251969 0.005183 0.536829
0.257469 0.005887 0.543498
0.261081 0.003888 0.542340
0.271399 0.003718 0.544208
0.361742 0.016881 0.551007
0.370442 0.016588 0.559291
0.371134 0.009460 0.565317
0.374408 0.006100 0.564940
0.384373 0.009427 0.565747
0.392540 0.005834 0.564784
0.402007 0.012415 0.569077
0.409544 0.019440 0.562027
0.424314 0.029075 0.556922
0.427881 0.032019 0.553326
0.435103 0.031388 0.555020
0.442535 0.031995 0.555992
0.446913 0.033089 0.554557
0.457883 0.033491 0.557081
0.460284 0.031767 0.559266
0.466810 0.033555 0.560367
0.481293 0.035769 0.560087
0.487309 0.032362 0.558072
0.489071 0.037345 0.562539
0.499650 0.033030 0.561089
0.504299 0.036196 0.562342
0.515055 0.035341 0.569827
0.516117 0.034869 0.568383
0.525370 0.035232 0.568865
0.527840 0.033817 0.571709
0.539893 0.036399 0.572059
0.543467 0.034558 0.571375
0.549415 0.033734 0.577617
0.556111 0.037119 0.577670
0.562524 0.040063 0.579175
0.569733 0.038098 0.577136
0.576471 0.035774 0.579433
0.582601 0.038895 0.578412
0.591904 0.037189 0.579669
0.596003 0.039084 0.583396
0.601653 0.039404 0.580962
0.607869 0.038857 0.584255
0.615985 0.039356 0.586732
0.621720 0.037675 0.585002
0.627521 0.041020 0.590060
0.633132 0.037447 0.586233
0.642090 0.036812 0.588187
0.649968 0.043699 0.589275
0.656127 0.038791 0.591421
0.659839 0.033642 0.595620
0.663092 0.035424 0.599858
0.668190 0.029858 0.603414
0.670376 0.020043 0.609989
0.674451 0.013363 0.616245
0.680952 0.011683 0.621678
0.685951 0.013105 0.623757
0.692509 0.013194 0.625997
0.695335 0.012788 0.627624
0.706107 0.010686 0.626434
0.712409 0.011908 0.628069
0.717918 0.015263 0.629344
0.728265 0.013603 0.633858
0.735243 0.013956 0.626476
0.746068 0.023743 0.622950
0.083912 0.492092 0.621675
0.142523 0.213208 0.534053
0.154763 0.284219 0.638163
0.218201 0.214567 0.615901
0.202860 0.212230 0.607811
0.134812 0.250566 0.606907
0.378441 0.027119 0.696189
0.233458 0.234702 0.640648
0.205871 0.216634 0.612575
0.142738 0.258147 0.616766
0.149378 0.208375 0.536630
0.095315 0.245009 0.498922
0.855138 0.080728 0.591962
0.871017 0.083507 0.595424
0.101181 0.244788 0.505946
0.100000 0.235049 0.506603
0.108392 0.234005 0.513793
0.152441 0.256609 0.628569
0.125613 0.244042 0.570013
0.114190 0.231556 0.519965
0.274669 0.210585 0.623733
0.063717 0.517445 0.695471
0.066050 0.494246 0.650666
0.113069 0.488896 0.646885
0.088701 0.491107 0.637593
0.116702 0.228333 0.521181
0.138450 0.736201 0.237769
0.218067 0.261830 0.661960
0.052671 0.501176 0.621360
0.070718 0.497001 0.633191
0.218527 0.249361 0.651159
0.198481 0.230226 0.627175
0.151297 0.490369 0.651205
0.110586 0.267113 0.580502
0.049079 0.515532 0.571584
0.125449 0.223654 0.526291
0.126626 0.227026 0.522850
0.128663 0.220744 0.534255
0.213343 0.181637 0.386390
0.216864 0.178877 0.386100
0.224455 0.175762 0.392119
0.227425 0.176050 0.393296
0.234944 0.172877 0.402306
0.133906 0.219977 0.534057
0.070768 0.281647 0.511825
0.217182 0.210136 0.606898
0.119612 0.490204 0.667573
0.178557 0.505486 0.666851
0.141397 0.214135 0.537123
0.267100 0.238219 0.646353
0.148429 0.209991 0.543278
0.207378 0.009421 0.536637
0.212147 0.007138 0.536517
0.215659 0.005286 0.542454
0.224896 0.007329 0.542338
0.229535 0.007272 0.545688
0.239434 0.007641 0.546401
0.243517 0.003324 0.549391
0.250046 0.008073 0.549384
0.260706 0.005457 0.552028
0.259313 0.003806 0.552110
0.270466 0.004453 0.553239
0.272268 0.006467 0.559830
0.279609 0.008134 0.559150
0.329058 0.002320 0.565954
0.331680 0.007075 0.564438
0.337866 0.006403 0.568224
0.349242 0.008559 0.569022
0.352413 0.006291 0.574511
0.360906 0.009442 0.574609
0.365790 0.006273 0.574601
0.373835 0.008329 0.576857
0.378231 0.010047 0.573369
0.390282 0.006585 0.577407
0.394476 0.010236 0.574828
0.404941 0.014769 0.572478
0.417097 0.031382 0.561919
0.425817 0.032599 0.565312
0.429658 0.034393 0.567789
0.436412 0.029614 0.568943
0.445385 0.033949 0.566490
0.452287 0.033393 0.569165
0.457098 0.030507 0.567894
0.464771 0.033609 0.572490
0.471281 0.029949 0.572429
0.480650 0.036000 0.573251
0.488348 0.034743 0.571962
0.492769 0.034785 0.576419
0.500132 0.034174 0.579817
0.506022 0.035167 0.579203
0.514717 0.037181 0.575850
0.515259 0.034804 0.582595
0.523615 0.037226 0.579728
0.530625 0.034629 0.580637
0.539621 0.035886 0.583623
0.548625 0.035885 0.583753
0.551606 0.037778 0.583253
0.561484 0.040803 0.585412
0.568229 0.038703 0.589978
0.571030 0.039482 0.589763
0.581925 0.039487 0.590951
0.586333 0.038694 0.591799
0.593836 0.035865 0.596241
0.601956 0.037589 0.595204
0.606495 0.039250 0.594376
0.612674 0.041537 0.593789
0.618575 0.038293 0.598014
0.627321 0.039854 0.597473
0.632219 0.041709 0.595753
0.636755 0.041823 0.597148
0.646023 0.040389 0.597474
0.649544 0.041171 0.600518
0.655252 0.040158 0.606415
0.663911 0.037017 0.608601
0.666941 0.026644 0.613486
0.663426 0.011398 0.632944
0.666059 0.011499 0.631033
0.678495 0.009872 0.635423
0.682169 0.010707 0.634868
0.689712 0.008906 0.635902
0.694392 0.004717 0.639565
0.704759 0.015090 0.639779
0.708691 0.010849 0.639349
0.712773 0.013814 0.637748
0.721418 0.017438 0.640461
0.732672 0.017187 0.633633
0.742821 0.020400 0.638107
0.152419 0.208346 0.546732
0.159084 0.208122 0.549281
0.140329 0.739538 0.196935
0.039171 0.521844 0.561243
0.246716 0.211646 0.619436
0.135396 0.494801 0.679920
0.156862 0.503086 0.682056
0.144850 0.742002 0.225104
0.160541 0.257063 0.627992
0.077121 0.296771 0.573372
0.174282 0.282996 0.654212
0.163986 0.205287 0.548933
0.167488 0.201652 0.553676
0.170758 0.202350 0.558103
0.141527 0.498236 0.679191
0.154560 0.729681 0.235892
0.095188 0.276374 0.566774
0.103703 0.532665 0.710909
0.178785 0.197005 0.563155
0.183563 0.197666 0.562246
0.142404 0.738558 0.170624
0.152583 0.245504 0.617935
0.148445 0.245386 0.615872
0.046854 0.509940 0.613386
0.043805 0.508148 0.531557
0.023449 0.512244 0.523903
0.222437 0.238996 0.639719
0.261209 0.204095 0.621731
0.124890 0.271142 0.610088
0.036584 0.522418 0.671541
0.099297 0.486519 0.598682
0.178705 0.226686 0.613244
0.125785 0.488775 0.650858
0.160673 0.493928 0.644354
0.180826 0.282156 0.658799
0.193731 0.193856 0.561296
0.193668 0.184266 0.387496
0.195309 0.184408 0.390732
0.204683 0.184025 0.393010
0.205868 0.176887 0.396433
0.210495 0.175563 0.401618
0.216259 0.174808 0.405806
0.221562 0.174745 0.406059
0.227957 0.172294 0.413436
0.197672 0.192176 0.567502
0.204460 0.195166 0.569361
0.209151 0.195279 0.570944
0.204840 0.257928 0.651301
0.217175 0.192004 0.573005
0.134129 0.242806 0.591504
0.224248 0.191103 0.574364
0.194409 0.015100 0.547704
0.199329 0.012161 0.548152
0.207204 0.010348 0.552748
0.208581 0.005438 0.552897
0.223826 0.008588 0.551890
0.222391 0.009499 0.555312
0.234431 0.005514 0.553254
0.236974 0.005947 0.557950
0.245307 0.007528 0.559022
0.248367 0.007024 0.564456
0.255741 0.010226 0.559628
0.263191 0.005902 0.564004
0.271798 0.008201 0.566954
0.275761 0.007409 0.566560
0.282542 0.002757 0.571985
0.288061 0.008274 0.570621
0.296156 0.006310 0.570513
0.308033 0.008626 0.577619
0.308941 0.005468 0.571441
0.315272 0.007529 0.580233
0.320228 0.007140 0.574779
0.332673 0.011537 0.578546
0.337331 0.006609 0.575803
0.345692 0.010409 0.578794
0.348874 0.008328 0.582740
0.357269 0.008399 0.581684
0.361788 0.007402 0.584677
0.370874 0.007874 0.587850
0.375360 0.007186 0.591056
0.384355 0.006058 0.587252
0.387931 0.009662 0.587202
0.400482 0.019398 0.581073
0.412113 0.032493 0.573753
0.418434 0.029726 0.575015
0.426895 0.031679 0.578700
0.435820 0.034289 0.575922
0.439461 0.036421 0.573887
0.450032 0.032671 0.579241
0.454959 0.031242 0.578334
0.463381 0.036403 0.581398
0.468868 0.032061 0.580908
0.475513 0.035197 0.580445
0.481051 0.033344 0.583066
0.492916 0.035540 0.585881
0.500138 0.038527 0.589222
0.502814 0.037158 0.588416
0.509555 0.036344 0.587276
0.515989 0.038067 0.588759
0.521233 0.035787 0.589747
0.528387 0.036425 0.590455
0.532392 0.036440 0.591718
0.541051 0.041436 0.592944
0.548115 0.039646 0.595122
0.554940 0.040097 0.598043
0.562607 0.036621 0.597218
0.569142 0.041066 0.597433
0.577620 0.037869 0.596762
0.580186 0.037009 0.598565
0.587828 0.043177 0.598388
0.597249 0.038989 0.600888
0.602107 0.038436 0.602204
0.608109 0.039129 0.603538
0.613682 0.040638 0.607369
0.620841 0.039455 0.607745
0.629705 0.040906 0.609089
0.636280 0.039667 0.609605
0.641396 0.039143 0.611197
0.648000 0.037960 0.612157
0.638113 0.012716 0.637555
0.645925 0.009916 0.639363
0.651771 0.009006 0.638189
0.655276 0.012742 0.641866
0.664848 0.009409 0.640758
0.671159 0.009364 0.642638
0.675695 0.009148 0.644526
0.685622 0.010189 0.643604
0.689021 0.008440 0.649270
0.697033 0.010033 0.648691
0.706167 0.012444 0.649461
0.708562 0.011234 0.648155
0.719149 0.012330 0.652840
0.731100 0.016727 0.648965
0.737808 0.021757 0.646708
0.228425 0.191035 0.580960
0.129734 0.236084 0.576094
0.064982 0.289249 0.514217
0.124169 0.235923 0.575672
0.084877 0.283991 0.543015
0.261908 0.220354 0.636770
0.306482 0.227520 0.649836
0.141512 0.740992 0.221762
0.165776 0.255038 0.634033
0.148394 0.732504 0.232271
0.234240 0.187419 0.581297
0.213150 0.251308 0.647924
0.103069 0.485026 0.624891
0.242389 0.193595 0.580329
0.101012 0.481121 0.610473
0.103998 0.536012 0.722063
0.297669 0.245402 0.657591
0.099428 0.269173 0.563871
0.154725 0.203030 0.544680
0.086744 0.491503 0.601114
0.274638 0.217711 0.632133
0.291786 0.214398 0.638379
0.187026 0.216231 0.591416
0.150669 0.288260 0.646406
0.162962 0.199693 0.543411
0.044046 0.506357 0.623631
0.132220 0.507161 0.711514
0.064833 0.498293 0.577886
0.025988 0.509015 0.491090
0.143464 0.507356 0.704111
0.062769 0.510112 0.687230
0.072566 0.497492 0.632170
0.096941 0.488587 0.641571
0.129662 0.488096 0.645639
0.127761 0.285200 0.621304
0.084600 0.488460 0.588772
0.179091 0.191387 0.395012
0.184820 0.186047 0.400909
0.190745 0.181706 0.400199
0.197522 0.183505 0.408111
0.204693 0.176754 0.409614
0.205287 0.176579 0.414682
0.212722 0.174025 0.418209
0.217805 0.167352 0.418692
0.224226 0.170923 0.422560
0.229684 0.168452 0.425275
0.231314 0.161598 0.432665
0.130292 0.246673 0.587361
0.039939 0.509974 0.661941
0.071414 0.289081 0.529812
0.114392 0.248817 0.569263
0.140322 0.519288 0.718893
0.193855 0.015202 0.554633
0.198800 0.011722 0.556786
0.199581 0.005630 0.561500
0.209076 0.004753 0.563152
0.215164 0.005073 0.562582
0.220132 0.003921 0.563768
0.229306 0.008135 0.567357
0.232972 0.007066 0.568845
0.242207 0.008009 0.566769
0.247305 0.006788 0.574396
0.254724 0.007726 0.570480
0.258070 0.009132 0.571643
0.268184 0.002490 0.576130
0.272091 0.006079 0.575416
0.278793 0.010840 0.578416
0.285344 0.007659 0.578612
0.288965 0.007322 0.579190
0.301838 0.010365 0.581078
0.309520 0.007376 0.583820
0.311550 0.005926 0.581304
0.319296 0.009676 0.582590
0.327242 0.007076 0.584785
0.337284 0.009044 0.591881
0.338375 0.006253 0.587446
0.346848 0.007849 0.589929
0.351462 0.010484 0.592688
0.359220 0.008635 0.596403
0.364821 0.006099 0.594930
0.369744 0.009809 0.596616
0.381938 0.009393 0.597972
0.388557 0.009665 0.595106
0.396808 0.018464 0.594168
0.409262 0.027587 0.585535
0.416158 0.029766 0.586271
0.420840 0.033013 0.586195
0.428981 0.035786 0.588758
0.437885 0.036258 0.587987
0.445326 0.031152 0.587571
0.453164 0.036493 0.588593
0.457746 0.036610 0.589327
0.464968 0.037959 0.587983
0.469054 0.031691 0.593638
0.477265 0.037151 0.593518
0.482052 0.036192 0.594231
0.489538 0.038199 0.601995
0.499709 0.034861 0.598342
0.506599 0.038135 0.599729
0.510831 0.037524 0.601085
0.518249 0.037661 0.602693
0.522161 0.040463 0.600882
0.529651 0.035529 0.601867
0.538144 0.041228 0.606563
0.544107 0.038253 0.605773
0.550586 0.039440 0.609721
0.558561 0.038797 0.609531
0.564733 0.038706 0.611726
0.569638 0.037816 0.608009
0.580365 0.040295 0.609787
0.588691 0.041036 0.612400
0.593151 0.037536 0.610019
0.600778 0.039310 0.617816
0.607632 0.038927 0.617797
0.615081 0.041282 0.615778
0.619645 0.042899 0.618813
0.625193 0.039023 0.621048
0.632696 0.042523 0.619064
0.619459 0.010243 0.642848
0.627652 0.013534 0.646229
0.637576 0.011581 0.645262
0.639971 0.011141 0.647684
0.644121 0.009585 0.652695
0.651626 0.010453 0.651426
0.656371 0.008213 0.655249
0.667207 0.012329 0.655956
0.675472 0.008854 0.657313
0.682260 0.010743 0.662107
0.685480 0.010285 0.655607
0.692369 0.013919 0.660814
0.701810 0.010751 0.659295
0.704238 0.013737 0.660574
0.713966 0.016010 0.663061
0.722604 0.017092 0.658943
0.731910 0.024459 0.657239
0.126634 0.499742 0.685318
0.311376 0.234711 0.656554
0.284441 0.207710 0.623429
0.109553 0.241605 0.545548
0.060904 0.504511 0.576842
0.163614 0.506076 0.686840
0.820900 0.036045 0.393172
0.291240 0.230638 0.646337
0.090316 0.489648 0.590967
0.112140 0.542936 0.727832
0.164069 0.199693 0.544368
0.127964 0.262895 0.619391
0.058445 0.507753 0.664203
0.027626 0.523979 0.553656
0.118749 0.258402 0.595199
0.149634 0.740756 0.189646
0.151408 0.739626 0.190868
0.111246 0.253062 0.569600
0.110066 0.298453 0.615033
0.104197 0.300776 0.617473
0.151028 0.233238 0.591868
0.146349 0.247502 0.609967
0.138175 0.488212 0.651103
0.265984 0.254821 0.654824
0.230190 0.240122 0.646119
0.184728 0.235662 0.623856
0.140434 0.231533 0.580363
0.102213 0.290771 0.603423
0.216727 0.258199 0.655806
0.087795 0.283916 0.556560
0.097790 0.280093 0.585092
0.121154 0.243981 0.566256
0.080641 0.492466 0.634251
0.105476 0.487239 0.647876
0.084984 0.493248 0.651860
0.170528 0.197949 0.400789
0.176302 0.191863 0.399893
0.178011 0.190251 0.409166
0.183337 0.189166 0.406132
0.186069 0.180634 0.412696
0.189014 0.178248 0.418007
0.198070 0.178592 0.425524
0.202131 0.175172 0.422106
0.204747 0.173064 0.426843
0.210051 0.169907 0.433014
0.220927 0.168708 0.434067
0.223889 0.167583 0.442136
0.228966 0.163231 0.439109
0.234589 0.161380 0.446682
0.171555 0.194969 0.548893
0.173600 0.239408 0.622099
0.183074 0.244333 0.634552
0.103537 0.509412 0.693638
0.236498 0.242420 0.647690
0.194322 0.010537 0.568855
0.199946 0.010616 0.570942
0.203139 0.007779 0.572182
0.210283 0.007469 0.575697
0.216428 0.006835 0.574866
0.226931 0.007518 0.578352
0.228827 0.006688 0.579644
0.233500 0.008711 0.581096
0.244949 0.009972 0.581654
0.247333 0.008012 0.582585
0.256775 0.005384 0.581237
0.264113 0.007991 0.587098
0.268339 0.009527 0.585810
0.278106 0.008672 0.586947
0.282079 0.012514 0.586857
0.291542 0.006769 0.586148
0.293291 0.011300 0.590783
0.302230 0.009571 0.589775
0.310733 0.013373 0.594350
0.318315 0.012570 0.596766
0.320160 0.012643 0.592559
0.330343 0.007497 0.596348
0.337360 0.006821 0.596138
0.339076 0.009370 0.601309
0.348582 0.010984 0.600726
0.358036 0.007211 0.600044
0.363204 0.004521 0.605818
0.364068 0.011008 0.604720
0.375733 0.007395 0.606201
0.382521 0.014592 0.608466
0.391756 0.013046 0.605915
0.402701 0.027908 0.599301
0.418227 0.029837 0.593961
0.419554 0.029897 0.596091
0.427889 0.033825 0.599086
0.432640 0.034383 0.598316
0.440330 0.035382 0.598741
0.448749 0.035610 0.603741
0.452932 0.035985 0.601568
0.462639 0.039598 0.601810
0.469646 0.036208 0.605572
0.475167 0.037275 0.603105
0.479654 0.035986 0.609462
0.486402 0.039281 0.608250
0.493470 0.035272 0.610371
0.501516 0.034927 0.609619
0.506869 0.036637 0.608982
0.513312 0.037315 0.613316
0.522070 0.039019 0.611449
0.527781 0.038492 0.616864
0.532896 0.036688 0.616041
0.540592 0.038032 0.617038
0.548637 0.041932 0.618524
0.551640 0.038729 0.619620
0.559527 0.037896 0.620093
0.567216 0.042509 0.621130
0.573070 0.043846 0.623782
0.578343 0.041561 0.626295
0.585831 0.041482 0.623101
0.593248 0.044227 0.626612
0.601463 0.037886 0.627450
0.605771 0.039895 0.625342
0.603157 0.009987 0.651053
0.608176 0.013736 0.653287
0.609470 0.009622 0.657805
0.616297 0.011623 0.656999
0.622560 0.008332 0.660369
0.627598 0.009243 0.657828
0.637987 0.010074 0.660984
0.639168 0.010091 0.662030
0.650258 0.011361 0.666088
0.653802 0.011194 0.666838
0.661191 0.016000 0.667604
0.669261 0.009567 0.663621
0.675666 0.012430 0.669303
0.686491 0.010769 0.671570
0.692041 0.011483 0.671187
0.697210 0.015277 0.673023
0.700690 0.017932 0.670672
0.711866 0.016385 0.668691
0.724527 0.020752 0.667494
0.732354 0.027019 0.662951
0.239461 0.228692 0.642226
0.164142 0.229450 0.602869
0.066629 0.289265 0.530114
0.017478 0.526121 0.543020
0.035771 0.511188 0.531129
0.157993 0.510471 0.706506
0.094957 0.487910 0.603920
0.153175 0.736617 0.207988
0.026847 0.523248 0.662993
0.151817 0.234767 0.595238
0.133239 0.488981 0.657638
0.241857 0.259621 0.660801
0.176624 0.197988 0.548775
0.098686 0.261554 0.542458
0.089823 0.495528 0.614169
0.085136 0.497673 0.613636
0.054367 0.517307 0.681435
0.108059 0.240259 0.532544
0.261530 0.235643 0.643801
0.108844 0.517380 0.706586
0.037216 0.530527 0.686897
0.183797 0.190614 0.552339
0.170280 0.285467 0.650643
0.095376 0.492543 0.632484
0.142786 0.489644 0.644131
0.155373 0.494481 0.664872
0.137383 0.506087 0.704991
0.080079 0.296108 0.579331
0.133391 0.236709 0.580994
0.181083 0.225147 0.606963
0.063737 0.282342 0.504020
0.100890 0.264369 0.566276
0.188470 0.190849 0.556570
0.209812 0.240092 0.632984
0.117546 0.475249 0.627180
0.020536 0.533063 0.666027
0.158468 0.197446 0.404276
0.165769 0.194412 0.408797
0.168839 0.193934 0.414758
0.170136 0.193967 0.418265
0.174465 0.184877 0.426835
0.183253 0.184422 0.424364
0.187498 0.181388 0.430887
0.190635 0.174055 0.430386
0.199434 0.175489 0.435155
0.203385 0.169896 0.437126
0.208474 0.169365 0.440067
0.211819 0.167114 0.444463
0.216432 0.161521 0.447262
0.225526 0.160753 0.448533
0.225321 0.161747 0.452746
0.234793 0.161929 0.454255
0.237890 0.161348 0.463000
0.047004 0.521566 0.681909
0.085441 0.516358 0.697221
0.157962 0.735749 0.207026
0.190421 0.011044 0.579862
0.192949 0.007690 0.582139
0.203523 0.008701 0.584243
0.212681 0.005521 0.584999
0.214639 0.009759 0.584780
0.221711 0.011008 0.585173
0.225222 0.006523 0.587775
0.229408 0.005875 0.589793
0.240006 0.010914 0.589737
0.247111 0.007500 0.595837
0.255541 0.014449 0.592238
0.258193 0.007136 0.594745
0.266263 0.006547 0.598253
0.273856 0.006733 0.597136
0.280701 0.008934 0.599675
0.284489 0.009089 0.599581
0.291469 0.009163 0.599837
0.298047 0.008480 0.601428
0.305535 0.012455 0.603481
0.314559 0.010649 0.606163
0.320869 0.008351 0.606046
0.324014 0.013019 0.607572
0.331797 0.007830 0.612569
0.336716 0.010858 0.611058
0.348028 0.009752 0.613367
0.352076 0.007021 0.611992
0.358369 0.009709 0.618658
0.367527 0.008941 0.613430
0.370044 0.007002 0.620270
0.375829 0.008871 0.616996
0.381067 0.011759 0.622203
0.398846 0.025950 0.609613
0.404505 0.036742 0.607342
0.419856 0.033791 0.602105
0.423092 0.038062 0.603603
0.430726 0.035279 0.609917
0.437910 0.036456 0.608955
0.440337 0.035866 0.613010
0.448171 0.037617 0.611870
0.455832 0.037910 0.608031
0.464447 0.042566 0.613736
0.468330 0.034213 0.614320
0.474024 0.041343 0.611616
0.484033 0.037963 0.618762
0.487654 0.038182 0.621163
0.491881 0.039262 0.620120
0.504645 0.038637 0.619091
0.508722 0.039535 0.622344
0.513067 0.040520 0.625354
0.524685 0.036421 0.625266
0.530261 0.038866 0.623655
0.536456 0.043828 0.627235
0.542806 0.043188 0.627482
0.546375 0.038328 0.628236
0.556469 0.038755 0.627263
0.560353 0.041489 0.629511
0.573817 0.041138 0.629691
0.577240 0.042880 0.633743
0.585189 0.040363 0.631956
0.573453 0.009554 0.661167
0.580816 0.013722 0.659648
0.587358 0.008887 0.660313
0.596008 0.010141 0.661055
0.598326 0.011874 0.662337
0.605144 0.009724 0.669523
0.611997 0.007764 0.670744
0.619817 0.011687 0.668479
0.623753 0.007624 0.667609
0.630994 0.012227 0.672117
0.635093 0.009772 0.672254
0.646259 0.010122 0.672537
0.652122 0.010682 0.676325
0.659499 0.009857 0.681435
0.661231 0.012950 0.676220
0.671391 0.013135 0.674725
0.680969 0.015523 0.678262
0.687211 0.016568 0.678918
0.695408 0.019682 0.679694
0.701669 0.020558 0.680699
0.710387 0.024552 0.676019
0.721883 0.027353 0.675623
0.262677 0.252182 0.652589
0.133994 0.742527 0.206969
0.227109 0.238132 0.637808
0.098301 0.496200 0.679415
0.067335 0.294178 0.520417
0.050189 0.506623 0.660940
0.105321 0.294946 0.605880
0.187440 0.226503 0.614870
0.096103 0.295896 0.593226
0.147228 0.742477 0.203931
0.110287 0.260803 0.575562
0.126369 0.466257 0.632006
0.033971 0.528911 0.586168
0.135048 0.482804 0.641468
0.022978 0.517138 0.507418
0.105244 0.274940 0.591043
0.118272 0.526953 0.719126
0.125950 0.522795 0.717562
0.164740 0.735969 0.191317
0.193776 0.193467 0.556715
0.240397 0.253549 0.658183
0.205674 0.227814 0.624220
0.085390 0.510043 0.693621
0.034389 0.523789 0.592300
0.104299 0.486662 0.629980
0.146908 0.487155 0.642764
0.201413 0.273898 0.658834
0.082906 0.529384 0.698570
0.135829 0.240930 0.580474
0.258782 0.204652 0.613767
0.116822 0.517085 0.715227
0.150875 0.520057 0.722735
0.048423 0.500773 0.526847
0.043653 0.515408 0.551088
0.041483 0.519132 0.675244
0.200599 0.263114 0.655172
0.150534 0.204957 0.409396
0.155883 0.199725 0.415081
0.158382 0.192993 0.422623
0.161618 0.191221 0.423763
0.168917 0.185682 0.430205
0.172925 0.185937 0.432221
0.175612 0.175856 0.440635
0.184080 0.175648 0.443230
0.184829 0.174880 0.444631
0.194968 0.171329 0.449198
0.197134 0.168821 0.448733
0.202677 0.170251 0.452532
0.209143 0.166404 0.453243
0.214928 0.168414 0.459670
0.219893 0.168596 0.460445
0.224370 0.161888 0.463274
0.231920 0.157402 0.465464
0.236956 0.160381 0.467221
0.240563 0.155079 0.472518
0.246319 0.156369 0.478058
0.117728 0.264029 0.598428
0.183616 0.009663 0.588913
0.188711 0.008909 0.593262
0.197670 0.010036 0.593348
0.204845 0.003810 0.596027
0.208046 0.007185 0.596443
0.217779 0.008798 0.596615
0.221412 0.008649 0.598583
0.230598 0.007407 0.601695
0.235581 0.006591 0.603830
0.241909 0.011540 0.603186
0.247710 0.008857 0.605854
0.258062 0.010019 0.606022
0.262883 0.012884 0.607668
0.266819 0.011691 0.609837
0.274353 0.010831 0.611163
0.282145 0.012018 0.608941
0.287403 0.011524 0.611546
0.295322 0.012967 0.614793
0.302458 0.010752 0.612198
0.306733 0.010159 0.618329
0.317342 0.008547 0.615642
0.319774 0.012278 0.620271
0.324197 0.006229 0.620892
0.336309 0.011353 0.618953
