ply
format ascii 1.0
element vertex 1773
property float x
property float y
property float z
end_header
0.126699 0.999828 0.099578
0.127733 0.999544 0.113346
0.127803 1.000210 0.127210
0.126499 0.999825 0.140624
0.127761 1.000237 0.155471
0.128083 1.000875 0.170651
0.126664 1.000795 0.183938
0.127112 1.000886 0.198015
0.128021 0.999728 0.212107
0.126781 0.999711 0.225809
0.127321 0.999918 0.240871
0.127120 0.999599 0.254067
0.127236 0.999841 0.269546
0.127325 0.999085 0.282845
0.126905 1.000097 0.296986
0.127320 1.000721 0.311535
0.127902 1.000145 0.324893
0.127353 0.999099 0.339022
0.127339 0.999281 0.352589
0.126392 1.000298 0.367826
0.126891 1.000153 0.381500
0.127827 1.000792 0.395924
0.127521 1.000120 0.409831
0.127694 1.000482 0.424338
0.127622 0.999740 0.438118
0.127169 1.000624 0.453005
0.126672 1.000391 0.468204
0.126718 0.999586 0.480397
0.127378 0.999244 0.495756
0.127427 1.000137 0.508665
0.127032 1.000586 0.523821
0.127536 0.999328 0.538284
0.127303 1.000330 0.551798
0.127569 1.000053 0.565443
0.126510 1.000286 0.580165
0.126534 0.999470 0.593365
0.127340 1.000168 0.607059
0.127758 0.999689 0.622211
0.127746 1.000312 0.636661
0.127378 1.000154 0.650220
0.127539 1.000520 0.665058
0.127215 0.999157 0.678248
0.126344 1.000315 0.693044
0.126803 0.999997 0.707887
0.127227 0.999871 0.720545
0.128008 0.999441 0.735360
0.128142 1.000100 0.749646
0.128376 1.000138 0.763928
0.127427 0.999663 0.778709
0.128133 1.000136 0.792016
0.126930 0.999242 0.806542
0.126269 0.999988 0.820729
0.128515 1.000258 0.835418
0.126844 1.000030 0.848593
0.126562 1.000578 0.861966
0.127388 0.998654 0.877030
0.127265 0.999368 0.891128
0.127173 0.998671 0.905053
0.127427 0.999065 0.919153
0.127458 1.000409 0.934057
0.127757 0.999306 0.946879
0.127189 1.000128 0.961386
0.127078 0.999804 0.975910
0.127299 0.999679 0.990025
0.141860 1.000082 0.001279
0.141339 0.999992 0.013662
0.141526 0.999335 0.027592
0.142650 1.000012 0.042377
0.141442 1.000749 0.056349
0.140712 0.999557 0.071065
0.141609 1.000517 0.084745
0.142639 0.999951 0.098928
0.140676 0.999609 0.112885
0.141406 1.000179 0.126623
0.141528 1.000396 0.141415
0.141856 0.999847 0.156703
0.141305 0.999087 0.169469
0.141420 1.000191 0.183352
0.141773 1.000033 0.199036
0.142016 1.000707 0.211956
0.141137 1.000387 0.225220
0.141982 1.000112 0.240428
0.141474 1.000378 0.254408
0.141346 0.999989 0.268092
0.141308 0.999870 0.282090
0.141476 1.000457 0.296511
0.141581 0.999805 0.310862
0.140604 0.999784 0.325615
0.141116 1.000646 0.339969
0.141521 1.000169 0.353167
0.141227 1.001017 0.367967
0.140912 1.000123 0.381615
0.141479 0.999243 0.395755
0.141744 0.999472 0.410018
0.141425 1.000237 0.423741
0.141884 1.000820 0.439140
0.141818 1.000643 0.452640
0.141294 0.999733 0.466325
0.141189 1.000204 0.481767
0.141798 0.999963 0.494841
0.141797 0.999712 0.508015
0.141430 1.000564 0.523570
0.141211 0.999238 0.537267
0.141330 0.999884 0.552058
0.141818 0.999870 0.566090
0.141179 1.000044 0.579782
0.142062 1.000073 0.594105
0.140677 0.999139 0.607368
0.141929 1.000023 0.621962
0.141194 1.000583 0.634839
0.142143 0.999947 0.650120
0.141786 0.999737 0.664027
0.141085 0.999751 0.678020
0.141529 0.999642 0.692501
0.141481 1.000314 0.706870
0.140811 0.999273 0.721470
0.141044 1.000962 0.736198
0.141520 1.000821 0.749813
0.140961 0.999977 0.763923
0.141492 0.999619 0.777987
0.141765 0.998681 0.791638
0.141362 1.000404 0.805730
0.141020 1.001486 0.819758
0.141533 0.999761 0.833921
0.140908 1.000153 0.848631
0.141986 0.998885 0.861822
0.140538 1.000428 0.877131
0.140672 0.999294 0.891245
0.140983 1.000853 0.904980
0.142044 1.000391 0.920637
0.141217 0.999812 0.933027
0.141419 1.000194 0.947897
0.141475 0.999509 0.961820
0.141468 1.000056 0.976367
0.141629 1.000089 0.990154
0.155053 1.000782 -0.000082
0.155587 0.999514 0.014498
0.154778 1.000243 0.028215
0.155584 0.999876 0.042572
0.155834 0.999358 0.056306
0.155720 0.999836 0.070650
0.155856 0.999452 0.085040
0.155717 0.999460 0.098998
0.155827 1.000748 0.113668
0.155186 1.000327 0.127351
0.155618 1.000392 0.141324
0.155348 0.999928 0.155585
0.155777 0.999074 0.169709
0.156049 0.999152 0.183194
0.155181 1.000161 0.197831
0.154786 0.999811 0.211710
0.155634 0.999740 0.225654
0.156007 1.000440 0.240242
0.155253 1.000024 0.255206
0.155284 0.999175 0.269274
0.154993 1.000259 0.282194
0.155878 1.000676 0.296935
0.155327 1.000440 0.311545
0.155636 1.000042 0.325885
0.155355 1.000270 0.339237
0.155146 1.000078 0.353526
0.155048 0.999891 0.367525
0.155849 1.000303 0.382096
0.155473 1.000082 0.396215
0.156680 1.001013 0.409638
0.155833 0.999611 0.424825
0.156101 1.000253 0.436994
0.156039 0.999383 0.451402
0.155195 0.999236 0.466391
0.155856 0.999452 0.480178
0.155870 1.000609 0.494226
0.155859 1.000284 0.509463
0.155237 1.000183 0.523471
0.155264 0.998570 0.536916
0.154583 0.999893 0.552235
0.155460 1.000017 0.565349
0.155070 0.999732 0.579915
0.155729 1.000085 0.593882
0.155901 1.000363 0.608319
0.156588 0.999778 0.621413
0.155722 0.999889 0.636481
0.155504 0.999701 0.650169
0.155544 1.000030 0.665018
0.155649 0.999664 0.678568
0.155883 1.000083 0.691723
0.155238 1.000287 0.707309
0.155531 1.000441 0.720759
0.156531 0.999616 0.735914
0.155764 1.000193 0.750433
0.154988 0.999330 0.763063
0.155489 1.000028 0.777479
0.155285 0.999810 0.791297
0.156008 0.999807 0.805456
0.155256 0.999614 0.820005
0.155361 0.999851 0.834054
0.155068 1.000486 0.849522
0.155902 0.999849 0.863318
0.155573 1.000544 0.877311
0.155890 0.999786 0.891506
0.155525 1.000670 0.905134
0.155824 1.001004 0.918496
0.155651 1.000153 0.933327
0.155822 0.999711 0.947322
0.155088 0.999876 0.961887
0.155752 0.999559 0.975812
0.156294 0.999721 0.990886
0.169534 0.999532 -0.000274
0.170056 1.000121 0.014071
0.170235 1.000083 0.028623
0.169787 1.000185 0.042962
0.169426 1.000087 0.057456
0.170045 1.000658 0.071308
0.170280 0.998706 0.085003
0.169951 0.999689 0.099266
0.170224 1.000947 0.113481
0.169678 0.999940 0.126435
0.169777 0.999637 0.140726
0.169820 1.000307 0.155129
0.170760 1.001067 0.168871
0.169928 0.999914 0.183973
0.168807 0.999644 0.198543
0.170680 1.000249 0.212076
0.169597 1.000493 0.227100
0.170132 1.000349 0.240538
0.169324 1.000579 0.253887
0.169436 0.999807 0.268866
0.169749 1.000315 0.283034
0.169144 1.000214 0.296895
0.169306 0.999535 0.310002
0.170379 0.999445 0.325515
0.169319 1.000544 0.338645
0.170042 0.999800 0.353726
0.170104 1.000747 0.367567
0.169197 1.000252 0.381960
0.169297 1.000458 0.394946
0.169977 0.999958 0.410192
0.169076 0.999629 0.423555
0.169660 1.001136 0.438298
0.169681 1.000256 0.453148
0.169448 1.000026 0.465823
0.170158 0.999806 0.481450
0.170257 0.999881 0.495201
0.169017 0.999920 0.509823
0.169593 0.999581 0.523675
0.169728 0.999454 0.537512
0.170313 1.000324 0.551881
0.168795 1.000503 0.566052
0.170017 0.999037 0.579536
0.169591 1.000894 0.594228
0.170337 1.000117 0.608630
0.170593 1.000046 0.622099
0.168830 1.001064 0.636241
0.169822 0.999895 0.650135
0.170352 0.999883 0.664762
0.169665 1.000231 0.679140
0.169209 1.000037 0.693289
0.169537 0.999792 0.707419
0.169451 1.000072 0.721415
0.169807 0.999633 0.734790
0.169114 0.999834 0.749875
0.170769 0.999964 0.764025
0.170396 0.999641 0.778615
0.170312 0.999681 0.792082
0.169942 0.999789 0.806341
0.169477 0.999694 0.820880
0.169673 0.999991 0.834573
0.169538 1.000167 0.848774
0.170018 0.999356 0.862850
0.169358 0.999028 0.877612
0.169933 1.000308 0.891463
0.168975 0.999849 0.905389
0.170122 0.999990 0.918770
0.170100 0.999835 0.933920
0.169575 0.999370 0.947358
0.169056 1.000512 0.961679
0.170458 0.999978 0.976341
0.170232 1.000094 0.989865
0.184516 0.999693 0.000455
0.184620 1.000329 0.013988
0.183229 1.000237 0.027992
0.184090 0.999670 0.042447
0.183942 1.000388 0.056474
0.184213 0.999472 0.071148
0.184258 0.999676 0.085434
0.183510 1.000008 0.098523
0.184079 0.999159 0.112693
0.183797 0.999164 0.127140
0.183861 0.999767 0.142363
0.183217 1.000015 0.156008
0.185147 0.999590 0.169388
0.183854 1.000548 0.183661
0.184016 1.000074 0.197738
0.183270 0.999316 0.212895
0.183577 0.998730 0.226957
0.183412 1.000012 0.240073
0.185098 1.000288 0.254723
0.183385 0.999519 0.268154
0.183449 1.001225 0.282974
0.183433 0.999713 0.296320
0.183681 0.999661 0.310474
0.183994 1.000788 0.325715
0.183983 1.000221 0.339371
0.183955 0.999802 0.353530
0.183850 0.999567 0.366964
0.184022 1.000388 0.381634
0.183448 0.999828 0.396135
0.184136 1.000130 0.409822
0.184129 1.000042 0.424465
0.183232 0.999980 0.438248
0.183668 1.000275 0.452380
0.184324 1.000172 0.467354
0.184116 1.000021 0.481287
0.184153 1.000663 0.495464
0.184863 0.999782 0.509064
0.183584 0.999698 0.522899
0.184399 1.000059 0.537361
0.183745 1.000227 0.551675
0.183848 0.999779 0.565666
0.183495 0.999697 0.578974
0.183992 0.999408 0.594132
0.183974 0.999599 0.608499
0.183953 1.000223 0.623104
0.183683 0.999810 0.636709
0.183829 0.999548 0.650772
0.183790 0.999707 0.664664
0.184521 0.999858 0.678532
0.183700 0.999975 0.692119
0.183509 0.999869 0.707871
0.184418 0.999894 0.721333
0.183468 1.000663 0.735620
0.183515 1.000270 0.750065
0.182717 1.000916 0.763663
0.183130 1.001049 0.777952
0.184189 1.000996 0.792112
0.184910 0.999493 0.805468
0.184306 1.000144 0.820651
0.183558 0.999999 0.835085
0.184137 1.000577 0.848313
0.183493 1.000283 0.862963
0.183748 1.000607 0.876692
0.183868 1.000391 0.890487
0.183175 0.999879 0.905134
0.182948 0.999690 0.919094
0.183832 0.999957 0.933157
0.182961 1.000078 0.947655
0.184451 0.999229 0.961341
0.183885 1.000082 0.975983
0.184011 0.999629 0.990014
0.197339 1.000435 -0.000003
0.197960 1.000284 0.014127
0.197933 1.000319 0.028379
0.197202 0.999635 0.043313
0.197750 0.999879 0.056916
0.198734 0.999455 0.070711
0.198372 0.999760 0.085469
0.198713 0.999264 0.098783
0.197141 0.999831 0.113302
0.196927 0.998829 0.127282
0.198109 0.999905 0.140679
0.197714 0.999797 0.155723
0.197458 1.000550 0.169855
0.197510 1.000149 0.183139
0.197817 1.000244 0.198621
0.197613 1.000315 0.213023
0.197912 1.000176 0.226729
0.198470 1.000924 0.240674
0.197255 0.999948 0.254937
0.197691 0.999855 0.268983
0.197881 0.998716 0.281755
0.198235 1.000515 0.297369
0.196910 0.999610 0.310550
0.197414 1.000458 0.326135
0.198448 1.001007 0.339777
0.198845 1.000286 0.353991
0.197732 0.999750 0.367835
0.197675 1.000349 0.381534
0.198326 1.000406 0.396044
0.196853 0.999834 0.410331
0.198217 1.000750 0.423915
0.197804 0.999772 0.437697
0.197444 0.999886 0.453045
0.198437 0.999404 0.466955
0.198118 1.000898 0.480644
0.198933 1.000058 0.494788
0.197741 1.000001 0.509392
0.197972 1.000104 0.523693
0.198332 1.000267 0.536809
0.198264 0.999553 0.552225
0.197816 0.999902 0.565249
0.198415 0.999395 0.580032
0.198861 1.000394 0.594272
0.198799 1.000395 0.608116
0.198066 1.000067 0.622486
0.198065 0.999587 0.635843
0.198410 1.000542 0.650533
0.197808 1.000198 0.665451
0.198890 1.000173 0.679106
0.198166 0.999150 0.693148
0.197938 0.999238 0.707175
0.198927 1.000453 0.721384
0.197995 1.001270 0.735307
0.197577 1.000480 0.749045
0.198549 1.000672 0.763537
0.197556 1.000325 0.778501
0.198212 1.000276 0.792558
0.197941 0.999647 0.807003
0.198015 0.999971 0.820041
0.198402 0.999919 0.835254
0.199066 1.000136 0.848682
0.198950 1.000520 0.863192
0.198536 0.999954 0.876762
0.197508 0.999983 0.891373
0.198393 1.000709 0.904984
0.198373 0.999533 0.918906
0.198963 0.999171 0.933355
0.198163 1.000525 0.945597
0.197556 0.999799 0.961617
0.198882 1.000301 0.975571
0.198402 0.999898 0.989903
0.211778 0.999987 -0.000760
0.211895 0.999844 0.014553
0.211985 1.000913 0.027747
0.212714 0.999740 0.042060
0.211744 0.999813 0.056352
0.212804 1.000887 0.070613
0.211622 0.999881 0.084077
0.212211 1.000268 0.099302
0.212009 1.000719 0.113308
0.212316 1.000694 0.125871
0.211925 0.999563 0.141995
0.211938 0.999820 0.155256
0.212559 1.000447 0.169819
0.211526 1.000113 0.183440
0.211787 1.000542 0.198346
0.212342 0.999204 0.212026
0.212417 1.000519 0.226431
0.212300 1.000015 0.240273
0.212352 0.999586 0.254529
0.212785 0.999941 0.268839
0.212786 0.999732 0.282681
0.212243 1.000695 0.297062
0.212594 0.999548 0.311437
0.211960 1.000001 0.325567
0.211864 0.999122 0.339450
0.212317 0.999118 0.353213
0.212206 0.999501 0.367520
0.211677 0.999801 0.382270
0.212178 1.000053 0.396288
0.212382 0.999537 0.411006
0.211801 1.000864 0.424223
0.211578 0.999242 0.438739
0.212456 1.000761 0.453035
0.211693 0.999770 0.465752
0.212171 0.999704 0.480448
0.211505 1.000591 0.495671
0.212341 0.999462 0.509858
0.212179 1.000181 0.523344
0.212068 1.000350 0.537511
0.212678 1.000420 0.551819
0.211415 0.999473 0.565383
0.212645 0.999398 0.579195
0.212024 0.999325 0.594356
0.212994 0.999727 0.608005
0.212009 1.000280 0.622344
0.212400 0.999463 0.637164
0.211816 1.000981 0.650229
0.211406 0.999407 0.663858
0.212102 0.999773 0.678761
0.211830 0.999695 0.693820
0.211561 1.000934 0.707462
0.212618 1.000350 0.721326
0.213601 0.999948 0.735191
0.211664 1.000265 0.749188
0.212924 1.000117 0.763175
0.212108 1.000434 0.777462
0.212282 0.999595 0.791795
0.213581 1.000672 0.806884
0.211029 1.000425 0.821435
0.211590 0.999571 0.834145
0.212188 0.999331 0.848400
0.211920 1.001000 0.862476
0.212219 1.000743 0.875796
0.211615 0.998654 0.890296
0.212538 0.999872 0.905339
0.212195 0.999439 0.918988
0.212034 0.999865 0.933164
0.212862 1.000652 0.946889
0.212032 0.999745 0.961948
0.212143 1.000491 0.975492
0.212675 0.999441 0.990408
0.226737 0.999799 0.000135
0.226650 1.000214 0.014015
0.226544 0.999962 0.027781
0.225847 1.000406 0.042331
0.225961 0.999920 0.056451
0.225846 0.999397 0.071478
0.226571 0.999781 0.084812
0.226576 1.000496 0.099053
0.225618 1.000574 0.113467
0.226006 0.999889 0.127598
0.226957 1.000076 0.141779
0.225735 1.000997 0.156007
0.226819 0.999687 0.170550
0.226497 0.999439 0.183397
0.225879 0.999935 0.198338
0.225561 1.000871 0.212897
0.226320 1.000119 0.226326
0.225995 0.999885 0.240190
0.226934 0.999129 0.255334
0.226225 0.999457 0.268707
0.226734 1.000248 0.282884
0.226467 1.000139 0.296228
0.227062 1.000469 0.311231
0.226221 0.999651 0.325188
0.226378 0.999700 0.339556
0.226269 1.000269 0.353666
0.226389 1.000671 0.367994
0.225668 0.999433 0.382205
0.226525 1.000820 0.395691
0.226575 0.999547 0.410008
0.225779 1.000157 0.423584
0.226430 1.000791 0.438882
0.226532 0.999914 0.452092
0.225628 1.000268 0.466653
0.227344 0.998762 0.480649
0.225792 0.999980 0.495867
0.226266 1.000026 0.508567
0.227018 1.000065 0.522521
0.226046 0.999950 0.538372
0.226159 1.000351 0.551077
0.226189 0.999186 0.565212
0.226216 0.999248 0.580043
0.226168 1.000368 0.594212
0.226739 0.998907 0.607318
0.226502 0.999867 0.622118
0.226100 1.000008 0.635938
0.225714 1.000027 0.650542
0.225966 1.000021 0.663944
0.225534 0.999870 0.678972
0.226422 1.000030 0.693155
0.226052 0.999166 0.707396
0.226458 0.999907 0.721448
0.226243 1.000297 0.735086
0.225761 1.000730 0.749328
0.226472 1.000272 0.763464
0.225891 0.999654 0.777640
0.226583 1.000845 0.792299
0.225945 0.999603 0.806221
0.225949 0.999955 0.820550
0.226184 0.999937 0.833883
0.226224 1.000042 0.848850
0.226417 1.000591 0.863285
0.226699 0.999907 0.877773
0.225821 0.999631 0.891480
0.227115 0.999720 0.905487
0.226438 0.999460 0.920184
0.225662 1.000664 0.933132
0.225837 1.000455 0.947131
0.226353 1.000648 0.961535
0.226152 1.000733 0.975047
0.226009 1.000157 0.989311
0.240839 1.000563 -0.000018
0.240260 0.999106 0.014055
0.240653 0.998605 0.029489
0.240402 0.999310 0.042827
0.240285 1.000010 0.056981
0.240386 1.001584 0.070868
0.240424 1.000185 0.084210
0.241540 1.000660 0.099131
0.240259 0.999779 0.113375
0.241079 0.999829 0.126946
0.240119 1.000220 0.141671
0.241699 0.999381 0.156284
0.239970 1.001173 0.169716
0.241328 1.000297 0.183426
0.241195 0.999726 0.198028
0.241136 1.000778 0.212083
0.240399 0.999619 0.225966
0.240735 0.999834 0.240808
0.240929 0.999421 0.254341
0.241183 0.999652 0.268509
0.240291 1.000652 0.283612
0.240145 0.999749 0.296449
0.240973 0.999866 0.311377
0.240449 1.000103 0.325334
0.240249 1.000084 0.340181
0.240328 1.000389 0.353836
0.240101 1.000299 0.367987
0.240828 1.000254 0.381938
0.240142 0.999951 0.396196
0.240787 0.999188 0.410201
0.240132 0.999652 0.424081
0.239931 0.999413 0.438892
0.239997 1.000743 0.451653
0.240076 0.999393 0.467371
0.239568 0.999708 0.480889
0.240324 1.000790 0.494662
0.239672 0.999289 0.509919
0.240327 1.000729 0.523241
0.240891 1.000100 0.537978
0.240041 0.999920 0.551698
0.241494 1.000666 0.565369
0.240185 0.999620 0.579356
0.240447 0.999303 0.593835
0.240463 0.999820 0.607369
0.239827 1.000167 0.621901
0.240440 0.998962 0.636647
0.239927 1.000883 0.651221
0.240642 1.000296 0.664195
0.240654 0.999957 0.678881
0.240982 1.000279 0.692498
0.240987 0.999620 0.707446
0.240891 1.000437 0.720983
0.240097 1.000904 0.735399
0.240208 1.000641 0.750616
0.240936 0.999999 0.763909
0.240627 0.999822 0.778454
0.240589 1.001112 0.791757
0.240083 0.999611 0.806187
0.240971 0.999956 0.820201
0.240951 0.999886 0.834316
0.239425 1.000620 0.849137
0.240570 1.000149 0.862529
0.240301 1.000392 0.876586
0.239580 0.999882 0.890337
0.240280 1.000477 0.905516
0.240264 1.000640 0.919032
0.241128 0.999818 0.933323
0.240762 0.999631 0.946634
0.239811 0.999647 0.961529
0.240160 1.000347 0.975503
0.240316 0.999546 0.990436
0.254233 0.999675 -0.000123
0.256168 0.999393 0.013579
0.255278 0.999589 0.028743
0.254789 0.999855 0.042148
0.254706 0.999468 0.057152
0.255218 1.000657 0.070866
0.255080 0.999364 0.084500
0.253402 1.000262 0.099039
0.254174 1.000400 0.113345
0.255448 0.999230 0.127677
0.255262 0.999988 0.142717
0.254870 0.999478 0.154277
0.254075 1.000108 0.169243
0.254517 1.000709 0.183663
0.253337 0.999784 0.198728
0.254659 1.000092 0.212319
0.254366 0.999985 0.226032
0.254593 0.999679 0.240691
0.255361 0.999791 0.254692
0.253842 0.999785 0.268786
0.254589 1.000317 0.282911
0.254726 1.000187 0.297271
0.254050 1.000593 0.311135
0.254736 0.999636 0.324182
0.254572 0.999691 0.339054
0.254985 1.000662 0.354069
0.254604 0.999919 0.367781
0.254290 1.000627 0.381633
0.254718 0.999338 0.395531
0.254333 1.000749 0.410739
0.254438 0.999691 0.423726
0.255491 0.999699 0.437966
0.254244 0.998802 0.452185
0.254446 1.000093 0.466909
0.254246 1.000069 0.481090
0.253774 0.999750 0.494478
0.254870 0.999809 0.508846
0.254818 1.000278 0.523601
0.253320 1.000242 0.537169
0.253698 1.000283 0.551663
0.254489 1.000415 0.565627
0.254784 1.000012 0.580378
0.254647 1.000284 0.594730
0.254333 1.000621 0.608085
0.255245 0.999758 0.623082
0.254855 0.999416 0.636248
0.253852 1.000216 0.651312
0.255091 0.999864 0.665037
0.254809 1.000062 0.679463
0.254710 0.999912 0.693165
0.254414 1.001005 0.707841
0.253673 0.999227 0.720990
0.254576 0.999666 0.735454
0.254953 0.999994 0.749607
0.254997 1.000479 0.763817
0.254862 1.000064 0.777437
0.254375 0.999860 0.791229
0.254068 1.000365 0.805669
0.254234 1.000713 0.820070
0.254003 1.000254 0.834447
0.254366 0.999062 0.848485
0.254566 1.000254 0.862997
0.254323 1.000681 0.877773
0.254171 0.999795 0.890263
0.253931 0.999474 0.904824
0.254281 1.000490 0.918943
0.254622 1.000622 0.934260
0.255408 1.000623 0.947861
0.254303 1.000254 0.961402
0.254678 0.999711 0.976534
0.253553 1.000878 0.989944
0.268740 1.000465 0.000363
0.267321 0.999813 0.013804
0.269421 1.000070 0.028461
0.269141 1.000283 0.042384
0.269040 0.999310 0.057331
0.268828 1.000088 0.070945
0.267396 1.000570 0.084839
0.268587 0.999768 0.099468
0.268598 0.999467 0.112909
0.268634 1.000372 0.127773
0.268940 1.000121 0.140895
0.269536 1.000016 0.156211
0.267903 0.998996 0.169384
0.268405 1.000190 0.184253
0.268383 0.999909 0.198113
0.268978 1.000404 0.211566
0.268317 1.000232 0.225471
0.267468 1.000929 0.240837
0.268784 0.999768 0.255090
0.268369 1.000242 0.268108
0.268289 1.000155 0.282570
0.268964 0.999841 0.297810
0.269089 1.000235 0.311430
0.269005 0.999596 0.325199
0.269071 0.999862 0.338975
0.269254 0.999491 0.353302
0.268998 0.999742 0.367408
0.268681 1.000587 0.381505
0.269425 0.999562 0.396572
0.268612 1.000398 0.410302
0.268891 1.000091 0.425115
0.268887 0.999651 0.438530
0.268260 1.000719 0.452014
0.269392 0.999112 0.467031
0.269306 1.000214 0.480729
0.268169 0.999967 0.494538
0.269244 1.000041 0.508839
0.268845 0.999816 0.523505
0.268738 1.000157 0.537399
0.268326 1.000630 0.551701
0.268161 1.000143 0.565005
0.268450 1.000199 0.580655
0.268740 1.000093 0.593848
0.268246 0.999683 0.607908
0.268003 1.000418 0.622320
0.268200 1.000384 0.636580
0.268280 0.999931 0.650744
0.268782 0.998854 0.664956
0.268096 0.999933 0.679841
0.268204 1.000351 0.692872
0.268280 0.999206 0.706876
0.268912 1.000008 0.721344
0.268950 1.000311 0.735382
0.268230 1.000703 0.749463
0.269512 0.999495 0.763267
0.269171 0.999236 0.778146
0.268979 1.000275 0.791915
0.267367 0.999039 0.806902
0.268716 0.998927 0.820604
0.267943 0.999861 0.834612
0.267671 0.999422 0.848489
0.268627 0.999998 0.863168
0.268515 0.998785 0.877239
0.268972 0.999595 0.891591
0.269785 1.000548 0.904732
0.269089 1.000323 0.919848
0.268837 1.000178 0.933058
0.268680 1.000090 0.946843
0.268325 1.000880 0.961071
0.269097 1.000218 0.976281
0.269187 0.999716 0.990348
0.282746 0.999332 0.000064
0.283029 0.999644 0.013749
0.282632 1.000606 0.028787
0.283030 0.999833 0.043014
0.283417 1.000250 0.056698
0.281968 0.998980 0.070612
0.283901 1.000655 0.084826
0.282864 1.000576 0.098521
0.282304 1.000172 0.112178
0.282666 1.000225 0.128011
0.282800 0.999396 0.141900
0.282950 0.999463 0.154553
0.282400 0.999739 0.169279
0.282250 1.000355 0.184424
0.283178 1.000218 0.197792
0.282959 1.000323 0.212021
0.282367 1.000268 0.226087
0.284018 0.999834 0.240427
0.282584 0.999294 0.254848
0.282138 1.000026 0.268768
0.282103 1.000667 0.282603
0.282500 1.000223 0.296952
0.282151 0.998998 0.311905
0.283695 0.999274 0.324981
0.282791 1.000067 0.340071
0.283442 1.000352 0.353815
0.283030 0.999921 0.366576
0.282102 0.999304 0.382345
0.283419 1.000634 0.395864
0.283193 1.000170 0.410187
0.283060 1.000295 0.423542
0.284092 1.000038 0.439132
0.282428 1.000149 0.452693
0.282444 0.999384 0.466440
0.283264 1.000234 0.480617
0.283318 0.999955 0.495140
0.283223 0.999450 0.509183
0.282769 0.999832 0.522508
0.282549 1.000198 0.536816
0.283026 1.000089 0.551447
0.282480 1.000383 0.566269
0.282329 0.999556 0.579570
0.283076 1.000399 0.594739
0.282537 0.999882 0.607186
0.282419 0.999881 0.622011
0.282845 1.000110 0.634914
0.283671 1.000269 0.650407
0.281794 0.999572 0.664886
0.283296 1.000101 0.679584
0.282442 0.999559 0.692325
0.282767 1.000284 0.706554
0.283266 0.998786 0.720297
0.282228 0.999911 0.735079
0.283524 1.000304 0.749028
0.283470 1.000243 0.763652
0.282215 0.999823 0.777871
0.282851 0.999143 0.792306
0.283196 1.000057 0.806541
0.283117 1.000824 0.820699
0.282679 0.999940 0.834328
0.283171 1.000616 0.848563
0.282631 0.999696 0.863208
0.282137 0.999249 0.876933
0.282166 1.000202 0.890609
0.282591 1.000854 0.904363
0.283633 0.999417 0.919752
0.282701 1.000436 0.933625
0.282809 0.999797 0.947548
0.282778 1.000261 0.961601
0.282749 1.000870 0.975576
0.282625 0.999398 0.989902
0.297152 1.001064 0.000454
0.296612 1.000518 0.012896
0.296994 0.999648 0.028365
0.297063 0.999830 0.042831
0.297541 0.998465 0.056910
0.297131 0.999876 0.069964
0.296465 0.999852 0.085328
0.296947 1.000276 0.098519
0.297798 1.000999 0.112638
0.297025 0.999389 0.126960
0.296799 1.000456 0.142209
0.297216 1.000816 0.155428
0.297512 1.000212 0.169216
0.297077 1.000678 0.184747
0.296743 0.999504 0.196780
0.296667 1.000001 0.211511
0.296856 1.000013 0.226932
0.298129 1.000224 0.240938
0.297828 1.000411 0.254323
0.295953 1.001090 0.267831
0.296941 0.999938 0.283298
0.297107 1.000321 0.296392
0.296473 1.000151 0.311228
0.296898 1.000024 0.324856
0.297111 1.000562 0.339621
0.296952 0.999955 0.354288
0.296771 1.000653 0.367759
0.296706 0.999674 0.381273
0.296390 0.999660 0.395529
0.296545 1.000644 0.409530
0.297439 1.000442 0.423994
0.297350 0.999848 0.439178
0.296297 0.999426 0.453257
0.296665 1.000420 0.466248
0.297279 1.000191 0.481002
0.295793 1.000199 0.495016
0.296992 1.000074 0.508687
0.296840 1.000254 0.524027
0.296624 0.999758 0.538481
0.296173 1.000881 0.551837
0.296813 0.999160 0.565836
0.296357 0.999765 0.579859
0.297065 0.999754 0.594256
0.296673 0.999136 0.608066
0.296253 1.000159 0.622150
0.296432 0.999753 0.636257
0.296724 1.000024 0.650576
0.297389 1.000334 0.663951
0.297132 0.999503 0.679298
0.295861 0.999951 0.692523
0.297204 0.999738 0.706743
0.297842 0.999807 0.721152
0.297081 1.000483 0.735006
0.296783 0.999665 0.749202
0.296719 0.999926 0.763647
0.297142 1.000306 0.777441
0.297157 0.999444 0.791872
0.297432 1.000526 0.805403
0.296451 1.000246 0.821428
0.297446 1.000831 0.834405
0.296479 1.000268 0.848552
0.297462 0.999822 0.862836
0.297273 1.000533 0.877347
0.297015 0.998923 0.890035
0.297292 0.999182 0.904786
0.296470 1.000765 0.918541
0.297147 0.999856 0.933066
0.296580 1.000174 0.947083
0.297361 0.999418 0.961317
0.297767 1.000233 0.975743
0.297088 1.000394 0.990355
0.310691 0.999268 0.000162
0.311078 1.000302 0.013692
0.311074 1.000301 0.027819
0.310746 1.000771 0.041770
0.310900 0.999309 0.056404
0.310680 0.999122 0.070235
0.310468 0.999721 0.084465
0.310350 0.999045 0.099451
0.311909 0.999091 0.113018
0.311677 1.000569 0.127502
0.310990 1.000680 0.141138
0.311120 0.999931 0.155392
0.311170 1.000453 0.170467
0.311525 0.999824 0.183244
0.310675 0.999756 0.197442
0.310176 1.000414 0.212465
0.310417 0.999787 0.225845
0.311239 0.999661 0.241028
0.310595 1.000752 0.253517
0.311396 0.999422 0.268247
0.311701 1.000351 0.283350
0.311607 1.000477 0.297023
0.311027 0.999328 0.312164
0.311665 0.999096 0.324930
0.310903 0.999914 0.339974
0.311278 1.000169 0.353141
0.310455 1.000375 0.368087
0.311199 0.999786 0.381795
0.310166 0.999427 0.395464
0.312060 0.998891 0.410416
0.312083 0.999705 0.424605
0.311064 0.998945 0.438857
0.311522 1.000745 0.453416
0.310837 0.999558 0.466725
0.311368 1.000040 0.480330
0.311203 0.999294 0.494707
0.311297 1.000212 0.509629
0.311509 1.000388 0.522897
0.311288 1.000229 0.536228
0.310467 1.000169 0.551849
0.312151 0.999905 0.566169
0.311074 0.999827 0.579656
0.311090 1.000027 0.593104
0.311688 1.000149 0.608563
0.311383 1.000355 0.622462
0.310781 1.000716 0.636208
0.310673 0.999876 0.650703
0.310921 1.000626 0.664108
0.311759 1.000095 0.677959
0.311376 0.999022 0.692830
0.311125 1.000165 0.707309
0.311185 1.000079 0.720867
0.310398 1.001384 0.735645
0.311755 0.999949 0.748617
0.310744 1.000562 0.764475
0.311606 0.999842 0.778285
0.311606 0.999790 0.792499
0.310421 0.999657 0.804759
0.310479 0.999467 0.820596
0.310545 1.000023 0.834882
0.311776 0.999845 0.848071
0.311304 0.999516 0.862431
0.311193 1.000754 0.876908
0.311570 0.999407 0.890424
0.310768 0.999683 0.905532
0.311564 0.999552 0.918644
0.310175 1.000568 0.933306
0.311307 1.000385 0.946478
0.311248 1.000027 0.962034
0.310759 0.999307 0.975777
0.311769 0.999626 0.989422
0.325658 1.000904 0.000267
0.325746 0.999023 0.013591
0.324528 0.999481 0.028363
0.325306 0.999761 0.041576
0.325240 0.999790 0.056675
0.325540 0.999618 0.071253
0.325114 0.999957 0.085137
0.326105 0.999753 0.099117
0.325083 0.999670 0.114106
0.325075 1.000129 0.126883
0.325732 0.999630 0.141553
0.325504 1.000795 0.155967
0.325927 1.000684 0.170510
0.324854 1.000268 0.184518
0.325260 1.000064 0.198086
0.324849 0.999553 0.212411
0.325233 0.999639 0.227242
0.325147 1.000332 0.240352
0.325732 1.000077 0.253861
0.324817 0.999761 0.268857
0.325618 0.999065 0.282317
0.324651 1.000290 0.297138
0.325284 1.000066 0.311351
0.326118 1.000052 0.324398
0.324941 1.000415 0.339646
0.324349 1.000914 0.353533
0.324348 0.999450 0.368454
0.324501 1.000367 0.381937
0.325383 1.000523 0.396259
0.325538 1.000000 0.409477
0.324996 0.999763 0.424166
0.325401 1.000140 0.438455
0.324833 1.000061 0.452932
0.325593 0.999506 0.466892
0.325220 0.999805 0.481133
0.325152 1.000206 0.495259
0.324479 1.000076 0.509145
0.325580 1.000136 0.523749
0.325458 0.999927 0.538001
0.324641 0.999853 0.550759
0.325951 1.000591 0.565987
0.325932 0.999694 0.578795
0.324830 0.999406 0.593907
0.325240 1.000080 0.608639
0.324900 1.000188 0.622231
0.325472 0.999564 0.636448
0.324506 1.000443 0.649873
0.325546 1.000230 0.664307
0.325227 1.000115 0.679706
0.325714 0.999793 0.692913
0.325573 1.000431 0.707046
0.324600 1.000072 0.721287
0.325799 1.000743 0.735061
0.324340 0.999914 0.750419
0.324476 1.000456 0.763489
0.325335 0.999728 0.778210
0.325571 1.000003 0.791335
0.325687 0.999745 0.805832
0.325757 1.000621 0.820825
0.324586 0.999897 0.833738
0.325392 1.000453 0.848162
0.325021 0.999618 0.861427
0.325144 0.999234 0.876703
0.324954 0.999798 0.891075
0.326284 1.000485 0.904973
0.325236 1.000615 0.919283
0.325269 1.001096 0.934033
0.324892 0.999559 0.948123
0.325221 0.999918 0.960997
0.326513 0.999515 0.975380
0.324256 0.999637 0.989221
0.339700 0.999813 -0.000474
0.338726 1.000764 0.013216
0.339430 0.998948 0.029110
0.339065 1.000268 0.041914
0.339287 1.000094 0.057254
0.340232 0.999622 0.071597
0.338483 1.000030 0.085105
0.340108 0.999290 0.098497
0.339181 0.999506 0.113496
0.339414 1.000142 0.127350
0.338896 1.001242 0.142043
0.339187 0.999860 0.155776
0.339814 0.999460 0.169636
0.339853 1.000278 0.184296
0.339011 1.000680 0.198115
0.339682 1.000035 0.212061
0.338751 1.000325 0.226485
0.339399 1.000203 0.240255
0.338194 0.999519 0.254216
0.339208 0.999537 0.268971
0.339750 1.000739 0.282174
0.339806 0.999671 0.296908
0.339592 1.000429 0.311093
0.339523 1.000952 0.325420
0.340206 0.999807 0.339642
0.339410 0.999605 0.353164
0.339119 1.000823 0.367605
0.340147 0.999229 0.382597
0.339627 0.999473 0.396497
0.338837 1.000360 0.410013
0.338817 1.000634 0.424400
0.339453 1.000338 0.439440
0.338730 1.000683 0.451874
0.339378 1.000099 0.465693
0.339922 0.999945 0.481028
0.339598 0.999199 0.495030
0.340121 0.999974 0.509445
0.340226 1.000274 0.523500
0.338852 0.999688 0.537432
0.339396 0.999357 0.550477
0.339684 1.000381 0.564983
0.338899 0.999468 0.580295
0.339093 1.000799 0.593435
0.338781 1.000560 0.606913
0.338279 0.999766 0.623048
0.339907 0.999822 0.636826
0.339514 1.000654 0.650428
0.339247 1.000313 0.664959
0.338742 1.000915 0.679217
0.338701 1.000852 0.693190
0.338609 1.000499 0.707307
0.339524 0.999872 0.720651
0.338986 1.000034 0.735837
0.338968 1.000458 0.749163
0.340303 1.000225 0.763956
0.339400 0.999722 0.777112
0.339061 0.998788 0.791844
0.339624 0.999544 0.806116
0.338874 0.999306 0.819882
0.340099 0.999766 0.834147
0.337942 1.000202 0.848597
0.339573 0.999963 0.862440
0.340403 1.000124 0.877101
0.339568 0.999735 0.891009
0.339780 1.000872 0.904841
0.338434 1.000953 0.919377
0.339663 0.999719 0.933969
0.339090 0.999676 0.946963
0.339556 0.999670 0.961751
0.338197 0.999593 0.975805
0.339193 1.000052 0.989805
0.353267 1.000296 0.000411
0.353114 0.999543 0.014257
0.353624 0.999447 0.028772
0.354574 0.999440 0.042611
0.353681 0.999959 0.056194
0.353293 1.000147 0.070586
0.353234 0.999781 0.085080
0.353101 1.000106 0.098714
0.353717 0.999473 0.113378
0.353438 0.999437 0.127776
0.353627 1.000143 0.142173
0.352788 1.000345 0.155277
0.353900 0.999063 0.169789
0.352771 1.000237 0.184002
0.353484 1.000469 0.197794
0.353240 1.000713 0.211346
0.354375 0.999660 0.225630
0.352658 0.999475 0.240020
0.354003 0.998941 0.254092
0.353652 0.999786 0.267513
0.353134 0.999171 0.282799
0.353778 0.999734 0.296837
0.354277 1.000458 0.311455
0.353923 0.999525 0.324719
0.353570 0.999687 0.340214
0.353243 0.999210 0.353468
0.353124 0.999882 0.367437
0.354065 1.000460 0.382288
0.354181 1.000480 0.395815
0.353054 1.000564 0.410384
0.352323 0.999134 0.424643
0.353566 1.000261 0.437988
0.353880 0.999996 0.452847
0.353736 0.999864 0.466846
0.354424 0.999485 0.480504
0.353368 0.999302 0.495157
0.353387 0.999228 0.508965
0.354132 1.000626 0.523502
0.354755 1.001132 0.537354
0.353909 1.000206 0.551189
0.354049 0.999890 0.564993
0.353466 1.000228 0.579801
0.353115 1.000066 0.593310
0.352542 1.000319 0.608426
0.353691 1.000254 0.622363
0.353520 0.999806 0.635550
0.353385 1.000184 0.650432
0.352763 1.000178 0.664842
0.354045 1.000180 0.679297
0.353114 1.000000 0.692533
0.353042 1.000370 0.706662
0.354231 1.000229 0.721160
0.353525 0.999917 0.734352
0.353175 1.000521 0.750040
0.353002 0.999390 0.763633
0.353416 0.999721 0.778371
0.353693 0.999227 0.792465
0.353637 0.999641 0.806191
0.354009 1.000326 0.820386
0.353420 1.000206 0.835047
0.353268 0.999270 0.848938
0.353142 0.999248 0.863343
0.354168 0.999923 0.876215
0.353182 1.000706 0.891082
0.353022 0.999594 0.905520
0.352812 0.999811 0.919460
0.353835 0.999758 0.932578
0.353133 0.999803 0.947587
0.353356 1.000238 0.961873
0.352775 1.000858 0.977013
0.353863 0.999673 0.990889
0.366470 0.999967 -0.000623
0.367863 1.000802 0.013563
0.367722 0.999937 0.027711
0.368593 1.000310 0.041183
0.366973 1.000931 0.056623
0.367260 1.000355 0.070822
0.366912 0.999901 0.084571
0.367279 0.999117 0.099947
0.367085 1.000304 0.112928
0.368672 0.999148 0.127168
0.368272 0.999877 0.141739
0.367451 0.999870 0.155000
0.367974 1.000030 0.169595
0.368514 1.000974 0.183130
0.368417 1.000549 0.199054
0.367897 1.000537 0.211858
0.367349 1.000805 0.226035
0.367577 1.000645 0.240097
0.367727 1.000435 0.254891
0.367672 1.000109 0.268773
0.367291 0.999004 0.282771
0.367575 0.999773 0.297559
0.367622 0.999987 0.312067
0.367623 0.999240 0.324961
0.368500 0.999898 0.338522
0.367625 1.000384 0.353257
0.367808 0.999531 0.367935
0.367876 1.001332 0.382616
0.366941 1.000507 0.396007
0.368223 1.000417 0.410984
0.366590 0.999730 0.424439
0.367919 1.000290 0.437915
0.366607 0.999591 0.452597
0.367361 0.999794 0.466691
0.367170 1.000170 0.480460
0.368064 1.000124 0.494755
0.367950 0.999402 0.509035
0.367036 0.999899 0.523236
0.368219 0.999912 0.537222
0.367790 0.999634 0.550945
0.367906 0.999464 0.565204
0.366786 1.000069 0.580288
0.367246 1.001033 0.594077
0.367169 0.999098 0.608452
0.368341 1.000100 0.622487
0.367404 0.999847 0.635744
0.368126 0.999265 0.650572
0.366984 0.999958 0.663850
0.368031 0.999903 0.678197
0.367314 0.999473 0.692403
0.368116 1.000101 0.705652
0.367709 1.000050 0.721524
0.367228 1.000499 0.735369
0.368396 1.000885 0.748893
0.368522 0.999696 0.763992
0.366949 1.000012 0.777909
0.368266 1.000377 0.792527
0.368030 1.000140 0.805375
0.367121 0.999764 0.819918
0.368257 0.999803 0.835007
0.367094 1.000191 0.848273
0.367800 0.999644 0.863419
0.368144 1.000430 0.877856
0.367916 0.999771 0.891128
0.368625 1.000323 0.905589
0.367594 0.999516 0.919667
0.367256 0.999363 0.934491
0.367205 1.000198 0.946594
0.367309 0.999965 0.962172
0.367399 0.999524 0.975580
0.368090 1.000527 0.990659
0.381720 1.000326 0.000370
0.382413 0.999175 0.014233
0.381303 1.000826 0.027668
0.381663 1.000034 0.042426
0.382294 1.000007 0.057053
0.381441 1.000110 0.070246
0.381158 0.999873 0.084004
0.381583 0.999108 0.098182
0.381011 1.000156 0.113091
0.382428 1.000744 0.126750
0.381973 1.000213 0.141184
0.381102 1.001040 0.155701
0.381231 0.999937 0.169756
0.382030 0.999500 0.185032
0.381588 0.999858 0.198327
0.381601 0.999933 0.211615
0.381356 0.999528 0.226945
0.380876 0.999968 0.240730
0.381930 1.000103 0.254988
0.380958 1.000048 0.268312
0.382495 0.999991 0.283242
0.381085 1.000692 0.297649
0.381782 0.999610 0.310479
0.381971 0.999321 0.325486
0.381032 0.999860 0.339848
0.381483 0.999873 0.353667
0.381222 1.000731 0.368045
0.381619 1.000406 0.381652
0.381870 0.999994 0.395891
0.381598 0.999975 0.410125
0.381102 0.999838 0.424382
0.382249 0.999247 0.438686
0.382459 0.999797 0.452394
0.381537 0.999383 0.467242
0.382344 0.999599 0.481219
0.382588 0.999520 0.495074
0.381787 0.999709 0.509114
0.381193 1.000680 0.521879
0.382428 1.000177 0.537924
0.381908 1.000471 0.551252
0.382020 1.000017 0.565102
0.382113 1.000348 0.579823
0.382285 0.999632 0.594916
0.382268 0.999578 0.608594
0.381668 0.999641 0.622077
0.381548 1.000636 0.636444
0.381842 1.000680 0.651036
0.381080 1.000283 0.664079
0.381812 1.000215 0.678429
0.380737 0.999354 0.693766
0.381427 0.999456 0.707544
0.381554 1.000180 0.721608
0.382545 0.999476 0.735117
0.381617 1.000345 0.749208
0.382101 0.999932 0.763069
0.381734 1.000696 0.777201
0.382200 1.000701 0.791806
0.381338 0.998955 0.806300
0.382301 0.999135 0.819471
0.381615 1.001275 0.835155
0.381902 1.000046 0.848160
0.382276 0.999117 0.863221
0.381529 0.999836 0.877302
0.382000 1.000421 0.891077
0.382235 1.000961 0.905753
0.382206 1.000364 0.920301
0.381515 1.000279 0.934013
0.381683 0.999735 0.947853
0.381795 0.999682 0.960627
0.382043 0.999828 0.975717
0.381474 0.999417 0.990055
0.396500 0.999602 0.000702
0.396158 1.000092 0.014459
0.395530 1.000312 0.028097
0.395703 1.000752 0.042274
0.395387 1.000357 0.056767
0.396377 0.999093 0.071028
0.395740 0.999603 0.084638
0.396471 1.000236 0.099089
0.395186 1.001175 0.113531
0.396061 1.000041 0.126722
0.395191 0.999897 0.141098
0.396598 0.999934 0.154791
0.395387 0.999712 0.170030
0.396187 0.999769 0.183978
0.395645 1.000234 0.197910
0.395775 0.999707 0.212414
0.394428 1.000312 0.226662
0.396734 0.999536 0.240372
0.396110 0.999551 0.254001
0.395411 0.999913 0.267723
0.396714 0.999805 0.282667
0.395674 1.000920 0.297267
0.395751 0.999277 0.311135
0.395744 0.999498 0.325794
0.395924 1.000087 0.339266
0.395253 0.999865 0.354509
0.396592 1.000640 0.368130
0.396000 1.000424 0.380234
0.394999 0.999705 0.396158
0.394888 0.999256 0.410983
0.395729 0.998984 0.423966
0.396001 1.000394 0.439266
0.396926 1.000296 0.452773
0.396728 1.000221 0.466586
0.395515 1.000767 0.482777
0.396118 0.999794 0.494882
0.396416 0.999420 0.508248
0.395175 1.000063 0.523129
0.395828 0.999920 0.537558
0.395952 0.999921 0.552674
0.395689 1.000051 0.565864
0.395603 0.999347 0.579907
0.394572 0.999777 0.594554
0.395525 0.999238 0.607189
0.396749 0.999633 0.622513
0.396167 1.000328 0.635871
0.396052 0.999958 0.650590
0.395544 0.998671 0.665169
0.395289 0.999314 0.679548
0.396371 1.000132 0.692991
0.395977 0.999607 0.708008
0.395790 1.000232 0.720743
0.395501 0.999541 0.736246
0.396178 0.999472 0.749949
0.395190 1.000353 0.764125
0.396047 0.999831 0.777603
0.395017 0.999938 0.792143
0.395654 1.000468 0.805791
0.396019 1.000146 0.819776
0.396507 0.999996 0.833498
0.396555 1.000329 0.848372
0.395830 1.000352 0.863216
0.397268 0.999622 0.876703
0.395916 1.000342 0.890823
0.395471 1.000124 0.905213
0.395360 1.000355 0.920323
0.396748 1.000268 0.933396
0.396414 0.999017 0.947784
0.396772 1.000542 0.961548
0.395702 0.999948 0.975574
0.395287 0.999930 0.990518
0.409719 0.999661 -0.000040
0.409916 0.999552 0.013436
0.410334 0.999518 0.027965
0.409913 1.000683 0.042107
0.410309 0.999365 0.057059
0.410120 1.000187 0.071169
0.409770 0.999555 0.084418
0.410014 0.999479 0.098152
0.410577 1.001002 0.114183
0.409836 1.000181 0.126591
0.410553 1.000862 0.140558
0.410047 0.999741 0.155066
0.409417 0.999739 0.170147
0.410141 1.000305 0.183901
0.410460 1.000365 0.198663
0.409867 1.000200 0.212019
0.410276 0.999997 0.225775
0.408871 0.999928 0.240145
0.410599 0.999351 0.253894
0.410672 1.000275 0.268432
0.410493 0.999828 0.282555
0.410398 1.000955 0.297416
0.410794 0.999986 0.311429
0.409034 0.999542 0.325854
0.409332 1.000107 0.339136
0.410372 0.999805 0.353302
0.409773 0.999890 0.368177
0.410267 0.999267 0.381750
0.410181 0.999976 0.396249
0.410362 1.000365 0.409619
0.410468 1.000024 0.424185
0.410049 0.999587 0.438433
0.410631 0.999770 0.452207
0.409960 1.000964 0.466612
0.410380 1.000078 0.481012
0.409934 1.000724 0.495439
0.410165 1.000385 0.509180
0.409398 0.999604 0.523457
0.410519 0.999129 0.537282
0.409267 0.999953 0.551700
0.409981 1.000057 0.565026
0.411149 1.000309 0.579928
0.409348 1.000842 0.593814
0.411289 0.999775 0.608047
0.410397 1.000349 0.622103
0.409266 0.999659 0.637256
0.410683 1.000035 0.650487
0.410546 1.000073 0.665317
0.410969 1.000829 0.678562
0.409736 1.000801 0.692707
0.409750 1.000660 0.706173
0.410768 1.000445 0.719991
0.410349 1.000837 0.735457
0.410275 1.000778 0.749744
0.410155 0.999282 0.764837
0.410158 1.000342 0.777710
0.410893 1.000056 0.792859
0.410462 1.000579 0.805815
0.410773 0.998890 0.820782
0.410061 0.999358 0.834323
0.409749 0.999792 0.848713
0.409740 1.000133 0.863097
0.410099 1.000011 0.876378
0.410371 1.000070 0.890924
0.410572 1.000234 0.904963
0.410104 0.999647 0.919735
0.409925 0.999528 0.933474
0.410087 0.999883 0.947300
0.410366 1.000328 0.961354
0.410064 1.000327 0.975567
0.410282 0.999905 0.990046
0.424290 1.000238 -0.000463
0.423842 0.999811 0.014231
0.424386 1.000195 0.028502
0.424371 0.999821 0.041644
0.424184 1.000214 0.056151
0.423621 1.000508 0.071255
0.423858 0.999882 0.085433
0.424737 1.000003 0.099246
0.424689 1.000353 0.112350
0.423689 1.000404 0.127397
0.424314 1.000012 0.141678
0.424253 0.999703 0.155436
0.424349 0.999565 0.169960
0.424981 1.000288 0.183692
0.424442 1.000053 0.197706
0.424697 1.000574 0.212788
0.423771 1.000056 0.226027
0.424416 0.999941 0.240517
0.424039 1.000772 0.254632
0.424525 1.000554 0.267839
0.423968 1.000878 0.282888
0.424683 0.999824 0.296744
0.424127 1.000413 0.310756
0.424184 0.999944 0.325506
0.425134 0.999364 0.339804
0.425273 0.999755 0.352987
0.423566 1.000820 0.368236
0.425065 1.000618 0.382403
0.425336 1.000068 0.396644
0.424177 1.000637 0.410802
0.423732 0.999896 0.423832
0.423889 1.000036 0.437485
0.424469 1.001673 0.451777
0.424721 1.000303 0.466391
0.424102 0.999338 0.480693
0.423611 0.999500 0.494742
0.424709 1.000208 0.508610
0.424660 0.999912 0.522789
0.424965 1.000256 0.537696
0.424179 0.998787 0.551977
0.424435 1.000181 0.566835
0.423893 1.000018 0.580279
0.424963 0.999388 0.594070
0.424084 1.000032 0.608539
0.424181 0.999798 0.622021
0.424431 0.999123 0.636293
0.424580 0.999783 0.650935
0.424889 1.000176 0.664409
0.424754 1.000292 0.678524
0.424933 0.999843 0.693121
0.424772 0.999581 0.707157
0.424076 1.000584 0.721514
0.423232 0.999628 0.735309
0.424536 0.999969 0.750370
0.424570 0.999058 0.764088
0.423619 0.999848 0.777352
0.423561 1.000082 0.791306
0.424083 1.000420 0.805402
0.424460 1.000859 0.821073
0.424226 0.999562 0.835150
0.424456 1.000930 0.847919
0.424417 0.999936 0.863276
0.423949 0.999127 0.876924
0.423754 1.000137 0.891200
0.424581 0.999653 0.905707
0.424218 1.000646 0.919273
0.424952 1.001225 0.932957
0.424359 1.000406 0.948003
0.423973 1.000014 0.961664
0.424635 0.999904 0.976119
0.423620 0.999239 0.990879
0.438072 1.000249 -0.000025
0.437935 0.999712 0.013988
0.438397 1.000252 0.028202
0.437934 1.000081 0.044123
0.438300 1.000050 0.056199
0.437835 0.999575 0.070764
0.438356 1.000573 0.085128
0.438621 1.000105 0.098844
0.437398 0.999776 0.113070
0.438531 0.999497 0.127684
0.438151 1.000424 0.141081
0.437054 1.000066 0.155189
0.438903 0.999154 0.169250
0.438759 1.000674 0.184866
0.437896 1.000762 0.198899
0.437753 0.999318 0.212328
0.437919 0.999916 0.226566
0.439145 0.999759 0.240736
0.438672 1.000223 0.253896
0.437406 0.999561 0.267752
0.438280 0.999748 0.283993
0.438664 0.999936 0.297306
0.438732 0.999354 0.311561
0.437726 0.999644 0.324628
0.438467 0.999914 0.339327
0.438309 0.999963 0.354725
0.438554 0.999536 0.367646
0.438847 1.000331 0.381435
0.438439 0.999660 0.395830
0.438692 1.000177 0.411292
0.438505 1.000093 0.424564
0.438503 1.000636 0.439057
0.438449 0.999901 0.451564
0.438141 0.999598 0.466419
0.439179 1.000387 0.481048
0.438028 1.000113 0.495816
0.438423 1.000070 0.508575
0.438892 0.999750 0.523231
0.438569 1.000001 0.537994
0.438159 0.999317 0.551856
0.437862 1.000624 0.566004
0.439077 1.000589 0.580584
0.438545 0.999990 0.593782
0.438725 1.000091 0.607915
0.438342 1.000173 0.621830
0.438121 1.000204 0.636537
0.438763 0.998926 0.650930
0.438939 1.000571 0.664655
0.438700 0.999838 0.679519
0.437686 0.999944 0.692876
0.438354 1.000309 0.706900
0.438525 1.000417 0.721242
0.438980 0.999440 0.735256
0.438316 1.000152 0.749669
0.438145 1.000449 0.763142
0.439182 0.999532 0.778097
0.438611 0.999656 0.792399
0.438663 1.000721 0.805284
0.438126 0.999550 0.820109
0.438943 1.000202 0.835256
0.439007 0.999997 0.848816
0.438904 1.000369 0.862646
0.438819 0.999814 0.876650
0.438601 0.999989 0.890500
0.438334 0.999660 0.904406
0.438011 1.000115 0.919083
0.438471 1.000688 0.933410
0.437791 1.000389 0.947618
0.438376 0.999928 0.961444
0.437935 1.000480 0.975235
0.438283 0.999328 0.990405
0.452310 0.999573 0.000322
0.453225 0.999621 0.013581
0.451871 1.000882 0.027996
0.452175 0.999995 0.043226
0.452698 0.999768 0.056489
0.453751 0.998795 0.071366
0.451837 0.999833 0.086396
0.452440 1.000771 0.097862
0.453124 1.000915 0.113034
0.452408 1.000212 0.126813
0.452297 0.999278 0.141603
0.452530 0.999881 0.155625
0.453487 0.999832 0.170006
0.452821 1.000054 0.184533
0.451942 1.000062 0.197552
0.452269 1.000300 0.212083
0.453007 1.000427 0.226187
0.452874 0.999823 0.240621
0.452395 0.999740 0.254168
0.452475 0.999907 0.268880
0.451474 1.000302 0.282704
0.452893 0.999850 0.297625
0.452790 0.999487 0.311405
0.452878 0.999860 0.325710
0.452008 1.000481 0.339692
0.451969 1.000905 0.353722
0.452372 1.000414 0.368228
0.452365 1.000743 0.382640
0.452596 0.999869 0.396735
0.452989 0.999437 0.409209
0.452790 0.999767 0.424311
0.452351 1.001243 0.438524
0.453099 1.000487 0.452684
0.452995 0.999617 0.466721
0.452222 0.999944 0.480516
0.452094 1.000459 0.494890
0.451528 1.000046 0.509301
0.453475 0.999686 0.523511
0.451882 1.000205 0.537444
0.452952 0.999342 0.551677
0.451828 1.000114 0.564807
0.453007 1.000077 0.579469
0.453064 1.000416 0.593955
0.452655 1.000068 0.608498
0.452890 0.999873 0.622796
0.452327 0.999703 0.635497
0.452699 0.999836 0.650827
0.451952 0.999702 0.664617
0.452209 1.000226 0.678851
0.452034 1.000195 0.692878
0.451767 0.999971 0.707181
0.451995 1.000431 0.721658
0.452403 1.000304 0.735857
0.453197 0.999588 0.750058
0.452286 0.999712 0.763696
0.452732 0.999288 0.777937
0.453270 0.999775 0.792539
0.452690 1.000297 0.805517
0.453411 1.000211 0.819735
0.452858 1.000519 0.834225
0.452107 1.000612 0.848655
0.452134 1.000777 0.862466
0.452795 0.999768 0.876688
0.452361 1.000383 0.891630
0.452049 0.999179 0.905314
0.452482 0.999431 0.918911
0.452829 0.999043 0.934694
0.451819 1.001025 0.947544
0.453284 0.999505 0.962650
0.451770 0.999770 0.975454
0.452845 0.999842 0.989867
0.467405 0.999434 0.000453
0.466529 1.000294 0.015237
0.466824 1.000480 0.028296
0.467152 0.999339 0.042355
0.466033 0.999868 0.057160
0.467276 1.000734 0.070210
0.467025 0.999189 0.084984
0.465719 0.999835 0.098518
0.466874 1.000337 0.112875
0.466960 0.999249 0.127124
0.466265 1.000016 0.141111
0.467001 1.000379 0.155430
0.466178 1.000462 0.170416
0.466832 0.999664 0.184349
0.466700 1.000244 0.197618
0.466472 0.999226 0.211693
0.466667 0.998836 0.226374
0.467044 0.999891 0.240281
0.466273 1.000348 0.254870
0.466588 0.999871 0.268596
0.466663 1.000075 0.282716
0.466976 0.999053 0.297078
0.466532 1.000285 0.311432
0.466088 0.999380 0.325498
0.466455 0.999989 0.338756
0.466408 0.999407 0.353555
0.466996 1.000540 0.367424
0.466990 0.999702 0.381530
0.466741 1.000320 0.396385
0.467106 0.999564 0.409496
0.467242 1.001225 0.423826
0.466875 1.000302 0.438293
0.465973 0.999138 0.452896
0.466503 1.000198 0.466716
0.466777 1.000064 0.480585
0.466780 0.999837 0.495032
0.467022 0.999729 0.509036
0.467382 0.998186 0.522816
0.466108 0.999271 0.537841
0.466380 1.000767 0.551323
0.466575 1.000405 0.565388
0.466795 0.999348 0.579541
0.466323 1.000256 0.593458
0.467028 1.000457 0.607796
0.467114 1.000183 0.622442
0.467119 1.000333 0.637290
0.466293 0.999653 0.650263
0.467603 1.000172 0.665022
0.467095 0.999572 0.679081
0.467981 0.999747 0.691896
0.466637 0.999674 0.706953
0.466769 1.000309 0.719957
0.466475 1.000472 0.735195
0.466250 0.999661 0.748538
0.466597 1.000792 0.764681
0.465525 1.000401 0.778111
0.467200 0.999662 0.792418
0.467583 1.000603 0.806753
0.466413 0.999442 0.820399
0.466684 1.000510 0.835134
0.466834 1.000158 0.849524
0.466580 0.999614 0.863476
0.466487 0.999827 0.877203
0.467148 1.000361 0.890939
0.467718 1.000435 0.904890
0.466091 1.000000 0.919251
0.466612 0.999779 0.933368
0.466417 1.000329 0.946705
0.467267 1.000652 0.961624
0.467514 1.000627 0.976074
0.466401 0.999268 0.990090
0.480502 1.000429 -0.000474
0.480853 1.000155 0.014203
0.480346 0.998895 0.028697
0.479626 1.001104 0.041890
0.480657 1.000289 0.056464
