ply
format ascii 1.0
element vertex 1773
property float x
property float y
property float z
end_header
0.552357 1.006213 0.002257
0.555500 0.999773 0.005698
0.551738 0.987775 0.036950
0.561798 1.000933 0.038669
0.551408 0.987931 0.054599
0.546224 0.994580 0.071527
0.536754 0.970057 0.090303
0.552395 0.996477 0.095272
0.543401 0.992705 0.114088
0.542992 0.986430 0.121949
0.560587 0.991716 0.133303
0.569839 1.008189 0.146895
0.554362 1.002524 0.172134
0.562286 0.983180 0.187671
0.558675 1.011876 0.199574
0.566095 0.985734 0.214805
0.540922 0.998394 0.225586
0.565524 1.007509 0.233882
0.558599 1.023489 0.244928
0.542446 1.017082 0.269873
0.555380 0.990255 0.287747
0.544236 1.005053 0.306842
0.538598 0.999217 0.305532
0.549795 1.008134 0.334552
0.558405 0.999725 0.352271
0.564002 1.008137 0.350894
0.546481 0.999923 0.365791
0.553244 1.003676 0.387995
0.547058 1.004303 0.399593
0.543839 0.988116 0.423131
0.549913 0.987886 0.422512
0.570286 1.012583 0.426486
0.560253 0.999758 0.461985
0.558962 1.007137 0.469203
0.560563 1.002623 0.476657
0.549291 1.013621 0.504857
0.548136 1.006521 0.505145
0.569004 0.995982 0.521773
0.542873 1.005975 0.530817
0.546068 0.992184 0.549158
0.555335 1.017842 0.571108
0.553067 0.996048 0.580362
0.559870 1.001527 0.591890
0.562507 1.004110 0.607728
0.553444 1.009009 0.627642
0.539234 0.998634 0.630738
0.543342 0.997729 0.646619
0.547237 1.009092 0.655306
0.568370 1.007623 0.697953
0.555586 1.000572 0.687059
0.542559 1.005185 0.704770
0.541398 0.988868 0.726724
0.546384 1.009704 0.739319
0.547615 0.992665 0.750120
0.538921 0.999479 0.767876
0.549293 1.004869 0.777165
0.556468 0.998238 0.782441
0.554832 0.995967 0.806130
0.541452 0.999551 0.816119
0.536042 0.997189 0.827326
0.549062 0.993709 0.854278
0.557081 0.997564 0.866596
0.544359 0.998346 0.880975
0.554297 0.989220 0.897349
0.554399 1.009438 0.914348
0.540768 1.005127 0.915107
0.550363 0.999288 0.939443
0.550395 1.002396 0.940463
0.553200 1.008300 0.960535
0.564437 0.998947 0.974081
0.551257 0.998223 0.998814
0.569167 0.990608 -0.004745
0.571951 1.015393 0.011652
0.570623 0.998672 0.022909
0.554588 0.999873 0.024881
0.578539 1.012060 0.045996
0.565178 1.002774 0.068911
0.541924 0.975940 0.102044
0.556408 1.005552 0.106490
0.557649 1.003224 0.122468
0.553611 0.995960 0.133365
0.562889 0.997885 0.147757
0.563526 0.987406 0.158765
0.560194 1.002355 0.171530
0.557735 1.007473 0.184101
0.572586 1.010944 0.200567
0.575698 1.005219 0.224292
0.557380 1.003500 0.222400
0.568079 0.992333 0.240157
0.562251 0.999892 0.266689
0.565215 0.994255 0.277917
0.572145 0.989780 0.275386
0.572599 0.993447 0.295257
0.566444 0.997305 0.309024
0.561554 1.002745 0.323459
0.568709 0.995947 0.343730
0.584414 0.986639 0.360850
0.567237 0.988144 0.360566
0.562119 1.000682 0.378734
0.566078 0.994212 0.403115
0.562631 1.001237 0.409159
0.563653 1.004603 0.427134
0.584836 1.004579 0.442892
0.558453 1.001306 0.459489
0.571710 0.994858 0.457195
0.561569 0.988529 0.489916
0.571722 0.993361 0.466157
0.555684 1.001268 0.512693
0.566209 1.000228 0.521669
0.564186 0.991467 0.536780
0.562592 1.003649 0.551398
0.559542 1.010722 0.567402
0.555640 0.999587 0.579939
0.559060 0.991360 0.575799
0.575131 0.990454 0.620226
0.561303 0.997726 0.613908
0.565669 1.004403 0.630943
0.557270 0.998908 0.659824
0.551622 1.006105 0.659692
0.556419 0.989493 0.670679
0.566347 0.999456 0.697592
0.563430 1.011653 0.706568
0.570908 1.013224 0.732034
0.572951 0.997038 0.737883
0.555318 1.006824 0.752475
0.570715 1.007872 0.769221
0.574296 1.011436 0.774714
0.576095 1.019318 0.794608
0.553780 1.003810 0.805759
0.569939 0.995221 0.823321
0.564429 1.009422 0.837956
0.563954 1.000525 0.849337
0.566466 1.001956 0.867592
0.565656 0.996189 0.870415
0.557885 0.998433 0.891285
0.565764 0.988396 0.900186
0.575310 1.001412 0.929808
0.572364 1.007320 0.928663
0.558252 0.994162 0.946126
0.565725 0.996668 0.961148
0.563740 0.989821 0.978979
0.568126 0.991790 0.983339
0.575953 0.998758 -0.006697
0.593101 0.988486 0.008094
0.593819 0.994558 0.031385
0.576403 0.989968 0.042794
0.578331 0.988741 0.052179
0.566315 0.995741 0.060327
0.576087 0.992607 0.102434
0.571895 1.006585 0.089208
0.585619 0.997418 0.119562
0.584479 1.014701 0.126014
0.584514 1.000094 0.166642
0.578311 1.016089 0.152764
0.578116 1.014950 0.167994
0.578843 0.996794 0.186590
0.585074 0.983699 0.193523
0.591470 1.003917 0.199947
0.585382 1.017841 0.215724
0.576042 0.994424 0.253333
0.578105 1.006925 0.242717
0.595364 0.999461 0.273528
0.579901 1.006668 0.285010
0.561646 1.007427 0.311303
0.568374 0.991214 0.311694
0.578271 1.000630 0.317739
0.593221 1.005907 0.324675
0.580057 0.979482 0.354008
0.578956 0.990884 0.364533
0.585342 1.003416 0.380352
0.555476 1.000140 0.389545
0.593690 1.001234 0.408525
0.582532 1.013282 0.435440
0.578394 0.997308 0.434779
0.575433 1.009851 0.446659
0.576780 0.991547 0.452981
0.579259 1.010931 0.479087
0.588223 0.997675 0.489356
0.570253 0.989754 0.505609
0.584437 1.003503 0.529719
0.582176 1.006271 0.536907
0.567197 0.991107 0.544978
0.582780 1.002916 0.568382
0.591211 0.997855 0.578778
0.561695 0.996145 0.596240
0.578455 1.005228 0.634512
0.601823 1.008220 0.632161
0.579137 1.009750 0.630928
0.595466 1.001660 0.653192
0.581020 0.984337 0.655274
0.580747 0.989441 0.676850
0.590670 1.005393 0.687854
0.587662 1.002719 0.709892
0.587923 0.994438 0.724807
0.580456 1.002841 0.742293
0.573088 0.983823 0.754728
0.578186 0.988686 0.756782
0.582086 0.994233 0.784317
0.570266 0.999476 0.788338
0.580828 1.001497 0.808791
0.573276 0.991859 0.835085
0.576281 1.002323 0.854719
0.571014 0.989625 0.842397
0.568369 0.995259 0.858784
0.561716 0.997389 0.882231
0.589141 0.986483 0.885813
0.576821 0.989295 0.922088
0.582249 0.996887 0.913102
0.590160 1.001600 0.934847
0.589752 0.992637 0.952158
0.583303 1.001139 0.972463
0.570775 1.014998 0.986170
0.570373 0.997810 0.979596
0.603523 0.999448 0.019774
0.601486 0.983758 0.009891
0.592480 0.995573 0.029352
0.580361 1.002520 0.046540
0.604094 1.001393 0.054642
0.595420 0.994570 0.068576
0.584365 0.998530 0.084093
0.590887 0.997626 0.094009
0.606771 0.998394 0.117081
0.581674 0.991526 0.115467
0.586430 0.996275 0.133512
0.594278 1.009308 0.149201
0.596399 0.986254 0.173333
0.604310 0.988681 0.196691
0.601414 0.993737 0.199168
0.594958 0.994535 0.204894
0.594524 1.006351 0.235402
0.597687 1.010572 0.234446
0.604307 1.000071 0.257359
0.600422 0.992461 0.287794
0.571460 0.994541 0.293499
0.617311 0.999401 0.309139
0.605222 1.014877 0.301363
0.596194 0.986686 0.328770
0.587372 1.003798 0.348565
0.593483 1.005757 0.343428
0.591137 0.993771 0.360681
0.581276 0.991042 0.378987
0.589970 0.991183 0.387412
0.592164 1.017155 0.416016
0.595436 0.977528 0.428316
0.588783 0.996666 0.433069
0.612919 0.998580 0.449318
0.589712 1.000440 0.472255
0.603842 0.992505 0.503279
0.591092 1.002689 0.504216
0.593453 1.003281 0.515061
0.608803 0.997053 0.518669
0.594799 0.997793 0.549683
0.591955 1.008432 0.551901
0.608056 0.999847 0.570793
0.574563 1.005966 0.572703
0.592815 1.007363 0.601853
0.590583 0.999488 0.601846
0.587543 0.994813 0.619772
0.596013 0.975802 0.647069
0.600662 0.986359 0.662586
0.591998 0.986712 0.649790
0.596076 0.995466 0.687723
0.587695 1.011694 0.695937
0.597239 1.006459 0.706802
0.597195 0.999013 0.717106
0.587727 0.992941 0.729661
0.591065 0.998475 0.755186
0.585737 1.002486 0.764664
0.597988 0.999416 0.771809
0.606951 0.996143 0.795713
0.602133 0.996865 0.808134
0.585095 0.996104 0.819161
0.596092 1.006743 0.826072
0.598257 1.000123 0.842456
0.583924 0.986823 0.855631
0.602813 0.995492 0.874038
0.598451 1.001828 0.893002
0.606789 1.008111 0.914214
0.600721 0.995492 0.918966
0.600350 0.991022 0.923426
0.585445 1.006547 0.948351
0.589667 0.998929 0.960743
0.577797 0.993557 0.961971
0.584901 0.991310 0.975938
0.611885 1.006860 0.000604
0.609705 1.007754 0.008915
0.599881 1.006960 0.040722
0.619348 1.006956 0.042154
0.618902 0.996017 0.058642
0.602194 1.005314 0.072379
0.597026 0.996937 0.084454
0.620951 0.995449 0.091481
0.603113 1.000099 0.127552
0.613193 1.003551 0.135651
0.602066 1.003279 0.139648
0.612559 0.997034 0.170891
0.611933 1.000077 0.185873
0.620681 1.011168 0.187092
0.598841 0.996723 0.191929
0.595011 1.003914 0.209818
0.600272 1.001556 0.225315
0.603100 1.008773 0.240081
0.607668 0.994936 0.251574
0.619034 1.000484 0.252357
0.608343 0.992604 0.287189
0.605995 0.992502 0.279951
0.611677 0.997446 0.303726
0.602770 0.992158 0.304934
0.624947 0.994788 0.340524
0.603728 0.994440 0.355319
0.582346 1.007620 0.362513
0.602068 0.993522 0.386637
0.605766 1.003318 0.385193
0.604577 0.991861 0.408970
0.611786 1.002415 0.422409
0.602593 1.001978 0.444741
0.615324 1.005451 0.450466
0.604603 1.007161 0.462896
0.603196 1.002821 0.478610
0.600272 0.993898 0.489754
0.612233 1.010369 0.507731
0.616089 0.994129 0.520312
0.596890 0.999762 0.534535
0.605112 0.996972 0.553088
0.613653 0.986074 0.568469
0.603622 1.009549 0.581599
0.610440 1.002824 0.597741
0.611875 1.001728 0.604313
0.608385 0.994221 0.631198
0.597431 0.991745 0.625029
0.626863 0.995172 0.644206
0.613843 1.014737 0.666296
0.611573 0.999721 0.678647
0.613488 0.998464 0.685168
0.611185 1.005430 0.695032
0.622774 0.999150 0.713023
0.601463 0.993251 0.736019
0.606839 0.988368 0.754278
0.616832 1.001034 0.772373
0.604611 0.991112 0.787593
0.615462 1.001088 0.797933
0.602367 1.001210 0.802549
0.616640 0.993730 0.814665
0.605225 0.990988 0.842087
0.606683 0.986394 0.849031
0.616602 1.002007 0.850518
0.612174 1.005635 0.887814
0.589803 1.011559 0.894281
0.602508 0.998012 0.903644
0.596332 1.007162 0.923787
0.600660 1.002216 0.921427
0.610383 0.999932 0.960265
0.601808 1.003440 0.951510
0.612758 0.997552 0.971520
0.615369 0.998408 1.016160
0.617416 0.995174 -0.001528
0.616111 0.988551 0.015050
0.611486 1.006517 0.030213
0.621634 0.999846 0.040423
0.620012 0.985756 0.053635
0.622881 0.994567 0.067475
0.622868 0.989375 0.102459
0.632656 0.990433 0.093020
0.617826 1.005072 0.115055
0.616258 0.998096 0.137137
0.611779 0.992695 0.132104
0.614005 1.006189 0.143669
0.609953 1.006287 0.163537
0.620988 1.004125 0.188770
0.630977 0.997949 0.198040
0.635654 1.000148 0.193111
0.635377 1.012823 0.211218
0.616430 1.008156 0.243446
0.623053 0.995961 0.273054
0.617162 0.994594 0.266431
0.613399 1.007576 0.281177
0.630580 1.008971 0.285599
0.620092 0.990889 0.313373
0.622004 0.994569 0.333724
0.627722 0.991596 0.328101
0.625630 1.007839 0.338398
0.610071 0.987045 0.368872
0.621324 0.981142 0.384879
0.616674 0.996191 0.398317
0.631196 1.010674 0.416516
0.626480 0.987112 0.407636
0.623980 0.991860 0.440214
0.620193 1.016269 0.447624
0.613476 0.997312 0.464026
0.633435 1.007144 0.478824
0.621289 0.988479 0.492566
0.611819 1.005478 0.511501
0.617797 1.008507 0.519579
0.621328 0.987210 0.539411
0.627409 0.975495 0.545551
0.609103 0.996880 0.572599
0.611197 0.984191 0.590535
0.620675 0.980580 0.600830
0.622551 1.004521 0.599096
0.633646 0.987689 0.608563
0.618385 1.010206 0.643350
0.623310 1.011700 0.639803
0.624125 1.000243 0.674577
0.622907 0.994245 0.690455
0.617724 1.006422 0.698150
0.638841 0.992968 0.711129
0.624823 0.988484 0.722326
0.620581 1.000854 0.737974
0.620455 1.002094 0.753259
0.632425 0.999885 0.763601
0.622000 1.001380 0.780174
0.631913 0.992373 0.796070
0.615631 1.006656 0.803082
0.610758 1.010268 0.813850
0.620136 1.011472 0.846671
0.612233 0.997475 0.842624
0.629237 1.009130 0.857291
0.624199 0.995025 0.877754
0.635154 1.004630 0.882250
0.615750 1.006607 0.909446
0.622188 0.998778 0.922653
0.618275 1.006770 0.948091
0.616733 0.998437 0.950802
0.629701 0.991390 0.968660
0.623344 0.983712 0.980752
0.613789 1.002044 1.006697
0.629058 1.011357 0.013164
0.646932 0.999197 0.011638
0.629248 1.002091 0.033188
0.635892 0.989780 0.042465
0.625157 0.995546 0.057319
0.631885 0.992559 0.060055
0.646273 1.006745 0.083171
0.635200 1.006311 0.100494
0.628980 0.991755 0.120518
0.636752 0.999632 0.133592
0.640444 0.991734 0.131832
0.636561 1.006325 0.146979
0.638455 1.010111 0.171796
0.633382 1.010540 0.186028
0.636952 1.003127 0.189033
0.633690 0.988888 0.204257
0.625718 0.999614 0.230205
0.632597 0.996854 0.240992
0.642353 0.988020 0.260921
0.646642 1.002565 0.280713
0.627050 0.992259 0.287356
0.622390 1.000230 0.312697
0.626610 1.003925 0.304017
0.638079 1.006026 0.327422
0.643950 0.989395 0.347501
0.632841 0.990729 0.346990
0.637766 0.996684 0.350571
0.647216 1.006536 0.380847
0.654067 1.012345 0.406783
0.626716 1.006644 0.407452
0.639748 1.002249 0.425079
0.647595 0.999737 0.429529
0.628007 1.009892 0.439183
0.637754 0.996228 0.468781
0.629135 1.002619 0.482035
0.629831 0.998297 0.494786
0.630628 0.994808 0.509875
0.643406 1.000583 0.533417
0.643529 1.010781 0.551128
0.630558 0.995173 0.548204
0.634479 1.002766 0.567741
0.635797 1.002979 0.590292
0.632187 1.002525 0.602827
0.631084 1.007364 0.603021
0.627245 1.004705 0.620847
0.630527 1.002571 0.636485
0.627327 0.982583 0.662581
0.623317 1.005254 0.662113
0.637696 1.001846 0.676131
0.644795 1.014713 0.691301
0.647788 0.998741 0.712880
0.631625 1.001622 0.719216
0.627668 1.012335 0.732276
0.639528 0.986270 0.747150
0.631228 0.997420 0.763825
0.630677 0.998065 0.787022
0.645163 1.000644 0.803555
0.627861 0.997386 0.817492
0.645653 1.003370 0.826045
0.649004 0.994919 0.838143
0.621286 0.995414 0.850385
0.627615 0.999777 0.872340
0.628746 1.002386 0.881905
0.636337 0.997897 0.899627
0.640796 1.007040 0.908239
0.633335 0.996082 0.914504
0.628477 1.002072 0.935184
0.640596 1.007576 0.942177
0.641599 1.000655 0.961055
0.646744 1.005559 0.975031
0.640947 0.998235 0.990286
0.638795 1.011198 -0.003483
0.645407 0.998422 0.017577
0.637065 0.996870 0.019758
0.661939 1.005005 0.044954
0.653471 0.999435 0.042058
0.659543 0.990910 0.068967
0.647587 1.001781 0.085729
0.645599 1.021057 0.093983
0.647943 1.010765 0.102119
0.647331 1.012693 0.119788
0.648227 0.998320 0.149716
0.651256 1.012273 0.167663
0.649953 0.992720 0.162471
0.648364 0.990825 0.197921
0.664787 0.998046 0.192211
0.637483 1.001835 0.215330
0.655990 1.002807 0.236350
0.660273 0.997279 0.233146
0.649707 0.994886 0.254833
0.648018 0.997681 0.271770
0.646591 0.992145 0.274074
0.652666 0.996694 0.286657
0.660454 1.008348 0.309366
0.654741 1.013981 0.319496
0.648866 0.997321 0.342077
0.645452 1.013692 0.355207
0.657053 0.989438 0.365368
0.649503 0.996353 0.372252
0.660347 1.007075 0.394668
0.666215 0.995747 0.417410
0.637686 1.008699 0.420042
0.646729 0.995855 0.440190
0.664185 1.002014 0.466839
0.649219 0.992321 0.462843
0.651704 0.991227 0.477473
0.649329 1.012406 0.489288
0.652081 0.999107 0.520385
0.632068 1.001301 0.514364
0.647737 0.986460 0.529998
0.646362 0.996129 0.562456
0.640884 1.007415 0.557500
0.652771 1.011401 0.581739
0.653929 0.995669 0.589316
0.641263 1.002313 0.616710
0.650318 1.001897 0.640517
0.654391 0.997120 0.644264
0.640780 1.005324 0.665408
0.647158 0.989561 0.663778
0.661617 0.994674 0.675600
0.656421 0.996027 0.683862
0.641938 1.003829 0.690945
0.640160 0.994967 0.711396
0.651605 0.996616 0.745435
0.645884 1.006456 0.742552
0.651809 1.006303 0.758620
0.637785 1.006659 0.785535
0.643499 0.990136 0.796730
0.662593 0.992768 0.803332
0.642087 0.987977 0.817992
0.648414 1.000742 0.851465
0.654808 0.990582 0.845038
0.645691 0.994240 0.869325
0.643151 1.002684 0.886409
0.649671 0.988965 0.900519
0.662601 0.995923 0.897834
0.645697 0.994971 0.915395
0.656146 1.001569 0.929401
0.643803 1.002027 0.940304
0.643625 0.982501 0.944175
0.645676 0.997148 0.968721
0.650765 1.001999 0.996382
0.657850 1.002480 0.000762
0.670574 1.013635 0.016510
0.664081 1.008068 0.036240
0.646228 1.017039 0.037566
0.657325 1.010100 0.051443
0.666116 0.998552 0.066272
0.666166 0.999503 0.096535
0.661938 1.001223 0.104810
0.659322 0.999993 0.110917
0.657329 0.996460 0.117696
0.661956 0.999398 0.139068
0.677238 0.992981 0.149775
0.664247 0.997767 0.179064
0.656759 0.988981 0.188084
0.654926 0.983730 0.209345
0.662844 0.995995 0.206397
0.665027 1.002890 0.219116
0.667830 1.006019 0.233169
0.671026 1.000723 0.259903
0.667007 1.001388 0.274658
0.657603 0.998704 0.271737
0.659884 0.997683 0.314479
0.675233 1.001302 0.307572
0.674424 0.990928 0.329099
0.671130 1.000110 0.352130
0.668475 1.000149 0.339095
0.669248 0.992429 0.365416
0.665203 0.993227 0.388110
0.661404 0.995272 0.406226
0.670973 1.006607 0.401054
0.665385 0.998482 0.426656
0.658671 0.993724 0.427511
0.667274 1.000913 0.456305
0.663030 1.013769 0.450808
0.663795 0.992178 0.480454
0.666083 1.000123 0.488397
0.655002 0.998190 0.504917
0.663490 0.987012 0.528951
0.695333 1.003058 0.524455
0.669327 0.995724 0.558454
0.666475 1.011060 0.569104
0.661741 0.994346 0.579381
0.646857 0.996091 0.597186
0.666756 1.008610 0.609319
0.669351 0.995421 0.633231
0.651062 0.997096 0.645162
0.670129 0.992053 0.650175
0.665523 0.997958 0.680803
0.672918 0.980874 0.678044
0.669480 0.988751 0.682338
0.663301 1.011938 0.695069
0.668421 0.991722 0.721362
0.674999 0.997001 0.738816
0.659085 0.986885 0.752509
0.650407 0.999125 0.752078
0.653509 0.998752 0.771131
0.668290 1.002807 0.794103
0.664632 0.998603 0.818528
0.673694 0.994462 0.826026
0.669173 0.993234 0.832126
0.661420 0.994098 0.839109
0.663386 1.004140 0.844700
0.670992 0.991606 0.874790
0.659677 0.982797 0.903477
0.645785 0.993326 0.897462
0.672043 0.999913 0.922621
0.656813 1.000018 0.946335
0.672296 1.012529 0.930827
0.675642 1.004702 0.972288
0.671583 0.993430 0.982124
0.665791 0.998049 0.989889
0.664837 1.004868 -0.007080
0.687191 1.007888 0.010353
0.669233 0.985207 0.038634
0.679959 0.985171 0.041577
0.680786 0.996704 0.059938
0.680371 1.005951 0.072913
0.685961 1.011300 0.084026
0.665485 1.001953 0.105068
0.679438 0.984041 0.121335
0.662402 0.996120 0.131628
0.673549 1.001938 0.141081
0.675909 1.003035 0.167025
0.680974 1.000215 0.176113
0.678951 1.007329 0.172683
0.675612 0.992579 0.195944
0.677283 1.000660 0.208777
0.657692 1.006078 0.212637
0.676513 0.991857 0.231698
0.689384 1.002360 0.257488
0.676876 1.003498 0.278344
0.671185 1.007596 0.277814
0.685554 1.002045 0.309777
0.684697 0.998644 0.319183
0.678594 1.002238 0.317360
0.684463 1.001979 0.329389
0.680074 1.011146 0.346237
0.670096 0.991175 0.367843
0.678358 0.999080 0.377235
0.682946 0.998813 0.382968
0.677544 0.992460 0.417406
0.676118 0.992451 0.422913
0.679461 1.003408 0.443055
0.671598 0.996563 0.450672
0.676697 0.996952 0.450560
0.679139 1.005796 0.485556
0.677591 1.008608 0.496436
0.683063 0.992983 0.501602
0.658085 1.001679 0.541521
0.687743 1.003422 0.527887
0.678717 1.007133 0.556657
0.690272 0.993626 0.558760
0.673108 0.995264 0.574975
0.666235 0.994602 0.592308
0.673555 1.002338 0.609337
0.664842 0.994873 0.619491
0.678555 1.002405 0.632393
0.677866 0.992540 0.659930
0.683650 1.001537 0.651483
0.691332 1.000911 0.686618
0.681886 1.012129 0.685329
0.668146 1.007345 0.713697
0.668344 1.011802 0.722382
0.685642 0.999638 0.737131
0.676479 0.994065 0.748488
0.665257 0.996787 0.771784
0.691409 1.010910 0.768076
0.677930 1.011424 0.801440
0.681979 0.999213 0.813201
0.678816 0.995245 0.824935
0.674491 1.004129 0.837582
0.688442 1.005319 0.860093
0.671195 0.992180 0.862429
0.663965 1.010034 0.882124
0.668259 0.988476 0.894569
0.675692 0.993789 0.909535
0.680830 1.003180 0.913782
0.674677 1.018039 0.927928
0.665467 0.998964 0.956357
0.675565 1.001442 0.968773
0.668832 0.995667 0.990768
0.665672 1.007706 0.997069
0.703882 1.011878 0.000469
0.699334 0.997052 0.017720
0.698955 1.000865 0.034338
0.688996 1.002197 0.046334
0.697382 0.999773 0.052440
0.688911 0.995478 0.062505
0.707695 1.004884 0.096391
0.692293 0.994390 0.104358
0.704033 1.003632 0.106918
0.691608 1.007166 0.122013
0.700602 0.986018 0.156222
0.683945 0.999867 0.150332
0.679714 1.000147 0.169698
0.695499 1.003182 0.187954
0.704250 1.004398 0.197640
0.699314 1.010462 0.203449
0.689767 0.998873 0.224999
0.688429 0.994667 0.232688
0.688891 1.007250 0.254338
0.691611 0.990689 0.267577
0.701747 0.994148 0.294229
0.688358 1.008700 0.288782
0.693537 0.987428 0.316407
0.688570 1.001321 0.311694
0.677381 0.999285 0.330331
0.693027 1.017509 0.347905
0.698716 1.012366 0.366711
0.694639 1.012214 0.373478
0.695862 1.001146 0.410712
0.690462 0.995385 0.407347
0.692538 1.001753 0.415684
0.702338 0.997966 0.428990
0.684853 1.005228 0.433161
0.692762 0.994457 0.462325
0.693236 0.994718 0.485486
0.681320 1.005889 0.487878
0.680399 1.007006 0.510790
0.691138 0.985221 0.534419
0.706132 0.988939 0.533909
0.686896 1.001739 0.542966
0.690309 1.020084 0.567156
0.702053 1.007404 0.589609
0.688078 1.006802 0.587739
0.693512 1.011012 0.602190
0.690137 0.995025 0.632432
0.700785 0.995925 0.639258
0.691217 1.000839 0.658638
0.692893 1.003271 0.656414
0.694889 1.002007 0.680061
0.701159 0.986166 0.683168
0.677213 0.996597 0.713626
0.693917 0.995130 0.715221
0.690119 0.998224 0.731037
0.693783 0.992049 0.753731
0.700977 0.999690 0.769412
0.688826 0.995613 0.783469
0.697781 1.006189 0.786702
0.695438 0.989089 0.801380
0.682523 1.004131 0.823662
0.698504 1.001706 0.843774
0.707643 1.006886 0.851195
0.694672 0.978433 0.862047
0.677343 1.006219 0.870164
0.701431 0.995304 0.900027
0.697752 0.993299 0.898957
0.688054 0.978293 0.921653
0.676940 0.995835 0.943885
0.696697 1.010764 0.948110
0.686659 1.008941 0.954072
0.682133 1.016005 0.989426
0.694173 0.992971 0.994818
0.711879 1.013694 0.007280
0.712920 0.994255 0.005288
0.696954 1.003726 0.006199
0.697929 1.009330 0.046020
0.702936 0.989726 0.055270
0.719837 0.994918 0.079494
0.703291 1.001726 0.097283
0.700870 1.009789 0.107880
0.712501 1.001006 0.110012
0.701860 1.000257 0.127894
0.712888 0.992814 0.142977
0.704377 1.004603 0.159633
0.720250 0.997813 0.176420
0.722446 1.005934 0.186130
0.694306 0.993985 0.210846
0.684572 1.010764 0.205102
0.704903 1.003433 0.223761
0.713028 0.995964 0.229791
0.702852 0.995413 0.264753
0.698783 1.006525 0.263889
0.696699 0.994771 0.285736
0.719820 0.991448 0.302164
0.705228 0.988556 0.319665
0.718439 0.998743 0.314540
0.705692 1.003829 0.336851
0.708558 0.992086 0.354674
0.697680 1.008732 0.358815
0.709297 1.008311 0.379009
0.705256 0.994412 0.392444
0.707953 1.010544 0.408266
0.705313 0.989665 0.416174
0.704600 1.007179 0.437199
0.705642 0.996379 0.461985
0.713253 0.992870 0.473487
0.714588 0.994465 0.485670
0.709003 1.007575 0.488676
0.699837 1.012727 0.512844
0.714066 0.998859 0.516957
0.696523 1.000718 0.533014
0.712300 0.999253 0.537164
0.702690 0.988573 0.557848
0.712725 1.008379 0.587489
0.707436 1.002257 0.584397
0.696403 0.993087 0.601709
0.703349 1.002757 0.614213
0.707360 0.993509 0.648182
0.708929 0.993641 0.654659
0.698756 0.999159 0.657846
0.697684 1.005889 0.688428
0.717803 1.016174 0.697240
0.719783 0.998190 0.691033
0.702259 1.004554 0.719531
0.707564 1.011193 0.733375
0.698849 0.983557 0.744986
0.702181 0.994691 0.773769
0.706367 1.003668 0.780172
0.708476 1.001428 0.788667
0.716224 1.003247 0.808326
0.710346 1.005847 0.827948
0.712519 1.006141 0.837412
0.709444 0.997416 0.869079
0.715500 0.996890 0.859023
0.703647 0.989034 0.881285
0.714047 1.005362 0.894527
0.710942 0.989416 0.907400
0.703376 1.008077 0.913462
0.691483 0.996147 0.933753
0.699444 1.012883 0.949878
0.724356 1.007424 0.959756
0.715522 1.005122 0.979954
0.718321 1.009917 0.984479
0.721516 0.992367 0.018131
0.717994 1.004435 0.013981
0.716488 1.006226 0.027315
0.716717 0.996965 0.039693
0.718853 0.991432 0.047127
0.713802 0.996123 0.078874
0.722358 0.995525 0.103854
0.729655 1.002209 0.106948
0.729241 1.007401 0.099459
0.725008 0.993602 0.128385
0.721386 1.003109 0.135050
0.726291 0.998266 0.161066
0.724293 1.007294 0.166554
0.707983 1.004144 0.191908
0.732695 1.005241 0.210592
0.723940 0.999819 0.223066
0.722793 0.998832 0.229993
0.714081 1.011901 0.239178
0.712449 0.991697 0.259489
0.744708 1.015409 0.267513
0.720929 0.999053 0.289296
0.712832 1.002501 0.312664
0.723081 0.995600 0.311268
0.722001 1.014403 0.318600
0.712990 1.004458 0.346557
0.730898 0.992113 0.371981
0.722190 1.005883 0.359573
0.724744 0.996462 0.389336
0.723439 0.996390 0.402191
0.719469 0.991303 0.409562
0.719394 0.997524 0.436434
0.719301 1.006879 0.438322
0.725927 0.996873 0.453198
0.723260 1.003274 0.450433
0.728045 1.000893 0.477416
0.722913 0.995229 0.501055
0.728399 0.998027 0.513806
0.740112 1.004429 0.516800
0.723006 1.003389 0.545665
0.710661 1.000319 0.551919
0.727889 0.995049 0.563050
0.721475 0.998392 0.591535
0.730633 1.006590 0.587748
0.740070 1.000080 0.605173
0.733008 0.997875 0.636924
0.725706 0.993136 0.634262
0.720065 1.003886 0.647734
0.715926 1.005055 0.660727
0.723320 1.004671 0.690374
0.734412 1.004323 0.689897
0.728557 0.999163 0.716249
0.734378 0.999533 0.715372
0.713788 0.991162 0.743438
0.713070 0.997085 0.737133
0.714494 1.003665 0.759104
0.726184 0.997004 0.762575
0.728485 0.999286 0.780655
0.740303 1.005797 0.801001
0.717108 1.000688 0.823064
0.718748 1.008927 0.824347
0.723090 1.007508 0.850004
0.725855 0.996344 0.855852
0.715059 0.999122 0.876610
0.723514 0.998071 0.890909
0.716578 1.004170 0.880807
0.735404 1.007533 0.920805
0.713953 0.987561 0.932128
0.715011 1.004310 0.934983
0.706090 0.992942 0.961332
0.731579 1.006914 0.962952
0.734894 1.001868 0.984556
0.741223 1.000009 0.002741
0.736848 0.997051 0.008713
0.743469 0.994671 0.031858
0.730919 0.993383 0.033614
0.740638 0.996358 0.064728
0.743893 1.019818 0.077475
0.732921 1.009054 0.094839
0.741700 0.997307 0.091961
0.738532 1.014274 0.107581
0.721430 1.021323 0.144669
0.719916 1.005629 0.134389
0.741525 0.998917 0.159125
0.743325 0.995491 0.168023
0.733185 1.006505 0.177615
0.731536 1.003445 0.178432
0.729661 1.006338 0.213493
0.724055 1.006025 0.234876
0.728300 0.995855 0.244463
0.736545 1.003869 0.266115
0.740749 0.995351 0.265678
0.743769 1.002357 0.276796
0.739892 0.989137 0.291022
0.731531 1.003586 0.311616
0.734752 1.014486 0.322391
0.726542 0.998985 0.334688
0.742900 1.004081 0.365073
0.738396 1.006878 0.351413
0.724765 1.009352 0.380667
0.732308 0.997417 0.394388
0.749194 1.002476 0.406068
0.735767 0.987665 0.427985
0.719176 0.990422 0.437085
0.754929 0.997589 0.440923
0.725661 0.989689 0.464703
0.748456 0.998231 0.468275
0.733091 1.002236 0.491976
0.740749 1.005674 0.519539
0.729469 0.999800 0.517931
0.723709 0.998596 0.546811
0.743075 0.990194 0.540703
0.745181 0.991517 0.557627
0.736188 1.003782 0.590288
0.740492 1.000457 0.593574
0.746023 0.996707 0.613568
0.723939 0.993295 0.615104
0.732644 0.985418 0.636351
0.734181 0.999831 0.644479
0.737957 1.019218 0.662898
0.731806 1.016332 0.680055
0.740707 0.985212 0.700126
0.741804 1.001503 0.714318
0.729044 1.014478 0.723106
0.742894 1.001637 0.747405
0.728274 0.999347 0.744898
0.729066 0.987095 0.764592
0.732804 0.990480 0.778954
0.719393 0.999670 0.790394
0.734716 0.992510 0.802940
0.738027 1.004157 0.826153
0.718685 1.010700 0.847284
0.741473 0.996678 0.868090
0.739094 0.996194 0.855087
0.751455 1.008059 0.876456
0.736116 1.001268 0.905097
0.723568 0.993146 0.897977
0.739004 0.997238 0.928341
0.735537 1.004512 0.945268
0.742001 0.990381 0.956625
0.743251 1.009243 0.973617
0.737081 1.009223 0.973070
0.740210 1.001772 0.988087
0.746146 0.991060 0.006273
0.754709 0.997995 0.016059
0.741264 1.013274 0.028259
0.740741 1.010566 0.045937
0.742427 0.997453 0.056150
0.750468 0.992944 0.085865
0.746670 1.003699 0.064741
0.746559 0.998970 0.104636
0.746766 0.998152 0.120466
0.747267 0.994922 0.130685
0.746028 0.998091 0.137542
0.737553 1.008418 0.164696
0.746735 1.008307 0.154424
0.754625 0.997462 0.175505
0.751140 1.010305 0.203971
0.752841 1.006243 0.222299
0.740242 1.011409 0.218047
0.735816 0.994195 0.240435
0.742756 0.994098 0.254029
0.742630 0.988734 0.262600
0.735137 1.004241 0.289941
0.754227 1.015019 0.297710
0.749560 1.005424 0.296418
0.747412 1.009849 0.323531
0.751664 0.998286 0.352622
0.754934 1.000657 0.353475
0.740830 0.999764 0.358964
0.750068 1.009717 0.372409
0.759049 0.995019 0.399386
0.751061 1.003095 0.411571
0.760261 1.004986 0.425800
0.759214 1.000974 0.434192
0.754132 0.993192 0.460208
0.748495 1.012065 0.471750
0.754277 1.007065 0.477352
0.766661 1.008362 0.517474
0.743243 0.998127 0.502108
0.744944 1.019245 0.525848
0.754883 1.002668 0.536455
0.739299 1.013249 0.547113
0.755190 1.006733 0.578973
0.745294 0.996323 0.573017
0.748778 1.003428 0.587215
0.738553 0.993864 0.609269
0.748624 0.998791 0.608863
0.744942 0.998572 0.636270
0.750278 1.010605 0.653172
0.750292 0.997673 0.659606
0.744949 1.014072 0.682263
0.747870 1.002676 0.683923
0.747894 0.989030 0.698291
0.745846 0.999656 0.732141
0.747512 0.996802 0.734737
0.760249 1.002894 0.742882
0.739500 0.999900 0.756715
0.747407 0.997254 0.777336
0.751996 0.994011 0.800619
0.751722 1.012456 0.802817
0.734696 1.000618 0.815078
0.752573 0.991749 0.848219
0.747884 1.000560 0.837336
0.758113 1.012350 0.867314
0.746080 0.982249 0.881539
0.764639 0.980846 0.890305
0.751370 1.002821 0.905612
0.748553 1.014348 0.914829
0.753891 0.988369 0.934357
0.747375 1.007867 0.959659
0.755330 1.011961 0.972775
0.753536 1.007297 0.982116
0.726544 0.998820 0.992059
0.763164 1.004928 0.016106
0.766403 0.996172 0.013096
0.777732 0.987614 0.023311
0.776607 1.001162 0.045682
0.756037 1.008238 0.064290
0.764861 1.003434 0.088025
0.770507 0.995392 0.088888
0.778757 0.997361 0.108094
0.774530 1.001164 0.114583
0.775859 1.000667 0.128181
0.771545 1.006466 0.150798
0.748341 1.013764 0.148402
0.758995 1.005425 0.180562
0.770162 1.007922 0.166639
0.764111 1.006476 0.185768
0.769628 0.989373 0.217734
0.759592 1.014463 0.218441
0.763825 0.987160 0.238903
0.755754 0.988335 0.260208
0.777302 0.999067 0.259482
0.770065 1.003976 0.290280
0.758929 0.992167 0.297056
0.749295 1.005307 0.308856
0.769229 1.003540 0.307323
0.748598 1.006220 0.331701
0.766007 0.992648 0.353609
0.761278 0.987538 0.379284
0.749849 1.007151 0.386471
0.760763 1.008055 0.395005
0.759281 0.997677 0.412127
0.754015 1.002254 0.430062
0.762928 1.003834 0.447797
0.772040 0.995312 0.443421
0.771588 1.004248 0.471626
0.775601 1.003494 0.488066
0.763626 1.002645 0.504035
0.753122 1.002943 0.507010
0.766973 1.007442 0.537424
0.771139 0.986005 0.535309
0.755193 0.994900 0.555281
0.761709 1.008326 0.573652
0.761709 1.007662 0.563880
0.759672 1.005316 0.593834
0.770506 0.995906 0.604923
0.758500 0.997249 0.629571
0.761419 1.003165 0.629306
0.747245 1.003174 0.640568
0.749765 1.000641 0.650056
0.765409 1.019560 0.665180
0.759839 0.996994 0.684181
0.754618 1.001776 0.699587
0.777013 0.990104 0.731177
0.766356 1.009229 0.740401
0.754169 1.001526 0.762381
0.770836 1.003432 0.773922
0.772971 1.003426 0.784936
0.754743 0.992286 0.772183
0.758549 0.991957 0.806042
0.766971 1.000214 0.813482
0.773480 0.992966 0.853045
0.761007 1.003425 0.844106
0.773091 0.996589 0.858295
0.743833 1.003901 0.863807
0.756968 1.015708 0.886949
0.771447 0.997741 0.910536
0.768421 0.991782 0.919159
0.755984 1.007879 0.941016
0.765262 0.993056 0.952828
0.755474 1.009238 0.955876
0.771239 1.007267 0.975762
0.761298 1.006621 0.995905
0.777484 0.997621 0.009927
0.769226 1.000992 0.028317
0.782626 1.011477 0.026476
0.789648 0.992303 0.053265
0.780682 0.998605 0.067678
0.776589 0.996804 0.073406
0.773869 0.994831 0.068526
0.775023 1.006585 0.105751
0.776884 0.997216 0.107807
0.774945 0.998991 0.140083
0.788000 1.004431 0.129385
0.793651 0.998442 0.142040
0.775846 0.994171 0.180362
0.768027 0.987584 0.193749
0.769451 0.990543 0.197739
0.777100 0.988296 0.195042
0.774552 1.000276 0.229922
0.772910 0.983310 0.238373
0.781321 1.007454 0.253872
0.763596 0.997307 0.267138
0.783664 1.009655 0.278332
0.779348 1.001634 0.299902
0.775352 0.996743 0.310758
0.770307 1.003219 0.324963
0.782646 0.987001 0.335685
0.767917 0.992309 0.344596
0.773266 1.003467 0.364144
0.776658 0.995763 0.389850
0.776822 1.004098 0.391262
0.774856 1.019557 0.406667
0.776185 1.010955 0.399088
0.770978 0.997718 0.456076
0.772538 0.997774 0.449726
0.777996 0.994068 0.473140
0.777626 1.019494 0.479671
0.777319 1.016528 0.487336
0.770487 0.997384 0.511772
0.759192 0.989182 0.521583
0.777086 1.001999 0.545718
0.792257 0.991149 0.556728
0.775625 1.009521 0.569378
0.769440 0.996820 0.583062
0.768227 1.000823 0.584387
0.766629 1.002208 0.618429
0.779942 0.984951 0.628115
0.782685 1.007025 0.623426
0.770523 0.992155 0.644282
0.767979 1.008272 0.665461
0.781593 1.000355 0.668163
0.771602 0.990272 0.688391
0.782589 1.002223 0.704604
0.776049 0.994800 0.721151
0.774850 0.995801 0.737271
0.773550 1.007103 0.742014
0.770084 1.002084 0.749428
0.755288 0.998167 0.777532
0.770554 1.013843 0.782944
0.769114 1.000179 0.812962
0.780748 1.009590 0.814983
0.773782 1.001877 0.843142
0.774877 0.998077 0.850145
0.776336 0.996570 0.862412
0.787945 0.987379 0.884847
0.779787 1.009133 0.898878
0.770872 0.997568 0.903325
0.776880 1.006718 0.915892
0.766507 1.004714 0.933360
0.766792 1.004125 0.935661
0.764228 0.999962 0.963679
0.764973 0.996095 0.975710
0.768461 0.994984 0.973912
0.790980 0.996927 -0.010241
0.781740 1.001517 0.004894
0.785690 1.004948 0.023716
0.793064 0.987091 0.045030
0.793616 0.996886 0.048277
0.788911 1.013160 0.071508
0.793160 0.997699 0.082250
0.784149 1.013524 0.086380
0.781953 1.014990 0.115113
0.795140 0.990758 0.132520
0.793778 1.009374 0.128993
0.782571 1.002079 0.141305
0.790473 0.993572 0.170598
0.790383 0.997868 0.181289
0.799962 0.997135 0.193043
0.798051 0.990041 0.206355
0.781674 1.001835 0.215024
0.796327 1.009755 0.244680
0.792117 1.001741 0.248020
0.785290 1.012867 0.283332
0.793213 0.989658 0.295529
0.792520 1.003295 0.298771
0.788641 0.997996 0.304503
0.796076 1.000405 0.327492
0.784822 0.987966 0.343461
0.786947 1.002275 0.352533
0.806561 1.017126 0.388333
0.789978 0.988305 0.385526
0.799436 1.010580 0.380635
0.795129 1.000990 0.404171
0.784165 0.988582 0.420011
0.784319 1.001909 0.450301
0.795705 1.015496 0.456065
0.803072 1.007566 0.471538
0.782779 0.990725 0.505960
0.797678 0.996712 0.505878
0.795196 1.007844 0.503537
0.800023 1.013566 0.517613
0.794014 1.006197 0.530781
0.778949 0.994726 0.561794
0.798824 1.000774 0.556773
0.800405 1.001688 0.571046
0.794867 0.998494 0.599056
0.783980 0.997887 0.608738
0.785928 0.992863 0.619495
0.783942 1.002173 0.638442
0.795584 0.999647 0.653214
0.784510 1.008167 0.665743
0.794453 0.993286 0.682522
0.793119 0.990194 0.709451
0.799572 0.992108 0.704668
0.775184 1.001190 0.726459
0.792647 1.000787 0.723733
0.794495 1.004327 0.758138
0.778701 1.001998 0.757747
0.790356 1.003974 0.782628
0.794795 0.997877 0.796473
0.806774 0.997742 0.811731
0.803596 1.001586 0.815780
0.788968 1.005629 0.847735
0.796466 0.994970 0.863109
0.783774 0.993354 0.870275
0.783506 0.996989 0.881618
0.790054 1.016765 0.886231
0.807657 1.004272 0.907423
0.797101 0.998741 0.913438
0.791719 1.000986 0.932103
0.789836 1.013431 0.949538
0.787982 1.005468 0.980190
0.799276 1.015406 0.985570
0.797960 1.015117 0.988564
0.823430 1.011385 0.006890
0.815955 0.989582 0.006479
0.807522 0.986363 0.023054
0.809956 1.005334 0.025947
0.794332 1.009805 0.052070
0.800710 1.013978 0.065625
0.804434 0.997357 0.087351
0.793957 1.004423 0.102834
0.786259 1.003636 0.122365
0.808435 0.983088 0.126969
0.803224 0.998586 0.153027
0.809391 0.995229 0.162247
0.810625 0.990305 0.175503
0.804738 1.009957 0.180193
0.808443 0.989583 0.185945
0.797561 1.006194 0.214368
0.806075 1.012891 0.228978
0.819075 1.007682 0.230600
0.809653 1.003371 0.255977
0.807754 0.997722 0.270463
0.813238 1.009401 0.287783
0.807762 0.995647 0.297871
0.795189 1.003330 0.315743
0.805408 1.008520 0.320596
0.795229 1.001419 0.340766
0.802016 1.003877 0.349625
0.809192 0.983801 0.354819
0.809201 1.008616 0.382399
0.811981 1.013670 0.400195
0.805800 1.009870 0.406499
0.804820 1.009478 0.426421
0.810430 0.990074 0.427285
0.811281 0.993513 0.442097
0.813574 1.005813 0.474723
0.817687 0.999462 0.481237
0.792930 0.996465 0.510737
0.804326 1.005325 0.519184
0.788598 1.005086 0.526470
0.805525 0.991727 0.518440
0.807142 0.996854 0.547377
0.824139 0.996298 0.557717
0.795057 1.002944 0.575412
0.814308 0.987516 0.584634
0.816846 0.999110 0.606172
0.803467 0.987109 0.635764
0.808102 0.998168 0.638362
0.801439 0.991398 0.645404
0.804421 1.008405 0.660663
0.804583 0.997123 0.673085
0.808420 0.995691 0.681058
0.821410 1.004722 0.720811
0.814779 0.995537 0.719541
0.805934 1.007630 0.735212
0.814744 1.004373 0.743663
0.806263 0.999381 0.752760
0.802289 1.005822 0.786762
0.810335 1.001074 0.792248
0.807573 1.005495 0.813199
0.807259 1.005776 0.829017
0.808793 1.000237 0.842301
0.813882 0.996577 0.840843
0.804797 0.986856 0.858148
0.803147 0.994504 0.877515
0.798151 1.004134 0.901816
0.807118 1.004921 0.901621
0.802535 0.999337 0.915099
0.804039 1.002089 0.927262
0.811408 0.994964 0.946063
0.798248 1.000088 0.960499
0.811260 0.990821 0.976691
0.803873 1.014979 0.981592
0.818882 0.999212 0.019478
0.825943 1.003705 0.016214
0.823765 1.002718 0.027778
0.817681 1.000807 0.031490
0.824127 1.007135 0.063354
0.819082 1.013473 0.063961
0.827567 1.007992 0.084513
0.815253 1.002105 0.099941
0.823867 0.999247 0.109731
0.816159 0.993603 0.117444
0.831955 0.990024 0.136827
0.802376 0.992424 0.171469
0.826431 1.000453 0.164003
0.824678 1.011464 0.186321
0.829593 1.014587 0.198512
0.828697 0.989363 0.219264
0.829103 1.004985 0.217172
0.823876 0.993927 0.248256
0.817463 1.000877 0.256772
0.830742 0.999205 0.272716
0.810641 1.004433 0.282555
0.830019 1.001624 0.303275
0.822716 0.995767 0.336666
0.816711 0.993536 0.323491
0.824497 0.997188 0.322004
0.827754 1.005471 0.355978
0.806237 1.001400 0.357059
0.823042 1.000453 0.369030
0.825704 1.003695 0.400003
0.804675 0.986131 0.395274
0.817423 1.005024 0.415304
0.824053 0.987085 0.429111
0.826469 0.999743 0.443241
0.823066 0.997890 0.474780
0.814866 1.019463 0.490411
0.824796 1.008992 0.496050
0.826540 0.990624 0.524450
0.819715 0.997396 0.521455
0.822113 0.999250 0.545399
0.822532 0.997047 0.555080
0.812866 1.006023 0.557275
0.817197 0.996818 0.576437
0.809731 1.001719 0.609988
0.834143 1.002281 0.593187
0.828187 0.998203 0.629533
0.825455 1.000322 0.636106
0.824762 0.994530 0.656079
0.827506 0.996632 0.662023
0.833074 0.990770 0.681306
0.816704 0.990894 0.684245
0.819765 1.002053 0.712052
0.813852 0.977459 0.713617
0.813605 0.999738 0.722306
0.827318 0.994614 0.756226
0.831372 1.001837 0.761539
0.822847 0.999991 0.791515
0.815766 0.978684 0.792587
0.814205 1.011413 0.809589
0.820188 0.999342 0.817551
0.814294 0.998049 0.832964
0.813140 0.976354 0.850000
0.827002 1.006040 0.854718
0.811010 1.007411 0.881271
0.825531 0.990839 0.889995
0.815895 0.987765 0.901133
0.816098 1.002496 0.919156
0.819044 1.001252 0.938055
0.811175 0.992485 0.958558
0.822906 1.006025 0.961399
0.810726 1.009202 0.980136
0.828775 0.998105 0.983318
0.830115 0.995551 0.001216
0.820619 0.986684 0.012243
0.823440 0.982683 0.024957
0.832400 0.991831 0.039918
0.850399 0.993372 0.044573
0.848470 1.012264 0.072809
0.836987 0.986403 0.099782
0.836908 0.989342 0.087062
0.844756 0.998683 0.122669
0.842251 0.988500 0.133426
0.841052 0.997578 0.146061
0.820438 1.011904 0.148779
0.819600 1.013207 0.161136
0.845220 0.997934 0.173081
0.828736 0.997306 0.192229
0.831583 0.994300 0.208113
0.834696 0.997752 0.236081
0.829519 0.983217 0.235358
0.841406 0.994723 0.234545
0.848040 1.004467 0.266167
0.822618 1.008446 0.285525
0.838482 1.006902 0.311406
0.810916 1.012840 0.308026
0.837895 1.009061 0.334285
0.844146 1.003662 0.320042
0.836671 0.996644 0.367698
0.823444 1.011114 0.374189
0.838487 0.997029 0.385739
0.831183 0.996394 0.384373
0.829287 0.999590 0.398313
0.837562 1.003981 0.414630
0.837190 0.996951 0.437120
0.833117 0.996748 0.459374
0.841089 0.998134 0.471072
0.834036 1.003797 0.472598
0.832550 1.003899 0.501238
0.816552 0.998169 0.502607
0.838652 1.002909 0.521770
0.832644 1.014756 0.543536
0.846759 1.020308 0.563717
0.834147 0.990794 0.566599
0.830566 0.994307 0.572665
0.844566 1.007784 0.598868
0.840942 0.999455 0.602395
0.834974 1.011499 0.620256
0.841379 0.988633 0.640398
0.829486 1.007269 0.645307
0.839144 0.988794 0.658756
0.831343 1.018687 0.693393
0.849220 1.010827 0.704049
0.845020 1.006438 0.705319
0.824414 1.007584 0.716735
0.843976 0.991913 0.734607
0.835160 0.998975 0.750422
0.834332 1.002068 0.769577
0.839376 0.990811 0.762461
0.832731 1.002392 0.781949
0.833549 1.010235 0.792761
0.843490 1.013042 0.804923
0.835249 0.996052 0.824579
0.825798 0.991716 0.850064
0.832283 1.000671 0.856881
0.833926 1.002600 0.882281
0.839265 1.005121 0.894845
0.829167 1.019642 0.911513
0.846100 1.008628 0.916970
0.823451 0.987285 0.935165
0.847887 0.997173 0.925292
0.822485 0.980752 0.966568
0.844192 0.989065 0.984460
0.840027 0.987571 0.992521
0.856440 0.988114 -0.002475
0.842964 0.991228 0.031931
0.836173 1.008773 0.036903
0.850849 0.988925 0.025561
0.841406 1.008906 0.043848
0.836753 1.004972 0.084972
0.851736 1.002690 0.077383
0.838271 0.996816 0.095592
0.845614 0.996782 0.114202
0.849090 1.002167 0.122371
0.855248 1.004712 0.147580
0.839408 1.012109 0.158909
0.846145 0.995852 0.169179
0.838123 1.003337 0.176051
0.836460 0.990665 0.203632
0.847777 1.014184 0.213991
0.848207 1.002255 0.227311
0.856556 1.010005 0.244493
0.842942 1.003186 0.241318
0.858791 0.991107 0.262841
0.841243 1.004081 0.270641
0.864929 1.006574 0.286451
0.844351 1.005273 0.306040
0.855959 1.006310 0.325764
0.850479 0.989955 0.340672
0.846215 0.985287 0.356410
0.853835 0.986145 0.372069
0.867600 0.990972 0.386926
0.863023 1.005873 0.394594
0.834398 0.992645 0.416691
0.840390 0.997679 0.415016
0.851558 1.012742 0.439065
0.835884 1.003008 0.460170
0.851221 1.009853 0.471873
0.853932 0.992307 0.473806
0.841082 0.982967 0.498922
0.845487 1.010641 0.527588
0.853733 0.998759 0.523142
0.842840 0.995727 0.535009
0.842186 1.010883 0.545334
0.845028 1.005147 0.583645
0.844057 1.002441 0.576721
0.851526 1.003008 0.583679
0.879112 1.006274 0.606458
0.858538 1.003021 0.617571
0.857937 1.018274 0.646615
0.851430 1.006408 0.654920
0.834340 1.000409 0.683237
0.851879 0.999454 0.695539
0.840772 1.002654 0.694440
0.839059 1.001171 0.711875
0.848682 1.016391 0.716267
0.847476 0.984572 0.721107
0.859137 0.999333 0.749622
0.839040 0.998075 0.755216
0.850712 1.002176 0.786317
0.843926 1.003452 0.794085
0.861121 1.002002 0.803647
0.842814 1.004652 0.821988
0.847854 0.999750 0.840226
0.849770 0.998039 0.855731
0.853189 1.000540 0.852122
0.840337 0.996467 0.865033
0.849109 1.007133 0.880030
0.834631 0.999776 0.908137
0.843906 0.996937 0.907586
0.856292 1.007338 0.929943
0.828832 0.993090 0.937948
0.843813 1.018419 0.961593
0.844744 0.998033 0.967958
0.862754 1.013318 0.990291
0.845913 1.004231 -0.001235
0.863052 1.000458 0.009205
0.868866 0.994795 0.030540
0.849778 1.002683 0.052559
0.865204 0.985776 0.060566
0.871286 0.991489 0.075924
0.867592 1.001944 0.092045
0.855866 0.995086 0.081708
0.870300 1.017693 0.099911
0.864836 0.991580 0.118981
0.865563 0.980431 0.133673
0.864581 1.006821 0.160596
0.866298 0.992246 0.179596
0.876696 1.009468 0.189698
0.856199 0.995166 0.181037
0.873711 0.987608 0.207307
0.872966 0.985434 0.228109
0.852644 1.003140 0.227863
0.872963 1.006463 0.244923
0.854889 1.002562 0.265533
0.862045 0.992990 0.281902
0.857445 0.987237 0.301065
0.852029 0.988251 0.311761
0.855520 0.986343 0.330713
0.867537 1.008619 0.343834
0.873687 0.991222 0.355868
0.854476 0.982447 0.359190
0.850975 1.009370 0.382973
0.862575 0.993049 0.401544
0.868807 0.995709 0.406622
0.871598 1.009922 0.427147
0.875964 1.008096 0.443711
0.866482 0.995592 0.449607
0.865798 0.992845 0.461832
0.860567 1.005120 0.486453
0.867005 1.010778 0.482938
0.868305 0.998721 0.521704
0.856235 0.991159 0.513773
0.870504 1.005820 0.535156
0.852193 0.992895 0.541637
0.860563 0.992748 0.578792
0.862950 0.991719 0.589888
0.852406 0.999912 0.608018
0.859926 0.998207 0.609397
0.873514 1.008252 0.634773
0.863405 0.990457 0.627647
0.851039 1.008742 0.660456
0.855684 1.005832 0.658740
0.853970 1.008462 0.686691
0.849580 0.988190 0.688394
0.870405 0.992871 0.697936
0.861101 0.996776 0.729742
0.864063 0.994303 0.740221
0.853053 1.004359 0.746459
0.868775 1.003093 0.784074
0.879047 1.002898 0.783236
0.870957 0.995676 0.791175
0.854256 1.002710 0.815378
0.863815 0.990285 0.812194
0.856929 0.990405 0.825637
0.852607 0.996788 0.839156
0.850645 0.992853 0.863130
0.863200 1.004580 0.866541
0.867396 0.984837 0.897416
0.868639 0.984567 0.910170
0.865595 1.006160 0.921009
0.864704 0.998465 0.936057
0.850353 1.006583 0.946390
0.854627 1.009606 0.961984
0.861987 1.002655 0.984663
0.870003 0.989140 0.985077
0.867811 0.997372 0.006888
0.896432 0.997256 0.017137
0.882422 1.020381 0.026877
0.872829 0.988721 0.051285
0.870082 0.997475 0.054064
0.875113 0.999726 0.085151
0.874465 0.993968 0.085012
0.872925 0.994340 0.108517
0.867361 1.005079 0.120174
0.889836 1.004169 0.120410
0.863764 1.004582 0.137936
0.878045 0.993722 0.165037
0.868576 1.003902 0.166694
0.875201 1.016154 0.184274
0.879083 0.999651 0.200104
0.874353 1.008672 0.220662
0.886779 1.000802 0.224486
0.874864 1.003472 0.244063
0.858471 1.002262 0.267082
0.881372 1.003794 0.260322
0.870234 1.004729 0.281841
0.877103 1.009837 0.299334
0.869763 0.990399 0.309282
0.885277 0.988856 0.332151
0.871277 1.011982 0.331054
0.879071 0.980503 0.360903
0.881344 1.000112 0.369712
0.883734 0.990630 0.383341
0.871986 1.000386 0.393926
0.877142 0.997577 0.417001
0.875494 0.994704 0.421711
0.869379 1.006060 0.447703
0.878584 0.999694 0.452923
0.875171 1.002387 0.470532
0.861789 0.995417 0.488944
0.870530 1.006896 0.492638
0.877125 1.001042 0.507479
0.871353 0.984771 0.513440
0.888345 1.002282 0.544626
0.872361 1.011381 0.558412
0.886048 0.989418 0.565693
0.873790 0.997815 0.582160
0.882416 1.005901 0.600124
0.881124 1.005871 0.591839
0.876274 1.005587 0.633281
0.870642 0.992750 0.642149
0.874016 0.993320 0.653445
0.887728 1.007810 0.681317
0.884134 0.991981 0.682039
0.886275 1.005743 0.692607
0.875945 0.988466 0.699016
0.877352 0.988186 0.730421
0.863300 0.994114 0.724357
0.887492 1.010236 0.744369
0.883494 0.998863 0.770487
0.868303 1.005597 0.770693
0.871008 1.003386 0.794121
0.877622 1.012407 0.798658
0.885463 0.999442 0.811557
0.882258 0.992843 0.828307
0.880171 1.001348 0.843458
0.882804 0.996390 0.858654
0.873306 1.004952 0.871181
0.870884 0.995763 0.904227
0.865716 0.990668 0.899443
0.887430 1.000711 0.919901
0.863495 0.996414 0.928413
0.867352 1.018300 0.940172
0.874423 0.994917 0.958434
0.862174 1.002109 0.956558
0.874707 0.990981 0.987063
0.884132 0.984894 0.001488
0.890303 0.996093 0.013286
0.887238 0.999131 0.032494
0.887419 0.995862 0.043492
0.894235 0.997321 0.061259
0.898852 1.004048 0.080848
0.894874 1.011329 0.066770
0.902241 1.005137 0.100890
0.897055 0.996386 0.120068
0.898495 1.003318 0.144721
0.882669 1.001979 0.151119
0.893884 1.012286 0.166629
0.884080 1.004307 0.178799
0.898927 1.000885 0.192415
0.883225 1.006125 0.195550
0.873310 0.996531 0.204126
0.891361 0.996567 0.216023
0.906068 1.003132 0.247823
0.896566 0.995848 0.254938
0.892668 1.006107 0.264675
0.884503 1.002033 0.291812
0.900730 1.018156 0.299726
0.895685 1.006287 0.329142
0.909384 1.012117 0.317867
0.885776 1.001621 0.342127
0.900580 1.002676 0.351590
0.883292 1.001214 0.372172
0.889872 0.996504 0.374495
0.884532 1.006104 0.389196
0.891131 0.997081 0.403549
0.886683 1.001646 0.405875
0.891828 0.993393 0.430382
0.895531 1.001088 0.451716
0.881684 1.011671 0.463308
0.883892 0.989565 0.471990
0.882899 0.997163 0.505374
0.894817 0.993093 0.507161
0.878538 1.012002 0.525860
0.889727 1.011831 0.545768
0.896837 1.008948 0.554343
0.887170 0.993947 0.572583
0.884348 0.997438 0.586469
0.885131 0.984138 0.617195
0.903240 0.990789 0.603053
0.881102 1.011226 0.621040
0.896898 1.002694 0.631667
0.889714 1.005725 0.646823
0.874521 1.015007 0.657111
0.866319 1.016111 0.685698
0.895930 0.991810 0.676790
0.886516 0.999399 0.717806
0.899989 0.990560 0.709687
0.894103 1.014346 0.719430
0.892765 1.003194 0.746701
0.885197 0.996191 0.774401
0.885487 1.000640 0.777793
0.879661 1.002499 0.787576
0.883266 1.005584 0.806537
0.891168 0.996285 0.819691
0.888171 0.987227 0.825374
0.904010 1.004503 0.838413
0.879467 0.999125 0.853704
0.883928 1.002032 0.874466
0.904388 1.000774 0.896554
0.901882 1.015206 0.909634
0.898685 1.010136 0.913320
0.898971 1.007162 0.944197
0.896896 0.999975 0.949810
0.906598 1.002340 0.953268
