ply
format ascii 1.0
element vertex 1769
property float x
property float y
property float z
end_header
0.999000 0.096200 0.303400
0.999000 0.051800 0.318200
0.999000 0.051800 0.333000
0.999000 0.066600 0.318200
0.999000 0.066600 0.333000
0.999000 0.051800 0.347800
0.999000 0.051800 0.362600
0.999000 0.066600 0.347800
0.999000 0.066600 0.362600
0.999000 0.081400 0.318200
0.999000 0.081400 0.333000
0.999000 0.096200 0.318200
0.999000 0.096200 0.333000
0.999000 0.081400 0.347800
0.999000 0.081400 0.362600
0.999000 0.096200 0.347800
0.999000 0.096200 0.362600
0.969400 -0.007400 0.377400
0.969400 -0.007400 0.392200
0.984200 -0.007400 0.377400
0.984200 -0.007400 0.392200
0.969400 -0.007400 0.407000
0.969400 -0.007400 0.421800
0.984200 -0.007400 0.407000
0.984200 -0.007400 0.421800
0.999000 -0.007400 0.377400
0.999000 -0.007400 0.392200
0.999000 0.007400 0.377400
0.999000 0.007400 0.392200
0.999000 -0.007400 0.407000
0.999000 -0.007400 0.421800
0.999000 0.007400 0.407000
0.999000 0.007400 0.421800
0.999000 0.022200 0.377400
0.999000 0.022200 0.392200
0.999000 0.037000 0.377400
0.999000 0.037000 0.392200
0.999000 0.022200 0.407000
0.999000 0.022200 0.421800
0.999000 0.037000 0.407000
0.999000 0.037000 0.421800
0.969400 -0.007400 0.436600
0.969400 -0.007400 0.451400
0.984200 -0.007400 0.436600
0.984200 -0.007400 0.451400
0.969400 -0.007400 0.466200
0.969400 -0.007400 0.481000
0.984200 -0.007400 0.466200
0.984200 -0.007400 0.481000
0.999000 -0.007400 0.436600
0.999000 -0.007400 0.451400
0.999000 0.007400 0.436600
0.999000 0.007400 0.451400
0.999000 -0.007400 0.466200
0.999000 -0.007400 0.481000
0.999000 0.007400 0.466200
0.999000 0.007400 0.481000
0.999000 0.022200 0.436600
0.999000 0.022200 0.451400
0.999000 0.037000 0.436600
0.999000 0.037000 0.451400
0.999000 0.022200 0.466200
0.999000 0.022200 0.481000
0.999000 0.037000 0.466200
0.999000 0.037000 0.481000
0.999000 0.051800 0.377400
0.999000 0.051800 0.392200
0.999000 0.066600 0.377400
0.999000 0.066600 0.392200
0.999000 0.051800 0.407000
0.999000 0.051800 0.421800
0.999000 0.066600 0.407000
0.999000 0.066600 0.421800
0.999000 0.081400 0.377400
0.999000 0.081400 0.392200
0.999000 0.096200 0.377400
0.999000 0.096200 0.392200
0.999000 0.081400 0.407000
0.999000 0.081400 0.421800
0.999000 0.096200 0.407000
0.999000 0.096200 0.421800
0.999000 0.051800 0.436600
0.999000 0.051800 0.451400
0.999000 0.066600 0.436600
0.999000 0.066600 0.451400
0.999000 0.051800 0.466200
0.999000 0.051800 0.481000
0.999000 0.066600 0.466200
0.999000 0.066600 0.481000
0.999000 0.081400 0.436600
0.999000 0.081400 0.451400
0.999000 0.096200 0.436600
0.999000 0.096200 0.451400
0.999000 0.081400 0.466200
0.999000 0.081400 0.481000
0.999000 0.096200 0.466200
0.999000 0.096200 0.481000
0.999000 0.111000 0.259000
0.999000 0.111000 0.273800
0.999000 0.125800 0.259000
0.999000 0.125800 0.273800
0.999000 0.111000 0.288600
0.999000 0.111000 0.303400
0.999000 0.125800 0.288600
0.999000 0.125800 0.303400
0.999000 0.140600 0.259000
0.999000 0.140600 0.273800
0.999000 0.155400 0.259000
0.999000 0.155400 0.273800
0.999000 0.140600 0.288600
0.999000 0.140600 0.303400
0.999000 0.155400 0.288600
0.999000 0.155400 0.303400
0.999000 0.111000 0.318200
0.999000 0.111000 0.333000
0.999000 0.125800 0.318200
0.999000 0.125800 0.333000
0.999000 0.111000 0.347800
0.999000 0.111000 0.362600
0.999000 0.125800 0.347800
0.999000 0.125800 0.362600
0.999000 0.140600 0.318200
0.999000 0.140600 0.333000
0.999000 0.155400 0.318200
0.999000 0.155400 0.333000
0.999000 0.140600 0.347800
0.999000 0.140600 0.362600
0.999000 0.155400 0.347800
0.999000 0.155400 0.362600
0.999000 0.170200 0.259000
0.999000 0.170200 0.273800
0.999000 0.185000 0.259000
0.999000 0.185000 0.273800
0.999000 0.170200 0.288600
0.999000 0.170200 0.303400
0.999000 0.185000 0.288600
0.999000 0.185000 0.303400
0.999000 0.199800 0.259000
0.999000 0.199800 0.273800
0.999000 0.214600 0.259000
0.999000 0.214600 0.273800
0.999000 0.199800 0.288600
0.999000 0.199800 0.303400
0.999000 0.214600 0.288600
0.999000 0.214600 0.303400
0.999000 0.170200 0.318200
0.999000 0.170200 0.333000
0.999000 0.185000 0.318200
0.999000 0.185000 0.333000
0.999000 0.170200 0.347800
0.999000 0.170200 0.362600
0.999000 0.185000 0.347800
0.999000 0.185000 0.362600
0.999000 0.199800 0.318200
0.999000 0.199800 0.333000
0.999000 0.214600 0.318200
0.999000 0.214600 0.333000
0.999000 0.199800 0.347800
0.999000 0.199800 0.362600
0.999000 0.214600 0.347800
0.999000 0.214600 0.362600
0.999000 0.111000 0.377400
0.999000 0.111000 0.392200
0.999000 0.125800 0.377400
0.999000 0.125800 0.392200
0.999000 0.111000 0.407000
0.999000 0.111000 0.421800
0.999000 0.125800 0.407000
0.999000 0.125800 0.421800
0.999000 0.140600 0.377400
0.999000 0.140600 0.392200
0.999000 0.155400 0.377400
0.999000 0.155400 0.392200
0.999000 0.140600 0.407000
0.999000 0.140600 0.421800
0.999000 0.155400 0.407000
0.999000 0.155400 0.421800
0.999000 0.111000 0.436600
0.999000 0.111000 0.451400
0.999000 0.125800 0.436600
0.999000 0.125800 0.451400
0.999000 0.111000 0.466200
0.999000 0.111000 0.481000
0.999000 0.125800 0.466200
0.999000 0.125800 0.481000
0.999000 0.140600 0.436600
0.999000 0.140600 0.451400
0.999000 0.155400 0.436600
0.999000 0.155400 0.451400
0.999000 0.140600 0.466200
0.999000 0.140600 0.481000
0.999000 0.155400 0.466200
0.999000 0.155400 0.481000
0.999000 0.170200 0.377400
0.999000 0.170200 0.392200
0.999000 0.185000 0.377400
0.999000 0.185000 0.392200
0.999000 0.170200 0.407000
0.999000 0.170200 0.421800
0.999000 0.185000 0.407000
0.999000 0.185000 0.421800
0.999000 0.199800 0.377400
0.999000 0.199800 0.392200
0.999000 0.214600 0.377400
0.999000 0.214600 0.392200
0.999000 0.199800 0.407000
0.999000 0.199800 0.421800
0.999000 0.214600 0.407000
0.999000 0.214600 0.421800
0.999000 0.170200 0.436600
0.999000 0.170200 0.451400
0.999000 0.185000 0.436600
0.999000 0.185000 0.451400
0.999000 0.170200 0.466200
0.999000 0.170200 0.481000
0.999000 0.185000 0.466200
0.999000 0.185000 0.481000
0.999000 0.199800 0.436600
0.999000 0.199800 0.451400
0.999000 0.214600 0.436600
0.999000 0.214600 0.451400
0.999000 0.199800 0.466200
0.999000 0.199800 0.481000
0.999000 0.214600 0.466200
0.999000 0.214600 0.481000
0.999000 0.229400 0.022200
0.999000 0.229400 0.037000
0.999000 0.244200 0.022200
0.999000 0.244200 0.037000
0.999000 0.229400 0.051800
0.999000 0.229400 0.066600
0.999000 0.244200 0.051800
0.999000 0.244200 0.066600
0.999000 0.259000 0.022200
0.999000 0.259000 0.037000
0.999000 0.273800 0.022200
0.999000 0.273800 0.037000
0.999000 0.259000 0.051800
0.999000 0.259000 0.066600
0.999000 0.273800 0.051800
0.999000 0.273800 0.066600
0.999000 0.229400 0.081400
0.999000 0.229400 0.096200
0.999000 0.244200 0.081400
0.999000 0.244200 0.096200
0.999000 0.229400 0.111000
0.999000 0.229400 0.125800
0.999000 0.244200 0.111000
0.999000 0.244200 0.125800
0.999000 0.259000 0.081400
0.999000 0.259000 0.096200
0.999000 0.273800 0.081400
0.999000 0.273800 0.096200
0.999000 0.259000 0.111000
0.999000 0.259000 0.125800
0.999000 0.273800 0.111000
0.999000 0.273800 0.125800
0.999000 0.288600 0.022200
0.999000 0.288600 0.037000
0.999000 0.303400 0.022200
0.999000 0.303400 0.037000
0.999000 0.288600 0.051800
0.999000 0.288600 0.066600
0.999000 0.303400 0.051800
0.999000 0.303400 0.066600
0.999000 0.318200 0.022200
0.999000 0.318200 0.037000
0.999000 0.333000 0.022200
0.999000 0.333000 0.037000
0.999000 0.318200 0.051800
0.999000 0.318200 0.066600
0.999000 0.333000 0.051800
0.999000 0.333000 0.066600
0.999000 0.288600 0.081400
0.999000 0.288600 0.096200
0.999000 0.303400 0.081400
0.999000 0.303400 0.096200
0.999000 0.288600 0.111000
0.999000 0.288600 0.125800
0.999000 0.303400 0.111000
0.999000 0.303400 0.125800
0.999000 0.318200 0.081400
0.999000 0.318200 0.096200
0.999000 0.333000 0.081400
0.999000 0.333000 0.096200
0.999000 0.318200 0.111000
0.999000 0.318200 0.125800
0.999000 0.333000 0.111000
0.999000 0.333000 0.125800
0.999000 0.229400 0.140600
0.999000 0.229400 0.155400
0.999000 0.244200 0.140600
0.999000 0.244200 0.155400
0.999000 0.229400 0.170200
0.999000 0.229400 0.185000
0.999000 0.244200 0.170200
0.999000 0.244200 0.185000
0.999000 0.259000 0.140600
0.999000 0.259000 0.155400
0.999000 0.273800 0.140600
0.999000 0.273800 0.155400
0.999000 0.259000 0.170200
0.999000 0.259000 0.185000
0.999000 0.273800 0.170200
0.999000 0.273800 0.185000
0.999000 0.229400 0.199800
0.999000 0.229400 0.214600
0.999000 0.244200 0.199800
0.999000 0.244200 0.214600
0.999000 0.229400 0.229400
0.999000 0.229400 0.244200
0.999000 0.244200 0.229400
0.999000 0.244200 0.244200
0.999000 0.259000 0.199800
0.999000 0.259000 0.214600
0.999000 0.273800 0.199800
0.999000 0.273800 0.214600
0.999000 0.259000 0.229400
0.999000 0.259000 0.244200
0.999000 0.273800 0.229400
0.999000 0.273800 0.244200
0.999000 0.288600 0.140600
0.999000 0.288600 0.155400
0.999000 0.303400 0.140600
0.999000 0.303400 0.155400
0.999000 0.288600 0.170200
0.999000 0.288600 0.185000
0.999000 0.303400 0.170200
0.999000 0.303400 0.185000
0.999000 0.318200 0.140600
0.999000 0.318200 0.155400
0.999000 0.333000 0.140600
0.999000 0.333000 0.155400
0.999000 0.318200 0.170200
0.999000 0.318200 0.185000
0.999000 0.333000 0.170200
0.999000 0.333000 0.185000
0.999000 0.288600 0.199800
0.999000 0.288600 0.214600
0.999000 0.303400 0.199800
0.999000 0.303400 0.214600
0.999000 0.288600 0.229400
0.999000 0.288600 0.244200
0.999000 0.303400 0.229400
0.999000 0.303400 0.244200
0.999000 0.318200 0.199800
0.999000 0.318200 0.214600
0.999000 0.333000 0.199800
0.999000 0.333000 0.214600
0.999000 0.318200 0.229400
0.999000 0.318200 0.244200
0.999000 0.333000 0.229400
0.999000 0.333000 0.244200
0.999000 0.347800 0.022200
0.999000 0.347800 0.037000
0.999000 0.362600 0.022200
0.999000 0.362600 0.037000
0.999000 0.347800 0.051800
0.999000 0.347800 0.066600
0.999000 0.362600 0.051800
0.999000 0.362600 0.066600
0.999000 0.377400 0.022200
0.999000 0.377400 0.037000
0.999000 0.392200 0.022200
0.999000 0.392200 0.037000
0.999000 0.377400 0.051800
0.999000 0.377400 0.066600
0.999000 0.392200 0.051800
0.999000 0.392200 0.066600
0.999000 0.347800 0.081400
0.999000 0.347800 0.096200
0.999000 0.362600 0.081400
0.999000 0.362600 0.096200
0.999000 0.347800 0.111000
0.999000 0.347800 0.125800
0.999000 0.362600 0.111000
0.999000 0.362600 0.125800
0.999000 0.377400 0.081400
0.999000 0.377400 0.096200
0.999000 0.392200 0.081400
0.999000 0.392200 0.096200
0.999000 0.377400 0.111000
0.999000 0.377400 0.125800
0.999000 0.392200 0.111000
0.999000 0.392200 0.125800
0.999000 0.407000 0.022200
0.999000 0.407000 0.037000
0.999000 0.421800 0.022200
0.999000 0.421800 0.037000
0.999000 0.407000 0.051800
0.999000 0.407000 0.066600
0.999000 0.421800 0.051800
0.999000 0.421800 0.066600
0.999000 0.436600 0.022200
0.999000 0.436600 0.037000
0.999000 0.451400 0.022200
0.999000 0.451400 0.037000
0.999000 0.436600 0.051800
0.999000 0.436600 0.066600
0.999000 0.451400 0.051800
0.999000 0.451400 0.066600
0.999000 0.407000 0.081400
0.999000 0.407000 0.096200
0.999000 0.421800 0.081400
0.999000 0.421800 0.096200
0.999000 0.407000 0.111000
0.999000 0.407000 0.125800
0.999000 0.421800 0.111000
0.999000 0.421800 0.125800
0.999000 0.436600 0.081400
0.999000 0.436600 0.096200
0.999000 0.451400 0.081400
0.999000 0.451400 0.096200
0.999000 0.436600 0.111000
0.999000 0.436600 0.125800
0.999000 0.451400 0.111000
0.999000 0.451400 0.125800
0.999000 0.347800 0.140600
0.999000 0.347800 0.155400
0.999000 0.362600 0.140600
0.999000 0.362600 0.155400
0.999000 0.347800 0.170200
0.999000 0.347800 0.185000
0.999000 0.362600 0.170200
0.999000 0.362600 0.185000
0.999000 0.377400 0.140600
0.999000 0.377400 0.155400
0.999000 0.392200 0.140600
0.999000 0.392200 0.155400
0.999000 0.377400 0.170200
0.999000 0.377400 0.185000
0.999000 0.392200 0.170200
0.999000 0.392200 0.185000
0.999000 0.347800 0.199800
0.999000 0.347800 0.214600
0.999000 0.362600 0.199800
0.999000 0.362600 0.214600
0.999000 0.347800 0.229400
0.999000 0.347800 0.244200
0.999000 0.362600 0.229400
0.999000 0.362600 0.244200
0.999000 0.377400 0.199800
0.999000 0.377400 0.214600
0.999000 0.392200 0.199800
0.999000 0.392200 0.214600
0.999000 0.377400 0.229400
0.999000 0.377400 0.244200
0.999000 0.392200 0.229400
0.999000 0.392200 0.244200
0.999000 0.407000 0.140600
0.999000 0.407000 0.155400
0.999000 0.421800 0.140600
0.999000 0.421800 0.155400
0.999000 0.407000 0.170200
0.999000 0.407000 0.185000
0.999000 0.421800 0.170200
0.999000 0.421800 0.185000
0.999000 0.436600 0.140600
0.999000 0.436600 0.155400
0.999000 0.451400 0.140600
0.999000 0.451400 0.155400
0.999000 0.436600 0.170200
0.999000 0.436600 0.185000
0.999000 0.451400 0.170200
0.999000 0.451400 0.185000
0.999000 0.407000 0.199800
0.999000 0.407000 0.214600
0.999000 0.421800 0.199800
0.999000 0.421800 0.214600
0.999000 0.407000 0.229400
0.999000 0.407000 0.244200
0.999000 0.421800 0.229400
0.999000 0.421800 0.244200
0.999000 0.436600 0.199800
0.999000 0.436600 0.214600
0.999000 0.451400 0.199800
0.999000 0.451400 0.214600
0.999000 0.436600 0.229400
0.999000 0.436600 0.244200
0.999000 0.451400 0.229400
0.999000 0.451400 0.244200
0.999000 0.229400 0.259000
0.999000 0.229400 0.273800
0.999000 0.244200 0.259000
0.999000 0.244200 0.273800
0.999000 0.229400 0.288600
0.999000 0.229400 0.303400
0.999000 0.244200 0.288600
0.999000 0.244200 0.303400
0.999000 0.259000 0.259000
0.999000 0.259000 0.273800
0.999000 0.273800 0.259000
0.999000 0.273800 0.273800
0.999000 0.259000 0.288600
0.999000 0.259000 0.303400
0.999000 0.273800 0.288600
0.999000 0.273800 0.303400
0.999000 0.229400 0.318200
0.999000 0.229400 0.333000
0.999000 0.244200 0.318200
0.999000 0.244200 0.333000
0.999000 0.229400 0.347800
0.999000 0.229400 0.362600
0.999000 0.244200 0.347800
0.999000 0.244200 0.362600
0.999000 0.259000 0.318200
0.999000 0.259000 0.333000
0.999000 0.273800 0.318200
0.999000 0.273800 0.333000
0.999000 0.259000 0.347800
0.999000 0.259000 0.362600
0.999000 0.273800 0.347800
0.999000 0.273800 0.362600
0.999000 0.288600 0.259000
0.999000 0.288600 0.273800
0.999000 0.303400 0.259000
0.999000 0.303400 0.273800
0.999000 0.288600 0.288600
0.999000 0.288600 0.303400
0.999000 0.303400 0.288600
0.999000 0.303400 0.303400
0.999000 0.318200 0.259000
0.999000 0.318200 0.273800
0.999000 0.333000 0.259000
0.999000 0.333000 0.273800
0.999000 0.318200 0.288600
0.999000 0.318200 0.303400
0.999000 0.333000 0.288600
0.999000 0.333000 0.303400
0.999000 0.288600 0.318200
0.999000 0.288600 0.333000
0.999000 0.303400 0.318200
0.999000 0.303400 0.333000
0.999000 0.288600 0.347800
0.999000 0.288600 0.362600
0.999000 0.303400 0.347800
0.999000 0.303400 0.362600
0.999000 0.318200 0.318200
0.999000 0.318200 0.333000
0.999000 0.333000 0.318200
0.999000 0.333000 0.333000
0.999000 0.318200 0.347800
0.999000 0.318200 0.362600
0.999000 0.333000 0.347800
0.999000 0.333000 0.362600
0.999000 0.229400 0.377400
0.999000 0.229400 0.392200
0.999000 0.244200 0.377400
0.999000 0.244200 0.392200
0.999000 0.229400 0.407000
0.999000 0.229400 0.421800
0.999000 0.244200 0.407000
0.999000 0.244200 0.421800
0.999000 0.259000 0.377400
0.999000 0.259000 0.392200
0.999000 0.273800 0.377400
0.999000 0.273800 0.392200
0.999000 0.259000 0.407000
0.999000 0.259000 0.421800
0.999000 0.273800 0.407000
0.999000 0.273800 0.421800
0.999000 0.229400 0.436600
0.999000 0.229400 0.451400
0.999000 0.244200 0.436600
0.999000 0.244200 0.451400
0.999000 0.229400 0.466200
0.999000 0.229400 0.481000
0.999000 0.244200 0.466200
0.999000 0.244200 0.481000
0.999000 0.259000 0.436600
0.999000 0.259000 0.451400
0.999000 0.273800 0.436600
0.999000 0.273800 0.451400
0.999000 0.259000 0.466200
0.999000 0.259000 0.481000
0.999000 0.273800 0.466200
0.999000 0.273800 0.481000
0.999000 0.288600 0.377400
0.999000 0.288600 0.392200
0.999000 0.303400 0.377400
0.999000 0.303400 0.392200
0.999000 0.288600 0.407000
0.999000 0.288600 0.421800
0.999000 0.303400 0.407000
0.999000 0.303400 0.421800
0.999000 0.318200 0.377400
0.999000 0.318200 0.392200
0.999000 0.333000 0.377400
0.999000 0.333000 0.392200
0.999000 0.318200 0.407000
0.999000 0.318200 0.421800
0.999000 0.333000 0.407000
0.999000 0.333000 0.421800
0.999000 0.288600 0.436600
0.999000 0.288600 0.451400
0.999000 0.303400 0.436600
0.999000 0.303400 0.451400
0.999000 0.288600 0.466200
0.999000 0.288600 0.481000
0.999000 0.303400 0.466200
0.999000 0.303400 0.481000
0.999000 0.318200 0.436600
0.999000 0.318200 0.451400
0.999000 0.333000 0.436600
0.999000 0.333000 0.451400
0.999000 0.318200 0.466200
0.999000 0.318200 0.481000
0.999000 0.333000 0.466200
0.999000 0.333000 0.481000
0.999000 0.347800 0.259000
0.999000 0.347800 0.273800
0.999000 0.362600 0.259000
0.999000 0.362600 0.273800
0.999000 0.347800 0.288600
0.999000 0.347800 0.303400
0.999000 0.362600 0.288600
0.999000 0.362600 0.303400
0.999000 0.377400 0.259000
0.999000 0.377400 0.273800
0.999000 0.392200 0.259000
0.999000 0.392200 0.273800
0.999000 0.377400 0.288600
0.999000 0.377400 0.303400
0.999000 0.392200 0.288600
0.999000 0.392200 0.303400
0.999000 0.347800 0.318200
0.999000 0.347800 0.333000
0.999000 0.362600 0.318200
0.999000 0.362600 0.333000
0.999000 0.347800 0.347800
0.999000 0.347800 0.362600
0.999000 0.362600 0.347800
0.999000 0.362600 0.362600
0.999000 0.377400 0.318200
0.999000 0.377400 0.333000
0.999000 0.392200 0.318200
0.999000 0.392200 0.333000
0.999000 0.377400 0.347800
0.999000 0.377400 0.362600
0.999000 0.392200 0.347800
0.999000 0.392200 0.362600
0.999000 0.407000 0.259000
0.999000 0.407000 0.273800
0.999000 0.421800 0.259000
0.999000 0.421800 0.273800
0.999000 0.407000 0.288600
0.999000 0.407000 0.303400
0.999000 0.421800 0.288600
0.999000 0.421800 0.303400
0.999000 0.436600 0.259000
0.999000 0.436600 0.273800
0.999000 0.451400 0.259000
0.999000 0.451400 0.273800
0.999000 0.436600 0.288600
0.999000 0.436600 0.303400
0.999000 0.451400 0.288600
0.999000 0.451400 0.303400
0.999000 0.407000 0.318200
0.999000 0.407000 0.333000
0.999000 0.421800 0.318200
0.999000 0.421800 0.333000
0.999000 0.407000 0.347800
0.999000 0.407000 0.362600
0.999000 0.421800 0.347800
0.999000 0.421800 0.362600
0.999000 0.436600 0.318200
0.999000 0.436600 0.333000
0.999000 0.451400 0.318200
0.999000 0.451400 0.333000
0.999000 0.436600 0.347800
0.999000 0.436600 0.362600
0.999000 0.451400 0.347800
0.999000 0.451400 0.362600
0.999000 0.347800 0.377400
0.999000 0.347800 0.392200
0.999000 0.362600 0.377400
0.999000 0.362600 0.392200
0.999000 0.347800 0.407000
0.999000 0.347800 0.421800
0.999000 0.362600 0.407000
0.999000 0.362600 0.421800
0.999000 0.377400 0.377400
0.999000 0.377400 0.392200
0.999000 0.392200 0.377400
0.999000 0.392200 0.392200
0.999000 0.377400 0.407000
0.999000 0.377400 0.421800
0.999000 0.392200 0.407000
0.999000 0.392200 0.421800
0.999000 0.347800 0.436600
0.999000 0.347800 0.451400
0.999000 0.362600 0.436600
0.999000 0.362600 0.451400
0.999000 0.347800 0.466200
0.999000 0.347800 0.481000
0.999000 0.362600 0.466200
0.999000 0.362600 0.481000
0.999000 0.377400 0.436600
0.999000 0.377400 0.451400
0.999000 0.392200 0.436600
0.999000 0.392200 0.451400
0.999000 0.377400 0.466200
0.999000 0.377400 0.481000
0.999000 0.392200 0.466200
0.999000 0.392200 0.481000
0.999000 0.407000 0.377400
0.999000 0.407000 0.392200
0.999000 0.421800 0.377400
0.999000 0.421800 0.392200
0.999000 0.407000 0.407000
0.999000 0.407000 0.421800
0.999000 0.421800 0.407000
0.999000 0.421800 0.421800
0.999000 0.436600 0.377400
0.999000 0.436600 0.392200
0.999000 0.451400 0.377400
0.999000 0.451400 0.392200
0.999000 0.436600 0.407000
0.999000 0.436600 0.421800
0.999000 0.451400 0.407000
0.999000 0.451400 0.421800
0.999000 0.407000 0.436600
0.999000 0.407000 0.451400
0.999000 0.421800 0.436600
0.999000 0.421800 0.451400
0.999000 0.407000 0.466200
0.999000 0.407000 0.481000
0.999000 0.421800 0.466200
0.999000 0.421800 0.481000
0.999000 0.436600 0.436600
0.999000 0.436600 0.451400
0.999000 0.451400 0.436600
0.999000 0.451400 0.451400
0.999000 0.436600 0.466200
0.999000 0.436600 0.481000
0.999000 0.451400 0.466200
0.999000 0.451400 0.481000
0.969400 -0.007400 0.495800
0.969400 -0.007400 0.510600
0.984200 -0.007400 0.495800
0.984200 -0.007400 0.510600
0.969400 -0.007400 0.525400
0.969400 -0.007400 0.540200
0.984200 -0.007400 0.525400
0.984200 -0.007400 0.540200
0.999000 -0.007400 0.495800
0.999000 -0.007400 0.510600
0.999000 0.007400 0.495800
0.999000 0.007400 0.510600
0.999000 -0.007400 0.525400
0.999000 -0.007400 0.540200
0.999000 0.007400 0.525400
0.999000 0.007400 0.540200
0.999000 0.022200 0.495800
0.999000 0.022200 0.510600
0.999000 0.037000 0.495800
0.999000 0.037000 0.510600
0.999000 0.022200 0.525400
0.999000 0.022200 0.540200
0.999000 0.037000 0.525400
0.999000 0.037000 0.540200
0.969400 -0.007400 0.555000
0.969400 -0.007400 0.569800
0.984200 -0.007400 0.555000
0.984200 -0.007400 0.569800
0.969400 -0.007400 0.584600
0.969400 -0.007400 0.599400
0.984200 -0.007400 0.584600
0.984200 -0.007400 0.599400
0.999000 -0.007400 0.555000
0.999000 -0.007400 0.569800
0.999000 0.007400 0.555000
0.999000 0.007400 0.569800
0.999000 -0.007400 0.584600
0.999000 -0.007400 0.599400
0.999000 0.007400 0.584600
0.999000 0.007400 0.599400
0.999000 0.022200 0.555000
0.999000 0.022200 0.569800
0.999000 0.037000 0.555000
0.999000 0.037000 0.569800
0.999000 0.022200 0.584600
0.999000 0.022200 0.599400
0.999000 0.037000 0.584600
0.999000 0.037000 0.599400
0.999000 0.051800 0.495800
0.999000 0.051800 0.510600
0.999000 0.066600 0.495800
0.999000 0.066600 0.510600
0.999000 0.051800 0.525400
0.999000 0.051800 0.540200
0.999000 0.066600 0.525400
0.999000 0.066600 0.540200
0.999000 0.081400 0.495800
0.999000 0.081400 0.510600
0.999000 0.096200 0.495800
0.999000 0.096200 0.510600
0.999000 0.081400 0.525400
0.999000 0.081400 0.540200
0.999000 0.096200 0.525400
0.999000 0.096200 0.540200
0.999000 0.051800 0.555000
0.999000 0.051800 0.569800
0.999000 0.066600 0.555000
0.999000 0.066600 0.569800
0.999000 0.051800 0.584600
0.999000 0.051800 0.599400
0.999000 0.066600 0.584600
0.999000 0.066600 0.599400
0.999000 0.081400 0.555000
0.999000 0.081400 0.569800
0.999000 0.096200 0.555000
0.999000 0.096200 0.569800
0.999000 0.081400 0.584600
0.999000 0.081400 0.599400
0.999000 0.096200 0.584600
0.999000 0.096200 0.599400
0.969400 -0.007400 0.614200
0.969400 -0.007400 0.629000
0.984200 -0.007400 0.614200
0.984200 -0.007400 0.629000
0.969400 -0.007400 0.643800
0.969400 -0.007400 0.658600
0.984200 -0.007400 0.643800
0.984200 -0.007400 0.658600
0.999000 -0.007400 0.614200
0.999000 -0.007400 0.629000
0.999000 0.007400 0.614200
0.999000 0.007400 0.629000
0.999000 -0.007400 0.643800
0.999000 -0.007400 0.658600
0.999000 0.007400 0.643800
0.999000 0.007400 0.658600
0.999000 0.022200 0.614200
0.999000 0.022200 0.629000
0.999000 0.037000 0.614200
0.999000 0.037000 0.629000
0.999000 0.022200 0.643800
0.999000 0.022200 0.658600
0.999000 0.037000 0.643800
0.999000 0.037000 0.658600
0.969400 -0.007400 0.673400
0.969400 -0.007400 0.688200
0.984200 -0.007400 0.673400
0.984200 -0.007400 0.688200
0.969400 -0.007400 0.703000
0.969400 -0.007400 0.717800
0.984200 -0.007400 0.703000
0.984200 -0.007400 0.717800
0.999000 -0.007400 0.673400
0.999000 -0.007400 0.688200
0.999000 0.007400 0.673400
0.999000 0.007400 0.688200
0.999000 -0.007400 0.703000
0.999000 -0.007400 0.717800
0.999000 0.007400 0.703000
0.999000 0.007400 0.717800
0.999000 0.022200 0.673400
0.999000 0.022200 0.688200
0.999000 0.037000 0.673400
0.999000 0.037000 0.688200
0.999000 0.022200 0.703000
0.999000 0.022200 0.717800
0.999000 0.037000 0.703000
0.999000 0.037000 0.717800
0.999000 0.051800 0.614200
0.999000 0.051800 0.629000
0.999000 0.066600 0.614200
0.999000 0.066600 0.629000
0.999000 0.051800 0.643800
0.999000 0.051800 0.658600
0.999000 0.066600 0.643800
0.999000 0.066600 0.658600
0.999000 0.081400 0.614200
0.999000 0.081400 0.629000
0.999000 0.096200 0.614200
0.999000 0.096200 0.629000
0.999000 0.081400 0.643800
0.999000 0.081400 0.658600
0.999000 0.096200 0.643800
0.999000 0.096200 0.658600
0.999000 0.051800 0.673400
0.999000 0.051800 0.688200
0.999000 0.066600 0.673400
0.999000 0.066600 0.688200
0.999000 0.051800 0.703000
0.999000 0.051800 0.717800
0.999000 0.066600 0.703000
0.999000 0.066600 0.717800
0.999000 0.081400 0.673400
0.999000 0.081400 0.688200
0.999000 0.096200 0.673400
0.999000 0.096200 0.688200
0.999000 0.081400 0.703000
0.999000 0.081400 0.717800
0.999000 0.096200 0.703000
0.999000 0.096200 0.717800
0.999000 0.111000 0.495800
0.999000 0.111000 0.510600
0.999000 0.125800 0.495800
0.999000 0.125800 0.510600
0.999000 0.111000 0.525400
0.999000 0.111000 0.540200
0.999000 0.125800 0.525400
0.999000 0.125800 0.540200
0.999000 0.140600 0.495800
0.999000 0.140600 0.510600
0.999000 0.155400 0.495800
0.999000 0.155400 0.510600
0.999000 0.140600 0.525400
0.999000 0.140600 0.540200
0.999000 0.155400 0.525400
0.999000 0.155400 0.540200
0.999000 0.111000 0.555000
0.999000 0.111000 0.569800
0.999000 0.125800 0.555000
0.999000 0.125800 0.569800
0.999000 0.111000 0.584600
0.999000 0.111000 0.599400
0.999000 0.125800 0.584600
0.999000 0.125800 0.599400
0.999000 0.140600 0.555000
0.999000 0.140600 0.569800
0.999000 0.155400 0.555000
0.999000 0.155400 0.569800
0.999000 0.140600 0.584600
0.999000 0.140600 0.599400
0.999000 0.155400 0.584600
0.999000 0.155400 0.599400
0.999000 0.170200 0.495800
0.999000 0.170200 0.510600
0.999000 0.185000 0.495800
0.999000 0.185000 0.510600
0.999000 0.170200 0.525400
0.999000 0.170200 0.540200
0.999000 0.185000 0.525400
0.999000 0.185000 0.540200
0.999000 0.199800 0.495800
0.999000 0.199800 0.510600
0.999000 0.214600 0.495800
0.999000 0.214600 0.510600
0.999000 0.199800 0.525400
0.999000 0.199800 0.540200
0.999000 0.214600 0.525400
0.999000 0.214600 0.540200
0.999000 0.170200 0.555000
0.999000 0.170200 0.569800
0.999000 0.185000 0.555000
0.999000 0.185000 0.569800
0.999000 0.170200 0.584600
0.999000 0.170200 0.599400
0.999000 0.185000 0.584600
0.999000 0.185000 0.599400
0.999000 0.199800 0.555000
0.999000 0.199800 0.569800
0.999000 0.214600 0.555000
0.999000 0.214600 0.569800
0.999000 0.199800 0.584600
0.999000 0.199800 0.599400
0.999000 0.214600 0.584600
0.999000 0.214600 0.599400
0.999000 0.111000 0.614200
0.999000 0.111000 0.629000
0.999000 0.125800 0.614200
0.999000 0.125800 0.629000
0.999000 0.111000 0.643800
0.999000 0.111000 0.658600
0.999000 0.125800 0.643800
0.999000 0.125800 0.658600
0.999000 0.140600 0.614200
0.999000 0.140600 0.629000
0.999000 0.155400 0.614200
0.999000 0.155400 0.629000
0.999000 0.140600 0.643800
0.999000 0.140600 0.658600
0.999000 0.155400 0.643800
0.999000 0.155400 0.658600
0.999000 0.111000 0.673400
0.999000 0.111000 0.688200
0.999000 0.125800 0.673400
0.999000 0.125800 0.688200
0.999000 0.111000 0.703000
0.999000 0.111000 0.717800
0.999000 0.125800 0.703000
0.999000 0.125800 0.717800
0.999000 0.140600 0.673400
0.999000 0.140600 0.688200
0.999000 0.155400 0.673400
0.999000 0.155400 0.688200
0.999000 0.140600 0.703000
0.999000 0.140600 0.717800
0.999000 0.155400 0.703000
0.999000 0.155400 0.717800
0.999000 0.170200 0.614200
0.999000 0.170200 0.629000
0.999000 0.185000 0.614200
0.999000 0.185000 0.629000
0.999000 0.170200 0.643800
0.999000 0.170200 0.658600
0.999000 0.185000 0.643800
0.999000 0.185000 0.658600
0.999000 0.199800 0.614200
0.999000 0.199800 0.629000
0.999000 0.214600 0.614200
0.999000 0.214600 0.629000
0.999000 0.199800 0.643800
0.999000 0.199800 0.658600
0.999000 0.214600 0.643800
0.999000 0.214600 0.658600
0.999000 0.170200 0.673400
0.999000 0.170200 0.688200
0.999000 0.185000 0.673400
0.999000 0.185000 0.688200
0.999000 0.170200 0.703000
0.999000 0.170200 0.717800
0.999000 0.185000 0.703000
0.999000 0.185000 0.717800
0.999000 0.199800 0.673400
0.999000 0.199800 0.688200
0.999000 0.214600 0.673400
0.999000 0.214600 0.688200
0.999000 0.199800 0.703000
0.999000 0.199800 0.717800
0.999000 0.214600 0.703000
0.999000 0.214600 0.717800
0.969400 -0.007400 0.732600
0.969400 -0.007400 0.747400
0.984200 -0.007400 0.732600
0.984200 -0.007400 0.747400
0.969400 -0.007400 0.762200
0.969400 -0.007400 0.777000
0.984200 -0.007400 0.762200
0.984200 -0.007400 0.777000
0.999000 -0.007400 0.732600
0.999000 -0.007400 0.747400
0.999000 0.007400 0.732600
0.999000 0.007400 0.747400
0.999000 -0.007400 0.762200
0.999000 -0.007400 0.777000
0.999000 0.007400 0.762200
0.999000 0.007400 0.777000
0.999000 0.022200 0.732600
0.999000 0.022200 0.747400
0.999000 0.037000 0.732600
0.999000 0.037000 0.747400
0.999000 0.022200 0.762200
0.999000 0.022200 0.777000
0.999000 0.037000 0.762200
0.999000 0.037000 0.777000
0.969400 -0.007400 0.791800
0.969400 -0.007400 0.806600
0.984200 -0.007400 0.791800
0.984200 -0.007400 0.806600
0.969400 -0.007400 0.821400
0.969400 -0.007400 0.836200
0.984200 -0.007400 0.821400
0.984200 -0.007400 0.836200
0.999000 -0.007400 0.791800
0.999000 -0.007400 0.806600
0.999000 0.007400 0.791800
0.999000 0.007400 0.806600
0.999000 -0.007400 0.821400
0.999000 -0.007400 0.836200
0.999000 0.007400 0.821400
0.999000 0.007400 0.836200
0.999000 0.022200 0.791800
0.999000 0.022200 0.806600
0.999000 0.037000 0.791800
0.999000 0.037000 0.806600
0.999000 0.022200 0.821400
0.999000 0.022200 0.836200
0.999000 0.037000 0.821400
0.999000 0.037000 0.836200
0.999000 0.051800 0.732600
0.999000 0.051800 0.747400
0.999000 0.066600 0.732600
0.999000 0.066600 0.747400
0.999000 0.051800 0.762200
0.999000 0.051800 0.777000
0.999000 0.066600 0.762200
0.999000 0.066600 0.777000
0.999000 0.081400 0.732600
0.999000 0.081400 0.747400
0.999000 0.096200 0.732600
0.999000 0.096200 0.747400
0.999000 0.081400 0.762200
0.999000 0.081400 0.777000
0.999000 0.096200 0.762200
0.999000 0.096200 0.777000
0.999000 0.051800 0.791800
0.999000 0.051800 0.806600
0.999000 0.066600 0.791800
0.999000 0.066600 0.806600
0.999000 0.051800 0.821400
0.999000 0.051800 0.836200
0.999000 0.066600 0.821400
0.999000 0.066600 0.836200
0.999000 0.081400 0.791800
0.999000 0.081400 0.806600
0.999000 0.096200 0.791800
0.999000 0.096200 0.806600
0.999000 0.081400 0.821400
0.999000 0.081400 0.836200
0.999000 0.096200 0.821400
0.999000 0.096200 0.836200
0.969400 -0.007400 0.851000
0.969400 -0.007400 0.865800
0.984200 -0.007400 0.851000
0.984200 -0.007400 0.865800
0.969400 -0.007400 0.880600
0.969400 -0.007400 0.895400
0.984200 -0.007400 0.880600
0.984200 -0.007400 0.895400
0.999000 -0.007400 0.851000
0.999000 -0.007400 0.865800
0.999000 0.007400 0.851000
0.999000 0.007400 0.865800
0.999000 -0.007400 0.880600
0.999000 -0.007400 0.895400
0.999000 0.007400 0.880600
0.999000 0.007400 0.895400
0.999000 0.022200 0.851000
0.999000 0.022200 0.865800
0.999000 0.037000 0.851000
0.999000 0.037000 0.865800
0.999000 0.022200 0.880600
0.999000 0.022200 0.895400
0.999000 0.037000 0.880600
0.999000 0.037000 0.895400
0.969400 -0.007400 0.910200
0.969400 -0.007400 0.925000
0.984200 -0.007400 0.910200
0.984200 -0.007400 0.925000
0.969400 -0.007400 0.939800
0.969400 -0.007400 0.954600
0.984200 -0.007400 0.939800
0.984200 -0.007400 0.954600
0.999000 -0.007400 0.910200
0.999000 -0.007400 0.925000
0.999000 0.007400 0.910200
0.999000 0.007400 0.925000
0.999000 -0.007400 0.939800
0.999000 -0.007400 0.954600
0.999000 0.007400 0.939800
0.999000 0.007400 0.954600
0.999000 0.022200 0.910200
0.999000 0.022200 0.925000
0.999000 0.037000 0.910200
0.999000 0.037000 0.925000
0.999000 0.022200 0.939800
0.999000 0.022200 0.954600
0.999000 0.037000 0.939800
0.999000 0.037000 0.954600
0.999000 0.051800 0.851000
0.999000 0.051800 0.865800
0.999000 0.066600 0.851000
0.999000 0.066600 0.865800
0.999000 0.051800 0.880600
0.999000 0.051800 0.895400
0.999000 0.066600 0.880600
0.999000 0.066600 0.895400
0.999000 0.081400 0.851000
0.999000 0.081400 0.865800
0.999000 0.096200 0.851000
0.999000 0.096200 0.865800
0.999000 0.081400 0.880600
0.999000 0.081400 0.895400
0.999000 0.096200 0.880600
0.999000 0.096200 0.895400
0.999000 0.051800 0.910200
0.999000 0.051800 0.925000
0.999000 0.066600 0.910200
0.999000 0.066600 0.925000
0.999000 0.051800 0.939800
0.999000 0.051800 0.954600
0.999000 0.066600 0.939800
0.999000 0.066600 0.954600
0.999000 0.081400 0.910200
0.999000 0.081400 0.925000
0.999000 0.096200 0.910200
0.999000 0.096200 0.925000
0.999000 0.081400 0.939800
0.999000 0.081400 0.954600
0.999000 0.096200 0.939800
0.999000 0.096200 0.954600
0.999000 0.111000 0.732600
0.999000 0.111000 0.747400
0.999000 0.125800 0.732600
0.999000 0.125800 0.747400
0.999000 0.111000 0.762200
0.999000 0.111000 0.777000
0.999000 0.125800 0.762200
0.999000 0.125800 0.777000
0.999000 0.140600 0.732600
0.999000 0.140600 0.747400
0.999000 0.155400 0.732600
0.999000 0.155400 0.747400
0.999000 0.140600 0.762200
0.999000 0.140600 0.777000
0.999000 0.155400 0.762200
0.999000 0.155400 0.777000
0.999000 0.111000 0.791800
0.999000 0.111000 0.806600
0.999000 0.125800 0.791800
0.999000 0.125800 0.806600
0.999000 0.111000 0.821400
0.999000 0.111000 0.836200
0.999000 0.125800 0.821400
0.999000 0.125800 0.836200
0.999000 0.140600 0.791800
0.999000 0.140600 0.806600
0.999000 0.155400 0.791800
0.999000 0.155400 0.806600
0.999000 0.140600 0.821400
0.999000 0.140600 0.836200
0.999000 0.155400 0.821400
0.999000 0.155400 0.836200
0.999000 0.170200 0.732600
0.999000 0.170200 0.747400
0.999000 0.185000 0.732600
0.999000 0.185000 0.747400
0.999000 0.170200 0.762200
0.999000 0.170200 0.777000
0.999000 0.185000 0.762200
0.999000 0.185000 0.777000
0.999000 0.199800 0.732600
0.999000 0.199800 0.747400
0.999000 0.214600 0.732600
0.999000 0.214600 0.747400
0.999000 0.199800 0.762200
0.999000 0.199800 0.777000
0.999000 0.214600 0.762200
0.999000 0.214600 0.777000
0.999000 0.170200 0.791800
0.999000 0.170200 0.806600
0.999000 0.185000 0.791800
0.999000 0.185000 0.806600
0.999000 0.170200 0.821400
0.999000 0.170200 0.836200
0.999000 0.185000 0.821400
0.999000 0.185000 0.836200
0.999000 0.199800 0.791800
0.999000 0.199800 0.806600
0.999000 0.214600 0.791800
0.999000 0.214600 0.806600
0.999000 0.199800 0.821400
0.999000 0.199800 0.836200
0.999000 0.214600 0.821400
0.999000 0.214600 0.836200
0.999000 0.111000 0.851000
0.999000 0.111000 0.865800
0.999000 0.125800 0.851000
0.999000 0.125800 0.865800
0.999000 0.111000 0.880600
0.999000 0.111000 0.895400
0.999000 0.125800 0.880600
0.999000 0.125800 0.895400
0.999000 0.140600 0.851000
0.999000 0.140600 0.865800
0.999000 0.155400 0.851000
0.999000 0.155400 0.865800
0.999000 0.140600 0.880600
0.999000 0.140600 0.895400
0.999000 0.155400 0.880600
0.999000 0.155400 0.895400
0.999000 0.111000 0.910200
0.999000 0.111000 0.925000
0.999000 0.125800 0.910200
0.999000 0.125800 0.925000
0.999000 0.111000 0.939800
0.999000 0.111000 0.954600
0.999000 0.125800 0.939800
0.999000 0.125800 0.954600
0.999000 0.140600 0.910200
0.999000 0.140600 0.925000
0.999000 0.155400 0.910200
0.999000 0.155400 0.925000
0.999000 0.140600 0.939800
0.999000 0.140600 0.954600
0.999000 0.155400 0.939800
0.999000 0.155400 0.954600
0.999000 0.170200 0.851000
0.999000 0.170200 0.865800
0.999000 0.185000 0.851000
0.999000 0.185000 0.865800
0.999000 0.170200 0.880600
0.999000 0.170200 0.895400
0.999000 0.185000 0.880600
0.999000 0.185000 0.895400
0.999000 0.199800 0.851000
0.999000 0.199800 0.865800
0.999000 0.214600 0.851000
0.999000 0.214600 0.865800
0.999000 0.199800 0.880600
0.999000 0.199800 0.895400
0.999000 0.214600 0.880600
0.999000 0.214600 0.895400
0.999000 0.170200 0.910200
0.999000 0.170200 0.925000
0.999000 0.185000 0.910200
0.999000 0.185000 0.925000
0.999000 0.170200 0.939800
0.999000 0.170200 0.954600
0.999000 0.185000 0.939800
0.999000 0.185000 0.954600
0.999000 0.199800 0.910200
0.999000 0.199800 0.925000
0.999000 0.214600 0.910200
0.999000 0.214600 0.925000
0.999000 0.199800 0.939800
0.999000 0.199800 0.954600
0.999000 0.214600 0.939800
0.999000 0.214600 0.954600
0.999000 0.229400 0.495800
0.999000 0.229400 0.510600
0.999000 0.244200 0.495800
0.999000 0.244200 0.510600
0.999000 0.229400 0.525400
0.999000 0.229400 0.540200
0.999000 0.244200 0.525400
0.999000 0.244200 0.540200
0.999000 0.259000 0.495800
0.999000 0.259000 0.510600
0.999000 0.273800 0.495800
0.999000 0.273800 0.510600
0.999000 0.259000 0.525400
0.999000 0.259000 0.540200
0.999000 0.273800 0.525400
0.999000 0.273800 0.540200
0.999000 0.229400 0.555000
0.999000 0.229400 0.569800
0.999000 0.244200 0.555000
0.999000 0.244200 0.569800
0.999000 0.229400 0.584600
0.999000 0.229400 0.599400
0.999000 0.244200 0.584600
0.999000 0.244200 0.599400
0.999000 0.259000 0.555000
0.999000 0.259000 0.569800
0.999000 0.273800 0.555000
0.999000 0.273800 0.569800
0.999000 0.259000 0.584600
0.999000 0.259000 0.599400
0.999000 0.273800 0.584600
0.999000 0.273800 0.599400
0.999000 0.288600 0.495800
0.999000 0.288600 0.510600
0.999000 0.303400 0.495800
0.999000 0.303400 0.510600
0.999000 0.288600 0.525400
0.999000 0.288600 0.540200
0.999000 0.303400 0.525400
0.999000 0.303400 0.540200
0.999000 0.318200 0.495800
0.999000 0.318200 0.510600
0.999000 0.333000 0.495800
0.999000 0.333000 0.510600
0.999000 0.318200 0.525400
0.999000 0.318200 0.540200
0.999000 0.333000 0.525400
0.999000 0.333000 0.540200
0.999000 0.288600 0.555000
0.999000 0.288600 0.569800
0.999000 0.303400 0.555000
0.999000 0.303400 0.569800
0.999000 0.288600 0.584600
0.999000 0.288600 0.599400
0.999000 0.303400 0.584600
0.999000 0.303400 0.599400
0.999000 0.318200 0.555000
0.999000 0.318200 0.569800
0.999000 0.333000 0.555000
0.999000 0.333000 0.569800
0.999000 0.318200 0.584600
0.999000 0.318200 0.599400
0.999000 0.333000 0.584600
0.999000 0.333000 0.599400
0.999000 0.229400 0.614200
0.999000 0.229400 0.629000
0.999000 0.244200 0.614200
0.999000 0.244200 0.629000
0.999000 0.229400 0.643800
0.999000 0.229400 0.658600
0.999000 0.244200 0.643800
0.999000 0.244200 0.658600
0.999000 0.259000 0.614200
0.999000 0.259000 0.629000
0.999000 0.273800 0.614200
0.999000 0.273800 0.629000
0.999000 0.259000 0.643800
0.999000 0.259000 0.658600
0.999000 0.273800 0.643800
0.999000 0.273800 0.658600
0.999000 0.229400 0.673400
0.999000 0.229400 0.688200
0.999000 0.244200 0.673400
0.999000 0.244200 0.688200
0.999000 0.229400 0.703000
0.999000 0.229400 0.717800
0.999000 0.244200 0.703000
0.999000 0.244200 0.717800
0.999000 0.259000 0.673400
0.999000 0.259000 0.688200
0.999000 0.273800 0.673400
0.999000 0.273800 0.688200
0.999000 0.259000 0.703000
0.999000 0.259000 0.717800
0.999000 0.273800 0.703000
0.999000 0.273800 0.717800
0.999000 0.288600 0.614200
0.999000 0.288600 0.629000
0.999000 0.303400 0.614200
0.999000 0.303400 0.629000
0.999000 0.288600 0.643800
0.999000 0.288600 0.658600
0.999000 0.303400 0.643800
0.999000 0.303400 0.658600
0.999000 0.318200 0.614200
0.999000 0.318200 0.629000
0.999000 0.333000 0.614200
0.999000 0.333000 0.629000
0.999000 0.318200 0.643800
0.999000 0.318200 0.658600
0.999000 0.333000 0.643800
0.999000 0.333000 0.658600
0.999000 0.288600 0.673400
0.999000 0.288600 0.688200
0.999000 0.303400 0.673400
0.999000 0.303400 0.688200
0.999000 0.288600 0.703000
0.999000 0.288600 0.717800
0.999000 0.303400 0.703000
0.999000 0.303400 0.717800
0.999000 0.318200 0.673400
0.999000 0.318200 0.688200
0.999000 0.333000 0.673400
0.999000 0.333000 0.688200
0.999000 0.318200 0.703000
0.999000 0.318200 0.717800
0.999000 0.333000 0.703000
0.999000 0.333000 0.717800
0.999000 0.347800 0.495800
0.999000 0.347800 0.510600
0.999000 0.362600 0.495800
0.999000 0.362600 0.510600
0.999000 0.347800 0.525400
0.999000 0.347800 0.540200
0.999000 0.362600 0.525400
0.999000 0.362600 0.540200
0.999000 0.377400 0.495800
0.999000 0.377400 0.510600
0.999000 0.392200 0.495800
0.999000 0.392200 0.510600
0.999000 0.377400 0.525400
0.999000 0.377400 0.540200
0.999000 0.392200 0.525400
0.999000 0.392200 0.540200
0.999000 0.347800 0.555000
0.999000 0.347800 0.569800
0.999000 0.362600 0.555000
0.999000 0.362600 0.569800
0.999000 0.347800 0.584600
0.999000 0.347800 0.599400
0.999000 0.362600 0.584600
0.999000 0.362600 0.599400
0.999000 0.377400 0.555000
0.999000 0.377400 0.569800
0.999000 0.392200 0.555000
0.999000 0.392200 0.569800
0.999000 0.377400 0.584600
0.999000 0.377400 0.599400
0.999000 0.392200 0.584600
0.999000 0.392200 0.599400
0.999000 0.407000 0.495800
0.999000 0.407000 0.510600
0.999000 0.421800 0.495800
0.999000 0.421800 0.510600
0.999000 0.407000 0.525400
0.999000 0.407000 0.540200
0.999000 0.421800 0.525400
0.999000 0.421800 0.540200
0.999000 0.436600 0.495800
0.999000 0.436600 0.510600
0.999000 0.451400 0.495800
0.999000 0.451400 0.510600
0.999000 0.436600 0.525400
0.999000 0.436600 0.540200
0.999000 0.451400 0.525400
0.999000 0.451400 0.540200
0.999000 0.407000 0.555000
0.999000 0.407000 0.569800
0.999000 0.421800 0.555000
0.999000 0.421800 0.569800
0.999000 0.407000 0.584600
0.999000 0.407000 0.599400
0.999000 0.421800 0.584600
0.999000 0.421800 0.599400
0.999000 0.436600 0.555000
0.999000 0.436600 0.569800
0.999000 0.451400 0.555000
0.999000 0.451400 0.569800
0.999000 0.436600 0.584600
0.999000 0.436600 0.599400
0.999000 0.451400 0.584600
0.999000 0.451400 0.599400
0.999000 0.347800 0.614200
0.999000 0.347800 0.629000
0.999000 0.362600 0.614200
0.999000 0.362600 0.629000
0.999000 0.347800 0.643800
0.999000 0.347800 0.658600
0.999000 0.362600 0.643800
0.999000 0.362600 0.658600
0.999000 0.377400 0.614200
0.999000 0.377400 0.629000
0.999000 0.392200 0.614200
0.999000 0.392200 0.629000
0.999000 0.377400 0.643800
0.999000 0.377400 0.658600
0.999000 0.392200 0.643800
0.999000 0.392200 0.658600
0.999000 0.347800 0.673400
0.999000 0.347800 0.688200
0.999000 0.362600 0.673400
0.999000 0.362600 0.688200
0.999000 0.347800 0.703000
0.999000 0.347800 0.717800
0.999000 0.362600 0.703000
0.999000 0.362600 0.717800
0.999000 0.377400 0.673400
0.999000 0.377400 0.688200
0.999000 0.392200 0.673400
0.999000 0.392200 0.688200
0.999000 0.377400 0.703000
0.999000 0.377400 0.717800
0.999000 0.392200 0.703000
0.999000 0.392200 0.717800
0.999000 0.407000 0.614200
0.999000 0.407000 0.629000
0.999000 0.421800 0.614200
0.999000 0.421800 0.629000
0.999000 0.407000 0.643800
0.999000 0.407000 0.658600
0.999000 0.421800 0.643800
0.999000 0.421800 0.658600
0.999000 0.436600 0.614200
0.999000 0.436600 0.629000
0.999000 0.451400 0.614200
0.999000 0.451400 0.629000
0.999000 0.436600 0.643800
0.999000 0.436600 0.658600
0.999000 0.451400 0.643800
0.999000 0.451400 0.658600
0.999000 0.407000 0.673400
0.999000 0.407000 0.688200
0.999000 0.421800 0.673400
0.999000 0.421800 0.688200
0.999000 0.407000 0.703000
0.999000 0.407000 0.717800
0.999000 0.421800 0.703000
0.999000 0.421800 0.717800
0.999000 0.436600 0.673400
0.999000 0.436600 0.688200
0.999000 0.451400 0.673400
0.999000 0.451400 0.688200
0.999000 0.436600 0.703000
0.999000 0.436600 0.717800
0.999000 0.451400 0.703000
0.999000 0.451400 0.717800
0.999000 0.229400 0.732600
0.999000 0.229400 0.747400
0.999000 0.244200 0.732600
0.999000 0.244200 0.747400
0.999000 0.229400 0.762200
0.999000 0.229400 0.777000
0.999000 0.244200 0.762200
0.999000 0.244200 0.777000
0.999000 0.259000 0.732600
0.999000 0.259000 0.747400
0.999000 0.273800 0.732600
0.999000 0.273800 0.747400
0.999000 0.259000 0.762200
0.999000 0.259000 0.777000
0.999000 0.273800 0.762200
0.999000 0.273800 0.777000
0.999000 0.229400 0.791800
0.999000 0.229400 0.806600
0.999000 0.244200 0.791800
0.999000 0.244200 0.806600
0.999000 0.229400 0.821400
0.999000 0.229400 0.836200
0.999000 0.244200 0.821400
0.999000 0.244200 0.836200
0.999000 0.259000 0.791800
0.999000 0.259000 0.806600
0.999000 0.273800 0.791800
0.999000 0.273800 0.806600
0.999000 0.259000 0.821400
0.999000 0.259000 0.836200
0.999000 0.273800 0.821400
0.999000 0.273800 0.836200
0.999000 0.288600 0.732600
0.999000 0.288600 0.747400
0.999000 0.303400 0.732600
0.999000 0.303400 0.747400
0.999000 0.288600 0.762200
0.999000 0.288600 0.777000
0.999000 0.303400 0.762200
0.999000 0.303400 0.777000
0.999000 0.318200 0.732600
0.999000 0.318200 0.747400
0.999000 0.333000 0.732600
0.999000 0.333000 0.747400
0.999000 0.318200 0.762200
0.999000 0.318200 0.777000
0.999000 0.333000 0.762200
0.999000 0.333000 0.777000
0.999000 0.288600 0.791800
0.999000 0.288600 0.806600
0.999000 0.303400 0.791800
0.999000 0.303400 0.806600
0.999000 0.288600 0.821400
0.999000 0.288600 0.836200
0.999000 0.303400 0.821400
0.999000 0.303400 0.836200
0.999000 0.318200 0.791800
0.999000 0.318200 0.806600
0.999000 0.333000 0.791800
0.999000 0.333000 0.806600
0.999000 0.318200 0.821400
0.999000 0.318200 0.836200
0.999000 0.333000 0.821400
0.999000 0.333000 0.836200
0.999000 0.229400 0.851000
0.999000 0.229400 0.865800
0.999000 0.244200 0.851000
0.999000 0.244200 0.865800
0.999000 0.229400 0.880600
0.999000 0.229400 0.895400
0.999000 0.244200 0.880600
0.999000 0.244200 0.895400
0.999000 0.259000 0.851000
0.999000 0.259000 0.865800
0.999000 0.273800 0.851000
0.999000 0.273800 0.865800
0.999000 0.259000 0.880600
0.999000 0.259000 0.895400
0.999000 0.273800 0.880600
0.999000 0.273800 0.895400
0.999000 0.229400 0.910200
0.999000 0.229400 0.925000
0.999000 0.244200 0.910200
0.999000 0.244200 0.925000
0.999000 0.229400 0.939800
0.999000 0.229400 0.954600
0.999000 0.244200 0.939800
0.999000 0.244200 0.954600
0.999000 0.259000 0.910200
0.999000 0.259000 0.925000
0.999000 0.273800 0.910200
0.999000 0.273800 0.925000
0.999000 0.259000 0.939800
0.999000 0.259000 0.954600
0.999000 0.273800 0.939800
0.999000 0.273800 0.954600
0.999000 0.288600 0.851000
0.999000 0.288600 0.865800
0.999000 0.303400 0.851000
0.999000 0.303400 0.865800
0.999000 0.288600 0.880600
0.999000 0.288600 0.895400
0.999000 0.303400 0.880600
0.999000 0.303400 0.895400
0.999000 0.318200 0.851000
0.999000 0.318200 0.865800
0.999000 0.333000 0.851000
0.999000 0.333000 0.865800
0.999000 0.318200 0.880600
0.999000 0.318200 0.895400
0.999000 0.333000 0.880600
0.999000 0.333000 0.895400
0.999000 0.288600 0.910200
0.999000 0.288600 0.925000
0.999000 0.303400 0.910200
0.999000 0.303400 0.925000
0.999000 0.288600 0.939800
0.999000 0.288600 0.954600
0.999000 0.303400 0.939800
0.999000 0.303400 0.954600
0.999000 0.318200 0.910200
0.999000 0.318200 0.925000
0.999000 0.333000 0.910200
0.999000 0.333000 0.925000
0.999000 0.318200 0.939800
0.999000 0.318200 0.954600
0.999000 0.333000 0.939800
0.999000 0.333000 0.954600
0.999000 0.347800 0.732600
0.999000 0.347800 0.747400
0.999000 0.362600 0.732600
0.999000 0.362600 0.747400
0.999000 0.347800 0.762200
0.999000 0.347800 0.777000
0.999000 0.362600 0.762200
0.999000 0.362600 0.777000
0.999000 0.377400 0.732600
0.999000 0.377400 0.747400
0.999000 0.392200 0.732600
0.999000 0.392200 0.747400
0.999000 0.377400 0.762200
0.999000 0.377400 0.777000
0.999000 0.392200 0.762200
0.999000 0.392200 0.777000
0.999000 0.347800 0.791800
0.999000 0.347800 0.806600
0.999000 0.362600 0.791800
0.999000 0.362600 0.806600
0.999000 0.347800 0.821400
0.999000 0.347800 0.836200
0.999000 0.362600 0.821400
0.999000 0.362600 0.836200
0.999000 0.377400 0.791800
0.999000 0.377400 0.806600
0.999000 0.392200 0.791800
0.999000 0.392200 0.806600
0.999000 0.377400 0.821400
0.999000 0.377400 0.836200
0.999000 0.392200 0.821400
0.999000 0.392200 0.836200
0.999000 0.407000 0.732600
0.999000 0.407000 0.747400
0.999000 0.421800 0.732600
0.999000 0.421800 0.747400
0.999000 0.407000 0.762200
0.999000 0.407000 0.777000
0.999000 0.421800 0.762200
0.999000 0.421800 0.777000
0.999000 0.436600 0.732600
0.999000 0.436600 0.747400
0.999000 0.451400 0.732600
0.999000 0.451400 0.747400
0.999000 0.436600 0.762200
0.999000 0.436600 0.777000
0.999000 0.451400 0.762200
0.999000 0.451400 0.777000
0.999000 0.407000 0.791800
0.999000 0.407000 0.806600
0.999000 0.421800 0.791800
0.999000 0.421800 0.806600
0.999000 0.407000 0.821400
0.999000 0.407000 0.836200
0.999000 0.421800 0.821400
0.999000 0.421800 0.836200
0.999000 0.436600 0.791800
0.999000 0.436600 0.806600
0.999000 0.451400 0.791800
0.999000 0.451400 0.806600
0.999000 0.436600 0.821400
0.999000 0.436600 0.836200
0.999000 0.451400 0.821400
0.999000 0.451400 0.836200
0.999000 0.347800 0.851000
0.999000 0.347800 0.865800
0.999000 0.362600 0.851000
0.999000 0.362600 0.865800
0.999000 0.347800 0.880600
0.999000 0.347800 0.895400
0.999000 0.362600 0.880600
0.999000 0.362600 0.895400
