ply
format ascii 1.0
element vertex 1773
property float x
property float y
property float z
end_header
1.003545 0.070591 0.589324
0.990562 0.052120 0.615770
1.038517 0.069962 0.606404
0.996222 0.080892 0.627376
1.024727 0.061423 0.677471
0.997195 0.057312 0.686889
0.979294 0.053702 0.688952
0.999075 0.046857 0.715873
0.981935 0.083604 0.703567
0.977583 0.072736 0.714383
1.014380 0.037920 0.728797
1.008223 0.052726 0.734616
1.001771 0.076339 0.743458
0.968356 0.029785 0.795018
0.990797 0.086882 0.779041
1.013793 0.060234 0.820972
1.015232 0.052794 0.823230
0.986512 0.035373 0.837507
0.978424 0.060925 0.833664
1.012630 0.091419 0.863360
1.002756 0.067122 0.890063
1.004899 0.058081 0.892726
1.016294 0.069105 0.897443
0.992409 0.055001 0.905889
1.000469 0.068672 0.931601
1.025853 0.058766 0.949543
1.000345 0.059710 0.937849
0.979519 0.054276 0.974236
1.015787 0.040885 0.977494
0.979896 0.072858 0.010214
1.011100 0.055782 0.034024
1.013758 0.056736 0.049149
1.024006 0.117948 0.024563
0.969729 0.075562 0.051487
1.008220 0.097781 0.097664
0.991921 0.082771 0.084003
1.004475 0.045625 0.121869
0.984574 0.080656 0.135569
1.012870 0.054021 0.123181
1.030758 0.072505 0.143255
1.005186 0.086856 0.166555
0.994677 0.058265 0.174128
1.008765 0.076159 0.143017
0.980241 0.064124 0.185972
1.002959 0.096813 0.213072
0.966028 0.068136 0.210070
0.977379 0.069517 0.210565
0.996433 0.051419 0.227372
1.039669 0.069923 0.273870
1.028152 0.064090 0.279121
1.020272 0.081531 0.287205
1.008587 0.077797 0.312658
0.972441 0.074004 0.338251
0.989420 0.072929 0.336893
0.960890 0.082229 0.376797
0.985424 0.058292 0.367226
1.016354 0.053422 0.386256
1.018388 0.069032 0.372886
0.992562 0.063680 0.397010
0.980437 0.053455 0.418076
1.007101 0.071342 0.426753
0.979078 0.089877 0.468307
0.996492 0.080715 0.461420
1.004667 0.058147 0.469575
0.998277 0.052094 0.460304
1.019301 0.094366 0.509610
1.021960 0.064677 0.526592
0.967337 0.088142 0.540391
1.022837 0.091178 0.559848
1.000521 0.095344 0.535947
1.008695 0.039884 0.594037
1.011015 0.039300 0.607768
1.001297 0.042116 0.598189
1.008875 0.075125 0.623487
0.971345 0.073544 0.644635
0.974250 0.085127 0.669995
1.024051 0.061138 0.644124
1.003548 0.073774 0.687722
0.997345 0.096272 0.724461
0.990412 0.048258 0.716984
0.996147 0.083791 0.747089
0.999046 0.083875 0.755150
1.013088 0.085469 0.735248
0.978409 0.090990 0.805697
0.988219 0.070456 0.799503
1.006139 0.076864 0.799624
1.010765 0.063935 0.795248
1.014897 0.070752 0.845267
0.997910 0.088124 0.848721
1.007395 0.057694 0.824149
0.991187 0.074841 0.857836
1.003716 0.085282 0.883115
1.014510 0.094062 0.865798
0.961408 0.080150 0.879610
0.998897 0.043282 0.915639
1.017187 0.072965 0.947588
0.993940 0.041950 0.950558
0.996301 0.061119 0.947674
1.020400 0.058056 0.942407
0.999358 0.037121 0.947530
1.032320 0.092180 -0.013716
0.986961 0.068539 0.021586
1.005837 0.102975 0.049588
0.977996 0.091795 0.050082
1.019688 0.081751 0.052356
0.995817 0.098154 0.069947
1.013311 0.073054 0.051068
1.009132 0.101287 0.087543
0.988607 0.076057 0.152730
0.988887 0.074655 0.122299
1.000677 0.084074 0.152149
1.014886 0.095781 0.161332
0.999451 0.088235 0.181289
0.971229 0.109329 0.212330
1.016973 0.083701 0.187789
0.991788 0.061892 0.239687
0.991837 0.090023 0.209189
0.977994 0.063339 0.236100
0.977443 0.066192 0.245241
1.021798 0.072306 0.273371
1.007582 0.091561 0.281129
0.992521 0.051714 0.285528
0.986926 0.068307 0.308976
1.002820 0.093874 0.334459
1.025147 0.097339 0.329555
0.989286 0.080970 0.377498
0.978075 0.086996 0.356363
0.978487 0.098615 0.398365
0.968307 0.090548 0.373610
0.975532 0.086529 0.455803
0.991093 0.097396 0.429298
0.996666 0.065906 0.431633
0.985569 0.114828 0.438603
0.992182 0.076883 0.487083
1.006796 0.081399 0.488024
0.984628 0.086362 0.469815
1.016919 0.116047 0.512940
1.009310 0.074144 0.499484
1.023798 0.051585 0.531343
0.985856 0.083628 0.574079
1.007878 0.092208 0.566401
1.000978 0.096166 0.547120
1.017274 0.085902 0.593805
0.971356 0.067331 0.601450
1.003669 0.081956 0.609952
1.003649 0.082339 0.618381
0.989900 0.100429 0.663136
1.025475 0.082505 0.627811
0.996335 0.098836 0.691979
1.001872 0.102661 0.701928
1.013506 0.098513 0.686387
0.978461 0.116426 0.717035
0.994672 0.066745 0.714131
0.997881 0.085195 0.744442
0.989381 0.064711 0.755447
0.985661 0.091205 0.777909
0.965956 0.088098 0.789685
1.005153 0.098102 0.810355
0.985982 0.062921 0.799609
0.976399 0.076542 0.844600
0.986880 0.069610 0.889590
1.001878 0.075098 0.867528
1.003567 0.103297 0.897291
1.013916 0.091300 0.919103
1.014054 0.087572 0.901721
0.997964 0.081538 0.899574
1.006126 0.062683 0.935005
1.014669 0.099767 0.944301
1.016478 0.084239 0.944900
1.008314 0.095565 0.971131
1.014565 0.104804 0.982798
1.029058 0.118624 0.040087
0.988883 0.084118 0.011080
0.978808 0.108238 0.045699
0.999259 0.093497 0.042268
1.031351 0.103246 0.048772
1.000804 0.132683 0.053931
1.001816 0.087779 0.098021
1.018508 0.091768 0.094621
1.020952 0.120335 0.093717
1.016067 0.094851 0.136471
1.008029 0.105719 0.152556
1.019525 0.128806 0.130888
0.960718 0.114390 0.171696
1.028173 0.109837 0.231135
0.971435 0.087354 0.225931
1.015093 0.123674 0.196119
1.034570 0.111160 0.243049
0.988779 0.099772 0.254583
1.018696 0.134589 0.263061
0.993362 0.119997 0.277752
1.008575 0.080867 0.265870
0.992158 0.094713 0.303010
0.971698 0.114118 0.301830
1.020454 0.084149 0.336515
0.993636 0.115592 0.343597
0.976102 0.127990 0.355771
0.981206 0.106448 0.391283
0.990237 0.095801 0.419662
0.979666 0.095975 0.376317
0.990367 0.094739 0.413551
1.007416 0.123135 0.427434
0.996364 0.105306 0.436558
1.012969 0.074459 0.452665
0.999976 0.093240 0.472504
1.019617 0.112480 0.468696
1.018756 0.086368 0.481303
1.006816 0.090550 0.503922
1.034583 0.089001 0.550003
0.960168 0.096090 0.531252
1.014087 0.098237 0.577289
0.994684 0.085450 0.564643
0.977087 0.089222 0.580282
1.003049 0.070236 0.574599
0.983224 0.089053 0.596394
1.038331 0.069683 0.629591
0.968546 0.095596 0.632718
0.981114 0.114540 0.639966
0.982416 0.126614 0.644360
0.977288 0.099058 0.704272
1.038118 0.092869 0.702296
0.996119 0.068780 0.711156
0.997168 0.079650 0.729725
1.024344 0.092810 0.752080
0.981207 0.115117 0.775156
0.997152 0.097454 0.759087
1.020098 0.118026 0.774329
0.976735 0.093470 0.779220
0.995365 0.109901 0.800953
1.020056 0.074540 0.820310
1.004064 0.110380 0.855219
1.014359 0.084575 0.869148
0.986645 0.081002 0.842078
0.986872 0.107460 0.887065
0.980560 0.106364 0.862350
0.992368 0.121969 0.883897
0.968328 0.079828 0.913724
0.983380 0.103959 0.961638
0.999576 0.065114 0.942330
1.022128 0.104232 0.946341
1.004800 0.112620 0.971853
1.010223 0.065253 0.992923
1.004377 0.109052 0.017833
1.016783 0.137309 0.008344
1.007615 0.128895 -0.015331
0.972728 0.114695 0.037007
1.017110 0.122703 0.029130
0.986006 0.086914 0.073663
1.009846 0.116769 0.105428
0.983555 0.097751 0.100441
1.000557 0.122236 0.079017
1.011619 0.113404 0.114974
1.011015 0.118182 0.109941
0.976873 0.080517 0.120946
0.987552 0.128769 0.175279
0.990680 0.126308 0.197881
0.987123 0.132652 0.205061
1.004076 0.106868 0.247601
0.994669 0.134982 0.233746
0.987976 0.120652 0.270161
0.983125 0.124188 0.232695
0.971399 0.086656 0.273431
1.025285 0.121944 0.277164
1.001415 0.090469 0.309301
1.006353 0.123061 0.313420
0.999268 0.109915 0.310803
0.999257 0.135973 0.339172
1.008161 0.132588 0.354264
0.978083 0.117181 0.359695
0.981860 0.103773 0.361715
0.994259 0.131240 0.365742
1.009535 0.121632 0.433601
0.999863 0.121637 0.423400
0.994710 0.122099 0.473424
1.008040 0.092739 0.465201
0.991567 0.094831 0.455825
1.011902 0.117766 0.477151
1.004446 0.107613 0.498859
0.988679 0.101090 0.506004
0.985886 0.147032 0.520855
1.030404 0.109785 0.526018
0.978825 0.102113 0.546977
1.012192 0.132204 0.551316
1.009742 0.105131 0.585459
1.015917 0.100658 0.619139
1.004392 0.098120 0.598230
0.993797 0.123710 0.641305
1.007814 0.068440 0.627878
1.007788 0.094035 0.668361
0.991966 0.139707 0.679440
1.017998 0.086329 0.630960
1.015103 0.102286 0.697906
1.008966 0.101361 0.684921
0.993687 0.112667 0.722574
1.033025 0.110306 0.735178
1.000178 0.104573 0.776041
1.003985 0.075238 0.759483
0.976767 0.126956 0.759271
0.990527 0.121541 0.787123
1.019790 0.126691 0.795104
1.010166 0.129097 0.811546
1.005446 0.136909 0.830024
1.001069 0.130527 0.851130
0.985007 0.108818 0.883908
0.970915 0.118131 0.891993
1.010694 0.082541 0.899484
1.009985 0.123029 0.896472
0.991045 0.081011 0.925590
0.996852 0.117872 0.934212
1.020247 0.103510 0.942436
1.002198 0.139298 0.959712
1.039058 0.133171 0.972862
0.984946 0.115609 0.976005
0.998363 0.133251 0.015041
1.018455 0.096475 0.017233
0.996218 0.134514 0.019588
1.006924 0.098654 0.034290
1.013391 0.123877 0.059604
1.010108 0.131989 0.069775
0.998265 0.125551 0.084228
0.975234 0.107237 0.087690
1.003948 0.137360 0.107149
0.980495 0.161064 0.143133
1.005622 0.115450 0.143296
1.008127 0.155809 0.164855
0.987304 0.124244 0.191753
0.994007 0.119354 0.205631
1.023491 0.123241 0.226237
1.000647 0.097790 0.187493
1.000566 0.136013 0.255348
0.989047 0.130474 0.242146
1.038210 0.129072 0.246387
1.028012 0.115057 0.278318
0.975522 0.147599 0.298419
1.003495 0.112446 0.285617
0.962639 0.165644 0.308188
1.016623 0.134595 0.346298
0.981325 0.128788 0.334706
1.002176 0.130691 0.370739
0.992804 0.114246 0.371693
1.022974 0.132040 0.378499
1.017267 0.098230 0.407764
1.001438 0.135203 0.400966
0.976790 0.142350 0.433870
0.989160 0.128299 0.447838
1.023724 0.125088 0.446872
0.971265 0.151689 0.460322
1.003943 0.160356 0.450079
1.003088 0.101241 0.493192
1.027807 0.128899 0.508213
0.980490 0.137615 0.534095
0.982394 0.106243 0.540474
1.030409 0.149111 0.560871
1.018465 0.120262 0.584507
0.968073 0.082275 0.589647
1.012712 0.115357 0.592293
1.001165 0.114877 0.600669
0.991930 0.119789 0.624389
1.001937 0.139262 0.636414
1.017923 0.123745 0.647336
0.992516 0.114978 0.665478
0.994162 0.120772 0.664045
0.996453 0.111111 0.687489
0.996335 0.144937 0.715378
0.992935 0.114332 0.705665
0.972910 0.134433 0.748026
1.006187 0.126045 0.752329
1.015461 0.122748 0.786789
0.996643 0.102083 0.783158
1.003670 0.145345 0.771204
0.981387 0.154095 0.794237
0.968249 0.122553 0.828123
0.994822 0.139170 0.809670
0.979137 0.144329 0.852049
1.018457 0.101516 0.816854
1.005880 0.158256 0.876687
1.027166 0.151666 0.894276
0.990908 0.103765 0.906411
1.004792 0.129818 0.914496
1.001575 0.134045 0.915366
0.990738 0.122549 0.924979
1.005556 0.133251 0.988542
0.982603 0.122200 0.965529
0.993940 0.125666 0.996174
0.969217 0.142394 0.012668
1.001314 0.126534 0.011848
1.027103 0.145175 0.000904
1.020161 0.158459 0.050714
1.002993 0.149467 0.029160
0.992784 0.136596 0.097842
1.023168 0.167421 0.092767
0.988682 0.167708 0.108821
1.016553 0.131416 0.107774
0.994160 0.132067 0.117668
1.013756 0.148210 0.171525
0.995321 0.127782 0.131065
0.997209 0.143800 0.149718
1.013886 0.125481 0.202326
0.975953 0.136727 0.196922
1.006150 0.147353 0.215256
1.006891 0.130046 0.225659
1.030756 0.142826 0.256511
1.003817 0.162190 0.257610
1.019774 0.136281 0.278181
0.994933 0.147586 0.256795
0.984938 0.156673 0.278241
1.001837 0.142564 0.317634
0.990718 0.144848 0.325669
1.004421 0.156591 0.334415
1.018969 0.143083 0.363255
0.992462 0.149130 0.354698
1.036707 0.153781 0.368877
0.989887 0.119227 0.389100
0.972385 0.143137 0.392445
0.979101 0.155890 0.420004
0.994753 0.153223 0.438377
1.000353 0.142539 0.444882
0.996617 0.131488 0.448120
1.002721 0.137394 0.502036
0.973611 0.160162 0.481990
0.993579 0.119798 0.532561
1.005569 0.171401 0.524748
1.008968 0.112688 0.550440
0.982749 0.138407 0.549858
1.007916 0.114321 0.580993
0.996225 0.148967 0.583433
0.983770 0.123793 0.604680
0.999542 0.144957 0.616325
0.974885 0.147998 0.625017
1.012815 0.117018 0.651468
0.988832 0.145155 0.662145
0.990486 0.145099 0.667625
0.997152 0.153907 0.667155
0.995490 0.133610 0.718917
1.013327 0.152822 0.693232
0.987495 0.157431 0.714720
0.985802 0.126680 0.778362
0.991124 0.125041 0.766125
0.996061 0.124474 0.770762
0.986461 0.097631 0.804769
1.010905 0.147901 0.784802
1.000406 0.139374 0.801079
0.984221 0.156048 0.815088
0.985813 0.173597 0.833732
1.039114 0.103998 0.854433
1.017744 0.138142 0.893183
0.990978 0.139157 0.907768
1.015628 0.144624 0.915249
1.013926 0.168877 0.899223
0.972974 0.136995 0.943253
1.023403 0.192694 0.951483
0.992528 0.123704 0.959865
1.006616 0.136723 0.975890
1.025908 0.096494 0.961361
0.988799 0.139280 0.977028
1.012939 0.138404 -0.021660
0.976757 0.166350 0.027847
0.988444 0.154622 0.026926
0.974840 0.145160 0.031227
0.985874 0.142969 0.018994
1.017154 0.161094 0.100283
0.986980 0.142089 0.085834
1.013129 0.153117 0.075899
1.005267 0.161811 0.112599
0.998081 0.124821 0.140601
1.006903 0.154105 0.109103
1.003110 0.173380 0.138175
0.994376 0.160168 0.157749
0.993572 0.164844 0.186223
1.024210 0.167220 0.191806
0.991647 0.162645 0.218510
0.978756 0.155629 0.233846
1.007116 0.187489 0.259067
0.999165 0.178172 0.257603
1.010746 0.161516 0.261948
1.011955 0.128547 0.282094
0.994175 0.166732 0.277757
0.978133 0.164813 0.324075
0.998689 0.154834 0.325024
0.989288 0.150219 0.356492
1.001477 0.161508 0.345650
1.022991 0.167477 0.374465
0.999667 0.163907 0.396629
1.008029 0.153435 0.398561
1.002956 0.154013 0.408957
0.981482 0.129866 0.402244
0.964412 0.144644 0.458359
0.987791 0.148279 0.428134
1.019161 0.125598 0.492052
1.007858 0.186001 0.465771
1.011570 0.149077 0.486818
0.999095 0.179276 0.536104
0.989825 0.164185 0.519813
1.018713 0.123210 0.529065
0.963736 0.167465 0.542677
0.993491 0.139748 0.571966
0.999703 0.164373 0.546749
0.990621 0.158633 0.616898
0.988038 0.174485 0.580357
0.993347 0.145356 0.579584
0.990262 0.154177 0.653176
1.018141 0.175563 0.663593
1.005367 0.140783 0.671885
0.996505 0.164858 0.702818
0.995454 0.152252 0.669645
1.006031 0.164942 0.685843
1.003320 0.155589 0.751405
0.991386 0.147652 0.736659
0.994758 0.117210 0.760694
1.007953 0.177164 0.767493
1.011507 0.155008 0.765665
0.999559 0.154988 0.778587
0.990924 0.185077 0.801885
1.009454 0.156169 0.814387
0.999297 0.158140 0.823524
1.013043 0.159283 0.840356
1.008896 0.166166 0.867402
0.990779 0.151826 0.885724
0.979729 0.175443 0.890224
1.011144 0.140760 0.908372
0.981224 0.157656 0.907638
0.998775 0.148762 0.960929
0.989682 0.158797 0.955566
0.997005 0.164822 0.947743
1.010244 0.169943 0.987806
0.979244 0.151352 0.989709
1.003068 0.145339 -0.012375
1.032709 0.166487 0.002139
1.002601 0.181754 0.016278
1.007267 0.168390 0.040380
0.996317 0.160444 0.033195
1.001434 0.181843 0.077966
0.986440 0.182598 0.085321
1.027560 0.183987 0.098038
1.027465 0.141526 0.103245
0.980053 0.154039 0.113680
0.988859 0.176083 0.143819
1.010968 0.161994 0.168613
0.971359 0.141308 0.162666
0.996322 0.152683 0.171143
0.990071 0.186278 0.208739
1.026244 0.182687 0.216219
1.004012 0.190904 0.241247
0.985304 0.172124 0.231439
0.982215 0.162507 0.237850
1.032137 0.176140 0.260044
1.003834 0.170105 0.278407
0.998776 0.163991 0.313144
1.026181 0.191518 0.329037
0.988047 0.155091 0.358833
0.999502 0.147716 0.351658
1.005795 0.177483 0.358902
1.009711 0.162484 0.356521
0.978171 0.181872 0.344755
1.004076 0.157351 0.401939
1.001973 0.169902 0.388820
0.979464 0.144854 0.434386
1.016983 0.142189 0.431674
1.020285 0.156692 0.453984
0.995705 0.189329 0.463127
0.976685 0.134417 0.513166
0.993867 0.160530 0.466299
1.000712 0.151600 0.499313
1.004625 0.165657 0.492043
0.995055 0.170220 0.516825
0.984120 0.172027 0.522469
1.009117 0.145417 0.570499
1.016283 0.179708 0.592566
1.007406 0.167922 0.600279
1.011342 0.190258 0.601619
1.018520 0.197116 0.619691
1.011808 0.148846 0.653164
1.026659 0.161847 0.646469
0.981634 0.168638 0.677990
0.993774 0.170268 0.695212
1.005441 0.171173 0.696068
1.041769 0.176647 0.715578
1.011075 0.158281 0.707068
1.032180 0.189760 0.731540
1.031018 0.151139 0.703101
0.990674 0.157227 0.753504
1.013032 0.195495 0.766656
0.990819 0.164500 0.797174
1.018551 0.171107 0.792187
0.993923 0.171920 0.815440
1.006358 0.192301 0.813745
0.995527 0.173592 0.836838
0.994022 0.190515 0.862888
0.997216 0.184850 0.879438
1.003668 0.153458 0.889019
1.013130 0.164621 0.921547
1.012755 0.180417 0.925904
1.015153 0.164150 0.927894
1.008870 0.176111 0.973898
0.994313 0.153433 0.968191
1.007247 0.160590 0.952622
1.023860 0.158500 1.000320
1.002301 0.163354 0.011805
0.980426 0.195715 0.003378
1.016124 0.169591 0.018501
0.978975 0.176086 0.015852
0.984868 0.179607 0.053235
1.004071 0.186889 0.080953
0.979598 0.185783 0.076204
1.009970 0.245099 0.105001
0.980318 0.185885 0.096622
1.032818 0.181444 0.116533
0.998172 0.201679 0.148717
0.990825 0.190415 0.150109
1.027179 0.187949 0.182335
1.001988 0.177269 0.189272
1.014406 0.147992 0.187442
1.010021 0.195990 0.208728
0.989450 0.164339 0.233902
0.994234 0.175268 0.252908
0.996873 0.188122 0.253722
1.055531 0.199748 0.268852
1.007333 0.208454 0.264511
0.995824 0.188720 0.296662
1.009251 0.189127 0.301848
0.983539 0.179656 0.293090
0.986470 0.186011 0.324780
0.991120 0.187637 0.357372
1.007572 0.181888 0.376110
1.011293 0.188310 0.362320
0.992246 0.183397 0.420541
1.015470 0.180315 0.401318
0.999975 0.199808 0.420385
1.011147 0.179014 0.464963
0.980137 0.182538 0.442970
1.011538 0.186503 0.447670
1.001163 0.186327 0.477887
1.000860 0.196025 0.474558
1.001305 0.181713 0.490276
0.969167 0.153081 0.540192
0.993063 0.190499 0.543490
0.996019 0.206879 0.562083
1.010123 0.178716 0.583825
0.993879 0.155947 0.573193
0.990522 0.184176 0.611574
0.979913 0.193793 0.615197
0.983011 0.188985 0.602199
0.997956 0.191170 0.653267
0.994214 0.156748 0.607976
1.010711 0.188862 0.644653
1.015534 0.189316 0.680313
0.991320 0.175975 0.688182
1.005703 0.189856 0.711429
1.012119 0.187048 0.731424
0.999576 0.204964 0.749429
1.002440 0.194577 0.754194
0.984145 0.208763 0.750883
1.008512 0.155467 0.762834
1.035269 0.153187 0.791239
0.965181 0.173378 0.805850
0.971434 0.153140 0.810895
0.997356 0.184439 0.851809
0.993604 0.153696 0.849371
0.996891 0.191519 0.867051
0.999542 0.156839 0.876021
1.006496 0.174994 0.898585
0.972434 0.158006 0.909522
1.036252 0.204723 0.909158
0.974940 0.191421 0.920979
1.007404 0.200906 0.970707
1.011591 0.175515 0.968083
1.004861 0.162529 0.982821
1.000959 0.174563 0.983753
1.007092 0.198965 0.006231
0.978642 0.195492 0.027483
0.987992 0.211681 0.047938
0.996080 0.189763 0.039488
1.007929 0.194834 0.049047
0.981400 0.203343 0.087305
1.012547 0.181550 0.096215
1.016764 0.199033 0.092776
0.978715 0.202430 0.109900
1.002589 0.204678 0.120640
0.980330 0.232143 0.142301
0.992913 0.217707 0.162261
1.028811 0.205020 0.190486
0.987596 0.202382 0.161339
1.018093 0.197485 0.195776
1.003008 0.206152 0.203170
0.997554 0.194158 0.221073
1.000705 0.255712 0.226139
0.991684 0.221464 0.270461
0.965820 0.197198 0.247613
1.025623 0.194651 0.260540
1.020133 0.192992 0.316864
1.015207 0.214342 0.313064
0.995758 0.206566 0.340942
1.005106 0.232987 0.342254
0.992107 0.219020 0.322906
1.005644 0.216330 0.375350
1.021480 0.197810 0.369085
1.005117 0.197514 0.406183
1.014056 0.197653 0.409804
0.978429 0.207283 0.429409
0.984585 0.183145 0.416872
0.980349 0.195654 0.434895
1.027867 0.199302 0.451738
1.009206 0.207179 0.445430
0.978563 0.189793 0.486586
0.986293 0.199135 0.509925
1.002936 0.178629 0.529707
1.016535 0.189211 0.530329
0.991378 0.215504 0.598062
0.982844 0.192748 0.566072
0.996932 0.178156 0.594454
1.013883 0.195863 0.594911
0.983359 0.198500 0.603380
1.010448 0.214002 0.622460
0.976043 0.228075 0.655137
1.018162 0.231328 0.643160
1.017015 0.195859 0.651909
0.954436 0.210560 0.705947
0.995049 0.203562 0.689593
0.992219 0.173908 0.707115
1.014303 0.242360 0.714868
0.997715 0.182244 0.761507
1.017142 0.176388 0.763458
1.016449 0.178146 0.788319
0.997032 0.204192 0.758226
1.003186 0.171111 0.787507
0.985942 0.193964 0.810031
0.996216 0.204725 0.829630
0.994963 0.216515 0.838618
0.990898 0.188838 0.850024
1.014749 0.180559 0.835703
1.004263 0.202277 0.885638
0.968931 0.188430 0.898438
1.038298 0.177705 0.914177
1.001742 0.198394 0.953560
0.993659 0.194074 0.911087
1.018839 0.206269 0.957838
1.012106 0.176506 0.973132
1.034002 0.212667 0.986796
1.002959 0.181437 0.986346
0.994494 0.192488 -0.004164
0.994250 0.226110 0.010568
1.006224 0.209984 0.027528
0.993045 0.204407 0.067975
0.973031 0.230479 0.062161
0.985496 0.208307 0.079605
1.006989 0.216201 0.071989
1.007631 0.206327 0.083040
0.996806 0.195777 0.126310
1.010785 0.205232 0.101757
0.998276 0.203088 0.156807
0.980919 0.202058 0.149544
0.995248 0.227129 0.203050
0.967868 0.200549 0.185979
0.983347 0.206949 0.199088
1.031561 0.213199 0.235424
1.024637 0.225333 0.245408
0.991408 0.229886 0.257025
1.005907 0.187642 0.246117
1.003129 0.236520 0.261531
0.997573 0.217439 0.308074
0.993086 0.222475 0.284714
1.011247 0.230505 0.296684
0.989581 0.211776 0.316104
0.993968 0.201693 0.343176
1.009484 0.221932 0.372061
1.017379 0.180316 0.419235
0.999474 0.229539 0.381280
0.991548 0.211529 0.379916
0.986358 0.191950 0.427623
1.015182 0.189620 0.434446
1.004610 0.206176 0.442763
1.016329 0.227384 0.472684
1.010968 0.205212 0.459090
1.021542 0.214373 0.483185
1.004008 0.235968 0.488173
0.987695 0.192663 0.524987
1.007027 0.215631 0.545952
1.030968 0.216087 0.543935
0.994831 0.188813 0.558813
1.033817 0.233188 0.552854
0.979279 0.193615 0.598483
1.014511 0.215186 0.573185
1.032813 0.223471 0.601640
1.010189 0.211099 0.657143
1.013752 0.206300 0.615140
0.987085 0.228089 0.640467
0.977163 0.191714 0.656163
0.968177 0.208564 0.690778
0.964466 0.216698 0.698953
0.986773 0.189183 0.697752
1.002712 0.209083 0.712404
0.962957 0.214574 0.745214
0.988197 0.192032 0.767165
0.981558 0.207875 0.747212
1.005160 0.213709 0.790564
1.011279 0.219596 0.795147
1.005982 0.201921 0.803186
1.012851 0.193235 0.814363
1.017437 0.218364 0.837897
0.997364 0.233103 0.850078
1.023444 0.201685 0.856535
0.988548 0.191296 0.878816
1.024957 0.209446 0.911563
1.022371 0.236635 0.917131
1.018141 0.223837 0.940821
0.987603 0.224460 0.960061
1.007113 0.187056 0.944901
0.996916 0.227979 0.961500
0.999382 0.204926 0.999184
0.996308 0.223432 0.991060
0.979629 0.227324 -0.005285
1.006340 0.199557 -0.015876
1.015736 0.224466 0.014732
0.984629 0.229585 0.040546
0.958830 0.233945 0.053302
1.010429 0.229277 0.040249
1.033050 0.221385 0.071277
1.000083 0.237029 0.123068
1.011672 0.210446 0.123327
0.982853 0.222196 0.115395
0.973216 0.232993 0.134199
0.989416 0.213208 0.169892
1.013475 0.214938 0.178193
1.024488 0.220834 0.223352
0.997562 0.196132 0.206193
0.977230 0.192706 0.190238
1.004542 0.229155 0.236881
0.987244 0.199259 0.251086
0.980197 0.232666 0.274543
0.993368 0.223097 0.263061
1.006216 0.229953 0.281538
1.001542 0.210637 0.293459
0.990498 0.251214 0.297451
0.982078 0.241247 0.327444
0.974245 0.237138 0.354474
1.026288 0.255531 0.337647
0.990521 0.219038 0.366165
0.992876 0.212376 0.423203
1.005993 0.223807 0.386617
0.986823 0.235707 0.429577
1.001763 0.221087 0.442769
0.990317 0.237140 0.445060
0.994491 0.213980 0.443847
0.987384 0.211141 0.483335
1.028469 0.222830 0.496385
0.981443 0.229699 0.472987
0.983611 0.222711 0.489925
1.011517 0.231266 0.561524
0.975117 0.242231 0.542412
0.968543 0.227395 0.546305
0.989541 0.227865 0.563959
1.028447 0.197455 0.575714
0.969847 0.215336 0.592460
1.003674 0.239547 0.631823
0.980453 0.217327 0.617955
0.989810 0.221444 0.642803
1.010255 0.205495 0.621535
1.025488 0.240050 0.656021
0.988450 0.222639 0.648499
0.979071 0.238894 0.700458
1.014194 0.244489 0.689276
1.011382 0.217082 0.703362
1.003830 0.249001 0.747489
1.002804 0.205009 0.738392
0.964678 0.211255 0.723141
0.968168 0.266685 0.766866
1.018037 0.227805 0.790975
1.026464 0.232244 0.839490
1.016427 0.220474 0.823287
1.025686 0.232909 0.830554
1.018729 0.211675 0.841804
1.016593 0.229831 0.855345
1.015625 0.236829 0.852872
1.025468 0.220289 0.904482
1.002800 0.215899 0.936688
0.988747 0.214898 0.917475
0.998969 0.209827 0.924718
0.983846 0.231518 0.958970
0.997100 0.232291 0.976578
1.008600 0.231693 0.985040
0.979458 0.205837 0.998893
1.004632 0.228156 -0.018582
1.007341 0.204583 0.030739
1.000678 0.226737 0.015417
1.022976 0.240893 0.066053
0.998813 0.241228 0.029491
1.002222 0.226490 0.070033
1.010278 0.228949 0.082764
0.985042 0.248740 0.112756
0.980660 0.249087 0.131920
0.996902 0.211153 0.072992
1.019548 0.238447 0.133447
1.014161 0.262181 0.132734
0.989007 0.243741 0.176447
0.999591 0.253253 0.194683
1.005403 0.245394 0.189120
0.990727 0.242568 0.215344
0.981752 0.241901 0.249933
1.012015 0.260073 0.240413
0.992074 0.223133 0.250324
1.000370 0.227659 0.257057
1.011205 0.235490 0.291171
1.000200 0.220676 0.281609
0.985313 0.233208 0.321958
1.009356 0.248183 0.320221
0.984087 0.232455 0.304628
0.984561 0.265040 0.358601
0.998759 0.232602 0.364797
0.996568 0.237900 0.394024
0.998536 0.222563 0.406170
0.991508 0.234496 0.389344
1.003781 0.244474 0.429176
0.985806 0.240088 0.419305
0.990995 0.239464 0.454347
0.996052 0.261989 0.469774
1.012713 0.235625 0.473348
0.997543 0.232572 0.485526
0.993610 0.244901 0.503120
0.994614 0.243071 0.510031
1.006007 0.259159 0.536685
1.024486 0.213281 0.550281
1.038580 0.245911 0.559898
0.974011 0.213101 0.557624
0.982509 0.268193 0.601274
1.043558 0.209980 0.608486
1.001197 0.241979 0.643346
1.019309 0.226603 0.644418
0.986295 0.287082 0.624524
1.015998 0.256118 0.710579
0.988838 0.234490 0.662213
0.973971 0.233931 0.670381
0.993845 0.249893 0.700279
0.999245 0.232818 0.731439
0.998555 0.229293 0.722463
0.997733 0.210212 0.759267
0.989263 0.254533 0.763513
0.995314 0.224732 0.782162
1.003024 0.230495 0.801424
1.019564 0.218112 0.813236
1.031786 0.228120 0.815963
1.037101 0.266562 0.847978
1.017147 0.241310 0.847502
0.973436 0.242042 0.859628
1.010135 0.238198 0.878406
0.984140 0.257693 0.893049
1.002908 0.238314 0.910012
1.009453 0.248804 0.950028
1.010732 0.234106 0.963292
1.014870 0.217292 0.955921
1.014336 0.232081 0.967859
1.012443 0.221565 0.964333
0.987746 0.220688 1.000926
0.994367 0.246480 -0.024304
0.980893 0.243510 0.004118
0.991425 0.266756 0.021646
1.005708 0.267724 0.052304
0.989676 0.232106 0.031101
0.973078 0.237733 0.072953
0.999209 0.273992 0.104221
1.007736 0.238191 0.092077
1.003133 0.232313 0.128328
1.014971 0.272357 0.110308
1.013120 0.258235 0.141406
0.989351 0.268215 0.164811
0.995134 0.276657 0.174841
0.971191 0.250595 0.200915
0.985856 0.221797 0.183580
1.020566 0.240816 0.213293
1.026720 0.256813 0.213257
1.021606 0.256274 0.234213
0.980429 0.242710 0.267105
1.042513 0.248665 0.274771
0.981291 0.279026 0.275275
0.988971 0.272771 0.307481
0.989962 0.246638 0.323114
0.992848 0.262002 0.322370
0.996906 0.277363 0.357598
0.980159 0.252258 0.331300
0.999128 0.271990 0.369451
0.996036 0.267332 0.350996
1.011898 0.235475 0.405729
1.003657 0.286963 0.411131
0.996183 0.240272 0.452718
0.976031 0.264054 0.445025
1.002939 0.257951 0.443623
1.006860 0.217764 0.483001
1.021051 0.271529 0.473956
0.971906 0.234905 0.499190
0.991802 0.251401 0.524753
1.010460 0.240461 0.555407
1.007132 0.241768 0.517884
0.997182 0.239728 0.537696
1.007891 0.272078 0.570912
1.019077 0.259881 0.569492
1.032729 0.264488 0.594154
1.002053 0.260408 0.598362
1.014947 0.269977 0.625964
1.003902 0.266698 0.641385
1.004610 0.251146 0.638604
1.010792 0.280100 0.627975
1.011442 0.230609 0.675169
0.970142 0.267622 0.686658
0.994012 0.246595 0.716178
1.002563 0.258538 0.733223
1.014850 0.255797 0.732762
0.982918 0.275712 0.731747
0.996677 0.272907 0.740069
0.982055 0.259808 0.755676
1.008290 0.274411 0.781546
0.988089 0.265224 0.814502
1.025451 0.241158 0.844070
0.968779 0.274099 0.833453
1.018824 0.251551 0.839858
1.030853 0.216137 0.877399
0.982745 0.216427 0.875675
0.987465 0.245389 0.910046
1.016769 0.222281 0.886111
1.016301 0.266437 0.894251
0.990779 0.234693 0.915687
1.008715 0.283662 0.936693
1.009074 0.260486 0.961348
0.989940 0.259534 0.993894
1.010837 0.264957 0.960979
1.001765 0.291678 0.016484
1.030593 0.267118 0.008214
0.979746 0.258018 0.020416
0.993456 0.266475 0.012260
0.992946 0.253888 0.017008
0.982683 0.280582 0.047830
1.023041 0.261284 0.096813
1.012350 0.287053 0.071366
0.992540 0.265981 0.111598
1.037835 0.269859 0.140702
0.994323 0.299964 0.125622
1.014227 0.273610 0.113982
0.995953 0.280935 0.155228
0.986799 0.271869 0.174113
0.980313 0.300644 0.202079
0.977569 0.237131 0.214954
1.015137 0.281140 0.221940
1.014657 0.270778 0.245646
1.010709 0.273020 0.252094
1.008764 0.250735 0.257425
1.001880 0.262492 0.279995
1.034925 0.265288 0.305300
0.995893 0.257069 0.296559
0.979396 0.295782 0.318996
0.995320 0.290361 0.333655
0.978400 0.290470 0.349080
0.990177 0.246029 0.377961
1.000927 0.262833 0.379766
0.992911 0.256908 0.406066
1.017064 0.264401 0.418279
1.001724 0.307121 0.443437
1.020845 0.309688 0.442226
1.018080 0.288358 0.434310
0.971265 0.284804 0.469333
0.989950 0.236221 0.457292
0.993499 0.244383 0.486283
1.004031 0.259529 0.495304
1.015566 0.276580 0.508748
0.979314 0.283273 0.573401
1.020774 0.274135 0.566659
1.009396 0.281581 0.561707
0.987162 0.283022 0.622235
0.949778 0.246091 0.592941
1.009933 0.302110 0.604881
1.011848 0.263902 0.621451
1.020829 0.296871 0.616643
1.020760 0.247685 0.641239
1.000071 0.282583 0.677564
0.997584 0.259677 0.670137
0.968675 0.262922 0.692966
1.000979 0.293198 0.733303
0.978860 0.264528 0.706386
0.985846 0.296671 0.719363
0.995804 0.248568 0.724187
1.007315 0.250175 0.757379
1.025517 0.267866 0.769432
1.011674 0.260077 0.810162
1.010626 0.283251 0.811486
0.983924 0.233978 0.774530
0.990422 0.268270 0.823886
0.969871 0.273730 0.843696
0.963690 0.277856 0.861684
1.006022 0.254885 0.890484
1.012929 0.295657 0.902276
0.987515 0.266692 0.924111
0.994477 0.263338 0.927985
1.030661 0.269999 0.919611
0.976113 0.268298 0.950620
1.003784 0.255495 0.975303
1.020151 0.260263 0.986128
0.999711 0.258100 1.013666
0.974998 0.274762 0.026432
0.967531 0.266488 0.036278
0.974721 0.266847 0.008542
1.030457 0.268342 0.061454
1.002194 0.285665 0.049563
1.030303 0.293577 0.090108
1.033676 0.285655 0.098520
0.978261 0.297929 0.118855
1.019271 0.303656 0.126273
0.968698 0.300084 0.134796
1.024482 0.295272 0.150546
0.999804 0.285935 0.147754
0.994614 0.278888 0.141704
1.029054 0.258413 0.197319
0.963885 0.278582 0.212666
1.007122 0.293537 0.197313
1.006719 0.271221 0.206935
1.020149 0.275473 0.246316
1.011950 0.278221 0.258880
1.009172 0.289121 0.270751
1.020497 0.270396 0.260423
0.984454 0.263908 0.303437
0.995399 0.303795 0.352986
0.988981 0.304734 0.320980
0.998381 0.308412 0.326280
0.994829 0.250899 0.388040
0.989744 0.282990 0.393897
0.985634 0.306067 0.363505
0.995928 0.303745 0.365482
0.987305 0.290971 0.435282
1.006157 0.285056 0.408459
0.993527 0.295923 0.428928
0.991257 0.302185 0.468679
0.998177 0.280446 0.465592
0.994095 0.273399 0.493621
1.012156 0.309818 0.500836
0.999086 0.298186 0.496633
1.001348 0.292531 0.550101
1.005991 0.290750 0.520040
0.994893 0.280759 0.548855
0.974161 0.273280 0.573446
1.009615 0.266992 0.576705
1.019423 0.270619 0.602554
0.965514 0.255397 0.613517
1.007117 0.262406 0.624838
0.992062 0.292518 0.632660
1.014417 0.285986 0.665032
1.016945 0.267292 0.674578
1.002138 0.284875 0.690553
1.028909 0.283269 0.705838
0.969131 0.272750 0.689010
1.022784 0.302110 0.726775
1.016894 0.256262 0.739244
1.002467 0.301355 0.737666
0.993337 0.285331 0.751230
0.973192 0.256881 0.772241
0.992876 0.267118 0.789732
1.003160 0.272677 0.820268
1.010081 0.309166 0.825325
1.025014 0.293934 0.828070
1.006950 0.277558 0.864474
1.003962 0.294551 0.862011
0.991891 0.264088 0.860648
0.990844 0.280574 0.883224
0.955978 0.287863 0.899169
0.988209 0.268491 0.922882
0.991849 0.282353 0.921128
0.987900 0.274576 0.983090
1.001436 0.263409 0.975895
1.008806 0.284192 0.970805
1.000443 0.290906 1.017418
0.997729 0.303876 -0.004411
0.969500 0.291704 0.024509
0.984965 0.282112 0.037072
0.998086 0.295655 0.041028
0.993680 0.300757 0.048883
1.000233 0.311980 0.084197
0.987665 0.322741 0.091531
0.993920 0.321901 0.093701
1.014308 0.314638 0.111568
0.993486 0.295443 0.121349
0.992663 0.277721 0.124882
0.970360 0.292716 0.183588
0.991236 0.292210 0.157831
0.990356 0.301300 0.191215
0.972700 0.283512 0.197386
1.028702 0.302386 0.207189
1.023002 0.311232 0.205458
1.000892 0.335332 0.253897
0.988118 0.283680 0.232670
1.003411 0.300525 0.297425
0.983949 0.311168 0.294182
0.997378 0.296510 0.308679
0.998031 0.307976 0.308285
0.982611 0.288771 0.365782
0.999033 0.288921 0.352333
1.035655 0.270322 0.326445
1.008293 0.306763 0.364376
0.979321 0.311210 0.410758
0.969258 0.281212 0.381660
1.028564 0.291631 0.397183
1.018601 0.275363 0.416582
1.000532 0.269945 0.446530
0.999460 0.304305 0.425363
0.999356 0.292478 0.481750
1.019405 0.292934 0.506213
0.999753 0.260616 0.491808
1.011269 0.313129 0.492244
0.999640 0.291738 0.505289
1.006806 0.308398 0.528577
1.000330 0.329598 0.525591
1.003601 0.293880 0.550486
1.002327 0.310087 0.581051
1.013262 0.300187 0.563204
1.003092 0.305615 0.604595
0.996369 0.306116 0.626206
1.010792 0.321165 0.641644
0.967225 0.302528 0.667283
1.030723 0.298611 0.648378
1.001661 0.281851 0.675575
0.999244 0.287211 0.690206
0.991162 0.314079 0.695513
1.026162 0.256986 0.733880
0.993820 0.301093 0.734185
1.037705 0.294365 0.734492
0.996525 0.288794 0.751458
0.998988 0.312088 0.790267
0.984241 0.315905 0.810827
1.005600 0.292976 0.805318
0.981960 0.318817 0.811027
1.022389 0.290290 0.849600
0.988480 0.269754 0.828849
1.023131 0.300741 0.835123
1.002043 0.289076 0.861413
0.977907 0.287953 0.910431
0.987760 0.298869 0.913502
0.999472 0.305574 0.917151
0.992988 0.325368 0.942935
0.974871 0.319755 0.959234
1.012388 0.284342 0.964415
0.988721 0.300286 0.974265
0.995046 0.312866 0.996643
1.009644 0.332949 -0.017917
1.035293 0.327600 -0.021081
0.986687 0.296438 0.035723
0.984840 0.314625 0.053073
0.991441 0.293281 0.064871
1.008177 0.301926 0.055157
1.015480 0.306418 0.054985
0.979326 0.318856 0.108297
1.013006 0.305133 0.122856
0.996395 0.309728 0.107658
1.011201 0.270314 0.156351
1.007895 0.299174 0.162264
0.999476 0.311123 0.170637
1.006424 0.341653 0.184454
1.016315 0.305076 0.191922
0.991431 0.304621 0.213207
0.970803 0.303299 0.233758
0.989440 0.316723 0.235005
1.020731 0.311837 0.252825
1.048435 0.302503 0.264921
1.016593 0.284486 0.322398
0.999726 0.301658 0.311566
0.989084 0.333279 0.325314
0.982154 0.315134 0.336309
0.987506 0.306834 0.355275
1.013034 0.344429 0.350055
0.991964 0.331570 0.341555
0.998767 0.328712 0.364742
0.977928 0.324168 0.376781
1.006856 0.308105 0.389774
0.981295 0.297809 0.441132
0.980636 0.323885 0.435920
1.009287 0.336770 0.435835
1.011456 0.332571 0.454377
0.997983 0.291562 0.493093
0.996792 0.320752 0.508274
0.996135 0.301873 0.508530
0.989751 0.304747 0.529219
1.002262 0.305161 0.528661
0.980621 0.298996 0.573796
1.006573 0.298428 0.564654
0.980518 0.318432 0.565345
1.014015 0.327550 0.587901
0.960364 0.331481 0.595195
0.998705 0.316098 0.633135
1.006306 0.300032 0.634378
0.981389 0.307434 0.660096
1.022139 0.321706 0.685119
1.029676 0.287955 0.684734
1.003154 0.337215 0.688926
0.986098 0.322425 0.692478
0.997080 0.311408 0.709176
1.002737 0.301551 0.733718
0.999955 0.335515 0.740870
1.011086 0.282814 0.787664
1.001388 0.315851 0.787500
1.017577 0.293860 0.764396
1.015220 0.311766 0.801785
0.992906 0.326533 0.834912
0.979360 0.307315 0.860916
0.995471 0.321731 0.855643
0.991043 0.297012 0.860962
1.016843 0.279647 0.867973
0.996027 0.306124 0.885225
0.986847 0.313984 0.891468
0.993214 0.303157 0.897267
0.980189 0.316603 0.946720
0.998924 0.290849 0.955857
0.996709 0.319207 0.942295
1.006434 0.293567 0.958212
0.994038 0.297910 0.972655
1.001928 0.330955 -0.012959
0.988820 0.322338 -0.002494
0.997457 0.318890 0.037583
0.979544 0.321378 0.078051
1.014793 0.303948 0.075887
0.998646 0.332981 0.068353
0.995457 0.331582 0.091551
1.007475 0.312313 0.109948
0.993457 0.329021 0.109024
1.007744 0.318620 0.120028
0.998501 0.333395 0.152172
0.994457 0.325535 0.145460
1.026812 0.348713 0.182808
0.996436 0.331865 0.196333
0.992557 0.327209 0.225116
0.987644 0.343891 0.203679
1.014005 0.309133 0.207927
1.000571 0.296447 0.233599
1.023183 0.335715 0.254698
0.999078 0.334793 0.258158
1.006038 0.327706 0.257453
1.013294 0.313789 0.266903
1.004125 0.337990 0.287174
0.978043 0.312469 0.341036
0.993667 0.333460 0.354797
0.981791 0.302651 0.351479
0.997413 0.313502 0.332604
0.990489 0.323259 0.359676
0.995427 0.340529 0.425975
1.007479 0.309482 0.416999
1.000110 0.330144 0.430034
0.989337 0.308544 0.438263
1.010172 0.320124 0.470430
0.997868 0.361445 0.452266
1.021909 0.322930 0.501082
0.994969 0.316975 0.488629
1.040119 0.317545 0.515482
1.005670 0.323751 0.536084
1.016325 0.337287 0.531221
1.000986 0.311985 0.558137
1.005223 0.310679 0.617473
1.003668 0.326582 0.564211
0.974745 0.316656 0.572371
1.016444 0.329915 0.564360
0.991057 0.302210 0.594456
1.008934 0.339687 0.638354
0.992201 0.317328 0.664839
1.004861 0.315995 0.668133
0.980626 0.319083 0.680379
0.975133 0.338784 0.694618
0.986746 0.319207 0.708385
1.000996 0.362392 0.720660
1.010117 0.362920 0.738624
1.000765 0.334998 0.756104
0.995728 0.316585 0.764083
0.999933 0.312645 0.767338
1.011703 0.307152 0.781845
0.985831 0.327319 0.807803
1.018780 0.320206 0.835769
1.014559 0.330862 0.818666
1.017633 0.306757 0.826704
1.001699 0.345324 0.869487
1.023690 0.350023 0.884007
1.018673 0.341624 0.884275
1.022835 0.338255 0.944309
1.006272 0.334555 0.923680
1.000947 0.314403 0.913052
1.003801 0.336117 0.950614
0.972262 0.329536 0.946047
0.983353 0.344411 0.940423
1.025301 0.321425 0.985909
0.990355 0.336943 -0.015549
0.989055 0.348174 -0.007261
0.994877 0.321755 0.021136
0.993893 0.349193 0.027569
0.990071 0.362994 0.080755
0.986893 0.318577 0.068989
1.000365 0.349532 0.072546
1.002329 0.363655 0.116919
1.020819 0.334821 0.096760
1.003730 0.341354 0.121459
1.012670 0.344616 0.124989
1.008897 0.340374 0.171897
1.003777 0.357956 0.184481
1.019770 0.310612 0.195948
1.000318 0.328041 0.185654
1.014930 0.332893 0.223104
1.002146 0.346769 0.202017
1.020000 0.347893 0.250187
0.998718 0.385353 0.262616
0.989036 0.312163 0.290266
0.996355 0.331149 0.288758
1.006480 0.343659 0.315090
0.984766 0.311739 0.327947
1.010367 0.328831 0.305937
0.987390 0.327388 0.322515
0.988527 0.360634 0.361691
0.998148 0.325057 0.349142
1.012732 0.364778 0.408414
0.977234 0.311445 0.396329
1.002439 0.316649 0.398266
0.995738 0.329569 0.444938
0.970803 0.333075 0.453520
0.980419 0.355065 0.468803
0.990859 0.353071 0.451745
1.004858 0.336464 0.496272
0.989699 0.317294 0.474336
0.998918 0.354865 0.497407
0.966674 0.344171 0.552179
1.018636 0.380425 0.528529
1.011368 0.347591 0.557836
0.980669 0.358868 0.568782
0.991309 0.380451 0.573631
1.000541 0.331047 0.579938
0.984623 0.340914 0.605303
1.026351 0.315506 0.628303
0.990271 0.368965 0.619114
0.982541 0.338340 0.645727
0.987135 0.349381 0.661055
1.000542 0.330142 0.680638
1.018219 0.335389 0.685972
1.001477 0.330512 0.710679
0.967292 0.332365 0.719750
0.987480 0.337907 0.724026
1.030264 0.340758 0.757421
1.012120 0.326658 0.801275
1.001239 0.364342 0.770443
1.004652 0.343263 0.778869
1.009847 0.362124 0.831122
1.005726 0.343863 0.799758
0.986930 0.359607 0.849718
1.029279 0.345753 0.859166
1.002400 0.336751 0.883703
1.003781 0.336523 0.910809
1.001608 0.335845 0.904878
1.000474 0.345516 0.920498
0.977761 0.325601 0.938225
1.014364 0.322742 0.935047
0.993027 0.330410 0.936229
0.965550 0.329269 0.984184
1.008782 0.340251 0.982735
1.006477 0.310335 1.006534
1.006269 0.328698 -0.000743
1.025743 0.355117 0.037270
1.002851 0.360885 0.030057
1.019359 0.347655 0.046438
0.986262 0.374574 0.033214
1.009743 0.335568 0.052754
0.995995 0.348498 0.076166
0.962669 0.376779 0.096603
0.968863 0.353929 0.104651
0.990436 0.379700 0.165636
0.988830 0.357985 0.156405
0.989839 0.339597 0.156364
1.009344 0.371436 0.164701
1.006360 0.343673 0.180166
0.998437 0.338864 0.227000
0.993152 0.349009 0.237075
1.031477 0.387335 0.229505
1.005540 0.328789 0.238634
0.972240 0.344728 0.297291
0.976298 0.365797 0.265192
0.998198 0.358918 0.294830
1.016304 0.357622 0.323752
1.032384 0.343552 0.309573
0.996826 0.339746 0.319029
1.013408 0.375539 0.314023
1.018304 0.333614 0.338607
1.004941 0.335160 0.371442
0.994632 0.338787 0.384355
0.982952 0.360688 0.411255
1.019326 0.378765 0.386435
0.973047 0.362752 0.428106
1.033203 0.368026 0.412612
0.991936 0.332924 0.459387
1.007502 0.367402 0.458597
1.012775 0.354197 0.483177
0.986727 0.381493 0.481237
0.968396 0.366451 0.521728
1.005158 0.360519 0.516501
0.990494 0.356858 0.512560
1.016795 0.351925 0.562186
0.991465 0.342285 0.543685
0.979842 0.355869 0.585770
0.992796 0.353593 0.581533
1.001256 0.371959 0.612014
1.027735 0.326073 0.620516
1.021285 0.357975 0.649856
1.010863 0.349934 0.665575
1.010332 0.346806 0.663361
0.993570 0.367349 0.674927
0.987630 0.331051 0.697367
0.993711 0.373978 0.704283
1.002575 0.324185 0.704237
1.012658 0.377500 0.725740
1.002560 0.344811 0.735496
0.990800 0.347338 0.769701
0.993033 0.350204 0.771522
1.001629 0.351034 0.803388
0.993110 0.358605 0.808225
0.984233 0.339602 0.834595
1.013458 0.358753 0.832550
1.016635 0.346135 0.845069
1.002699 0.350946 0.871178
0.995242 0.364133 0.860394
1.021637 0.344109 0.909748
1.007084 0.346890 0.907883
0.990494 0.347297 0.915891
1.015598 0.372029 0.926329
1.029957 0.340535 0.946462
0.991718 0.355362 0.960797
1.025751 0.333053 0.990928
0.993525 0.365293 1.025303
1.017061 0.367342 0.023635
1.007326 0.362030 0.003169
0.998589 0.362799 0.022256
0.999756 0.386887 0.032475
0.986763 0.324791 0.045552
1.003388 0.372843 0.110019
1.010222 0.388811 0.094867
0.992527 0.388434 0.096703
0.999588 0.368306 0.143049
0.979028 0.386593 0.128161
1.011132 0.366366 0.114370
0.986261 0.389612 0.150817
0.993893 0.368281 0.166859
1.010864 0.353503 0.181473
1.000142 0.373395 0.173517
1.005378 0.373666 0.205733
0.994108 0.374696 0.239640
0.988921 0.332544 0.248750
0.990939 0.348352 0.246442
1.007772 0.361538 0.266389
0.997458 0.396410 0.274257
0.996345 0.362675 0.287280
1.019948 0.385417 0.298330
0.993754 0.363802 0.299707
1.005592 0.391097 0.370600
1.007926 0.370846 0.317714
1.014169 0.348794 0.385240
0.987579 0.362059 0.371939
1.006174 0.359812 0.369837
0.986160 0.391619 0.389836
1.000954 0.405516 0.444469
1.009803 0.349819 0.444478
0.988198 0.371856 0.458802
1.011577 0.365269 0.491860
1.023409 0.376181 0.496787
1.019042 0.364324 0.485534
0.984013 0.367725 0.502864
1.024453 0.369447 0.541568
0.995468 0.396948 0.558501
1.016889 0.344151 0.541836
1.000815 0.371637 0.542440
1.023369 0.355726 0.593249
1.002484 0.377693 0.565835
0.990655 0.366000 0.626138
1.006930 0.352737 0.619671
0.988632 0.396257 0.633623
1.005423 0.382135 0.639830
0.999961 0.382132 0.663290
1.014726 0.397311 0.660675
0.991309 0.377476 0.713562
1.020311 0.368186 0.689131
0.995654 0.360744 0.735738
0.962328 0.364482 0.741927
1.023017 0.373409 0.740391
1.013964 0.340299 0.763621
0.990537 0.337105 0.800513
0.992918 0.353854 0.792127
0.999382 0.368572 0.790413
1.009779 0.346529 0.808170
0.997940 0.353657 0.836575
0.994327 0.369052 0.871551
0.973220 0.384264 0.867246
0.993708 0.359121 0.886719
0.970839 0.374317 0.895764
0.983285 0.364441 0.888205
1.007730 0.355652 0.915888
0.984744 0.377093 0.930044
1.006357 0.371993 0.950209
0.998262 0.373222 0.976400
1.023592 0.378607 0.968402
1.000818 0.347773 0.969071
0.995511 0.401399 -0.020815
0.991418 0.385436 0.010386
0.980818 0.407231 0.026559
0.991394 0.405373 0.044537
0.998414 0.386488 0.047447
1.001646 0.369528 0.089349
0.977864 0.369396 0.038903
1.033702 0.391917 0.108790
0.981028 0.374637 0.104319
0.995983 0.404097 0.131115
1.010082 0.387538 0.137289
0.981435 0.372259 0.128720
1.011445 0.384629 0.165305
0.989343 0.383769 0.197664
0.987606 0.392975 0.193188
1.002905 0.391817 0.207960
1.004109 0.368555 0.239813
1.007795 0.390249 0.257735
0.991970 0.347472 0.251185
0.992071 0.389393 0.282154
1.003071 0.392134 0.255889
0.996693 0.351320 0.274071
0.985421 0.397815 0.341563
0.970925 0.380933 0.352749
1.003179 0.352593 0.322684
1.023222 0.365778 0.335986
1.002462 0.375742 0.383831
1.044142 0.380396 0.388327
0.999586 0.397214 0.372545
1.004779 0.388243 0.408383
0.976502 0.391627 0.427440
1.012268 0.372803 0.450760
1.006391 0.358327 0.436418
0.971360 0.401885 0.463976
1.029406 0.394349 0.492476
0.998313 0.363952 0.501027
0.963779 0.360671 0.521105
1.018218 0.376197 0.513240
1.010744 0.360295 0.530353
0.990653 0.341654 0.566145
0.994691 0.388788 0.560784
0.971885 0.366033 0.556153
1.002606 0.364439 0.598462
1.001295 0.395490 0.584925
1.027897 0.384328 0.630614
0.984263 0.394783 0.620895
0.997380 0.372191 0.651276
1.031568 0.369467 0.665425
1.012902 0.394678 0.664601
0.978639 0.374296 0.672592
0.995691 0.380739 0.718156
0.979036 0.370830 0.771781
1.005121 0.402857 0.752002
0.970342 0.397052 0.742207
0.987830 0.360468 0.767005
0.970097 0.376369 0.786232
0.989624 0.365622 0.787101
1.023042 0.413136 0.782912
1.019027 0.368132 0.810888
1.026971 0.396257 0.798602
1.010989 0.354982 0.851442
1.024135 0.360638 0.850508
1.006494 0.380207 0.850322
1.004395 0.382345 0.871041
1.009568 0.372402 0.922083
1.017095 0.385088 0.901707
1.036124 0.396805 0.930579
0.993734 0.387052 0.954448
0.985331 0.387214 0.954105
1.000763 0.388711 1.005980
0.980135 0.410456 0.998869
0.980375 0.399608 -0.001122
1.016970 0.394928 0.011574
1.024217 0.390792 0.029750
0.991593 0.377594 0.051766
0.988019 0.393886 0.063942
1.005177 0.366938 0.072729
1.009832 0.396820 0.082032
1.002783 0.404142 0.096810
1.011100 0.416483 0.114960
0.992816 0.383165 0.125855
0.959211 0.401198 0.144668
0.989873 0.369823 0.142023
0.978928 0.373248 0.160989
1.029529 0.410438 0.157919
0.978625 0.408183 0.224710
0.992317 0.378317 0.211580
0.999072 0.377247 0.219932
1.017155 0.398108 0.234367
1.003892 0.444037 0.252108
0.986436 0.396155 0.235821
0.982596 0.399342 0.284237
1.002594 0.407552 0.324374
1.033846 0.402695 0.334716
0.973611 0.406261 0.336991
0.974655 0.400415 0.330036
1.010127 0.390116 0.364288
0.974287 0.384088 0.375083
0.990785 0.401625 0.406504
0.976810 0.410612 0.387930
1.014240 0.388897 0.422875
0.999346 0.393381 0.408545
1.027064 0.369967 0.421676
0.994250 0.383391 0.439486
0.990721 0.384352 0.439905
0.994733 0.383953 0.478484
0.970578 0.391604 0.511228
1.010493 0.414525 0.514677
0.993932 0.406608 0.525896
0.984613 0.406928 0.524166
0.986327 0.378047 0.515979
1.008607 0.401823 0.556712
1.041013 0.402306 0.564264
1.007376 0.390027 0.594551
1.012297 0.415386 0.602866
1.004794 0.382217 0.616546
1.026541 0.419236 0.629379
0.961580 0.381463 0.624646
1.018473 0.386438 0.657344
1.004312 0.387188 0.682991
0.999101 0.402782 0.695652
1.007381 0.396181 0.698429
1.058112 0.403537 0.717393
1.002944 0.389571 0.722941
1.016348 0.387392 0.734491
1.016912 0.386221 0.749029
1.011862 0.381175 0.793942
0.999437 0.402586 0.809350
1.022574 0.419127 0.800269
1.000268 0.427395 0.848261
0.980453 0.392026 0.810758
1.006640 0.383090 0.861839
1.012743 0.382420 0.847564
1.009935 0.410037 0.891234
0.995796 0.383048 0.916460
1.030224 0.403689 0.906165
0.999210 0.387391 0.916371
0.991702 0.421306 0.980591
1.003145 0.387322 0.928888
1.028242 0.374893 0.955550
1.010562 0.391315 0.980076
1.004493 0.401171 0.981332
0.978996 0.408202 0.007092
0.987375 0.403368 -0.007642
1.024305 0.433613 0.026658
1.006466 0.394619 0.055063
1.018696 0.367867 0.047288
0.996958 0.451966 0.048652
1.020091 0.396639 0.088517
1.026772 0.425097 0.097949
1.020943 0.401560 0.102865
0.997637 0.397845 0.146365
1.021043 0.402298 0.148859
1.000070 0.408964 0.170151
1.015120 0.429875 0.178397
1.004463 0.417779 0.193373
1.014001 0.418693 0.208091
0.976047 0.403863 0.197916
0.990979 0.415460 0.238237
1.007713 0.418260 0.260747
1.031068 0.400444 0.234489
0.995574 0.413182 0.238899
0.992973 0.396304 0.277748
0.991952 0.408202 0.271011
1.020353 0.419370 0.311905
0.982006 0.427637 0.323582
1.013010 0.425959 0.343736
0.980370 0.436249 0.345409
0.965715 0.405151 0.331969
1.010999 0.409919 0.400395
1.008402 0.393796 0.373759
0.996839 0.421946 0.380790
0.993607 0.390273 0.423670
1.016080 0.411905 0.446709
1.003053 0.397604 0.454533
1.015622 0.403801 0.466044
1.004935 0.411202 0.472996
1.020122 0.395694 0.518684
1.027185 0.404309 0.507035
0.978018 0.385384 0.490744
0.991619 0.373030 0.559425
0.997240 0.404755 0.543782
