ply
format ascii 1.0
element vertex 1764
property float x
property float y
property float z
end_header
0.739500 0.382500 0.994500
0.756500 0.365500 0.994500
0.756500 0.382500 0.994500
0.773500 0.263500 0.994500
0.773500 0.280500 0.994500
0.790500 0.263500 0.994500
0.790500 0.280500 0.994500
0.773500 0.297500 0.994500
0.773500 0.314500 0.994500
0.790500 0.297500 0.994500
0.790500 0.314500 0.994500
0.807500 0.263500 0.994500
0.807500 0.280500 0.994500
0.824500 0.263500 0.994500
0.824500 0.280500 0.994500
0.807500 0.297500 0.994500
0.807500 0.314500 0.994500
0.824500 0.297500 0.994500
0.824500 0.314500 0.994500
0.773500 0.331500 0.994500
0.773500 0.348500 0.994500
0.790500 0.331500 0.994500
0.790500 0.348500 0.994500
0.773500 0.365500 0.994500
0.773500 0.382500 0.994500
0.790500 0.365500 0.994500
0.790500 0.382500 0.994500
0.807500 0.331500 0.994500
0.807500 0.348500 0.994500
0.824500 0.331500 0.994500
0.824500 0.348500 0.994500
0.807500 0.365500 0.994500
0.807500 0.382500 0.994500
0.824500 0.365500 0.994500
0.824500 0.382500 0.994500
0.705500 0.399500 0.994500
0.705500 0.416500 0.994500
0.722500 0.399500 0.994500
0.722500 0.416500 0.994500
0.705500 0.433500 0.994500
0.705500 0.450500 0.994500
0.722500 0.433500 0.994500
0.722500 0.450500 0.994500
0.739500 0.399500 0.994500
0.739500 0.416500 0.994500
0.756500 0.399500 0.994500
0.756500 0.416500 0.994500
0.739500 0.433500 0.994500
0.739500 0.450500 0.994500
0.756500 0.433500 0.994500
0.756500 0.450500 0.994500
0.705500 0.467500 0.994500
0.705500 0.484500 0.994500
0.722500 0.467500 0.994500
0.722500 0.484500 0.994500
0.705500 0.501500 0.994500
0.705500 0.518500 0.994500
0.722500 0.501500 0.994500
0.722500 0.518500 0.994500
0.739500 0.467500 0.994500
0.739500 0.484500 0.994500
0.756500 0.467500 0.994500
0.756500 0.484500 0.994500
0.739500 0.501500 0.994500
0.739500 0.518500 0.994500
0.756500 0.501500 0.994500
0.756500 0.518500 0.994500
0.773500 0.399500 0.994500
0.773500 0.416500 0.994500
0.790500 0.399500 0.994500
0.790500 0.416500 0.994500
0.773500 0.433500 0.994500
0.773500 0.450500 0.994500
0.790500 0.433500 0.994500
0.790500 0.450500 0.994500
0.807500 0.399500 0.994500
0.807500 0.416500 0.994500
0.824500 0.399500 0.994500
0.824500 0.416500 0.994500
0.807500 0.433500 0.994500
0.807500 0.450500 0.994500
0.824500 0.433500 0.994500
0.824500 0.450500 0.994500
0.773500 0.467500 0.994500
0.773500 0.484500 0.994500
0.790500 0.467500 0.994500
0.790500 0.484500 0.994500
0.773500 0.501500 0.994500
0.773500 0.518500 0.994500
0.790500 0.501500 0.994500
0.790500 0.518500 0.994500
0.807500 0.467500 0.994500
0.807500 0.484500 0.994500
0.824500 0.467500 0.994500
0.824500 0.484500 0.994500
0.807500 0.501500 0.994500
0.807500 0.518500 0.994500
0.824500 0.501500 0.994500
0.824500 0.518500 0.994500
0.841500 -0.008500 0.569500
0.841500 -0.008500 0.586500
0.858500 -0.008500 0.569500
0.858500 -0.008500 0.586500
0.841500 -0.008500 0.603500
0.841500 -0.008500 0.620500
0.858500 -0.008500 0.603500
0.858500 -0.008500 0.620500
0.875500 -0.008500 0.569500
0.875500 -0.008500 0.586500
0.892500 -0.008500 0.569500
0.892500 -0.008500 0.586500
0.875500 -0.008500 0.603500
0.875500 -0.008500 0.620500
0.892500 -0.008500 0.603500
0.892500 -0.008500 0.620500
0.841500 -0.008500 0.637500
0.841500 -0.008500 0.654500
0.858500 -0.008500 0.637500
0.858500 -0.008500 0.654500
0.841500 -0.008500 0.671500
0.841500 -0.008500 0.688500
0.858500 -0.008500 0.671500
0.858500 -0.008500 0.688500
0.875500 -0.008500 0.637500
0.875500 -0.008500 0.654500
0.892500 -0.008500 0.637500
0.892500 -0.008500 0.654500
0.875500 -0.008500 0.671500
0.875500 -0.008500 0.688500
0.892500 -0.008500 0.671500
0.892500 -0.008500 0.688500
0.909500 -0.008500 0.569500
0.909500 -0.008500 0.586500
0.926500 -0.008500 0.569500
0.926500 -0.008500 0.586500
0.909500 -0.008500 0.603500
0.909500 -0.008500 0.620500
0.926500 -0.008500 0.603500
0.926500 -0.008500 0.620500
0.943500 -0.008500 0.569500
0.943500 -0.008500 0.586500
0.960500 -0.008500 0.569500
0.960500 -0.008500 0.586500
0.943500 -0.008500 0.603500
0.943500 -0.008500 0.620500
0.960500 -0.008500 0.603500
0.960500 -0.008500 0.620500
0.909500 -0.008500 0.637500
0.909500 -0.008500 0.654500
0.926500 -0.008500 0.637500
0.926500 -0.008500 0.654500
0.909500 -0.008500 0.671500
0.909500 -0.008500 0.688500
0.926500 -0.008500 0.671500
0.926500 -0.008500 0.688500
0.943500 -0.008500 0.637500
0.943500 -0.008500 0.654500
0.960500 -0.008500 0.637500
0.960500 -0.008500 0.654500
0.943500 -0.008500 0.671500
0.943500 -0.008500 0.688500
0.960500 -0.008500 0.671500
0.960500 -0.008500 0.688500
0.841500 -0.008500 0.705500
0.841500 -0.008500 0.722500
0.858500 -0.008500 0.705500
0.858500 -0.008500 0.722500
0.841500 -0.008500 0.739500
0.841500 -0.008500 0.756500
0.858500 -0.008500 0.739500
0.858500 -0.008500 0.756500
0.875500 -0.008500 0.705500
0.875500 -0.008500 0.722500
0.892500 -0.008500 0.705500
0.892500 -0.008500 0.722500
0.875500 -0.008500 0.739500
0.875500 -0.008500 0.756500
0.892500 -0.008500 0.739500
0.892500 -0.008500 0.756500
0.841500 -0.008500 0.773500
0.841500 -0.008500 0.790500
0.858500 -0.008500 0.773500
0.858500 -0.008500 0.790500
0.841500 -0.008500 0.807500
0.841500 -0.008500 0.824500
0.858500 -0.008500 0.807500
0.858500 -0.008500 0.824500
0.875500 -0.008500 0.773500
0.875500 -0.008500 0.790500
0.892500 -0.008500 0.773500
0.892500 -0.008500 0.790500
0.875500 -0.008500 0.807500
0.875500 -0.008500 0.824500
0.892500 -0.008500 0.807500
0.892500 -0.008500 0.824500
0.909500 -0.008500 0.705500
0.909500 -0.008500 0.722500
0.926500 -0.008500 0.705500
0.926500 -0.008500 0.722500
0.909500 -0.008500 0.739500
0.909500 -0.008500 0.756500
0.926500 -0.008500 0.739500
0.926500 -0.008500 0.756500
0.943500 -0.008500 0.705500
0.943500 -0.008500 0.722500
0.960500 -0.008500 0.705500
0.960500 -0.008500 0.722500
0.943500 -0.008500 0.739500
0.943500 -0.008500 0.756500
0.960500 -0.008500 0.739500
0.960500 -0.008500 0.756500
0.909500 -0.008500 0.773500
0.909500 -0.008500 0.790500
0.926500 -0.008500 0.773500
0.926500 -0.008500 0.790500
0.909500 -0.008500 0.807500
0.909500 -0.008500 0.824500
0.926500 -0.008500 0.807500
0.926500 -0.008500 0.824500
0.943500 -0.008500 0.773500
0.943500 -0.008500 0.790500
0.960500 -0.008500 0.773500
0.960500 -0.008500 0.790500
0.943500 -0.008500 0.807500
0.943500 -0.008500 0.824500
0.960500 -0.008500 0.807500
0.960500 -0.008500 0.824500
0.977500 -0.008500 0.569500
0.977500 -0.008500 0.586500
0.994500 -0.008500 0.569500
0.994500 -0.008500 0.586500
0.994500 0.008500 0.569500
0.994500 0.008500 0.586500
0.977500 -0.008500 0.603500
0.977500 -0.008500 0.620500
0.994500 -0.008500 0.603500
0.994500 -0.008500 0.620500
0.994500 0.008500 0.603500
0.994500 0.008500 0.620500
0.994500 0.025500 0.569500
0.994500 0.025500 0.586500
0.994500 0.042500 0.569500
0.994500 0.042500 0.586500
0.994500 0.025500 0.603500
0.994500 0.025500 0.620500
0.994500 0.042500 0.603500
0.994500 0.042500 0.620500
0.977500 -0.008500 0.637500
0.977500 -0.008500 0.654500
0.994500 -0.008500 0.637500
0.994500 -0.008500 0.654500
0.994500 0.008500 0.637500
0.994500 0.008500 0.654500
0.977500 -0.008500 0.671500
0.977500 -0.008500 0.688500
0.994500 -0.008500 0.671500
0.994500 -0.008500 0.688500
0.994500 0.008500 0.671500
0.994500 0.008500 0.688500
0.994500 0.025500 0.637500
0.994500 0.025500 0.654500
0.994500 0.042500 0.637500
0.994500 0.042500 0.654500
0.994500 0.025500 0.671500
0.994500 0.025500 0.688500
0.994500 0.042500 0.671500
0.994500 0.042500 0.688500
0.994500 0.059500 0.569500
0.994500 0.059500 0.586500
0.994500 0.076500 0.569500
0.994500 0.076500 0.586500
0.994500 0.059500 0.603500
0.994500 0.059500 0.620500
0.994500 0.076500 0.603500
0.994500 0.076500 0.620500
0.994500 0.093500 0.569500
0.994500 0.093500 0.586500
0.994500 0.110500 0.569500
0.994500 0.110500 0.586500
0.994500 0.093500 0.603500
0.994500 0.093500 0.620500
0.994500 0.110500 0.603500
0.994500 0.110500 0.620500
0.994500 0.059500 0.637500
0.994500 0.059500 0.654500
0.994500 0.076500 0.637500
0.994500 0.076500 0.654500
0.994500 0.059500 0.671500
0.994500 0.059500 0.688500
0.994500 0.076500 0.671500
0.994500 0.076500 0.688500
0.994500 0.093500 0.637500
0.994500 0.093500 0.654500
0.994500 0.110500 0.637500
0.994500 0.110500 0.654500
0.994500 0.093500 0.671500
0.994500 0.093500 0.688500
0.994500 0.110500 0.671500
0.994500 0.110500 0.688500
0.977500 -0.008500 0.705500
0.977500 -0.008500 0.722500
0.994500 -0.008500 0.705500
0.994500 -0.008500 0.722500
0.994500 0.008500 0.705500
0.994500 0.008500 0.722500
0.977500 -0.008500 0.739500
0.977500 -0.008500 0.756500
0.994500 -0.008500 0.739500
0.994500 -0.008500 0.756500
0.994500 0.008500 0.739500
0.994500 0.008500 0.756500
0.994500 0.025500 0.705500
0.994500 0.025500 0.722500
0.994500 0.042500 0.705500
0.994500 0.042500 0.722500
0.994500 0.025500 0.739500
0.994500 0.025500 0.756500
0.994500 0.042500 0.739500
0.994500 0.042500 0.756500
0.977500 -0.008500 0.773500
0.977500 -0.008500 0.790500
0.994500 -0.008500 0.773500
0.994500 -0.008500 0.790500
0.994500 0.008500 0.773500
0.994500 0.008500 0.790500
0.977500 -0.008500 0.807500
0.977500 -0.008500 0.824500
0.994500 -0.008500 0.807500
0.994500 -0.008500 0.824500
0.994500 0.008500 0.807500
0.994500 0.008500 0.824500
0.994500 0.025500 0.773500
0.994500 0.025500 0.790500
0.994500 0.042500 0.773500
0.994500 0.042500 0.790500
0.994500 0.025500 0.807500
0.994500 0.025500 0.824500
0.994500 0.042500 0.807500
0.994500 0.042500 0.824500
0.994500 0.059500 0.705500
0.994500 0.059500 0.722500
0.994500 0.076500 0.705500
0.994500 0.076500 0.722500
0.994500 0.059500 0.739500
0.994500 0.059500 0.756500
0.994500 0.076500 0.739500
0.994500 0.076500 0.756500
0.994500 0.093500 0.705500
0.994500 0.093500 0.722500
0.994500 0.110500 0.705500
0.994500 0.110500 0.722500
0.994500 0.093500 0.739500
0.994500 0.093500 0.756500
0.994500 0.110500 0.739500
0.994500 0.110500 0.756500
0.994500 0.059500 0.773500
0.994500 0.059500 0.790500
0.994500 0.076500 0.773500
0.994500 0.076500 0.790500
0.994500 0.059500 0.807500
0.994500 0.059500 0.824500
0.994500 0.076500 0.807500
0.994500 0.076500 0.824500
0.994500 0.093500 0.773500
0.994500 0.093500 0.790500
0.994500 0.110500 0.773500
0.994500 0.110500 0.790500
0.994500 0.093500 0.807500
0.994500 0.093500 0.824500
0.994500 0.110500 0.807500
0.994500 0.110500 0.824500
0.994500 0.127500 0.569500
0.994500 0.127500 0.586500
0.994500 0.144500 0.569500
0.994500 0.144500 0.586500
0.994500 0.127500 0.603500
0.994500 0.127500 0.620500
0.994500 0.144500 0.603500
0.994500 0.144500 0.620500
0.994500 0.161500 0.569500
0.994500 0.161500 0.586500
0.994500 0.178500 0.569500
0.994500 0.178500 0.586500
0.994500 0.161500 0.603500
0.994500 0.161500 0.620500
0.994500 0.178500 0.603500
0.994500 0.178500 0.620500
0.994500 0.127500 0.637500
0.994500 0.127500 0.654500
0.994500 0.144500 0.637500
0.994500 0.144500 0.654500
0.994500 0.127500 0.671500
0.994500 0.127500 0.688500
0.994500 0.144500 0.671500
0.994500 0.144500 0.688500
0.994500 0.161500 0.637500
0.994500 0.161500 0.654500
0.994500 0.178500 0.637500
0.994500 0.178500 0.654500
0.994500 0.161500 0.671500
0.994500 0.161500 0.688500
0.994500 0.178500 0.671500
0.994500 0.178500 0.688500
0.994500 0.195500 0.569500
0.994500 0.195500 0.586500
0.994500 0.212500 0.569500
0.994500 0.212500 0.586500
0.994500 0.195500 0.603500
0.994500 0.195500 0.620500
0.994500 0.212500 0.603500
0.994500 0.212500 0.620500
0.994500 0.229500 0.569500
0.994500 0.229500 0.586500
0.994500 0.246500 0.569500
0.994500 0.246500 0.586500
0.994500 0.229500 0.603500
0.994500 0.229500 0.620500
0.994500 0.246500 0.603500
0.994500 0.246500 0.620500
0.994500 0.195500 0.637500
0.994500 0.195500 0.654500
0.994500 0.212500 0.637500
0.994500 0.212500 0.654500
0.994500 0.195500 0.671500
0.994500 0.195500 0.688500
0.994500 0.212500 0.671500
0.994500 0.212500 0.688500
0.994500 0.229500 0.637500
0.994500 0.229500 0.654500
0.994500 0.246500 0.637500
0.994500 0.246500 0.654500
0.994500 0.229500 0.671500
0.994500 0.229500 0.688500
0.994500 0.246500 0.671500
0.994500 0.246500 0.688500
0.994500 0.127500 0.705500
0.994500 0.127500 0.722500
0.994500 0.144500 0.705500
0.994500 0.144500 0.722500
0.994500 0.127500 0.739500
0.994500 0.127500 0.756500
0.994500 0.144500 0.739500
0.994500 0.144500 0.756500
0.994500 0.161500 0.705500
0.994500 0.161500 0.722500
0.994500 0.178500 0.705500
0.994500 0.178500 0.722500
0.994500 0.161500 0.739500
0.994500 0.161500 0.756500
0.994500 0.178500 0.739500
0.994500 0.178500 0.756500
0.994500 0.127500 0.773500
0.994500 0.127500 0.790500
0.994500 0.144500 0.773500
0.994500 0.144500 0.790500
0.994500 0.127500 0.807500
0.994500 0.127500 0.824500
0.994500 0.144500 0.807500
0.994500 0.144500 0.824500
0.994500 0.161500 0.773500
0.994500 0.161500 0.790500
0.994500 0.178500 0.773500
0.994500 0.178500 0.790500
0.994500 0.161500 0.807500
0.994500 0.161500 0.824500
0.994500 0.178500 0.807500
0.994500 0.178500 0.824500
0.994500 0.195500 0.705500
0.994500 0.195500 0.722500
0.994500 0.212500 0.705500
0.994500 0.212500 0.722500
0.994500 0.195500 0.739500
0.994500 0.195500 0.756500
0.994500 0.212500 0.739500
0.994500 0.212500 0.756500
0.994500 0.229500 0.705500
0.994500 0.229500 0.722500
0.994500 0.246500 0.705500
0.994500 0.246500 0.722500
0.994500 0.229500 0.739500
0.994500 0.229500 0.756500
0.994500 0.246500 0.739500
0.994500 0.246500 0.756500
0.994500 0.195500 0.773500
0.994500 0.195500 0.790500
0.994500 0.212500 0.773500
0.994500 0.212500 0.790500
0.994500 0.195500 0.807500
0.994500 0.195500 0.824500
0.994500 0.212500 0.807500
0.994500 0.212500 0.824500
0.994500 0.229500 0.773500
0.994500 0.229500 0.790500
0.994500 0.246500 0.773500
0.994500 0.246500 0.790500
0.994500 0.229500 0.807500
0.994500 0.229500 0.824500
0.994500 0.246500 0.807500
0.994500 0.246500 0.824500
0.841500 -0.008500 0.841500
0.841500 -0.008500 0.858500
0.858500 -0.008500 0.841500
0.858500 -0.008500 0.858500
0.841500 -0.008500 0.875500
0.841500 -0.008500 0.892500
0.858500 -0.008500 0.875500
0.858500 -0.008500 0.892500
0.875500 -0.008500 0.841500
0.875500 -0.008500 0.858500
0.892500 -0.008500 0.841500
0.892500 -0.008500 0.858500
0.875500 -0.008500 0.875500
0.875500 -0.008500 0.892500
0.892500 -0.008500 0.875500
0.892500 -0.008500 0.892500
0.841500 -0.008500 0.909500
0.841500 -0.008500 0.926500
0.858500 -0.008500 0.909500
0.858500 -0.008500 0.926500
0.841500 -0.008500 0.943500
0.841500 -0.008500 0.960500
0.858500 -0.008500 0.943500
0.858500 -0.008500 0.960500
0.875500 -0.008500 0.909500
0.875500 -0.008500 0.926500
0.892500 -0.008500 0.909500
0.892500 -0.008500 0.926500
0.875500 -0.008500 0.943500
0.875500 -0.008500 0.960500
0.892500 -0.008500 0.943500
0.892500 -0.008500 0.960500
0.909500 -0.008500 0.841500
0.909500 -0.008500 0.858500
0.926500 -0.008500 0.841500
0.926500 -0.008500 0.858500
0.909500 -0.008500 0.875500
0.909500 -0.008500 0.892500
0.926500 -0.008500 0.875500
0.926500 -0.008500 0.892500
0.943500 -0.008500 0.841500
0.943500 -0.008500 0.858500
0.960500 -0.008500 0.841500
0.960500 -0.008500 0.858500
0.943500 -0.008500 0.875500
0.943500 -0.008500 0.892500
0.960500 -0.008500 0.875500
0.960500 -0.008500 0.892500
0.909500 -0.008500 0.909500
0.909500 -0.008500 0.926500
0.926500 -0.008500 0.909500
0.926500 -0.008500 0.926500
0.909500 -0.008500 0.943500
0.909500 -0.008500 0.960500
0.926500 -0.008500 0.943500
0.926500 -0.008500 0.960500
0.943500 -0.008500 0.909500
0.943500 -0.008500 0.926500
0.960500 -0.008500 0.909500
0.960500 -0.008500 0.926500
0.943500 -0.008500 0.943500
0.943500 -0.008500 0.960500
0.960500 -0.008500 0.943500
0.960500 -0.008500 0.960500
0.841500 -0.008500 0.977500
0.841500 -0.008500 0.994500
0.841500 0.008500 0.994500
0.858500 -0.008500 0.977500
0.858500 -0.008500 0.994500
0.858500 0.008500 0.994500
0.841500 0.025500 0.994500
0.841500 0.042500 0.994500
0.858500 0.025500 0.994500
0.858500 0.042500 0.994500
0.875500 -0.008500 0.977500
0.875500 -0.008500 0.994500
0.875500 0.008500 0.994500
0.892500 -0.008500 0.977500
0.892500 -0.008500 0.994500
0.892500 0.008500 0.994500
0.875500 0.025500 0.994500
0.875500 0.042500 0.994500
0.892500 0.025500 0.994500
0.892500 0.042500 0.994500
0.841500 0.059500 0.994500
0.841500 0.076500 0.994500
0.858500 0.059500 0.994500
0.858500 0.076500 0.994500
0.841500 0.093500 0.994500
0.841500 0.110500 0.994500
0.858500 0.093500 0.994500
0.858500 0.110500 0.994500
0.875500 0.059500 0.994500
0.875500 0.076500 0.994500
0.892500 0.059500 0.994500
0.892500 0.076500 0.994500
0.875500 0.093500 0.994500
0.875500 0.110500 0.994500
0.892500 0.093500 0.994500
0.892500 0.110500 0.994500
0.909500 -0.008500 0.977500
0.909500 -0.008500 0.994500
0.909500 0.008500 0.994500
0.926500 -0.008500 0.977500
0.926500 -0.008500 0.994500
0.926500 0.008500 0.994500
0.909500 0.025500 0.994500
0.909500 0.042500 0.994500
0.926500 0.025500 0.994500
0.926500 0.042500 0.994500
0.943500 -0.008500 0.977500
0.943500 -0.008500 0.994500
0.943500 0.008500 0.994500
0.960500 -0.008500 0.977500
0.960500 -0.008500 0.994500
0.960500 0.008500 0.994500
0.943500 0.025500 0.994500
0.943500 0.042500 0.994500
0.960500 0.025500 0.994500
0.960500 0.042500 0.994500
0.909500 0.059500 0.994500
0.909500 0.076500 0.994500
0.926500 0.059500 0.994500
0.926500 0.076500 0.994500
0.909500 0.093500 0.994500
0.909500 0.110500 0.994500
0.926500 0.093500 0.994500
0.926500 0.110500 0.994500
0.943500 0.059500 0.994500
0.943500 0.076500 0.994500
0.960500 0.059500 0.994500
0.960500 0.076500 0.994500
0.943500 0.093500 0.994500
0.943500 0.110500 0.994500
0.960500 0.093500 0.994500
0.960500 0.110500 0.994500
0.841500 0.127500 0.994500
0.841500 0.144500 0.994500
0.858500 0.127500 0.994500
0.858500 0.144500 0.994500
0.841500 0.161500 0.994500
0.841500 0.178500 0.994500
0.858500 0.161500 0.994500
0.858500 0.178500 0.994500
0.875500 0.127500 0.994500
0.875500 0.144500 0.994500
0.892500 0.127500 0.994500
0.892500 0.144500 0.994500
0.875500 0.161500 0.994500
0.875500 0.178500 0.994500
0.892500 0.161500 0.994500
0.892500 0.178500 0.994500
0.841500 0.195500 0.994500
0.841500 0.212500 0.994500
0.858500 0.195500 0.994500
0.858500 0.212500 0.994500
0.841500 0.229500 0.994500
0.841500 0.246500 0.994500
0.858500 0.229500 0.994500
0.858500 0.246500 0.994500
0.875500 0.195500 0.994500
0.875500 0.212500 0.994500
0.892500 0.195500 0.994500
0.892500 0.212500 0.994500
0.875500 0.229500 0.994500
0.875500 0.246500 0.994500
0.892500 0.229500 0.994500
0.892500 0.246500 0.994500
0.909500 0.127500 0.994500
0.909500 0.144500 0.994500
0.926500 0.127500 0.994500
0.926500 0.144500 0.994500
0.909500 0.161500 0.994500
0.909500 0.178500 0.994500
0.926500 0.161500 0.994500
0.926500 0.178500 0.994500
0.943500 0.127500 0.994500
0.943500 0.144500 0.994500
0.960500 0.127500 0.994500
0.960500 0.144500 0.994500
0.943500 0.161500 0.994500
0.943500 0.178500 0.994500
0.960500 0.161500 0.994500
0.960500 0.178500 0.994500
0.909500 0.195500 0.994500
0.909500 0.212500 0.994500
0.926500 0.195500 0.994500
0.926500 0.212500 0.994500
0.909500 0.229500 0.994500
0.909500 0.246500 0.994500
0.926500 0.229500 0.994500
0.926500 0.246500 0.994500
0.943500 0.195500 0.994500
0.943500 0.212500 0.994500
0.960500 0.195500 0.994500
0.960500 0.212500 0.994500
0.943500 0.229500 0.994500
0.943500 0.246500 0.994500
0.960500 0.229500 0.994500
0.960500 0.246500 0.994500
0.977500 -0.008500 0.841500
0.977500 -0.008500 0.858500
0.994500 -0.008500 0.841500
0.994500 -0.008500 0.858500
0.994500 0.008500 0.841500
0.994500 0.008500 0.858500
0.977500 -0.008500 0.875500
0.977500 -0.008500 0.892500
0.994500 -0.008500 0.875500
0.994500 -0.008500 0.892500
0.994500 0.008500 0.875500
0.994500 0.008500 0.892500
0.994500 0.025500 0.841500
0.994500 0.025500 0.858500
0.994500 0.042500 0.841500
0.994500 0.042500 0.858500
0.994500 0.025500 0.875500
0.994500 0.025500 0.892500
0.994500 0.042500 0.875500
0.994500 0.042500 0.892500
0.977500 -0.008500 0.909500
0.977500 -0.008500 0.926500
0.994500 -0.008500 0.909500
0.994500 -0.008500 0.926500
0.994500 0.008500 0.909500
0.994500 0.008500 0.926500
0.977500 -0.008500 0.943500
0.977500 -0.008500 0.960500
0.994500 -0.008500 0.943500
0.994500 -0.008500 0.960500
0.994500 0.008500 0.943500
0.994500 0.008500 0.960500
0.994500 0.025500 0.909500
0.994500 0.025500 0.926500
0.994500 0.042500 0.909500
0.994500 0.042500 0.926500
0.994500 0.025500 0.943500
0.994500 0.025500 0.960500
0.994500 0.042500 0.943500
0.994500 0.042500 0.960500
0.994500 0.059500 0.841500
0.994500 0.059500 0.858500
0.994500 0.076500 0.841500
0.994500 0.076500 0.858500
0.994500 0.059500 0.875500
0.994500 0.059500 0.892500
0.994500 0.076500 0.875500
0.994500 0.076500 0.892500
0.994500 0.093500 0.841500
0.994500 0.093500 0.858500
0.994500 0.110500 0.841500
0.994500 0.110500 0.858500
0.994500 0.093500 0.875500
0.994500 0.093500 0.892500
0.994500 0.110500 0.875500
0.994500 0.110500 0.892500
0.994500 0.059500 0.909500
0.994500 0.059500 0.926500
0.994500 0.076500 0.909500
0.994500 0.076500 0.926500
0.994500 0.059500 0.943500
0.994500 0.059500 0.960500
0.994500 0.076500 0.943500
0.994500 0.076500 0.960500
0.994500 0.093500 0.909500
0.994500 0.093500 0.926500
0.994500 0.110500 0.909500
0.994500 0.110500 0.926500
0.994500 0.093500 0.943500
0.994500 0.093500 0.960500
0.994500 0.110500 0.943500
0.994500 0.110500 0.960500
0.977500 -0.008500 0.977500
0.977500 -0.008500 0.994500
0.977500 0.008500 0.994500
0.994500 -0.008500 0.977500
0.994500 -0.008500 0.994500
0.994500 0.008500 0.977500
0.994500 0.008500 0.994500
0.977500 0.025500 0.994500
0.977500 0.042500 0.994500
0.994500 0.025500 0.977500
0.994500 0.025500 0.994500
0.994500 0.042500 0.977500
0.994500 0.042500 0.994500
0.977500 0.059500 0.994500
0.977500 0.076500 0.994500
0.994500 0.059500 0.977500
0.994500 0.059500 0.994500
0.994500 0.076500 0.977500
0.994500 0.076500 0.994500
0.977500 0.093500 0.994500
0.977500 0.110500 0.994500
0.994500 0.093500 0.977500
0.994500 0.093500 0.994500
0.994500 0.110500 0.977500
0.994500 0.110500 0.994500
0.994500 0.127500 0.841500
0.994500 0.127500 0.858500
0.994500 0.144500 0.841500
0.994500 0.144500 0.858500
0.994500 0.127500 0.875500
0.994500 0.127500 0.892500
0.994500 0.144500 0.875500
0.994500 0.144500 0.892500
0.994500 0.161500 0.841500
0.994500 0.161500 0.858500
0.994500 0.178500 0.841500
0.994500 0.178500 0.858500
0.994500 0.161500 0.875500
0.994500 0.161500 0.892500
0.994500 0.178500 0.875500
0.994500 0.178500 0.892500
0.994500 0.127500 0.909500
0.994500 0.127500 0.926500
0.994500 0.144500 0.909500
0.994500 0.144500 0.926500
0.994500 0.127500 0.943500
0.994500 0.127500 0.960500
0.994500 0.144500 0.943500
0.994500 0.144500 0.960500
0.994500 0.161500 0.909500
0.994500 0.161500 0.926500
0.994500 0.178500 0.909500
0.994500 0.178500 0.926500
0.994500 0.161500 0.943500
0.994500 0.161500 0.960500
0.994500 0.178500 0.943500
0.994500 0.178500 0.960500
0.994500 0.195500 0.841500
0.994500 0.195500 0.858500
0.994500 0.212500 0.841500
0.994500 0.212500 0.858500
0.994500 0.195500 0.875500
0.994500 0.195500 0.892500
0.994500 0.212500 0.875500
0.994500 0.212500 0.892500
0.994500 0.229500 0.841500
0.994500 0.229500 0.858500
0.994500 0.246500 0.841500
0.994500 0.246500 0.858500
0.994500 0.229500 0.875500
0.994500 0.229500 0.892500
0.994500 0.246500 0.875500
0.994500 0.246500 0.892500
0.994500 0.195500 0.909500
0.994500 0.195500 0.926500
0.994500 0.212500 0.909500
0.994500 0.212500 0.926500
0.994500 0.195500 0.943500
0.994500 0.195500 0.960500
0.994500 0.212500 0.943500
0.994500 0.212500 0.960500
0.994500 0.229500 0.909500
0.994500 0.229500 0.926500
0.994500 0.246500 0.909500
0.994500 0.246500 0.926500
0.994500 0.229500 0.943500
0.994500 0.229500 0.960500
0.994500 0.246500 0.943500
0.994500 0.246500 0.960500
0.977500 0.127500 0.994500
0.977500 0.144500 0.994500
0.994500 0.127500 0.977500
0.994500 0.127500 0.994500
0.994500 0.144500 0.977500
0.994500 0.144500 0.994500
0.977500 0.161500 0.994500
0.977500 0.178500 0.994500
0.994500 0.161500 0.977500
0.994500 0.161500 0.994500
0.994500 0.178500 0.977500
0.994500 0.178500 0.994500
0.977500 0.195500 0.994500
0.977500 0.212500 0.994500
0.994500 0.195500 0.977500
0.994500 0.195500 0.994500
0.994500 0.212500 0.977500
0.994500 0.212500 0.994500
0.977500 0.229500 0.994500
0.977500 0.246500 0.994500
0.994500 0.229500 0.977500
0.994500 0.229500 0.994500
0.994500 0.246500 0.977500
0.994500 0.246500 0.994500
0.994500 0.263500 0.569500
0.994500 0.263500 0.586500
0.994500 0.280500 0.569500
0.994500 0.280500 0.586500
0.994500 0.263500 0.603500
0.994500 0.263500 0.620500
0.994500 0.280500 0.603500
0.994500 0.280500 0.620500
0.994500 0.297500 0.569500
0.994500 0.297500 0.586500
0.994500 0.314500 0.569500
0.994500 0.314500 0.586500
0.994500 0.297500 0.603500
0.994500 0.297500 0.620500
0.994500 0.314500 0.603500
0.994500 0.314500 0.620500
0.994500 0.263500 0.637500
0.994500 0.263500 0.654500
0.994500 0.280500 0.637500
0.994500 0.280500 0.654500
0.994500 0.263500 0.671500
0.994500 0.263500 0.688500
0.994500 0.280500 0.671500
0.994500 0.280500 0.688500
0.994500 0.297500 0.637500
0.994500 0.297500 0.654500
0.994500 0.314500 0.637500
0.994500 0.314500 0.654500
0.994500 0.297500 0.671500
0.994500 0.297500 0.688500
0.994500 0.314500 0.671500
0.994500 0.314500 0.688500
0.994500 0.331500 0.569500
0.994500 0.331500 0.586500
0.994500 0.348500 0.569500
0.994500 0.348500 0.586500
0.994500 0.331500 0.603500
0.994500 0.331500 0.620500
0.994500 0.348500 0.603500
0.994500 0.348500 0.620500
0.994500 0.365500 0.569500
0.994500 0.365500 0.586500
0.994500 0.382500 0.569500
0.994500 0.382500 0.586500
0.994500 0.365500 0.603500
0.994500 0.365500 0.620500
0.994500 0.382500 0.603500
0.994500 0.382500 0.620500
0.994500 0.331500 0.637500
0.994500 0.331500 0.654500
0.994500 0.348500 0.637500
0.994500 0.348500 0.654500
0.994500 0.331500 0.671500
0.994500 0.331500 0.688500
0.994500 0.348500 0.671500
0.994500 0.348500 0.688500
0.994500 0.365500 0.637500
0.994500 0.365500 0.654500
0.994500 0.382500 0.637500
0.994500 0.382500 0.654500
0.994500 0.365500 0.671500
0.994500 0.365500 0.688500
0.994500 0.382500 0.671500
0.994500 0.382500 0.688500
0.994500 0.263500 0.705500
0.994500 0.263500 0.722500
0.994500 0.280500 0.705500
0.994500 0.280500 0.722500
0.994500 0.263500 0.739500
0.994500 0.263500 0.756500
0.994500 0.280500 0.739500
0.994500 0.280500 0.756500
0.994500 0.297500 0.705500
0.994500 0.297500 0.722500
0.994500 0.314500 0.705500
0.994500 0.314500 0.722500
0.994500 0.297500 0.739500
0.994500 0.297500 0.756500
0.994500 0.314500 0.739500
0.994500 0.314500 0.756500
0.994500 0.263500 0.773500
0.994500 0.263500 0.790500
0.994500 0.280500 0.773500
0.994500 0.280500 0.790500
0.994500 0.263500 0.807500
0.994500 0.263500 0.824500
0.994500 0.280500 0.807500
0.994500 0.280500 0.824500
0.994500 0.297500 0.773500
0.994500 0.297500 0.790500
0.994500 0.314500 0.773500
0.994500 0.314500 0.790500
0.994500 0.297500 0.807500
0.994500 0.297500 0.824500
0.994500 0.314500 0.807500
0.994500 0.314500 0.824500
0.994500 0.331500 0.705500
0.994500 0.331500 0.722500
0.994500 0.348500 0.705500
0.994500 0.348500 0.722500
0.994500 0.331500 0.739500
0.994500 0.331500 0.756500
0.994500 0.348500 0.739500
0.994500 0.348500 0.756500
0.994500 0.365500 0.705500
0.994500 0.365500 0.722500
0.994500 0.382500 0.705500
0.994500 0.382500 0.722500
0.994500 0.365500 0.739500
0.994500 0.365500 0.756500
0.994500 0.382500 0.739500
0.994500 0.382500 0.756500
0.994500 0.331500 0.773500
0.994500 0.331500 0.790500
0.994500 0.348500 0.773500
0.994500 0.348500 0.790500
0.994500 0.331500 0.807500
0.994500 0.331500 0.824500
0.994500 0.348500 0.807500
0.994500 0.348500 0.824500
0.994500 0.365500 0.773500
0.994500 0.365500 0.790500
0.994500 0.382500 0.773500
0.994500 0.382500 0.790500
0.994500 0.365500 0.807500
0.994500 0.365500 0.824500
0.994500 0.382500 0.807500
0.994500 0.382500 0.824500
0.994500 0.399500 0.569500
0.994500 0.399500 0.586500
0.994500 0.416500 0.569500
0.994500 0.416500 0.586500
0.994500 0.399500 0.603500
0.994500 0.399500 0.620500
0.994500 0.416500 0.603500
0.994500 0.416500 0.620500
0.994500 0.433500 0.569500
0.994500 0.433500 0.586500
0.994500 0.450500 0.569500
0.994500 0.450500 0.586500
0.994500 0.433500 0.603500
0.994500 0.433500 0.620500
0.994500 0.450500 0.603500
0.994500 0.450500 0.620500
0.994500 0.399500 0.637500
0.994500 0.399500 0.654500
0.994500 0.416500 0.637500
0.994500 0.416500 0.654500
0.994500 0.399500 0.671500
0.994500 0.399500 0.688500
0.994500 0.416500 0.671500
0.994500 0.416500 0.688500
0.994500 0.433500 0.637500
0.994500 0.433500 0.654500
0.994500 0.450500 0.637500
0.994500 0.450500 0.654500
0.994500 0.433500 0.671500
0.994500 0.433500 0.688500
0.994500 0.450500 0.671500
0.994500 0.450500 0.688500
0.994500 0.467500 0.569500
0.994500 0.467500 0.586500
0.994500 0.484500 0.569500
0.994500 0.484500 0.586500
0.994500 0.467500 0.603500
0.994500 0.467500 0.620500
0.994500 0.484500 0.603500
0.994500 0.484500 0.620500
0.994500 0.501500 0.569500
0.994500 0.501500 0.586500
0.994500 0.518500 0.569500
0.994500 0.518500 0.586500
0.994500 0.501500 0.603500
0.994500 0.501500 0.620500
0.994500 0.518500 0.603500
0.994500 0.518500 0.620500
0.994500 0.467500 0.637500
0.994500 0.467500 0.654500
0.994500 0.484500 0.637500
0.994500 0.484500 0.654500
0.994500 0.467500 0.671500
0.994500 0.467500 0.688500
0.994500 0.484500 0.671500
0.994500 0.484500 0.688500
0.994500 0.501500 0.637500
0.994500 0.501500 0.654500
0.994500 0.518500 0.637500
0.994500 0.518500 0.654500
0.994500 0.501500 0.671500
0.994500 0.501500 0.688500
0.994500 0.518500 0.671500
0.994500 0.518500 0.688500
0.994500 0.399500 0.705500
0.994500 0.399500 0.722500
0.994500 0.416500 0.705500
0.994500 0.416500 0.722500
0.994500 0.399500 0.739500
0.994500 0.399500 0.756500
0.994500 0.416500 0.739500
0.994500 0.416500 0.756500
0.994500 0.433500 0.705500
0.994500 0.433500 0.722500
0.994500 0.450500 0.705500
0.994500 0.450500 0.722500
0.994500 0.433500 0.739500
0.994500 0.433500 0.756500
0.994500 0.450500 0.739500
0.994500 0.450500 0.756500
0.994500 0.399500 0.773500
0.994500 0.399500 0.790500
0.994500 0.416500 0.773500
0.994500 0.416500 0.790500
0.994500 0.399500 0.807500
0.994500 0.399500 0.824500
0.994500 0.416500 0.807500
0.994500 0.416500 0.824500
0.994500 0.433500 0.773500
0.994500 0.433500 0.790500
0.994500 0.450500 0.773500
0.994500 0.450500 0.790500
0.994500 0.433500 0.807500
0.994500 0.433500 0.824500
0.994500 0.450500 0.807500
0.994500 0.450500 0.824500
0.994500 0.467500 0.705500
0.994500 0.467500 0.722500
0.994500 0.484500 0.705500
0.994500 0.484500 0.722500
0.994500 0.467500 0.739500
0.994500 0.467500 0.756500
0.994500 0.484500 0.739500
0.994500 0.484500 0.756500
0.994500 0.501500 0.705500
0.994500 0.501500 0.722500
0.994500 0.518500 0.705500
0.994500 0.518500 0.722500
0.994500 0.501500 0.739500
0.994500 0.501500 0.756500
0.994500 0.518500 0.739500
0.994500 0.518500 0.756500
0.994500 0.467500 0.773500
0.994500 0.467500 0.790500
0.994500 0.484500 0.773500
0.994500 0.484500 0.790500
0.994500 0.467500 0.807500
0.994500 0.467500 0.824500
0.994500 0.484500 0.807500
0.994500 0.484500 0.824500
0.994500 0.501500 0.773500
0.994500 0.501500 0.790500
0.994500 0.518500 0.773500
0.994500 0.518500 0.790500
0.994500 0.501500 0.807500
0.994500 0.501500 0.824500
0.994500 0.518500 0.807500
0.994500 0.518500 0.824500
0.841500 0.263500 0.994500
0.841500 0.280500 0.994500
0.858500 0.263500 0.994500
0.858500 0.280500 0.994500
0.841500 0.297500 0.994500
0.841500 0.314500 0.994500
0.858500 0.297500 0.994500
0.858500 0.314500 0.994500
0.875500 0.263500 0.994500
0.875500 0.280500 0.994500
0.892500 0.263500 0.994500
0.892500 0.280500 0.994500
0.875500 0.297500 0.994500
0.875500 0.314500 0.994500
0.892500 0.297500 0.994500
0.892500 0.314500 0.994500
0.841500 0.331500 0.994500
0.841500 0.348500 0.994500
0.858500 0.331500 0.994500
0.858500 0.348500 0.994500
0.841500 0.365500 0.994500
0.841500 0.382500 0.994500
0.858500 0.365500 0.994500
0.858500 0.382500 0.994500
0.875500 0.331500 0.994500
0.875500 0.348500 0.994500
0.892500 0.331500 0.994500
0.892500 0.348500 0.994500
0.875500 0.365500 0.994500
0.875500 0.382500 0.994500
0.892500 0.365500 0.994500
0.892500 0.382500 0.994500
0.909500 0.263500 0.994500
0.909500 0.280500 0.994500
0.926500 0.263500 0.994500
0.926500 0.280500 0.994500
0.909500 0.297500 0.994500
0.909500 0.314500 0.994500
0.926500 0.297500 0.994500
0.926500 0.314500 0.994500
0.943500 0.263500 0.994500
0.943500 0.280500 0.994500
0.960500 0.263500 0.994500
0.960500 0.280500 0.994500
0.943500 0.297500 0.994500
0.943500 0.314500 0.994500
0.960500 0.297500 0.994500
0.960500 0.314500 0.994500
0.909500 0.331500 0.994500
0.909500 0.348500 0.994500
0.926500 0.331500 0.994500
0.926500 0.348500 0.994500
0.909500 0.365500 0.994500
0.909500 0.382500 0.994500
0.926500 0.365500 0.994500
0.926500 0.382500 0.994500
0.943500 0.331500 0.994500
0.943500 0.348500 0.994500
0.960500 0.331500 0.994500
0.960500 0.348500 0.994500
0.943500 0.365500 0.994500
0.943500 0.382500 0.994500
0.960500 0.365500 0.994500
0.960500 0.382500 0.994500
0.841500 0.399500 0.994500
0.841500 0.416500 0.994500
0.858500 0.399500 0.994500
0.858500 0.416500 0.994500
0.841500 0.433500 0.994500
0.841500 0.450500 0.994500
0.858500 0.433500 0.994500
0.858500 0.450500 0.994500
0.875500 0.399500 0.994500
0.875500 0.416500 0.994500
0.892500 0.399500 0.994500
0.892500 0.416500 0.994500
0.875500 0.433500 0.994500
0.875500 0.450500 0.994500
0.892500 0.433500 0.994500
0.892500 0.450500 0.994500
0.841500 0.467500 0.994500
0.841500 0.484500 0.994500
0.858500 0.467500 0.994500
0.858500 0.484500 0.994500
0.841500 0.501500 0.994500
0.841500 0.518500 0.994500
0.858500 0.501500 0.994500
0.858500 0.518500 0.994500
0.875500 0.467500 0.994500
0.875500 0.484500 0.994500
0.892500 0.467500 0.994500
0.892500 0.484500 0.994500
0.875500 0.501500 0.994500
0.875500 0.518500 0.994500
0.892500 0.501500 0.994500
0.892500 0.518500 0.994500
0.909500 0.399500 0.994500
0.909500 0.416500 0.994500
0.926500 0.399500 0.994500
0.926500 0.416500 0.994500
0.909500 0.433500 0.994500
0.909500 0.450500 0.994500
0.926500 0.433500 0.994500
0.926500 0.450500 0.994500
0.943500 0.399500 0.994500
0.943500 0.416500 0.994500
0.960500 0.399500 0.994500
0.960500 0.416500 0.994500
0.943500 0.433500 0.994500
0.943500 0.450500 0.994500
0.960500 0.433500 0.994500
0.960500 0.450500 0.994500
0.909500 0.467500 0.994500
0.909500 0.484500 0.994500
0.926500 0.467500 0.994500
0.926500 0.484500 0.994500
0.909500 0.501500 0.994500
0.909500 0.518500 0.994500
0.926500 0.501500 0.994500
0.926500 0.518500 0.994500
0.943500 0.467500 0.994500
0.943500 0.484500 0.994500
0.960500 0.467500 0.994500
0.960500 0.484500 0.994500
0.943500 0.501500 0.994500
0.943500 0.518500 0.994500
0.960500 0.501500 0.994500
0.960500 0.518500 0.994500
0.994500 0.263500 0.841500
0.994500 0.263500 0.858500
0.994500 0.280500 0.841500
0.994500 0.280500 0.858500
0.994500 0.263500 0.875500
0.994500 0.263500 0.892500
0.994500 0.280500 0.875500
0.994500 0.280500 0.892500
0.994500 0.297500 0.841500
0.994500 0.297500 0.858500
0.994500 0.314500 0.841500
0.994500 0.314500 0.858500
0.994500 0.297500 0.875500
0.994500 0.297500 0.892500
0.994500 0.314500 0.875500
0.994500 0.314500 0.892500
0.994500 0.263500 0.909500
0.994500 0.263500 0.926500
0.994500 0.280500 0.909500
0.994500 0.280500 0.926500
0.994500 0.263500 0.943500
0.994500 0.263500 0.960500
0.994500 0.280500 0.943500
0.994500 0.280500 0.960500
0.994500 0.297500 0.909500
0.994500 0.297500 0.926500
0.994500 0.314500 0.909500
0.994500 0.314500 0.926500
0.994500 0.297500 0.943500
0.994500 0.297500 0.960500
0.994500 0.314500 0.943500
0.994500 0.314500 0.960500
0.994500 0.331500 0.841500
0.994500 0.331500 0.858500
0.994500 0.348500 0.841500
0.994500 0.348500 0.858500
0.994500 0.331500 0.875500
0.994500 0.331500 0.892500
0.994500 0.348500 0.875500
0.994500 0.348500 0.892500
0.994500 0.365500 0.841500
0.994500 0.365500 0.858500
0.994500 0.382500 0.841500
0.994500 0.382500 0.858500
0.994500 0.365500 0.875500
0.994500 0.365500 0.892500
0.994500 0.382500 0.875500
0.994500 0.382500 0.892500
0.994500 0.331500 0.909500
0.994500 0.331500 0.926500
0.994500 0.348500 0.909500
0.994500 0.348500 0.926500
0.994500 0.331500 0.943500
0.994500 0.331500 0.960500
0.994500 0.348500 0.943500
0.994500 0.348500 0.960500
0.994500 0.365500 0.909500
0.994500 0.365500 0.926500
0.994500 0.382500 0.909500
0.994500 0.382500 0.926500
0.994500 0.365500 0.943500
0.994500 0.365500 0.960500
0.994500 0.382500 0.943500
0.994500 0.382500 0.960500
0.977500 0.263500 0.994500
0.977500 0.280500 0.994500
0.994500 0.263500 0.977500
0.994500 0.263500 0.994500
0.994500 0.280500 0.977500
0.994500 0.280500 0.994500
0.977500 0.297500 0.994500
0.977500 0.314500 0.994500
0.994500 0.297500 0.977500
0.994500 0.297500 0.994500
0.994500 0.314500 0.977500
0.994500 0.314500 0.994500
0.977500 0.331500 0.994500
0.977500 0.348500 0.994500
0.994500 0.331500 0.977500
0.994500 0.331500 0.994500
0.994500 0.348500 0.977500
0.994500 0.348500 0.994500
0.977500 0.365500 0.994500
0.977500 0.382500 0.994500
0.994500 0.365500 0.977500
0.994500 0.365500 0.994500
0.994500 0.382500 0.977500
0.994500 0.382500 0.994500
0.994500 0.399500 0.841500
0.994500 0.399500 0.858500
0.994500 0.416500 0.841500
0.994500 0.416500 0.858500
0.994500 0.399500 0.875500
0.994500 0.399500 0.892500
0.994500 0.416500 0.875500
0.994500 0.416500 0.892500
0.994500 0.433500 0.841500
0.994500 0.433500 0.858500
0.994500 0.450500 0.841500
0.994500 0.450500 0.858500
0.994500 0.433500 0.875500
0.994500 0.433500 0.892500
0.994500 0.450500 0.875500
0.994500 0.450500 0.892500
0.994500 0.399500 0.909500
0.994500 0.399500 0.926500
0.994500 0.416500 0.909500
0.994500 0.416500 0.926500
0.994500 0.399500 0.943500
0.994500 0.399500 0.960500
0.994500 0.416500 0.943500
0.994500 0.416500 0.960500
0.994500 0.433500 0.909500
0.994500 0.433500 0.926500
0.994500 0.450500 0.909500
0.994500 0.450500 0.926500
0.994500 0.433500 0.943500
0.994500 0.433500 0.960500
0.994500 0.450500 0.943500
0.994500 0.450500 0.960500
0.994500 0.467500 0.841500
0.994500 0.467500 0.858500
0.994500 0.484500 0.841500
0.994500 0.484500 0.858500
0.994500 0.467500 0.875500
0.994500 0.467500 0.892500
0.994500 0.484500 0.875500
0.994500 0.484500 0.892500
0.994500 0.501500 0.841500
0.994500 0.501500 0.858500
0.994500 0.518500 0.841500
0.994500 0.518500 0.858500
0.994500 0.501500 0.875500
0.994500 0.501500 0.892500
0.994500 0.518500 0.875500
0.994500 0.518500 0.892500
0.994500 0.467500 0.909500
0.994500 0.467500 0.926500
0.994500 0.484500 0.909500
0.994500 0.484500 0.926500
0.994500 0.467500 0.943500
0.994500 0.467500 0.960500
0.994500 0.484500 0.943500
0.994500 0.484500 0.960500
0.994500 0.501500 0.909500
0.994500 0.501500 0.926500
0.994500 0.518500 0.909500
0.994500 0.518500 0.926500
0.994500 0.501500 0.943500
0.994500 0.501500 0.960500
0.994500 0.518500 0.943500
0.994500 0.518500 0.960500
0.977500 0.399500 0.994500
0.977500 0.416500 0.994500
0.994500 0.399500 0.977500
0.994500 0.399500 0.994500
0.994500 0.416500 0.977500
0.994500 0.416500 0.994500
0.977500 0.433500 0.994500
0.977500 0.450500 0.994500
0.994500 0.433500 0.977500
0.994500 0.433500 0.994500
0.994500 0.450500 0.977500
0.994500 0.450500 0.994500
0.977500 0.467500 0.994500
0.977500 0.484500 0.994500
0.994500 0.467500 0.977500
0.994500 0.467500 0.994500
0.994500 0.484500 0.977500
0.994500 0.484500 0.994500
0.977500 0.501500 0.994500
0.977500 0.518500 0.994500
0.994500 0.501500 0.977500
0.994500 0.501500 0.994500
0.994500 0.518500 0.977500
0.994500 0.518500 0.994500
0.569500 0.994500 0.025500
0.569500 0.994500 0.042500
0.586500 0.994500 0.025500
0.586500 0.994500 0.042500
0.569500 0.994500 0.059500
0.569500 0.994500 0.076500
0.586500 0.994500 0.059500
0.586500 0.994500 0.076500
0.603500 0.994500 0.025500
0.603500 0.994500 0.042500
0.620500 0.994500 0.025500
0.620500 0.994500 0.042500
0.603500 0.994500 0.059500
0.603500 0.994500 0.076500
0.620500 0.994500 0.059500
0.620500 0.994500 0.076500
0.569500 0.994500 0.093500
0.569500 0.994500 0.110500
0.586500 0.994500 0.093500
0.586500 0.994500 0.110500
0.569500 0.994500 0.127500
0.569500 0.994500 0.144500
0.586500 0.994500 0.127500
0.586500 0.994500 0.144500
0.603500 0.994500 0.093500
0.603500 0.994500 0.110500
0.620500 0.994500 0.093500
0.620500 0.994500 0.110500
0.603500 0.994500 0.127500
0.603500 0.994500 0.144500
0.620500 0.994500 0.127500
0.620500 0.994500 0.144500
0.637500 0.994500 0.025500
0.637500 0.994500 0.042500
0.654500 0.994500 0.025500
0.654500 0.994500 0.042500
0.637500 0.994500 0.059500
0.637500 0.994500 0.076500
0.654500 0.994500 0.059500
0.654500 0.994500 0.076500
0.671500 0.994500 0.025500
0.671500 0.994500 0.042500
0.688500 0.994500 0.025500
0.688500 0.994500 0.042500
0.671500 0.994500 0.059500
0.671500 0.994500 0.076500
0.688500 0.994500 0.059500
0.688500 0.994500 0.076500
0.637500 0.994500 0.093500
0.637500 0.994500 0.110500
0.654500 0.994500 0.093500
0.654500 0.994500 0.110500
0.637500 0.994500 0.127500
0.637500 0.994500 0.144500
0.654500 0.994500 0.127500
0.654500 0.994500 0.144500
0.671500 0.994500 0.093500
0.671500 0.994500 0.110500
0.688500 0.994500 0.093500
0.688500 0.994500 0.110500
0.671500 0.994500 0.127500
0.671500 0.994500 0.144500
0.688500 0.994500 0.127500
0.688500 0.994500 0.144500
0.569500 0.994500 0.161500
0.569500 0.994500 0.178500
0.586500 0.994500 0.161500
0.586500 0.994500 0.178500
0.569500 0.994500 0.195500
0.569500 0.994500 0.212500
0.586500 0.994500 0.195500
0.586500 0.994500 0.212500
0.603500 0.994500 0.161500
0.603500 0.994500 0.178500
0.620500 0.994500 0.161500
0.620500 0.994500 0.178500
0.603500 0.994500 0.195500
0.603500 0.994500 0.212500
0.620500 0.994500 0.195500
0.620500 0.994500 0.212500
0.569500 0.994500 0.229500
0.569500 0.994500 0.246500
0.586500 0.994500 0.229500
0.586500 0.994500 0.246500
0.569500 0.994500 0.263500
0.569500 0.994500 0.280500
0.586500 0.994500 0.263500
0.586500 0.994500 0.280500
0.603500 0.994500 0.229500
0.603500 0.994500 0.246500
0.620500 0.994500 0.229500
0.620500 0.994500 0.246500
0.603500 0.994500 0.263500
0.603500 0.994500 0.280500
0.620500 0.994500 0.263500
0.620500 0.994500 0.280500
0.637500 0.994500 0.161500
0.637500 0.994500 0.178500
0.654500 0.994500 0.161500
0.654500 0.994500 0.178500
0.637500 0.994500 0.195500
0.637500 0.994500 0.212500
0.654500 0.994500 0.195500
0.654500 0.994500 0.212500
0.671500 0.994500 0.161500
0.671500 0.994500 0.178500
0.688500 0.994500 0.161500
0.688500 0.994500 0.178500
0.671500 0.994500 0.195500
0.671500 0.994500 0.212500
0.688500 0.994500 0.195500
0.688500 0.994500 0.212500
0.637500 0.994500 0.229500
0.637500 0.994500 0.246500
0.654500 0.994500 0.229500
0.654500 0.994500 0.246500
0.637500 0.994500 0.263500
0.637500 0.994500 0.280500
0.654500 0.994500 0.263500
0.654500 0.994500 0.280500
0.671500 0.994500 0.229500
0.671500 0.994500 0.246500
0.688500 0.994500 0.229500
0.688500 0.994500 0.246500
0.671500 0.994500 0.263500
0.671500 0.994500 0.280500
0.688500 0.994500 0.263500
0.688500 0.994500 0.280500
0.705500 0.994500 0.025500
0.705500 0.994500 0.042500
0.722500 0.994500 0.025500
0.722500 0.994500 0.042500
0.705500 0.994500 0.059500
0.705500 0.994500 0.076500
0.722500 0.994500 0.059500
0.722500 0.994500 0.076500
0.739500 0.994500 0.025500
0.739500 0.994500 0.042500
0.756500 0.994500 0.025500
0.756500 0.994500 0.042500
0.739500 0.994500 0.059500
0.739500 0.994500 0.076500
0.756500 0.994500 0.059500
0.756500 0.994500 0.076500
0.705500 0.994500 0.093500
0.705500 0.994500 0.110500
0.722500 0.994500 0.093500
0.722500 0.994500 0.110500
0.705500 0.994500 0.127500
0.705500 0.994500 0.144500
0.722500 0.994500 0.127500
0.722500 0.994500 0.144500
0.739500 0.994500 0.093500
0.739500 0.994500 0.110500
0.756500 0.994500 0.093500
0.756500 0.994500 0.110500
0.739500 0.994500 0.127500
0.739500 0.994500 0.144500
0.756500 0.994500 0.127500
0.756500 0.994500 0.144500
0.773500 0.994500 0.025500
0.773500 0.994500 0.042500
0.790500 0.994500 0.025500
0.790500 0.994500 0.042500
0.773500 0.994500 0.059500
0.773500 0.994500 0.076500
0.790500 0.994500 0.059500
0.790500 0.994500 0.076500
0.807500 0.994500 0.025500
0.807500 0.994500 0.042500
0.824500 0.994500 0.025500
0.824500 0.994500 0.042500
0.807500 0.994500 0.059500
0.807500 0.994500 0.076500
0.824500 0.994500 0.059500
0.824500 0.994500 0.076500
0.773500 0.994500 0.093500
0.773500 0.994500 0.110500
0.790500 0.994500 0.093500
0.790500 0.994500 0.110500
0.773500 0.994500 0.127500
0.773500 0.994500 0.144500
0.790500 0.994500 0.127500
0.790500 0.994500 0.144500
0.807500 0.994500 0.093500
0.807500 0.994500 0.110500
0.824500 0.994500 0.093500
0.824500 0.994500 0.110500
0.807500 0.994500 0.127500
0.807500 0.994500 0.144500
0.824500 0.994500 0.127500
0.824500 0.994500 0.144500
0.705500 0.994500 0.161500
0.705500 0.994500 0.178500
0.722500 0.994500 0.161500
0.722500 0.994500 0.178500
0.705500 0.994500 0.195500
0.705500 0.994500 0.212500
0.722500 0.994500 0.195500
0.722500 0.994500 0.212500
0.739500 0.994500 0.161500
0.739500 0.994500 0.178500
0.756500 0.994500 0.161500
0.756500 0.994500 0.178500
0.739500 0.994500 0.195500
0.739500 0.994500 0.212500
0.756500 0.994500 0.195500
0.756500 0.994500 0.212500
0.705500 0.994500 0.229500
0.705500 0.994500 0.246500
0.722500 0.994500 0.229500
0.722500 0.994500 0.246500
0.705500 0.994500 0.263500
0.705500 0.994500 0.280500
0.722500 0.994500 0.263500
0.722500 0.994500 0.280500
0.739500 0.994500 0.229500
0.739500 0.994500 0.246500
0.756500 0.994500 0.229500
0.756500 0.994500 0.246500
0.739500 0.994500 0.263500
0.739500 0.994500 0.280500
0.756500 0.994500 0.263500
0.756500 0.994500 0.280500
0.773500 0.994500 0.161500
0.773500 0.994500 0.178500
0.790500 0.994500 0.161500
0.790500 0.994500 0.178500
0.773500 0.994500 0.195500
0.773500 0.994500 0.212500
0.790500 0.994500 0.195500
0.790500 0.994500 0.212500
0.807500 0.994500 0.161500
0.807500 0.994500 0.178500
0.824500 0.994500 0.161500
0.824500 0.994500 0.178500
0.807500 0.994500 0.195500
0.807500 0.994500 0.212500
0.824500 0.994500 0.195500
0.824500 0.994500 0.212500
0.773500 0.994500 0.229500
0.773500 0.994500 0.246500
0.790500 0.994500 0.229500
0.790500 0.994500 0.246500
0.773500 0.994500 0.263500
0.773500 0.994500 0.280500
0.790500 0.994500 0.263500
0.790500 0.994500 0.280500
0.807500 0.994500 0.229500
0.807500 0.994500 0.246500
0.824500 0.994500 0.229500
0.824500 0.994500 0.246500
0.807500 0.994500 0.263500
0.807500 0.994500 0.280500
0.824500 0.994500 0.263500
0.824500 0.994500 0.280500
0.569500 0.994500 0.297500
0.569500 0.994500 0.314500
0.586500 0.994500 0.297500
0.586500 0.994500 0.314500
0.569500 0.994500 0.331500
0.569500 0.994500 0.348500
0.586500 0.994500 0.331500
0.586500 0.994500 0.348500
0.603500 0.994500 0.297500
0.603500 0.994500 0.314500
0.620500 0.994500 0.297500
0.620500 0.994500 0.314500
0.603500 0.994500 0.331500
0.603500 0.994500 0.348500
0.620500 0.994500 0.331500
0.620500 0.994500 0.348500
0.569500 0.994500 0.365500
0.569500 0.994500 0.382500
0.586500 0.994500 0.365500
0.586500 0.994500 0.382500
0.569500 0.994500 0.399500
0.569500 0.994500 0.416500
0.586500 0.994500 0.399500
0.586500 0.994500 0.416500
0.603500 0.994500 0.365500
0.603500 0.994500 0.382500
0.620500 0.994500 0.365500
0.620500 0.994500 0.382500
0.603500 0.994500 0.399500
0.603500 0.994500 0.416500
0.620500 0.994500 0.399500
0.620500 0.994500 0.416500
0.637500 0.994500 0.297500
0.637500 0.994500 0.314500
0.654500 0.994500 0.297500
0.654500 0.994500 0.314500
0.637500 0.994500 0.331500
0.637500 0.994500 0.348500
0.654500 0.994500 0.331500
0.654500 0.994500 0.348500
0.671500 0.994500 0.297500
0.671500 0.994500 0.314500
0.688500 0.994500 0.297500
0.688500 0.994500 0.314500
0.671500 0.994500 0.331500
0.671500 0.994500 0.348500
0.688500 0.994500 0.331500
0.688500 0.994500 0.348500
0.637500 0.994500 0.365500
0.637500 0.994500 0.382500
0.654500 0.994500 0.365500
0.654500 0.994500 0.382500
0.637500 0.994500 0.399500
0.637500 0.994500 0.416500
0.654500 0.994500 0.399500
0.654500 0.994500 0.416500
0.671500 0.994500 0.365500
0.671500 0.994500 0.382500
0.688500 0.994500 0.365500
0.688500 0.994500 0.382500
0.671500 0.994500 0.399500
0.671500 0.994500 0.416500
0.688500 0.994500 0.399500
0.688500 0.994500 0.416500
