ply
format ascii 1.0
element vertex 1773
property float x
property float y
property float z
end_header
0.244027 1.001666 0.932834
0.239261 1.000522 0.949104
0.240181 0.999656 0.965329
0.237684 0.996415 0.972273
0.240942 0.997874 0.989444
0.254193 1.000295 -0.002600
0.252893 0.999700 0.015036
0.256268 1.000805 0.028080
0.255599 0.999834 0.043172
0.256317 1.000828 0.060098
0.254734 0.996133 0.070739
0.251784 1.000490 0.087724
0.255104 0.996786 0.097308
0.256340 1.002400 0.113926
0.253056 0.998020 0.125760
0.253600 1.000659 0.141259
0.257867 0.996992 0.153080
0.257055 1.002236 0.173727
0.255284 0.998454 0.184583
0.255505 1.001975 0.196519
0.254056 0.999122 0.209765
0.255260 1.001548 0.223277
0.253410 0.999245 0.243724
0.254968 0.999281 0.254242
0.251305 1.000481 0.271147
0.256949 1.002559 0.281572
0.255238 0.997184 0.296454
0.256934 1.001517 0.312856
0.255386 1.001034 0.324232
0.258982 0.999341 0.340733
0.257012 0.998587 0.356679
0.253186 1.000488 0.363394
0.256555 0.998660 0.381124
0.252944 1.000178 0.391636
0.255421 0.997721 0.412534
0.256412 1.000806 0.423538
0.251799 0.999339 0.438904
0.254990 0.998795 0.449729
0.255574 0.997700 0.466312
0.252504 1.001987 0.479127
0.252544 0.999962 0.495328
0.257752 1.002020 0.506846
0.255037 0.999342 0.521887
0.254094 1.000774 0.534150
0.257804 1.001848 0.553947
0.251578 1.001057 0.569776
0.253401 0.999462 0.583041
0.255667 1.004043 0.593955
0.257382 0.998925 0.610658
0.253410 0.999778 0.623403
0.252005 0.999673 0.637162
0.255530 0.999003 0.650806
0.253774 0.999590 0.668218
0.253075 0.997901 0.677568
0.253280 1.004172 0.692877
0.255358 1.001766 0.706347
0.255114 0.998404 0.722323
0.255844 1.002174 0.735103
0.254933 0.999928 0.748479
0.255766 0.999106 0.760577
0.254461 0.999211 0.776013
0.254384 0.997997 0.791120
0.252973 1.001149 0.805633
0.254989 0.996907 0.822914
0.257562 0.998913 0.835208
0.254003 1.002579 0.848614
0.254847 1.002668 0.860610
0.254104 1.002375 0.879357
0.249946 1.000044 0.892041
0.254050 0.996804 0.906900
0.254842 0.999736 0.920001
0.257617 0.999783 0.933301
0.256295 0.998077 0.948416
0.253206 1.001663 0.958775
0.253587 0.998596 0.974453
0.253198 1.002011 0.987899
0.270326 0.997564 0.000381
0.270290 1.000569 0.015195
0.269993 1.000127 0.029765
0.271493 1.000256 0.038558
0.268647 1.001518 0.056105
0.265773 0.995540 0.073546
0.267067 0.998645 0.086756
0.269842 1.002718 0.096237
0.270332 1.002594 0.111595
0.267715 1.000089 0.127935
0.268034 1.000382 0.140501
0.268358 1.000232 0.154778
0.264873 1.001584 0.170624
0.269138 0.997909 0.185264
0.270204 0.995872 0.197466
0.269909 1.000298 0.213598
0.267626 0.995875 0.224760
0.269339 0.995102 0.243399
0.264590 0.999282 0.251756
0.269509 0.998841 0.269418
0.269108 1.003982 0.283390
0.267091 1.000220 0.295811
0.267182 1.000767 0.308561
0.265833 1.003304 0.323411
0.270493 0.999667 0.341068
0.268918 0.997616 0.353459
0.267510 0.998383 0.368554
0.266316 1.001051 0.381312
0.269728 1.000313 0.396695
0.270459 1.000417 0.411248
0.270140 0.997916 0.427900
0.271367 0.998444 0.435283
0.270196 0.996021 0.450881
0.269303 0.998231 0.469521
0.268758 0.999443 0.480393
0.268178 1.002006 0.493868
0.266745 1.000527 0.507352
0.269771 0.999016 0.520832
0.266285 1.001232 0.535189
0.266675 1.001258 0.552084
0.269526 0.999189 0.567553
0.269115 0.996776 0.580050
0.272578 0.998579 0.594840
0.268329 1.001576 0.609467
0.266066 0.998550 0.620028
0.270349 1.000722 0.635999
0.269334 0.997836 0.647859
0.267765 0.995404 0.666559
0.268208 1.003572 0.680932
0.270744 0.999795 0.690522
0.269930 0.999483 0.707367
0.270929 0.998704 0.720256
0.267121 0.998546 0.733733
0.269853 1.002235 0.749823
0.267779 0.997524 0.765319
0.267802 0.998437 0.777485
0.268355 1.005049 0.793933
0.270232 1.001296 0.802137
0.268596 1.002043 0.818958
0.268469 1.001072 0.836842
0.266338 1.002921 0.846896
0.266181 1.000432 0.861012
0.266451 1.003340 0.876915
0.268852 0.998592 0.893902
0.268815 0.996182 0.907355
0.264814 0.999212 0.917440
0.263644 1.000538 0.933867
0.265891 1.000648 0.946820
0.272175 0.999281 0.956237
0.272936 0.999880 0.976456
0.270699 1.000499 0.991039
0.282836 1.001581 0.005033
0.281393 1.002344 0.017161
0.280929 0.999015 0.025537
0.281150 1.002447 0.041588
0.282958 0.997429 0.058062
0.281063 0.998745 0.071417
0.279027 1.000291 0.081332
0.286940 1.002841 0.098817
0.280671 1.002490 0.118591
0.283768 0.998307 0.127403
0.280546 1.001557 0.143797
0.278745 1.001692 0.156021
0.284458 1.001852 0.170441
0.285560 0.999139 0.184242
0.281992 0.999153 0.196125
0.281727 0.997542 0.211633
0.281453 1.002669 0.224251
0.279017 1.000257 0.245053
0.281231 1.000120 0.252875
0.283200 0.999609 0.269946
0.284836 0.996959 0.280086
0.283408 0.998590 0.295574
0.284531 1.001339 0.313499
0.282719 0.999765 0.325985
0.280986 1.002272 0.338896
0.284426 0.999607 0.353668
0.284106 0.996706 0.366000
0.284493 0.999651 0.383704
0.286260 0.996238 0.398313
0.284517 0.998836 0.407192
0.284787 0.997706 0.423994
0.281285 0.999695 0.437995
0.284254 1.004953 0.453598
0.286859 1.003093 0.468060
0.280590 1.003063 0.480785
0.284973 1.000969 0.494565
0.282893 1.000918 0.508116
0.282107 1.000440 0.522652
0.280472 0.998036 0.538025
0.283939 0.999279 0.551842
0.282608 1.002350 0.568638
0.283339 1.000111 0.583226
0.281573 0.999987 0.595010
0.284600 0.998777 0.607955
0.287878 0.999219 0.620301
0.286542 1.002448 0.636001
0.280072 1.002997 0.652720
0.280622 1.002181 0.662135
0.284117 0.998587 0.675357
0.286230 0.997512 0.693068
0.281569 1.001779 0.704996
0.281806 1.000247 0.723465
0.281910 1.001058 0.734152
0.285563 1.000505 0.749970
0.283876 1.003549 0.758751
0.284435 1.000735 0.777333
0.285209 0.999612 0.792735
0.282537 0.999308 0.808757
0.282811 0.997219 0.818610
0.286230 1.002009 0.836573
0.282566 0.999697 0.850493
0.280647 1.002740 0.859954
0.283421 0.998006 0.876884
0.278722 1.000350 0.889965
0.282720 1.000536 0.903545
0.281696 0.998800 0.919654
0.283736 1.000825 0.931793
0.284403 0.996980 0.947135
0.280367 0.998488 0.966895
0.281973 1.003172 0.976659
0.281718 1.000195 0.989670
0.297626 0.999527 0.001413
0.297168 1.000094 0.014395
0.298263 1.000175 0.031060
0.296567 0.998827 0.041632
0.296238 0.998681 0.057979
0.299261 1.000831 0.072415
0.294859 1.001244 0.085976
0.293877 1.000778 0.096048
0.294160 0.999402 0.113858
0.299066 1.000118 0.127622
0.294469 0.997042 0.140676
0.296170 1.001279 0.154092
0.300604 1.000182 0.171554
0.299942 1.000592 0.183563
0.296740 0.999424 0.198891
0.294734 1.000780 0.212237
0.295933 0.994997 0.226142
0.298174 0.999057 0.239884
0.295637 0.999978 0.260260
0.300575 1.000695 0.271469
0.300676 0.998336 0.283095
0.294930 1.003207 0.295277
0.297820 1.000511 0.314194
0.296185 1.000790 0.324869
0.298003 1.001894 0.342287
0.298008 1.000163 0.353423
0.299152 1.001944 0.367594
0.296683 0.996001 0.381821
0.297292 1.002805 0.393554
0.294401 1.000851 0.407166
0.295602 0.999115 0.424318
0.298075 0.998496 0.435525
0.296187 0.997642 0.454122
0.297417 0.998151 0.465119
0.294600 1.000267 0.478005
0.295492 1.001631 0.492626
0.296345 0.998568 0.507518
0.291579 1.002630 0.521568
0.302667 1.002859 0.538702
0.300392 0.999883 0.555687
0.297156 0.995593 0.565408
0.297377 1.001090 0.579646
0.296256 0.997713 0.591412
0.294733 0.995466 0.610509
0.297271 1.002995 0.621966
0.299719 0.998216 0.634532
0.300153 0.999892 0.648771
0.295990 0.999308 0.665282
0.298429 1.002114 0.680728
0.299532 0.996225 0.694703
0.293305 1.001295 0.704734
0.297046 1.003485 0.722115
0.297840 1.000198 0.737119
0.296549 1.002877 0.749754
0.296135 1.001048 0.767444
0.293673 1.003229 0.778030
0.297212 1.001404 0.793576
0.296935 1.000719 0.807448
0.297253 0.999616 0.822843
0.296369 0.999508 0.835705
0.297625 0.998790 0.849224
0.293681 1.004712 0.863968
0.299336 1.001165 0.875970
0.294456 1.000293 0.890421
0.300632 1.000477 0.907130
0.299911 0.998346 0.919067
0.296424 1.002581 0.935409
0.298502 1.001674 0.948697
0.295391 0.999086 0.961399
0.299681 0.996480 0.976322
0.295970 1.000070 0.991450
0.306033 1.000602 -0.001849
0.311704 0.999341 0.017636
0.309396 1.002726 0.026543
0.306788 1.001281 0.044113
0.312207 1.002810 0.056768
0.309285 1.001575 0.072591
0.311494 0.999164 0.086223
0.309930 0.998415 0.099966
0.311041 0.996467 0.113672
0.309514 1.001209 0.129413
0.312385 0.998515 0.139331
0.313137 1.000821 0.153225
0.312749 1.003098 0.170786
0.312158 1.003933 0.183911
0.310460 1.003777 0.197709
0.310677 0.999161 0.208806
0.306057 0.998726 0.228061
0.312811 1.000962 0.237615
0.310157 0.999331 0.257322
0.308639 0.995971 0.266476
0.313936 0.998707 0.282746
0.314232 1.001810 0.295656
0.311240 0.996665 0.312550
0.310550 0.999819 0.324583
0.309175 1.000580 0.340055
0.308369 0.998586 0.356149
0.310537 1.003325 0.365807
0.312850 0.999378 0.379823
0.310682 1.000410 0.394318
0.309413 1.002305 0.406072
0.312060 0.997589 0.424481
0.309878 1.000917 0.439877
0.314799 0.996373 0.452570
0.309887 0.998215 0.468574
0.309984 1.000329 0.482231
0.308984 1.000389 0.492939
0.311580 0.999872 0.508968
0.313184 1.003105 0.525260
0.312806 0.997865 0.540884
0.312744 1.003286 0.549918
0.313202 1.002057 0.567043
0.310573 0.998480 0.579729
0.309767 0.998366 0.592812
0.310643 0.996294 0.608849
0.311800 1.002062 0.623612
0.309419 0.999478 0.633197
0.314847 0.999786 0.653850
0.311009 0.999327 0.667210
0.309078 0.999752 0.681032
0.310712 1.000147 0.691383
0.310172 1.000424 0.706755
0.309799 0.997633 0.722205
0.312395 0.998411 0.737987
0.314391 0.999232 0.747474
0.306602 1.005465 0.764036
0.313264 0.999673 0.775096
0.308246 0.999111 0.790253
0.313602 0.997998 0.804921
0.309900 1.001284 0.820241
0.313009 1.003245 0.833306
0.311637 0.998978 0.848529
0.311927 0.999714 0.861512
0.311903 0.999006 0.873323
0.310144 0.995740 0.888242
0.310626 1.001378 0.912234
0.311245 0.999940 0.916464
0.310619 1.001756 0.931083
0.309622 0.997749 0.950255
0.313719 0.997134 0.960761
0.311370 0.997656 0.972830
0.308993 1.003533 0.989633
0.319437 0.999506 -0.002105
0.325773 1.000044 0.018054
0.322427 1.006712 0.029111
0.326284 0.999631 0.044518
0.325837 0.997937 0.056733
0.324677 1.002686 0.066227
0.324916 0.998268 0.082314
0.323392 0.999771 0.098582
0.323751 0.998807 0.112804
0.324354 0.997764 0.128025
0.326977 0.995233 0.139314
0.325864 0.997923 0.155694
0.325169 1.000197 0.167929
0.326654 0.998967 0.181559
0.323341 1.000288 0.193868
0.324973 1.001871 0.215724
0.329133 0.997440 0.223483
0.328748 0.999368 0.239579
0.325200 0.997879 0.253812
0.324513 0.998883 0.269416
0.324616 0.999538 0.284259
0.328961 1.000041 0.298620
0.326075 0.999906 0.312329
0.324216 0.999400 0.326532
0.325902 1.000239 0.339374
0.326223 0.997329 0.352070
0.323834 0.997076 0.370567
0.325346 0.998164 0.383448
0.323491 0.999184 0.397997
0.322504 0.997801 0.413132
0.322293 0.999444 0.423687
0.328483 0.996994 0.436380
0.324005 0.997186 0.451343
0.322100 1.003192 0.466559
0.327079 1.000617 0.481304
0.327093 0.998932 0.491537
0.324229 1.002023 0.507074
0.328084 0.997323 0.523254
0.326007 0.997766 0.538444
0.324544 1.001821 0.551920
0.326338 1.003447 0.568324
0.323499 0.998178 0.579971
0.329345 0.998217 0.594771
0.327690 0.999142 0.606600
0.326555 0.998990 0.623134
0.324726 0.998528 0.634667
0.324322 0.997786 0.653113
0.327518 1.000028 0.664837
0.325023 0.998868 0.680754
0.324702 1.000538 0.695688
0.327226 0.998330 0.708191
0.321354 0.999027 0.721426
0.323898 1.001400 0.734525
0.326297 1.002170 0.748772
0.324543 1.000623 0.767710
0.321891 1.004289 0.779338
0.323404 0.999336 0.791423
0.322865 0.998628 0.805072
0.327239 0.999751 0.817481
0.325636 1.000274 0.834894
0.325765 0.997396 0.848106
0.327267 1.002082 0.857942
0.328186 1.000545 0.879500
0.323833 1.002125 0.888143
0.324714 0.997423 0.905136
0.325176 1.000230 0.919580
0.324501 1.002979 0.933426
0.326403 0.999810 0.947119
0.323523 1.001106 0.964919
0.328784 0.996625 0.973805
0.326480 0.999469 0.988464
0.339038 1.001988 -0.001111
0.341604 1.001356 0.013081
0.338200 0.999869 0.031946
0.336606 0.999942 0.039549
0.336137 1.001156 0.055427
0.343192 0.997731 0.067159
0.337653 1.001475 0.085761
0.342038 1.000667 0.098630
0.336472 1.001186 0.111020
0.341516 1.001243 0.124620
0.342425 0.999845 0.139091
0.340745 0.999099 0.157430
0.339703 0.998405 0.169923
0.339963 0.998459 0.183444
0.341026 1.002425 0.199664
0.341479 0.997292 0.209730
0.340544 1.001842 0.226982
0.340437 1.003184 0.240672
0.340801 0.996528 0.257064
0.341693 1.000095 0.269077
0.339660 0.997682 0.283990
0.340953 1.003917 0.299347
0.336561 0.997965 0.310397
0.338751 1.001759 0.323861
0.340207 1.001419 0.341305
0.343308 1.000844 0.352500
0.340283 1.000823 0.369437
0.336923 1.002935 0.382022
0.342167 1.003930 0.397146
0.336737 0.996352 0.408583
0.340961 0.998509 0.423708
0.339906 1.000762 0.438575
0.339625 1.001337 0.453609
0.339328 0.998679 0.471586
0.340543 0.998749 0.479956
0.342297 0.998251 0.491320
0.340056 0.997271 0.506651
0.342066 0.999651 0.521701
0.337826 1.001829 0.535462
0.338763 0.997553 0.551185
0.338770 1.001196 0.563237
0.338907 0.998834 0.577718
0.339541 0.997413 0.596166
0.337951 1.000242 0.606908
0.339549 0.996442 0.622790
0.341481 0.998223 0.637811
0.339401 1.001480 0.648714
0.339960 1.000182 0.662705
0.332725 1.001711 0.684484
0.338782 0.998271 0.693924
0.338056 1.002804 0.704151
0.338777 0.999062 0.721946
0.337069 0.999558 0.735337
0.340680 0.999491 0.748120
0.337435 1.001008 0.764988
0.336881 1.001054 0.778657
0.340160 1.002152 0.791411
0.339784 0.999761 0.806165
0.339043 1.000647 0.818252
0.337975 0.998333 0.836686
0.339293 1.002232 0.851129
0.338829 1.000942 0.860698
0.337771 0.998486 0.876850
0.339657 0.997519 0.892866
0.337050 1.001377 0.901742
0.338872 0.998468 0.918099
0.336037 0.996128 0.932391
0.338745 0.999167 0.944904
0.338307 1.002005 0.961582
0.339669 0.999367 0.977034
0.338509 1.001336 0.990006
0.354502 0.997043 0.002813
0.356257 1.001114 0.010928
0.357481 0.999394 0.031150
0.353285 1.000171 0.042607
0.353464 1.000166 0.055747
0.355129 0.997940 0.071885
0.353478 0.999499 0.082682
0.350409 1.000805 0.098393
0.355086 1.003901 0.112332
0.349325 1.000304 0.128505
0.355180 1.001014 0.144572
0.353182 0.994839 0.154938
0.352425 0.999704 0.170609
0.351549 1.000108 0.187912
0.353648 1.000329 0.196792
0.349968 0.999836 0.208728
0.353885 0.997035 0.227862
0.352424 0.998965 0.243032
0.353433 1.000423 0.254491
0.354981 0.997743 0.265604
0.354504 1.001058 0.283226
0.354665 1.001368 0.292864
0.353187 1.002089 0.311915
0.357122 1.002329 0.324316
0.355138 1.003603 0.338776
0.351857 0.999776 0.353629
0.351388 1.000976 0.365493
0.351895 0.996374 0.383289
0.355084 1.001796 0.394969
0.352955 0.996583 0.410126
0.353073 1.001981 0.424989
0.355175 0.999298 0.439267
0.352310 1.001496 0.451172
0.351881 1.003210 0.467289
0.353141 1.002228 0.479918
0.358177 1.001116 0.496080
0.352958 0.999022 0.508678
0.353826 1.000383 0.521476
0.355704 1.003318 0.537055
0.357371 0.999192 0.547571
0.357546 1.000415 0.562959
0.354215 1.000504 0.579242
0.354547 1.001323 0.593966
0.352588 0.996069 0.605982
0.350171 0.997029 0.618880
0.357018 0.999536 0.638765
0.351797 1.000107 0.648782
0.355786 1.001106 0.664288
0.355722 0.999185 0.674836
0.353305 1.003684 0.694925
0.354334 0.999316 0.709240
0.352619 0.997617 0.723937
0.351595 1.000563 0.734051
0.352802 1.001933 0.747714
0.353631 1.004068 0.769103
0.355887 0.998565 0.780439
0.355656 1.002379 0.790696
0.351920 1.002297 0.807147
0.355723 0.999448 0.822152
0.353007 1.002343 0.835889
0.354952 0.999523 0.848972
0.350893 0.990072 0.865717
0.352698 1.003621 0.877166
0.352265 0.998985 0.891237
0.356314 0.998694 0.907815
0.354520 0.996509 0.916753
0.354868 1.002040 0.934173
0.354973 1.001358 0.947444
0.353453 1.000565 0.960396
0.354842 1.000706 0.974842
0.351938 0.997460 0.986368
0.368932 1.001860 0.001772
0.369398 0.997731 0.014569
0.369636 0.996751 0.028526
0.371860 0.999426 0.042418
0.370352 1.000787 0.060000
0.366280 0.998259 0.069692
0.369171 0.999976 0.090580
0.367103 1.001376 0.096076
0.363644 0.999226 0.112828
0.369590 0.995080 0.127715
0.367965 0.998355 0.144789
0.369506 0.999327 0.155731
0.365693 0.998393 0.172587
0.367698 1.002459 0.183201
0.368273 0.999861 0.201710
0.368579 1.002388 0.211423
0.369788 1.001688 0.227591
0.369156 1.003138 0.239202
0.371402 1.003616 0.255838
0.367562 0.995480 0.269334
0.368252 1.000806 0.283847
0.369976 0.999115 0.298407
0.370072 1.001005 0.309400
0.365341 0.999408 0.325758
0.370805 1.004116 0.337899
0.369292 1.000898 0.354337
0.368091 0.997898 0.369205
0.365894 0.999289 0.380233
0.369563 0.998466 0.394940
0.368004 1.003911 0.413787
0.365454 1.001837 0.425025
0.367828 0.999640 0.439565
0.369017 0.998792 0.452487
0.368392 1.001187 0.466029
0.369508 0.998758 0.483259
0.366209 0.999230 0.492540
0.366487 1.000679 0.508881
0.367745 0.999667 0.525417
0.368610 0.997228 0.539768
0.369013 0.998767 0.553663
0.368227 0.998857 0.565898
0.369990 1.001867 0.577774
0.367993 0.999962 0.595146
0.369489 1.001706 0.612144
0.370179 0.997348 0.624667
0.367465 0.996397 0.636773
0.367570 1.000874 0.650907
0.367815 0.998911 0.662425
0.365582 1.001924 0.675226
0.367943 1.002944 0.696204
0.366294 0.999786 0.706100
0.369285 1.002207 0.723411
0.369415 1.001563 0.735045
0.368174 1.000358 0.751502
0.364970 1.003852 0.763767
0.367917 1.000111 0.775560
0.367305 0.999817 0.787197
0.365781 1.000768 0.807724
0.367649 0.997973 0.819886
0.363376 1.000377 0.834947
0.367737 0.998082 0.851525
0.366493 0.999329 0.863155
0.365830 0.996810 0.879202
0.365243 0.998291 0.889560
0.363006 1.001979 0.902970
0.367148 0.999672 0.917726
0.363540 0.996549 0.932511
0.368148 1.001905 0.948235
0.366660 1.003024 0.961084
0.367475 0.998004 0.978992
0.372187 0.999371 0.986720
0.381566 1.000925 -0.001695
0.380143 0.998161 0.011646
0.382295 0.999315 0.030002
0.378274 0.996874 0.045085
0.380401 1.001897 0.055995
0.383293 1.000840 0.066356
0.383704 0.998412 0.086317
0.384361 0.999674 0.098522
0.380170 0.998297 0.112254
0.381081 0.998772 0.129193
0.384150 0.998515 0.143438
0.380705 0.998956 0.155408
0.380384 0.996367 0.169050
0.383503 0.993770 0.186220
0.381846 0.998393 0.200989
0.380390 1.001588 0.211966
0.384235 1.000781 0.226610
0.383621 0.998660 0.241251
0.378843 0.999424 0.256046
0.382812 1.002425 0.270852
0.381298 0.999584 0.285030
0.382264 1.001392 0.295397
0.381709 1.000492 0.307584
0.382850 0.999971 0.324005
0.379703 0.998380 0.339365
0.382853 1.000684 0.352510
0.379775 1.000695 0.366313
0.380416 0.999950 0.383020
0.380808 1.001203 0.395681
0.381092 1.005670 0.409081
0.382251 1.001657 0.422038
0.381972 1.005512 0.439781
0.381613 1.000008 0.452834
0.382506 1.000343 0.467036
0.383001 0.996879 0.479876
0.382560 1.000786 0.496182
0.378174 1.001337 0.512427
0.380738 0.998183 0.524570
0.381032 1.002853 0.534884
0.382368 1.000553 0.552404
0.380653 1.002587 0.566118
0.383751 1.000866 0.578011
0.381742 1.000604 0.591311
0.383367 1.001307 0.606318
0.383686 1.001480 0.622586
0.380506 0.998403 0.638451
0.380064 0.999745 0.652306
0.382106 1.000124 0.665012
0.382651 0.998586 0.678213
0.381661 1.003311 0.692295
0.383542 1.000404 0.708163
0.380956 0.996653 0.715671
0.381712 1.002367 0.731631
0.383751 0.999508 0.749174
0.380693 0.998854 0.764508
0.381884 1.001693 0.777424
0.382191 0.999863 0.788566
0.384254 1.002371 0.805510
0.379962 0.997674 0.819920
0.381004 0.999125 0.836835
0.384742 0.997679 0.850800
0.382046 1.000788 0.859781
0.381726 1.002728 0.872828
0.382626 1.002237 0.891729
0.383090 1.000692 0.906436
0.384115 0.999312 0.919608
0.387967 1.000721 0.932657
0.381991 1.002662 0.948013
0.383031 0.999012 0.962129
0.377796 0.996007 0.973314
0.382445 1.000491 0.988621
0.395998 0.998394 -0.003701
0.396662 1.001026 0.013882
0.397615 0.997775 0.026079
0.396062 0.998372 0.043131
0.395789 1.002878 0.054877
0.394134 0.999627 0.072398
0.394927 0.999128 0.087448
0.396762 0.998748 0.099900
0.399316 1.003412 0.114576
0.396025 0.997422 0.126090
0.397471 1.001110 0.145070
0.397894 1.000069 0.156717
0.398453 0.998465 0.166533
0.397039 1.000941 0.185540
0.396427 1.001745 0.199394
0.395202 1.003838 0.211083
0.395447 1.002436 0.223975
0.394140 0.999548 0.239909
0.395895 1.003375 0.252031
0.394737 1.003829 0.268386
0.395890 1.001677 0.285060
0.397771 1.000295 0.297083
0.397757 1.002778 0.311709
0.396637 0.996373 0.325218
0.397427 1.000323 0.334433
0.396394 0.997842 0.351875
0.391766 1.002355 0.369801
0.399529 0.997410 0.383611
0.396685 0.999502 0.399093
0.394768 0.999127 0.409236
0.392167 0.999739 0.421573
0.396233 1.000544 0.441263
0.393758 0.998101 0.452239
0.392643 0.998966 0.467581
0.396178 0.999196 0.478967
0.397646 0.999245 0.498415
0.392728 0.999422 0.508779
0.397050 0.999250 0.523115
0.395859 0.998259 0.536081
0.393805 0.996120 0.552771
0.394778 1.003470 0.564747
0.398196 1.002241 0.581345
0.394005 1.004654 0.595823
0.397664 1.001812 0.607641
0.396025 1.000919 0.620271
0.397165 0.999134 0.633452
0.393886 1.001691 0.648893
0.398167 1.000476 0.660383
0.394860 1.004644 0.677280
0.396771 0.997208 0.692394
0.391597 0.998620 0.706039
0.394242 1.001162 0.722964
0.399122 1.001036 0.734523
0.398635 0.997269 0.750626
0.396512 1.000360 0.763964
0.394927 1.000572 0.777318
0.394354 1.000150 0.792136
0.395347 1.002630 0.804676
0.394661 1.000326 0.822531
0.394935 1.002049 0.834052
0.395826 0.997686 0.845367
0.399645 0.999247 0.859198
0.395205 1.002215 0.876279
0.397432 1.001705 0.890848
0.393024 0.999695 0.903309
0.397903 0.995665 0.916474
0.395158 1.003193 0.935688
0.396125 0.998485 0.950020
0.398977 1.003561 0.961919
0.395058 0.998307 0.975812
0.395444 0.998891 0.989993
0.412355 0.993514 0.000413
0.410350 0.998130 0.014889
0.406524 1.001632 0.028197
0.410660 1.000540 0.040676
0.412549 0.999026 0.056298
0.408433 1.001358 0.071324
0.411749 1.005223 0.083702
0.414028 0.998705 0.098516
0.409942 0.998737 0.112314
0.408956 1.000708 0.132005
0.410162 1.000813 0.139872
0.408768 1.000641 0.153945
0.410394 1.001624 0.169145
0.412201 0.998926 0.184743
0.408810 1.006232 0.199297
0.412100 1.000331 0.216178
0.409919 0.999594 0.225531
0.411326 0.998038 0.239515
0.412845 1.000007 0.254094
0.411249 1.002034 0.270317
0.405298 1.001341 0.282458
0.412343 1.000442 0.297451
0.412295 1.003633 0.309994
0.411427 0.997400 0.325402
0.409348 0.998647 0.340393
0.412306 0.998539 0.352655
0.409194 0.997600 0.366205
0.409256 0.996079 0.382262
0.411370 1.000891 0.397508
0.413237 1.001537 0.408256
0.413421 1.004780 0.423587
0.411127 1.002375 0.436065
0.410487 1.001459 0.452446
0.409722 0.997110 0.464824
0.411307 0.999841 0.478747
0.409562 0.999022 0.495112
0.411473 1.000666 0.510375
0.409443 1.002986 0.523122
0.410986 0.998656 0.536034
0.409474 0.998999 0.549934
0.406808 1.001313 0.566771
0.409520 0.999477 0.580333
0.409760 1.001465 0.592113
0.405949 0.999406 0.607804
0.409311 1.002407 0.620860
0.412471 0.999530 0.635209
0.409264 1.000356 0.647463
0.412174 0.999486 0.667593
0.407832 0.999054 0.677578
0.409016 1.001908 0.692634
0.405468 0.999177 0.709583
0.415093 0.997103 0.721797
0.409217 1.000702 0.736670
0.409757 0.997995 0.749692
0.408528 0.999576 0.762138
0.410549 0.997759 0.776390
0.408031 1.001127 0.792439
0.412221 0.999057 0.804618
0.408826 0.998265 0.815562
0.410319 0.999853 0.831549
0.409298 1.001147 0.845647
0.409278 0.997430 0.863124
0.408451 1.005382 0.876055
0.410069 1.001880 0.890598
0.409725 1.000930 0.905281
0.407658 1.001239 0.918984
0.412749 1.001964 0.933231
0.411835 0.997921 0.949402
0.410712 1.003884 0.958254
0.408680 0.996537 0.974619
0.408367 0.999451 0.990357
0.423352 1.001301 -0.000019
0.423966 0.998774 0.016604
0.425895 1.002451 0.025675
0.421581 1.000093 0.042143
0.425532 1.002078 0.058256
0.425115 0.998556 0.068126
0.424410 0.998322 0.088896
0.425393 0.999426 0.097149
0.425441 1.001166 0.111491
0.428142 1.002893 0.126662
0.421413 0.998257 0.143563
0.424606 1.002555 0.155680
0.424725 0.997767 0.168439
0.427962 0.999809 0.180373
0.423571 1.002251 0.199576
0.426809 0.997373 0.217444
0.423075 1.000872 0.226593
0.425116 1.002211 0.241183
0.423541 1.003475 0.252487
0.426846 1.002721 0.266446
0.420771 0.998414 0.282256
0.425831 1.000558 0.297947
0.418161 1.000153 0.310396
0.426344 0.998324 0.327020
0.424948 0.996235 0.335884
0.423081 1.000156 0.353948
0.426711 1.001353 0.368090
0.422820 0.999081 0.381060
0.426650 0.998324 0.393281
0.422125 1.000588 0.409032
0.422600 1.001101 0.420339
0.424325 1.002006 0.437670
0.422081 1.000122 0.452600
0.424740 0.998460 0.467931
0.425161 1.000216 0.483595
0.427485 1.003777 0.493079
0.423267 0.999941 0.509990
0.427023 1.000407 0.523576
0.422184 0.998531 0.539233
0.424842 1.003378 0.551152
0.424694 1.001943 0.563494
0.424301 1.001068 0.583099
0.424612 0.999947 0.593526
0.428240 1.001378 0.607508
0.422652 0.999638 0.617226
0.419614 1.000667 0.637361
0.427096 0.999408 0.647536
0.426650 0.997903 0.664512
0.420826 1.002045 0.676840
0.425083 0.998587 0.689976
0.428928 0.999424 0.703883
0.424103 0.999888 0.720500
0.423002 0.999748 0.733610
0.423653 1.005043 0.748277
0.424459 0.999675 0.763020
0.422556 0.995969 0.780707
0.425568 0.998316 0.791468
0.423120 1.002055 0.805476
0.424977 1.004959 0.819584
0.424467 0.999811 0.835421
0.425225 1.000820 0.848524
0.420871 0.998800 0.866103
0.421827 0.999513 0.873507
0.424530 1.002447 0.888438
0.426298 0.998874 0.906906
0.423182 0.999039 0.919142
0.419439 0.999298 0.930851
0.424906 0.999157 0.948360
0.422198 0.999256 0.963105
0.424804 0.998698 0.975257
0.422765 0.999044 0.987140
0.440586 1.001099 0.000262
0.441585 1.003192 0.013987
0.437303 1.000353 0.027304
0.435705 1.000240 0.040479
0.442042 1.000612 0.057195
0.437190 1.000491 0.072482
0.439916 0.998194 0.082560
0.440407 1.004457 0.097602
0.440851 1.000161 0.113228
0.438220 0.999160 0.131102
0.436600 1.000793 0.139168
0.440931 1.002122 0.153063
0.439965 1.000452 0.172670
0.437123 1.000835 0.186440
0.435819 0.996921 0.199194
0.438896 1.000458 0.209118
0.434898 0.998806 0.226803
0.437114 0.998278 0.241905
0.433793 1.001238 0.257398
0.439978 0.997986 0.266901
0.438140 1.002182 0.280273
0.440415 0.999820 0.296425
0.439550 1.006400 0.312253
0.432210 0.999103 0.324371
0.435472 1.004506 0.336375
0.437786 1.000057 0.352537
0.440998 0.999912 0.370018
0.436812 0.998088 0.381784
0.440211 0.996539 0.398143
0.439795 0.998898 0.409950
0.440332 1.000041 0.424798
0.436107 1.001186 0.442797
0.438410 0.999666 0.450867
0.439384 0.999538 0.469406
0.437088 0.997779 0.482695
0.436644 1.001945 0.496788
0.440919 1.001000 0.508206
0.440273 0.998788 0.524997
0.441090 0.997067 0.535308
0.439105 1.001261 0.550571
0.440068 1.002171 0.563491
0.439950 0.998828 0.579957
0.443242 1.002179 0.590495
0.437153 1.001596 0.605950
0.438105 0.998867 0.627810
0.438116 0.998315 0.633752
0.434199 0.999079 0.650714
0.439205 1.003264 0.666840
0.438126 0.999576 0.678995
0.438931 0.998151 0.696374
0.437304 0.997643 0.708761
0.440570 0.998566 0.722237
0.439198 0.996250 0.736924
0.438412 0.998387 0.749123
0.435695 1.000998 0.765427
0.436109 0.997919 0.778408
0.436004 1.000910 0.793286
0.438666 0.999127 0.805214
0.442939 1.000915 0.817704
0.436893 0.999418 0.835938
0.438930 0.999072 0.850654
0.438854 1.003839 0.860643
0.435639 0.999318 0.876223
0.437248 1.000153 0.888474
0.436164 1.001106 0.905094
0.437291 1.000171 0.923512
0.437610 0.999645 0.931139
0.438087 1.001202 0.945682
0.440227 0.999920 0.960681
0.438441 0.999363 0.971524
0.438171 0.999508 0.989236
0.448664 0.997169 0.003742
0.454299 0.999018 0.014048
0.454143 1.004360 0.023622
0.451924 1.001377 0.043418
0.448329 1.000911 0.059830
0.450272 1.003052 0.072902
0.455283 0.997949 0.080160
0.452064 0.997062 0.096762
0.452921 1.000236 0.114329
0.448163 1.000560 0.122909
0.452922 0.999660 0.139861
0.452934 1.001075 0.154069
0.452444 0.999778 0.172701
0.451759 1.000609 0.187450
0.454108 0.997156 0.197936
0.451428 0.999662 0.211639
0.450798 1.001753 0.224487
0.451029 0.998725 0.240882
0.451689 0.999368 0.254800
0.452499 1.001402 0.268567
0.452900 0.998317 0.282668
0.452169 1.003233 0.296424
0.450609 0.998793 0.310655
0.450919 1.000056 0.323824
0.455740 0.998560 0.340010
0.450732 1.002353 0.354363
0.450758 1.001367 0.370028
0.450350 0.999184 0.381665
0.449973 0.999498 0.396630
0.454437 0.999737 0.410818
0.448623 1.001563 0.425233
0.449893 1.002268 0.436838
0.450558 1.000167 0.451797
0.452916 1.001161 0.471191
0.456322 1.004822 0.484036
0.453155 0.996209 0.500858
0.452874 0.998898 0.505471
0.455987 1.000856 0.524188
0.452867 0.998958 0.539114
0.449195 0.997427 0.550196
0.451186 0.997159 0.567819
0.450404 0.999900 0.575947
0.452175 0.999997 0.591204
0.453192 1.003047 0.609061
0.453586 1.000661 0.620363
0.449562 0.997425 0.635487
0.454266 1.001601 0.650147
0.452511 0.999157 0.663530
0.452357 0.999991 0.679561
0.453668 0.997897 0.691585
0.451390 0.998439 0.708248
0.452550 0.996682 0.719497
0.453889 1.000582 0.732843
0.454788 1.003198 0.750935
0.454865 0.997165 0.764604
0.449237 0.998248 0.777466
0.454255 1.001192 0.791544
0.452271 1.000787 0.808051
0.450189 0.998491 0.819598
0.454911 1.003212 0.835368
0.448647 1.001173 0.854369
0.453225 1.000793 0.860826
0.453933 0.999696 0.874249
0.456004 0.997796 0.891661
0.453097 1.001890 0.907461
0.453806 1.000005 0.915742
0.453391 1.000959 0.935272
0.455593 1.001176 0.946980
0.451598 1.001179 0.961405
0.454007 1.001416 0.974044
0.450457 1.004636 0.991178
0.467801 1.001239 -0.003528
0.467030 1.003164 0.013359
0.466964 0.997006 0.024414
0.466467 0.997149 0.041181
0.467567 0.999480 0.058230
0.464369 0.998516 0.070755
0.470415 1.000902 0.082439
0.465198 0.998647 0.093806
0.467392 0.997807 0.113623
0.465291 0.997802 0.126162
0.470644 0.998622 0.139961
0.469338 0.996731 0.153043
0.467949 0.998327 0.170754
0.465505 0.999655 0.186256
0.468635 0.998123 0.198201
0.468102 1.001419 0.210619
0.462906 1.003304 0.222932
0.470402 0.998777 0.234991
0.467334 1.002836 0.254294
0.463834 1.003568 0.272590
0.465856 0.998480 0.283108
0.466958 0.999706 0.294309
0.467019 0.996639 0.311767
0.467840 0.998495 0.325644
0.464783 0.998483 0.340736
0.463450 1.000600 0.352946
0.466944 1.000479 0.367136
0.465397 0.998899 0.381188
0.466881 1.005064 0.395053
0.466712 0.999052 0.411004
0.466285 1.002984 0.421511
0.463561 0.997643 0.436842
0.469087 0.996172 0.452917
0.467716 1.000075 0.468634
0.463808 1.002714 0.482693
0.467508 1.001146 0.494283
0.465288 1.001277 0.511112
0.464687 0.999974 0.525144
0.464109 1.000014 0.534575
0.462272 1.001715 0.551128
0.467374 0.997248 0.566444
0.468959 0.998098 0.580832
0.464987 0.998557 0.592117
0.463370 1.001493 0.607843
0.465383 1.001889 0.623686
0.465217 1.000376 0.637328
0.465177 1.005323 0.648767
0.467873 1.005667 0.665285
0.466470 1.003428 0.680156
0.466233 1.001968 0.695198
0.468316 1.002988 0.708762
0.463945 1.000271 0.721328
0.468528 1.001132 0.737164
0.467574 0.999475 0.750044
0.466624 1.000322 0.761699
0.466665 0.998303 0.775480
0.464346 1.000269 0.795569
0.464791 0.996123 0.805218
0.465867 0.998606 0.819488
0.460389 1.001167 0.835997
0.468601 1.001706 0.850218
0.468030 0.998240 0.861542
0.465689 1.001914 0.874283
0.468711 1.003275 0.891382
0.469125 0.999039 0.903922
0.465807 0.997419 0.917003
0.464361 0.998970 0.933757
0.464206 1.003268 0.946164
0.463289 1.001860 0.961858
0.466572 1.001734 0.977404
0.464624 0.999791 0.991631
0.481414 1.002604 0.001618
0.479513 0.999847 0.009399
0.480321 0.997654 0.028227
0.481270 1.000271 0.043935
0.483274 1.000529 0.057919
0.482246 1.000524 0.069150
0.482642 1.001509 0.083126
0.483307 0.998443 0.099723
0.479259 1.003066 0.111741
0.480141 0.999939 0.127735
0.482396 1.001330 0.142615
0.483089 0.999583 0.155429
0.481608 1.003308 0.168757
0.483061 1.001263 0.179311
0.477025 1.000716 0.195927
0.479679 1.001244 0.210854
0.480027 0.995408 0.227525
0.481182 0.997002 0.244411
0.478498 0.998337 0.252665
0.479988 0.998654 0.266539
0.481096 0.997904 0.283127
0.479466 0.998940 0.298341
0.485702 0.996386 0.309366
0.483939 1.001739 0.327351
0.483463 0.999925 0.340797
0.481235 0.997648 0.351914
0.478603 0.999391 0.366456
0.478672 0.998840 0.382146
0.483427 1.001476 0.399706
0.481982 0.998512 0.410322
0.481631 1.001865 0.424852
0.481514 1.001723 0.441394
0.479329 1.000988 0.452231
0.481700 1.001975 0.464369
0.478854 0.998595 0.479767
0.481016 1.002093 0.493575
0.481460 0.995193 0.507693
0.478769 1.000692 0.523875
0.483865 1.001516 0.538939
0.481828 1.000185 0.552990
0.479253 1.003124 0.564390
0.481652 0.999354 0.582296
0.479635 1.002604 0.592437
0.483072 0.998343 0.608978
0.481652 1.001697 0.623182
0.479855 1.000944 0.635569
0.484649 0.998863 0.646090
0.478139 1.000788 0.663862
0.481770 1.002516 0.681131
0.479989 1.001704 0.691856
0.483052 1.000066 0.706037
0.481200 0.997857 0.717715
0.481473 1.000815 0.733113
0.484004 0.999156 0.749687
0.480504 0.999623 0.766036
0.479121 1.000592 0.776970
0.475665 1.000830 0.792040
0.480709 1.001363 0.807481
0.484716 0.997567 0.822046
0.480190 1.003227 0.831845
0.483800 0.995840 0.845573
0.477324 1.002899 0.862481
0.480597 0.997842 0.878339
0.482860 0.995666 0.890828
0.482351 1.000717 0.902482
0.482536 1.001676 0.918847
0.481521 1.000695 0.932050
0.481766 1.001945 0.950366
0.483376 1.001051 0.962188
0.481842 1.000902 0.975089
0.475059 1.000460 0.983208
0.493820 1.002564 0.002343
0.495595 1.001615 0.012784
0.493339 0.998175 0.027201
0.496632 1.001076 0.042974
0.492798 0.997774 0.057850
0.495337 0.996917 0.072562
0.498462 0.996779 0.084588
0.491954 0.999374 0.095835
0.494540 1.000281 0.109750
0.493699 1.000401 0.132573
0.493323 1.004576 0.139548
0.494372 1.000085 0.158438
0.491936 1.000457 0.168283
0.494963 1.001437 0.185300
0.494900 1.004520 0.199147
0.494800 0.998207 0.212378
0.492861 1.000632 0.227046
0.494461 1.001668 0.240136
0.494854 0.997362 0.252975
0.496506 0.998157 0.270246
0.496240 0.998571 0.284463
0.493618 1.001663 0.293228
0.494152 1.001050 0.314339
0.497491 0.998416 0.325040
0.494417 1.003629 0.339462
0.496447 0.999122 0.351692
0.495779 0.999527 0.368336
0.491787 0.997495 0.383611
0.495525 0.996579 0.395239
0.490922 0.998550 0.408200
0.493451 0.996493 0.428363
0.493503 0.999721 0.435356
0.497561 0.998134 0.452673
0.495794 1.000875 0.467707
0.497431 1.000305 0.481767
0.492811 0.999824 0.494269
0.496023 0.998589 0.510842
0.492845 0.997932 0.527594
0.494637 1.001154 0.538745
0.496356 1.002278 0.552005
0.495079 1.001306 0.564878
0.495048 0.999091 0.583493
0.495091 0.997111 0.592188
0.493415 1.000814 0.608255
0.497456 0.999442 0.623144
0.495466 0.997045 0.637148
0.492433 0.997366 0.651026
0.498167 0.997049 0.664781
0.494672 0.998199 0.677054
0.492687 0.998428 0.690442
0.495275 0.998924 0.706370
0.494937 0.998986 0.721648
0.493146 1.002509 0.735243
0.498904 0.996961 0.749422
0.492852 0.999589 0.763383
0.494344 1.001364 0.779899
0.492151 1.000106 0.787807
0.498754 1.002105 0.805880
0.494456 1.002096 0.819644
0.496796 1.001806 0.831975
0.493304 1.000736 0.846749
0.495385 1.002424 0.862195
0.493865 0.999286 0.877551
0.494219 1.001049 0.892182
0.496806 1.001614 0.905506
0.495184 1.000281 0.919219
0.496023 0.996255 0.932367
0.495803 1.003001 0.946314
0.497590 0.999860 0.962324
0.496041 1.000814 0.976795
0.493858 1.000658 0.988417
0.513340 1.000925 -0.001312
0.506956 0.998963 0.014427
0.510258 1.001855 0.029551
0.506310 1.000000 0.040818
0.508411 1.000368 0.058002
0.509157 1.004438 0.067369
0.507959 0.999176 0.086142
0.505687 0.999744 0.101463
0.508962 0.998340 0.116043
0.507115 0.997365 0.125841
0.508965 1.000431 0.140840
0.509739 0.998445 0.152201
0.512699 0.995742 0.169887
0.510004 1.000422 0.186066
0.507606 0.999752 0.198929
0.509415 0.997315 0.211657
0.512192 1.002154 0.225522
0.504742 1.000109 0.239799
0.510831 1.003076 0.252458
0.509789 0.999793 0.270645
0.513032 1.001431 0.283853
0.506268 1.003944 0.295259
0.511414 1.001486 0.313158
0.510088 1.000020 0.323936
0.508072 1.001022 0.336651
0.505949 1.000027 0.353588
0.509223 0.999729 0.368649
0.511108 0.996600 0.383087
0.510093 1.001712 0.395359
0.504383 0.998844 0.409761
0.507622 0.998873 0.423976
0.509460 1.002568 0.441220
0.508473 0.998972 0.454724
0.509753 1.002358 0.464912
0.512001 0.997545 0.479672
0.507800 0.998366 0.495267
0.510120 0.997890 0.512270
0.510584 1.003915 0.523394
0.511862 0.996161 0.537773
0.506856 1.001232 0.551493
0.505543 1.001009 0.564690
0.510865 1.000978 0.579430
0.509564 0.999664 0.595581
0.509827 0.999699 0.612857
0.509388 1.000697 0.622972
0.506987 1.002631 0.630944
0.506353 1.001244 0.652508
0.513890 0.997477 0.664798
0.508875 1.002370 0.679884
0.509879 0.996265 0.695793
0.509553 1.000950 0.706853
0.510730 0.999080 0.726332
0.511613 0.999351 0.732658
0.507860 0.996886 0.749641
0.507084 1.001477 0.762162
0.510929 1.000818 0.774852
0.508290 1.004758 0.791566
0.504366 1.002954 0.807120
0.506437 0.999574 0.821488
0.507569 0.998203 0.833400
0.512714 1.003712 0.848448
0.511980 1.002798 0.862961
0.511036 0.999185 0.877679
0.509460 0.995666 0.891564
0.510347 1.000045 0.903569
0.508653 1.001237 0.919470
0.509380 0.999499 0.931863
0.510706 1.001092 0.947288
0.511359 1.002946 0.961994
0.509709 1.001141 0.976475
0.508133 1.001338 0.991040
0.522409 1.002118 0.001098
0.524512 1.001090 0.012161
0.521209 1.001058 0.028572
0.525094 0.999075 0.043165
0.520086 0.998864 0.057485
0.524153 1.002424 0.074031
0.521829 1.000893 0.087448
0.521213 1.001766 0.099343
0.523385 1.000986 0.111092
0.520078 0.995888 0.124978
0.525044 1.000156 0.138668
0.518745 1.000012 0.157042
0.524207 1.002160 0.169508
0.524737 1.001971 0.187224
0.525141 0.999083 0.198752
0.522859 1.003274 0.213000
0.522811 1.001521 0.228638
0.521224 1.002804 0.240166
0.525280 0.998406 0.254641
0.520800 1.000379 0.266508
0.525675 1.000999 0.281820
0.524161 1.000137 0.299322
0.525409 0.998211 0.313346
0.519574 0.998244 0.322724
0.525249 0.994875 0.338381
0.524660 0.997492 0.353885
0.524225 0.998719 0.369396
0.525737 0.999695 0.383292
0.523769 0.998548 0.393890
0.524663 0.998244 0.410114
0.520450 1.000413 0.423289
0.523718 0.999780 0.438387
0.523668 1.000266 0.451014
0.524378 0.998757 0.463230
0.523911 0.997745 0.482511
0.526060 1.000860 0.494212
0.524640 0.996676 0.508397
0.526989 1.000973 0.524195
0.520691 0.999086 0.537645
0.522294 0.998911 0.553398
0.522948 1.002586 0.562020
0.521366 0.999712 0.579782
0.523967 0.998723 0.597511
0.523257 0.998793 0.610324
0.520166 1.001744 0.621694
0.523515 1.001764 0.638462
0.522137 1.000630 0.654833
0.526040 0.999819 0.664013
0.520352 0.999100 0.681380
0.520296 1.001150 0.694335
0.524311 0.996628 0.707708
0.525200 0.999209 0.723045
0.524605 1.002460 0.733436
0.526639 0.999968 0.749960
0.521262 0.998140 0.763634
0.523302 0.997479 0.780176
0.519740 1.000479 0.789380
0.520955 0.998711 0.806023
0.524904 1.001786 0.819973
0.522902 1.000013 0.832759
0.522056 0.998254 0.849164
0.519428 0.999767 0.863990
0.517881 1.002974 0.875661
0.521703 0.997706 0.889039
0.527253 1.001905 0.899972
0.526434 0.999358 0.920710
0.524625 0.999762 0.932288
0.523265 0.999328 0.947341
0.521719 0.998927 0.958767
0.525512 1.002380 0.976453
0.523475 0.998092 0.993261
0.537834 0.999426 -0.000958
0.537409 0.997033 0.014330
0.538495 0.996317 0.028509
0.538616 1.001359 0.044213
0.535390 1.001808 0.053404
0.535839 0.996245 0.068451
0.538697 0.998486 0.082484
0.538122 0.998608 0.099609
0.534171 0.997747 0.114039
0.538617 1.000201 0.126667
0.535329 1.003012 0.139019
0.541052 0.995947 0.154096
0.538310 0.996843 0.171838
0.539343 1.003219 0.184699
0.536274 0.998713 0.198438
0.535100 0.999609 0.209206
0.538704 0.998210 0.229349
0.537780 0.999711 0.244503
0.534453 0.996885 0.251765
0.538560 0.999880 0.268474
0.536111 1.002206 0.278477
0.541326 1.001891 0.297101
0.537206 0.997384 0.312824
0.536411 1.000817 0.327041
0.540032 0.999687 0.338410
0.538033 0.998286 0.358335
0.536123 0.996367 0.370274
0.532646 1.002176 0.383704
0.536570 0.998084 0.396991
0.536693 1.001417 0.409419
0.538233 0.995321 0.425741
0.533726 1.001332 0.439792
0.537412 1.000506 0.452453
0.537188 0.997601 0.467340
0.537921 0.997652 0.478889
0.535230 1.000313 0.494219
0.540064 1.000542 0.512928
0.539240 1.000313 0.522541
0.537493 0.997563 0.536133
0.535833 0.999236 0.552172
0.536233 0.997860 0.567058
0.533502 0.999226 0.576945
0.535730 1.002694 0.592860
0.535926 0.999878 0.609498
0.536154 0.999577 0.626281
0.533997 1.001068 0.637740
0.533437 1.000109 0.650384
0.532101 0.999521 0.665478
0.537174 1.003793 0.676677
0.537602 0.998632 0.692336
0.534967 0.998812 0.707522
0.534181 0.999538 0.721233
0.536667 0.999817 0.737715
0.537791 1.003615 0.750464
0.537820 1.003750 0.763419
0.538449 0.998593 0.779653
0.539553 0.997054 0.792101
0.537968 1.002566 0.810022
0.538994 0.997866 0.821448
0.538941 1.001679 0.835710
0.536964 0.999045 0.849705
0.537868 0.998701 0.861670
0.536661 0.999576 0.877591
0.540326 1.001578 0.890876
0.538570 1.000037 0.903632
0.538601 0.999611 0.915957
0.538638 0.997172 0.936169
0.538938 0.996006 0.947118
0.536673 0.997559 0.960550
0.539569 1.001134 0.976704
0.536458 1.002400 0.990460
0.549002 0.999778 -0.001850
0.550812 0.999913 0.011558
0.552628 1.001816 0.028832
0.551439 1.000896 0.041271
0.554327 1.003906 0.058509
0.554549 1.002684 0.070693
0.552278 0.998027 0.087490
0.550062 1.003132 0.100070
0.551624 1.002350 0.114681
0.553618 1.001061 0.126562
0.554277 1.000095 0.142289
0.549889 0.997227 0.156251
0.551795 0.999756 0.171477
0.551617 1.000226 0.182797
0.555098 1.003764 0.195240
0.551497 0.999778 0.213765
0.551502 1.000047 0.227402
0.552289 1.001007 0.239056
0.552654 0.998199 0.248925
0.550399 0.999179 0.268827
0.551746 1.003690 0.281630
0.553022 0.998282 0.293236
0.549960 1.000456 0.315363
0.550689 0.999351 0.323646
0.551564 0.999308 0.342323
0.550484 1.002227 0.349580
0.555752 1.001568 0.368105
0.550605 1.000551 0.382594
0.550086 0.997588 0.395438
0.552075 0.997920 0.411103
0.549761 1.001015 0.424614
0.550012 0.997473 0.441317
0.551307 0.997882 0.456845
0.553750 0.999463 0.468687
0.551518 0.998459 0.482140
0.550840 0.999643 0.497812
0.550833 1.002437 0.506670
0.551153 0.998262 0.525026
0.549059 0.995704 0.537932
0.553996 0.999141 0.550404
0.546873 0.999880 0.564625
0.551224 0.999894 0.578169
0.554112 0.998084 0.592544
0.553208 0.998059 0.606660
0.550672 1.004442 0.624281
0.553066 0.999335 0.636009
0.552035 1.002643 0.648694
0.554712 0.998282 0.664529
0.550650 1.001042 0.681122
0.551060 1.001405 0.693835
0.551272 0.998889 0.705534
0.548838 1.005239 0.719543
0.553619 0.997971 0.735878
0.551917 1.002477 0.749684
0.554809 0.996917 0.760079
0.552306 0.997547 0.777114
0.554100 0.999464 0.793004
0.551001 0.996375 0.804432
0.550877 1.000792 0.818038
0.552798 1.005139 0.834428
0.548710 1.000067 0.848194
0.552527 0.996114 0.860572
0.549639 0.999172 0.876485
0.553752 0.997001 0.889196
0.550763 0.998928 0.903120
0.552569 1.002662 0.918617
0.550493 0.998124 0.935041
0.548107 1.000383 0.945498
0.549985 1.000006 0.965784
0.547692 1.001749 0.976448
0.553866 1.004318 0.986504
0.568464 0.998075 0.001438
0.563819 0.998222 0.014272
0.566674 1.000554 0.030228
0.565042 0.999642 0.042511
0.563459 0.998290 0.055617
0.564466 1.002111 0.071639
0.565056 0.996376 0.086038
0.564889 0.997824 0.099694
0.564633 0.998065 0.111469
0.570045 1.002529 0.129146
0.567549 0.998097 0.141789
0.565223 1.001746 0.157753
0.564481 1.001560 0.171043
0.564908 1.002286 0.184257
0.564802 0.997413 0.196485
0.565688 1.000771 0.211347
0.566929 0.997801 0.226901
0.567983 0.999292 0.241520
0.567297 1.002022 0.256819
0.564136 1.001141 0.266404
0.567781 1.000311 0.286178
0.566965 1.001493 0.296126
0.566416 1.003132 0.312164
0.567758 1.003848 0.324519
0.562030 0.999520 0.337095
0.564818 1.002092 0.355427
0.564957 0.998584 0.364591
0.566241 0.999089 0.382109
0.564945 1.000229 0.396876
0.565796 0.999258 0.410177
0.565516 1.000373 0.420817
0.564175 0.999786 0.437905
0.568977 0.998381 0.452258
0.566531 1.001903 0.465644
0.564809 1.001657 0.481263
0.565296 1.001163 0.497740
0.564112 1.000958 0.508280
0.566044 0.999876 0.519605
0.565408 0.997789 0.535192
0.568460 1.004611 0.551215
0.566887 0.996700 0.563462
0.567232 0.998151 0.579996
0.565974 0.999525 0.590165
0.568027 1.000869 0.607411
0.564795 1.004983 0.624705
0.567720 1.001247 0.633886
0.566434 0.997853 0.651916
0.566917 1.000876 0.662448
0.564104 0.998951 0.679924
0.564549 0.999560 0.691258
0.565348 1.003850 0.705823
0.565607 1.001936 0.722318
0.563121 0.998541 0.737909
0.564835 1.000139 0.749543
0.567718 0.999828 0.765628
0.566041 0.998469 0.776807
0.569100 0.998711 0.793684
0.567008 0.997318 0.806163
0.564902 0.998959 0.819868
0.563002 1.000432 0.831656
0.565651 1.000842 0.847967
0.565154 0.998468 0.862845
0.564784 0.998883 0.874789
0.567520 1.000933 0.889330
0.562591 1.003493 0.904991
0.564184 0.994655 0.921774
0.567018 0.998133 0.933804
0.563704 0.999025 0.950492
0.566212 0.999554 0.961478
0.565749 0.999675 0.975337
0.568980 1.001968 0.991360
0.579376 1.002380 -0.000438
0.579400 0.996902 0.013685
0.580097 0.998857 0.026013
0.577082 0.999297 0.040811
0.578165 0.998954 0.053600
0.581564 0.997812 0.070422
0.582681 1.003715 0.086759
0.578191 1.001846 0.100758
0.580446 1.000996 0.113462
0.576653 0.998627 0.129144
0.578676 0.998764 0.140232
0.578414 0.997367 0.155994
0.582967 1.002937 0.169687
0.582566 0.999480 0.182882
0.581063 0.995860 0.202113
0.578444 0.998902 0.215208
0.580594 0.996647 0.224093
0.581242 0.998196 0.242793
0.577737 0.998751 0.254230
0.581959 0.998712 0.268011
0.580427 1.005122 0.284196
0.578740 0.999679 0.295988
0.580064 1.003021 0.313661
0.583234 1.004585 0.324895
0.583549 1.000476 0.341125
0.579236 0.999232 0.351129
0.577572 0.994708 0.366436
0.580879 1.000358 0.379296
0.579149 1.000569 0.395158
0.582392 1.000717 0.411791
0.581314 0.998481 0.425987
0.581041 0.999549 0.439647
0.580197 1.001870 0.453254
0.576616 0.998913 0.469188
0.579126 1.002443 0.480628
0.580042 0.995799 0.495364
0.578932 1.001054 0.509866
0.579616 1.001804 0.520498
0.580158 0.997566 0.538475
0.579981 1.000415 0.552457
0.579326 1.000274 0.564602
0.576779 0.998882 0.580007
0.580113 0.997211 0.590598
0.582742 1.000095 0.605975
0.584255 0.997105 0.624088
0.582518 0.998753 0.633974
0.579215 0.998015 0.653019
0.581474 1.001652 0.661726
0.579015 0.999054 0.682124
0.584061 0.999687 0.688692
0.579396 1.001104 0.706320
0.581045 0.999474 0.721607
0.576917 1.001034 0.735052
0.582984 1.002114 0.749073
0.579971 0.998775 0.763637
0.578782 0.999738 0.779566
0.581423 1.002141 0.792784
0.578158 1.000263 0.804828
0.578936 0.997742 0.822878
0.578845 1.000554 0.836973
0.580181 1.002152 0.851015
0.577462 0.999885 0.861895
0.583139 1.000355 0.870719
0.579398 0.998631 0.895103
0.578786 0.999967 0.903749
0.584300 0.999142 0.915192
0.582559 1.003155 0.936966
0.581423 1.003140 0.946958
0.574552 1.000527 0.961946
0.580544 0.999533 0.976428
0.579342 1.000790 0.994672
0.592656 0.999935 0.001090
0.591739 0.997262 0.012602
0.593067 0.998199 0.027400
0.594922 1.000689 0.043358
0.596092 0.998705 0.057880
0.595006 1.002509 0.070633
0.594327 1.003479 0.086062
0.592854 1.002097 0.101219
0.592013 0.997915 0.110619
0.593106 1.000212 0.123726
0.591083 1.000102 0.141802
0.592873 1.000160 0.156714
0.594992 0.999541 0.170105
0.595237 1.001751 0.182067
0.596991 1.000052 0.196150
0.595608 0.998022 0.212721
0.593298 1.003216 0.225648
0.592212 0.999463 0.241019
0.595759 1.000275 0.250883
0.594851 1.000907 0.270194
0.591540 1.001800 0.280804
0.591709 0.999280 0.294078
0.593995 1.003289 0.311791
0.596550 1.003619 0.322379
0.595345 0.998931 0.336437
0.594220 0.997753 0.350431
0.598263 1.000255 0.368323
0.593111 1.003112 0.383296
0.594802 1.000908 0.398029
0.594686 0.999635 0.410861
0.596580 0.998483 0.427718
0.592986 0.997730 0.440680
0.595757 0.998398 0.453693
0.595702 0.997765 0.467983
0.593936 0.998409 0.476283
0.591717 0.997639 0.497404
0.592653 1.000131 0.508761
0.595248 1.000770 0.524547
0.593982 0.998956 0.536596
0.593930 1.002746 0.554662
0.592801 1.002005 0.567097
0.593786 0.997431 0.580748
0.593605 1.003033 0.594042
0.596062 1.000798 0.607827
0.594853 1.002511 0.619242
0.593889 1.000066 0.635655
0.598278 0.999435 0.650173
0.597083 0.998719 0.664615
0.589458 0.998539 0.678771
0.593814 1.001847 0.692448
0.593826 0.999012 0.706684
0.594861 1.000397 0.723979
0.593591 1.005248 0.736545
0.590264 0.998119 0.748991
0.598391 0.996626 0.763319
0.593643 0.999903 0.778408
0.593558 0.999139 0.790440
0.596404 1.000818 0.804598
0.593338 0.998174 0.820877
0.592602 0.999803 0.834009
0.591629 0.999609 0.851186
0.596042 1.003074 0.859872
0.594442 1.000885 0.876744
0.594256 0.998139 0.889873
