ply
format ascii 1.0
element vertex 1773
property float x
property float y
property float z
end_header
0.783987 0.021563 0.135455
0.793987 0.011563 0.135455
0.793987 0.011563 0.145455
0.783987 0.011563 0.155455
0.783987 0.011563 0.165455
0.793987 0.011563 0.155455
0.793987 0.011563 0.165455
0.803987 0.011563 0.135455
0.803987 0.011563 0.145455
0.813987 0.011563 0.135455
0.813987 0.011563 0.145455
0.803987 0.011563 0.155455
0.803987 0.011563 0.165455
0.813987 0.011563 0.155455
0.813987 0.011563 0.165455
0.743987 0.051563 0.055455
0.743987 0.051563 0.065455
0.743987 0.061563 0.055455
0.753987 0.061563 0.065455
0.743987 0.051563 0.075455
0.743987 0.051563 0.085455
0.753987 0.051563 0.075455
0.753987 0.051563 0.085455
0.743987 0.071563 0.055455
0.743987 0.081563 0.055455
0.753987 0.071563 0.065455
0.753987 0.081563 0.065455
0.753987 0.081563 0.075455
0.763987 0.051563 0.085455
0.763987 0.061563 0.075455
0.773987 0.051563 0.085455
0.773987 0.061563 0.085455
0.763987 0.071563 0.075455
0.763987 0.081563 0.075455
0.763987 0.081563 0.085455
0.773987 0.071563 0.085455
0.743987 0.091563 0.065455
0.753987 0.091563 0.065455
0.743987 0.091563 0.075455
0.743987 0.101563 0.085455
0.753987 0.091563 0.075455
0.753987 0.091563 0.085455
0.743987 0.111563 0.085455
0.743987 0.121563 0.085455
0.753987 0.111563 0.085455
0.753987 0.121563 0.085455
0.743987 0.051563 0.095455
0.743987 0.051563 0.105455
0.763987 0.081563 0.095455
0.763987 0.081563 0.105455
0.773987 0.071563 0.095455
0.773987 0.081563 0.095455
0.773987 0.081563 0.105455
0.773987 0.081563 0.115455
0.743987 0.101563 0.095455
0.753987 0.091563 0.095455
0.753987 0.101563 0.095455
0.753987 0.111563 0.095455
0.763987 0.091563 0.095455
0.763987 0.091563 0.105455
0.763987 0.101563 0.105455
0.773987 0.101563 0.105455
0.773987 0.091563 0.115455
0.773987 0.101563 0.115455
0.763987 0.111563 0.095455
0.763987 0.111563 0.105455
0.763987 0.121563 0.095455
0.763987 0.121563 0.105455
0.773987 0.111563 0.105455
0.773987 0.121563 0.105455
0.773987 0.111563 0.115455
0.773987 0.121563 0.115455
0.773987 0.121563 0.125455
0.753987 0.121563 0.165455
0.773987 0.111563 0.145455
0.773987 0.121563 0.135455
0.773987 0.121563 0.145455
0.763987 0.121563 0.155455
0.763987 0.121563 0.165455
0.773987 0.111563 0.155455
0.773987 0.111563 0.165455
0.773987 0.121563 0.155455
0.783987 0.051563 0.095455
0.783987 0.061563 0.095455
0.793987 0.051563 0.095455
0.793987 0.061563 0.105455
0.793987 0.061563 0.115455
0.783987 0.071563 0.095455
0.783987 0.071563 0.105455
0.783987 0.071563 0.115455
0.783987 0.081563 0.115455
0.783987 0.081563 0.125455
0.793987 0.071563 0.115455
0.793987 0.071563 0.125455
0.793987 0.081563 0.125455
0.803987 0.051563 0.105455
0.803987 0.051563 0.115455
0.803987 0.061563 0.115455
0.803987 0.061563 0.125455
0.813987 0.051563 0.115455
0.813987 0.051563 0.125455
0.793987 0.071563 0.135455
0.793987 0.081563 0.135455
0.803987 0.061563 0.135455
0.813987 0.061563 0.135455
0.813987 0.061563 0.145455
0.803987 0.071563 0.135455
0.803987 0.071563 0.145455
0.803987 0.081563 0.135455
0.803987 0.081563 0.145455
0.813987 0.071563 0.145455
0.813987 0.071563 0.155455
0.813987 0.081563 0.155455
0.813987 0.081563 0.165455
0.783987 0.091563 0.115455
0.783987 0.091563 0.125455
0.783987 0.101563 0.115455
0.783987 0.101563 0.125455
0.793987 0.091563 0.125455
0.783987 0.111563 0.125455
0.783987 0.101563 0.145455
0.793987 0.091563 0.135455
0.793987 0.101563 0.135455
0.793987 0.101563 0.145455
0.783987 0.101563 0.155455
0.783987 0.101563 0.165455
0.793987 0.091563 0.165455
0.793987 0.101563 0.155455
0.793987 0.101563 0.165455
0.783987 0.111563 0.135455
0.783987 0.111563 0.145455
0.803987 0.091563 0.145455
0.803987 0.091563 0.155455
0.803987 0.091563 0.165455
0.823987 0.001563 0.145455
0.833987 0.001563 0.145455
0.823987 0.001563 0.155455
0.823987 0.001563 0.165455
0.833987 0.001563 0.155455
0.833987 0.001563 0.165455
0.843987 0.001563 0.155455
0.843987 0.001563 0.165455
0.853987 0.001563 0.165455
0.823987 0.021563 0.125455
0.823987 0.031563 0.125455
0.823987 0.041563 0.125455
0.823987 0.011563 0.135455
0.833987 0.011563 0.135455
0.833987 0.021563 0.135455
0.833987 0.021563 0.145455
0.823987 0.041563 0.135455
0.833987 0.031563 0.135455
0.833987 0.031563 0.145455
0.833987 0.041563 0.145455
0.843987 0.011563 0.145455
0.843987 0.021563 0.145455
0.853987 0.011563 0.155455
0.853987 0.021563 0.155455
0.843987 0.031563 0.145455
0.843987 0.031563 0.155455
0.843987 0.041563 0.155455
0.853987 0.031563 0.165455
0.853987 0.041563 0.165455
0.863987 0.011563 0.165455
0.863987 0.021563 0.165455
0.823987 0.051563 0.135455
0.823987 0.051563 0.145455
0.833987 0.051563 0.145455
0.823987 0.061563 0.155455
0.833987 0.051563 0.155455
0.833987 0.061563 0.165455
0.823987 0.071563 0.155455
0.823987 0.071563 0.165455
0.843987 0.051563 0.155455
0.843987 0.051563 0.165455
0.853987 0.051563 0.165455
0.743987 0.131563 0.085455
0.743987 0.141563 0.085455
0.753987 0.131563 0.085455
0.753987 0.141563 0.085455
0.743987 0.151563 0.085455
0.743987 0.161563 0.085455
0.743987 0.171563 0.085455
0.753987 0.131563 0.095455
0.753987 0.141563 0.095455
0.743987 0.161563 0.095455
0.753987 0.151563 0.095455
0.753987 0.151563 0.105455
0.753987 0.161563 0.105455
0.753987 0.151563 0.115455
0.753987 0.151563 0.125455
0.753987 0.161563 0.115455
0.753987 0.161563 0.125455
0.763987 0.131563 0.095455
0.763987 0.131563 0.105455
0.763987 0.141563 0.105455
0.763987 0.141563 0.115455
0.763987 0.141563 0.125455
0.773987 0.131563 0.115455
0.773987 0.131563 0.125455
0.763987 0.151563 0.105455
0.763987 0.151563 0.115455
0.763987 0.151563 0.125455
0.753987 0.141563 0.145455
0.753987 0.131563 0.155455
0.753987 0.131563 0.165455
0.753987 0.141563 0.155455
0.753987 0.141563 0.165455
0.753987 0.151563 0.135455
0.753987 0.151563 0.145455
0.753987 0.161563 0.135455
0.753987 0.161563 0.145455
0.753987 0.151563 0.155455
0.753987 0.151563 0.165455
0.753987 0.161563 0.155455
0.753987 0.161563 0.165455
0.763987 0.131563 0.135455
0.763987 0.131563 0.145455
0.763987 0.141563 0.135455
0.763987 0.141563 0.145455
0.773987 0.131563 0.135455
0.763987 0.131563 0.155455
0.743987 0.171563 0.095455
0.743987 0.171563 0.105455
0.743987 0.181563 0.095455
0.743987 0.181563 0.105455
0.753987 0.171563 0.115455
0.753987 0.171563 0.125455
0.753987 0.181563 0.115455
0.753987 0.181563 0.125455
0.743987 0.191563 0.095455
0.743987 0.201563 0.095455
0.753987 0.191563 0.105455
0.753987 0.201563 0.095455
0.753987 0.201563 0.105455
0.753987 0.191563 0.115455
0.763987 0.201563 0.105455
0.763987 0.191563 0.125455
0.763987 0.201563 0.115455
0.763987 0.201563 0.125455
0.773987 0.201563 0.125455
0.753987 0.171563 0.135455
0.753987 0.171563 0.145455
0.753987 0.171563 0.155455
0.753987 0.171563 0.165455
0.753987 0.181563 0.155455
0.763987 0.181563 0.135455
0.763987 0.181563 0.145455
0.763987 0.181563 0.155455
0.763987 0.181563 0.165455
0.763987 0.191563 0.135455
0.763987 0.191563 0.145455
0.773987 0.201563 0.135455
0.773987 0.201563 0.145455
0.763987 0.191563 0.155455
0.763987 0.191563 0.165455
0.773987 0.201563 0.155455
0.773987 0.201563 0.165455
0.783987 0.201563 0.165455
0.743987 0.211563 0.085455
0.743987 0.221563 0.085455
0.753987 0.221563 0.085455
0.743987 0.231563 0.085455
0.743987 0.241563 0.075455
0.743987 0.241563 0.085455
0.753987 0.231563 0.085455
0.753987 0.241563 0.085455
0.763987 0.241563 0.085455
0.743987 0.251563 0.085455
0.743987 0.261563 0.075455
0.753987 0.251563 0.085455
0.753987 0.261563 0.085455
0.743987 0.271563 0.075455
0.743987 0.281563 0.075455
0.753987 0.271563 0.075455
0.753987 0.271563 0.085455
0.753987 0.281563 0.075455
0.763987 0.251563 0.085455
0.763987 0.261563 0.085455
0.773987 0.261563 0.085455
0.763987 0.271563 0.085455
0.763987 0.281563 0.085455
0.773987 0.271563 0.085455
0.773987 0.281563 0.085455
0.783987 0.281563 0.085455
0.753987 0.211563 0.095455
0.753987 0.221563 0.095455
0.753987 0.231563 0.095455
0.763987 0.211563 0.105455
0.763987 0.221563 0.095455
0.763987 0.221563 0.105455
0.773987 0.221563 0.105455
0.763987 0.211563 0.115455
0.773987 0.211563 0.115455
0.773987 0.211563 0.125455
0.773987 0.221563 0.115455
0.763987 0.231563 0.095455
0.763987 0.241563 0.095455
0.773987 0.231563 0.105455
0.773987 0.241563 0.095455
0.773987 0.241563 0.105455
0.773987 0.211563 0.135455
0.773987 0.211563 0.145455
0.773987 0.251563 0.095455
0.773987 0.261563 0.095455
0.783987 0.221563 0.115455
0.783987 0.221563 0.125455
0.783987 0.241563 0.105455
0.783987 0.231563 0.115455
0.783987 0.231563 0.125455
0.793987 0.231563 0.125455
0.793987 0.241563 0.115455
0.793987 0.241563 0.125455
0.783987 0.211563 0.135455
0.783987 0.221563 0.135455
0.783987 0.221563 0.145455
0.793987 0.221563 0.145455
0.783987 0.211563 0.155455
0.783987 0.211563 0.165455
0.783987 0.221563 0.155455
0.793987 0.221563 0.155455
0.793987 0.221563 0.165455
0.793987 0.231563 0.135455
0.793987 0.231563 0.145455
0.793987 0.241563 0.135455
0.793987 0.241563 0.145455
0.793987 0.231563 0.155455
0.793987 0.231563 0.165455
0.803987 0.231563 0.145455
0.803987 0.241563 0.135455
0.803987 0.241563 0.145455
0.803987 0.231563 0.165455
0.803987 0.241563 0.155455
0.803987 0.241563 0.165455
0.783987 0.251563 0.105455
0.783987 0.261563 0.095455
0.783987 0.261563 0.105455
0.793987 0.251563 0.105455
0.793987 0.261563 0.105455
0.793987 0.251563 0.115455
0.793987 0.261563 0.115455
0.783987 0.271563 0.095455
0.783987 0.281563 0.095455
0.793987 0.271563 0.095455
0.793987 0.271563 0.105455
0.793987 0.281563 0.095455
0.793987 0.281563 0.105455
0.803987 0.251563 0.125455
0.803987 0.261563 0.115455
0.803987 0.261563 0.125455
0.803987 0.281563 0.105455
0.803987 0.271563 0.115455
0.803987 0.281563 0.115455
0.813987 0.271563 0.125455
0.813987 0.281563 0.115455
0.813987 0.281563 0.125455
0.803987 0.251563 0.135455
0.803987 0.251563 0.145455
0.813987 0.251563 0.145455
0.813987 0.261563 0.135455
0.813987 0.261563 0.145455
0.803987 0.251563 0.155455
0.813987 0.251563 0.155455
0.813987 0.251563 0.165455
0.813987 0.261563 0.155455
0.813987 0.261563 0.165455
0.813987 0.271563 0.135455
0.813987 0.271563 0.145455
0.813987 0.281563 0.135455
0.823987 0.261563 0.165455
0.823987 0.281563 0.135455
0.823987 0.281563 0.145455
0.823987 0.271563 0.155455
0.823987 0.271563 0.165455
0.823987 0.281563 0.155455
0.833987 0.271563 0.165455
0.833987 0.281563 0.165455
0.743987 0.291563 0.075455
0.743987 0.301563 0.075455
0.753987 0.291563 0.075455
0.753987 0.301563 0.075455
0.743987 0.321563 0.075455
0.753987 0.321563 0.075455
0.763987 0.291563 0.075455
0.763987 0.291563 0.085455
0.763987 0.301563 0.075455
0.763987 0.301563 0.085455
0.773987 0.291563 0.085455
0.773987 0.301563 0.085455
0.763987 0.311563 0.075455
0.763987 0.321563 0.075455
0.773987 0.311563 0.085455
0.773987 0.321563 0.075455
0.773987 0.321563 0.085455
0.743987 0.331563 0.075455
0.743987 0.341563 0.075455
0.753987 0.331563 0.075455
0.753987 0.341563 0.075455
0.743987 0.351563 0.075455
0.743987 0.361563 0.075455
0.753987 0.351563 0.075455
0.763987 0.331563 0.075455
0.763987 0.341563 0.075455
0.773987 0.341563 0.085455
0.763987 0.361563 0.075455
0.773987 0.361563 0.075455
0.773987 0.361563 0.085455
0.783987 0.291563 0.085455
0.783987 0.301563 0.085455
0.793987 0.301563 0.085455
0.783987 0.311563 0.085455
0.783987 0.321563 0.085455
0.793987 0.321563 0.085455
0.783987 0.331563 0.085455
0.783987 0.341563 0.085455
0.793987 0.331563 0.085455
0.793987 0.341563 0.085455
0.783987 0.361563 0.085455
0.793987 0.351563 0.085455
0.793987 0.361563 0.085455
0.793987 0.291563 0.095455
0.793987 0.301563 0.095455
0.793987 0.321563 0.095455
0.803987 0.291563 0.105455
0.803987 0.301563 0.095455
0.813987 0.291563 0.105455
0.813987 0.301563 0.105455
0.813987 0.291563 0.115455
0.813987 0.291563 0.125455
0.813987 0.301563 0.115455
0.813987 0.301563 0.125455
0.803987 0.311563 0.095455
0.803987 0.311563 0.105455
0.803987 0.321563 0.095455
0.813987 0.311563 0.105455
0.813987 0.321563 0.105455
0.813987 0.311563 0.115455
0.793987 0.331563 0.095455
0.793987 0.341563 0.095455
0.803987 0.331563 0.095455
0.803987 0.341563 0.095455
0.813987 0.331563 0.105455
0.813987 0.341563 0.095455
0.813987 0.341563 0.105455
0.803987 0.351563 0.095455
0.803987 0.361563 0.095455
0.813987 0.351563 0.105455
0.813987 0.361563 0.095455
0.743987 0.381563 0.075455
0.753987 0.371563 0.075455
0.743987 0.391563 0.075455
0.743987 0.401563 0.075455
0.753987 0.391563 0.075455
0.753987 0.401563 0.075455
0.763987 0.371563 0.075455
0.763987 0.381563 0.075455
0.773987 0.371563 0.085455
0.773987 0.381563 0.085455
0.763987 0.391563 0.075455
0.763987 0.401563 0.075455
0.763987 0.401563 0.085455
0.773987 0.391563 0.085455
0.773987 0.401563 0.085455
0.743987 0.411563 0.075455
0.743987 0.421563 0.075455
0.753987 0.411563 0.085455
0.753987 0.421563 0.085455
0.743987 0.431563 0.085455
0.743987 0.441563 0.085455
0.753987 0.431563 0.085455
0.753987 0.441563 0.085455
0.763987 0.411563 0.085455
0.763987 0.421563 0.085455
0.773987 0.411563 0.085455
0.763987 0.431563 0.085455
0.763987 0.441563 0.085455
0.773987 0.431563 0.085455
0.783987 0.371563 0.085455
0.783987 0.381563 0.085455
0.793987 0.371563 0.085455
0.793987 0.381563 0.085455
0.783987 0.391563 0.085455
0.783987 0.401563 0.085455
0.793987 0.391563 0.085455
0.783987 0.411563 0.085455
0.773987 0.421563 0.095455
0.763987 0.441563 0.095455
0.773987 0.431563 0.095455
0.773987 0.441563 0.095455
0.793987 0.381563 0.095455
0.783987 0.401563 0.095455
0.793987 0.391563 0.095455
0.793987 0.401563 0.095455
0.803987 0.371563 0.095455
0.803987 0.381563 0.095455
0.813987 0.371563 0.105455
0.813987 0.381563 0.105455
0.813987 0.381563 0.115455
0.803987 0.391563 0.095455
0.803987 0.391563 0.105455
0.803987 0.401563 0.105455
0.813987 0.391563 0.105455
0.813987 0.401563 0.105455
0.813987 0.391563 0.115455
0.813987 0.401563 0.115455
0.813987 0.401563 0.125455
0.783987 0.411563 0.095455
0.783987 0.421563 0.095455
0.793987 0.411563 0.095455
0.793987 0.421563 0.095455
0.793987 0.421563 0.105455
0.783987 0.431563 0.095455
0.783987 0.431563 0.105455
0.783987 0.441563 0.095455
0.783987 0.441563 0.105455
0.793987 0.431563 0.105455
0.793987 0.441563 0.105455
0.793987 0.441563 0.115455
0.803987 0.411563 0.105455
0.803987 0.421563 0.105455
0.803987 0.411563 0.115455
0.803987 0.421563 0.115455
0.813987 0.411563 0.115455
0.813987 0.411563 0.125455
0.813987 0.421563 0.115455
0.813987 0.421563 0.125455
0.803987 0.431563 0.115455
0.803987 0.431563 0.125455
0.803987 0.441563 0.115455
0.803987 0.441563 0.125455
0.813987 0.431563 0.125455
0.803987 0.441563 0.135455
0.813987 0.431563 0.135455
0.813987 0.441563 0.135455
0.813987 0.441563 0.145455
0.823987 0.291563 0.125455
0.823987 0.301563 0.125455
0.823987 0.311563 0.115455
0.823987 0.311563 0.125455
0.823987 0.321563 0.115455
0.823987 0.321563 0.125455
0.823987 0.291563 0.135455
0.823987 0.291563 0.145455
0.823987 0.301563 0.135455
0.823987 0.301563 0.145455
0.833987 0.301563 0.145455
0.823987 0.291563 0.155455
0.833987 0.291563 0.155455
0.833987 0.291563 0.165455
0.833987 0.301563 0.155455
0.833987 0.301563 0.165455
0.823987 0.311563 0.135455
0.833987 0.311563 0.135455
0.833987 0.311563 0.145455
0.833987 0.321563 0.135455
0.833987 0.321563 0.145455
0.833987 0.311563 0.155455
0.833987 0.321563 0.155455
0.843987 0.291563 0.165455
0.843987 0.301563 0.165455
0.853987 0.301563 0.165455
0.843987 0.311563 0.155455
0.843987 0.311563 0.165455
0.843987 0.321563 0.155455
0.853987 0.311563 0.165455
0.853987 0.321563 0.165455
0.823987 0.331563 0.105455
0.823987 0.331563 0.115455
0.823987 0.341563 0.115455
0.833987 0.331563 0.125455
0.833987 0.341563 0.125455
0.823987 0.351563 0.115455
0.823987 0.361563 0.115455
0.833987 0.361563 0.125455
0.833987 0.331563 0.135455
0.833987 0.331563 0.145455
0.833987 0.341563 0.135455
0.833987 0.351563 0.135455
0.833987 0.361563 0.135455
0.843987 0.341563 0.145455
0.843987 0.331563 0.155455
0.843987 0.341563 0.155455
0.853987 0.331563 0.155455
0.853987 0.341563 0.155455
0.843987 0.351563 0.145455
0.843987 0.361563 0.135455
0.843987 0.361563 0.145455
0.853987 0.351563 0.155455
0.853987 0.361563 0.155455
0.863987 0.301563 0.165455
0.873987 0.291563 0.165455
0.873987 0.301563 0.165455
0.863987 0.311563 0.165455
0.863987 0.321563 0.155455
0.863987 0.321563 0.165455
0.873987 0.311563 0.155455
0.873987 0.311563 0.165455
0.873987 0.321563 0.155455
0.883987 0.291563 0.165455
0.883987 0.301563 0.165455
0.893987 0.301563 0.165455
0.883987 0.311563 0.155455
0.883987 0.311563 0.165455
0.883987 0.321563 0.155455
0.893987 0.311563 0.165455
0.893987 0.321563 0.155455
0.893987 0.321563 0.165455
0.873987 0.341563 0.145455
0.863987 0.331563 0.155455
0.863987 0.341563 0.155455
0.873987 0.331563 0.155455
0.873987 0.341563 0.155455
0.873987 0.351563 0.145455
0.863987 0.351563 0.155455
0.873987 0.361563 0.155455
0.883987 0.341563 0.145455
0.883987 0.341563 0.155455
0.893987 0.331563 0.155455
0.893987 0.341563 0.155455
0.883987 0.351563 0.145455
0.883987 0.361563 0.145455
0.893987 0.351563 0.145455
0.893987 0.361563 0.145455
0.893987 0.351563 0.155455
0.823987 0.371563 0.115455
0.823987 0.371563 0.125455
0.823987 0.381563 0.115455
0.823987 0.381563 0.125455
0.833987 0.371563 0.125455
0.833987 0.381563 0.125455
0.823987 0.391563 0.125455
0.823987 0.401563 0.115455
0.823987 0.401563 0.125455
0.833987 0.371563 0.135455
0.833987 0.381563 0.135455
0.833987 0.381563 0.145455
0.823987 0.401563 0.135455
0.833987 0.391563 0.135455
0.833987 0.391563 0.145455
0.833987 0.401563 0.135455
0.833987 0.401563 0.145455
0.843987 0.371563 0.145455
0.843987 0.381563 0.145455
0.853987 0.371563 0.155455
0.853987 0.381563 0.155455
0.843987 0.391563 0.145455
0.843987 0.401563 0.145455
0.853987 0.391563 0.145455
0.843987 0.401563 0.165455
0.853987 0.391563 0.155455
0.853987 0.391563 0.165455
0.853987 0.401563 0.155455
0.853987 0.401563 0.165455
0.823987 0.411563 0.125455
0.823987 0.411563 0.135455
0.823987 0.421563 0.135455
0.833987 0.411563 0.135455
0.833987 0.411563 0.145455
0.833987 0.421563 0.145455
0.833987 0.421563 0.165455
0.823987 0.431563 0.135455
0.823987 0.431563 0.145455
0.823987 0.441563 0.145455
0.833987 0.431563 0.145455
0.833987 0.441563 0.145455
0.823987 0.431563 0.165455
0.823987 0.441563 0.165455
0.833987 0.431563 0.155455
0.833987 0.431563 0.165455
0.833987 0.441563 0.155455
0.833987 0.441563 0.165455
0.843987 0.411563 0.145455
0.843987 0.421563 0.145455
0.843987 0.411563 0.165455
0.843987 0.421563 0.155455
0.843987 0.421563 0.165455
0.853987 0.411563 0.155455
0.853987 0.411563 0.165455
0.843987 0.431563 0.155455
0.843987 0.441563 0.155455
0.873987 0.371563 0.145455
0.873987 0.381563 0.145455
0.863987 0.371563 0.155455
0.863987 0.381563 0.155455
0.873987 0.381563 0.155455
0.873987 0.391563 0.145455
0.863987 0.391563 0.155455
0.863987 0.401563 0.155455
0.873987 0.391563 0.155455
0.873987 0.401563 0.155455
0.883987 0.371563 0.145455
0.883987 0.381563 0.145455
0.893987 0.381563 0.145455
0.883987 0.391563 0.145455
0.893987 0.391563 0.145455
0.883987 0.401563 0.155455
0.863987 0.411563 0.155455
0.863987 0.411563 0.165455
0.863987 0.421563 0.155455
0.863987 0.421563 0.165455
0.873987 0.411563 0.155455
0.873987 0.421563 0.155455
0.873987 0.421563 0.165455
0.883987 0.411563 0.155455
0.883987 0.421563 0.155455
0.883987 0.421563 0.165455
0.893987 0.411563 0.155455
0.893987 0.421563 0.155455
0.883987 0.431563 0.165455
0.883987 0.441563 0.165455
0.893987 0.431563 0.155455
0.893987 0.431563 0.165455
0.893987 0.441563 0.165455
0.903987 0.331563 0.165455
0.903987 0.341563 0.165455
0.903987 0.361563 0.145455
0.903987 0.351563 0.155455
0.903987 0.361563 0.155455
0.913987 0.351563 0.165455
0.913987 0.361563 0.165455
0.923987 0.361563 0.165455
0.903987 0.371563 0.145455
0.903987 0.381563 0.145455
0.913987 0.371563 0.155455
0.913987 0.381563 0.155455
0.903987 0.391563 0.145455
0.903987 0.401563 0.145455
0.913987 0.401563 0.145455
0.913987 0.401563 0.155455
0.923987 0.371563 0.165455
0.923987 0.381563 0.155455
0.933987 0.381563 0.165455
0.923987 0.391563 0.155455
0.923987 0.401563 0.155455
0.933987 0.391563 0.165455
0.933987 0.401563 0.155455
0.903987 0.411563 0.155455
0.903987 0.421563 0.155455
0.913987 0.411563 0.155455
0.913987 0.421563 0.155455
0.903987 0.431563 0.155455
0.903987 0.431563 0.165455
0.903987 0.441563 0.165455
0.913987 0.431563 0.165455
0.913987 0.441563 0.165455
0.923987 0.411563 0.155455
0.923987 0.421563 0.155455
0.933987 0.411563 0.155455
0.933987 0.421563 0.165455
0.923987 0.431563 0.165455
0.923987 0.441563 0.165455
0.933987 0.431563 0.165455
0.943987 0.381563 0.165455
0.943987 0.391563 0.165455
0.943987 0.401563 0.165455
0.953987 0.401563 0.165455
0.943987 0.411563 0.165455
0.943987 0.421563 0.165455
0.953987 0.411563 0.165455
0.953987 0.421563 0.165455
0.943987 0.431563 0.165455
0.743987 0.451563 0.085455
0.743987 0.461563 0.085455
0.753987 0.451563 0.085455
0.743987 0.461563 0.095455
0.753987 0.451563 0.095455
0.753987 0.461563 0.095455
0.743987 0.471563 0.095455
0.743987 0.471563 0.105455
0.743987 0.481563 0.105455
0.753987 0.471563 0.095455
0.753987 0.471563 0.105455
0.743987 0.481563 0.115455
0.753987 0.481563 0.115455
0.763987 0.451563 0.095455
0.763987 0.461563 0.095455
0.763987 0.461563 0.105455
0.773987 0.451563 0.095455
0.773987 0.451563 0.105455
0.773987 0.461563 0.105455
0.773987 0.461563 0.115455
0.763987 0.471563 0.105455
0.763987 0.471563 0.115455
0.763987 0.481563 0.115455
0.763987 0.481563 0.125455
0.773987 0.471563 0.115455
0.773987 0.471563 0.125455
0.773987 0.481563 0.125455
0.773987 0.481563 0.135455
0.773987 0.481563 0.165455
0.743987 0.491563 0.115455
0.743987 0.491563 0.125455
0.743987 0.501563 0.125455
0.753987 0.491563 0.125455
0.763987 0.491563 0.125455
0.743987 0.501563 0.135455
0.753987 0.491563 0.135455
0.753987 0.501563 0.135455
0.743987 0.491563 0.165455
0.743987 0.501563 0.155455
0.743987 0.501563 0.165455
0.753987 0.491563 0.165455
0.753987 0.501563 0.165455
0.743987 0.511563 0.135455
0.743987 0.521563 0.135455
0.743987 0.521563 0.145455
0.753987 0.511563 0.135455
0.753987 0.511563 0.145455
0.753987 0.521563 0.145455
0.743987 0.511563 0.155455
0.743987 0.521563 0.155455
0.753987 0.511563 0.155455
0.763987 0.491563 0.135455
0.763987 0.501563 0.135455
0.773987 0.491563 0.135455
0.773987 0.491563 0.145455
0.773987 0.501563 0.145455
0.763987 0.491563 0.165455
0.763987 0.501563 0.155455
0.763987 0.501563 0.165455
0.773987 0.491563 0.155455
0.773987 0.501563 0.155455
0.763987 0.511563 0.145455
0.773987 0.511563 0.145455
0.763987 0.511563 0.155455
0.773987 0.511563 0.155455
0.783987 0.451563 0.105455
0.783987 0.451563 0.115455
0.783987 0.461563 0.115455
0.783987 0.461563 0.125455
0.793987 0.451563 0.115455
0.793987 0.451563 0.125455
0.793987 0.461563 0.125455
0.783987 0.471563 0.125455
0.803987 0.451563 0.125455
0.793987 0.461563 0.135455
0.783987 0.471563 0.135455
0.783987 0.481563 0.135455
0.793987 0.471563 0.135455
0.793987 0.471563 0.145455
0.793987 0.481563 0.135455
0.793987 0.481563 0.145455
0.783987 0.471563 0.165455
0.783987 0.481563 0.165455
0.793987 0.471563 0.165455
0.793987 0.481563 0.165455
0.803987 0.451563 0.135455
0.803987 0.461563 0.135455
0.803987 0.461563 0.145455
0.813987 0.451563 0.135455
0.813987 0.451563 0.145455
0.813987 0.461563 0.145455
0.803987 0.461563 0.165455
0.813987 0.451563 0.165455
0.813987 0.461563 0.165455
0.803987 0.471563 0.145455
0.803987 0.481563 0.145455
0.813987 0.471563 0.145455
0.803987 0.471563 0.155455
0.803987 0.471563 0.165455
0.803987 0.481563 0.155455
0.813987 0.471563 0.155455
0.783987 0.491563 0.145455
0.783987 0.501563 0.145455
0.793987 0.491563 0.145455
0.783987 0.491563 0.155455
0.783987 0.501563 0.155455
0.793987 0.491563 0.155455
0.803987 0.491563 0.155455
0.823987 0.451563 0.145455
0.823987 0.461563 0.145455
0.833987 0.451563 0.145455
0.823987 0.451563 0.155455
0.823987 0.451563 0.165455
0.823987 0.461563 0.155455
0.093987 0.151563 0.215455
0.093987 0.151563 0.225455
0.093987 0.161563 0.225455
0.093987 0.151563 0.235455
0.093987 0.151563 0.245455
0.093987 0.161563 0.235455
0.013987 0.441563 0.245455
0.013987 0.441563 0.255455
0.033987 0.431563 0.215455
0.033987 0.431563 0.225455
0.033987 0.441563 0.225455
0.023987 0.431563 0.235455
0.023987 0.441563 0.235455
0.023987 0.441563 0.245455
0.033987 0.431563 0.235455
0.033987 0.431563 0.245455
0.033987 0.441563 0.245455
0.043987 0.421563 0.215455
0.043987 0.421563 0.225455
0.053987 0.421563 0.215455
0.053987 0.421563 0.225455
0.043987 0.431563 0.215455
0.043987 0.431563 0.225455
0.043987 0.441563 0.225455
0.053987 0.431563 0.215455
0.053987 0.441563 0.215455
0.043987 0.431563 0.235455
0.043987 0.441563 0.235455
0.053987 0.431563 0.235455
0.053987 0.441563 0.245455
0.073987 0.431563 0.205455
0.073987 0.441563 0.205455
0.093987 0.421563 0.205455
0.083987 0.431563 0.205455
0.083987 0.441563 0.205455
0.093987 0.431563 0.195455
0.093987 0.441563 0.195455
0.093987 0.441563 0.205455
0.063987 0.421563 0.215455
0.073987 0.421563 0.215455
0.063987 0.431563 0.215455
0.063987 0.431563 0.225455
0.063987 0.441563 0.215455
0.073987 0.431563 0.215455
0.073987 0.431563 0.225455
0.063987 0.441563 0.235455
0.063987 0.441563 0.245455
0.073987 0.431563 0.245455
0.073987 0.441563 0.245455
0.083987 0.421563 0.215455
0.093987 0.421563 0.215455
0.083987 0.431563 0.225455
0.093987 0.431563 0.215455
0.093987 0.431563 0.225455
0.083987 0.431563 0.235455
0.083987 0.431563 0.245455
0.093987 0.431563 0.235455
0.093987 0.431563 0.245455
0.023987 0.441563 0.255455
0.033987 0.441563 0.255455
0.053987 0.441563 0.255455
0.063987 0.441563 0.255455
0.063987 0.441563 0.265455
0.073987 0.441563 0.255455
0.073987 0.441563 0.265455
0.073987 0.441563 0.275455
0.073987 0.441563 0.285455
0.083987 0.431563 0.255455
0.083987 0.441563 0.255455
0.083987 0.441563 0.265455
0.093987 0.431563 0.255455
0.093987 0.431563 0.265455
0.093987 0.441563 0.265455
0.083987 0.441563 0.275455
0.083987 0.441563 0.285455
0.093987 0.441563 0.285455
0.083987 0.441563 0.295455
0.083987 0.441563 0.305455
0.093987 0.441563 0.295455
0.093987 0.441563 0.305455
0.093987 0.441563 0.315455
0.093987 0.441563 0.325455
0.063987 0.441563 0.335455
0.063987 0.441563 0.345455
0.073987 0.441563 0.335455
0.073987 0.441563 0.345455
0.073987 0.441563 0.355455
0.083987 0.431563 0.345455
0.083987 0.441563 0.335455
0.083987 0.441563 0.345455
0.093987 0.431563 0.345455
0.093987 0.441563 0.335455
0.093987 0.441563 0.345455
0.083987 0.431563 0.355455
0.083987 0.441563 0.355455
0.093987 0.431563 0.355455
0.093987 0.441563 0.355455
0.013987 0.451563 0.245455
0.013987 0.461563 0.245455
0.013987 0.451563 0.255455
0.013987 0.451563 0.265455
0.013987 0.461563 0.255455
0.013987 0.461563 0.265455
0.013987 0.511563 0.285455
0.003987 0.511563 0.295455
0.003987 0.511563 0.305455
0.003987 0.521563 0.295455
0.003987 0.521563 0.305455
0.013987 0.511563 0.295455
0.013987 0.511563 0.305455
0.013987 0.521563 0.295455
0.013987 0.521563 0.305455
0.023987 0.451563 0.235455
0.023987 0.461563 0.235455
0.023987 0.461563 0.245455
0.033987 0.451563 0.235455
0.033987 0.461563 0.245455
0.033987 0.471563 0.235455
0.033987 0.471563 0.245455
0.033987 0.481563 0.245455
0.043987 0.451563 0.225455
0.043987 0.461563 0.225455
0.053987 0.451563 0.225455
0.053987 0.461563 0.225455
0.043987 0.461563 0.235455
0.053987 0.471563 0.225455
0.043987 0.471563 0.235455
0.043987 0.471563 0.245455
0.043987 0.481563 0.245455
0.053987 0.471563 0.235455
0.053987 0.481563 0.235455
0.053987 0.481563 0.245455
0.053987 0.491563 0.245455
0.083987 0.451563 0.205455
0.093987 0.451563 0.205455
0.093987 0.461563 0.205455
0.093987 0.471563 0.205455
0.063987 0.451563 0.215455
0.063987 0.461563 0.215455
0.063987 0.461563 0.225455
0.073987 0.451563 0.215455
0.063987 0.471563 0.225455
0.073987 0.471563 0.215455
0.073987 0.481563 0.225455
0.063987 0.481563 0.235455
0.063987 0.481563 0.245455
0.073987 0.471563 0.235455
0.073987 0.481563 0.245455
0.083987 0.461563 0.215455
0.083987 0.471563 0.215455
0.083987 0.471563 0.225455
0.083987 0.481563 0.225455
0.093987 0.471563 0.215455
0.093987 0.471563 0.225455
0.093987 0.481563 0.215455
0.083987 0.471563 0.245455
0.083987 0.481563 0.245455
0.093987 0.471563 0.235455
0.093987 0.471563 0.245455
0.093987 0.481563 0.245455
0.063987 0.491563 0.245455
0.093987 0.521563 0.215455
0.023987 0.451563 0.265455
0.033987 0.451563 0.265455
0.023987 0.461563 0.275455
0.023987 0.461563 0.285455
0.033987 0.461563 0.275455
0.033987 0.461563 0.285455
0.023987 0.471563 0.265455
0.033987 0.471563 0.255455
0.033987 0.481563 0.255455
0.033987 0.481563 0.265455
0.023987 0.471563 0.275455
0.023987 0.471563 0.285455
0.033987 0.471563 0.275455
0.033987 0.481563 0.275455
0.033987 0.481563 0.285455
0.043987 0.451563 0.255455
0.043987 0.451563 0.265455
0.053987 0.451563 0.255455
0.053987 0.451563 0.265455
0.043987 0.451563 0.275455
0.043987 0.461563 0.285455
0.053987 0.451563 0.275455
0.053987 0.451563 0.285455
0.043987 0.481563 0.255455
0.033987 0.461563 0.295455
0.033987 0.471563 0.295455
0.033987 0.471563 0.305455
0.033987 0.481563 0.295455
0.043987 0.461563 0.295455
0.043987 0.461563 0.305455
0.053987 0.451563 0.295455
0.053987 0.451563 0.305455
0.053987 0.461563 0.295455
0.053987 0.461563 0.305455
0.043987 0.451563 0.325455
0.043987 0.461563 0.315455
0.043987 0.461563 0.325455
0.053987 0.451563 0.315455
0.053987 0.451563 0.325455
0.043987 0.481563 0.305455
0.043987 0.471563 0.315455
0.043987 0.471563 0.325455
0.043987 0.481563 0.315455
0.053987 0.481563 0.325455
0.023987 0.501563 0.285455
0.033987 0.491563 0.275455
0.033987 0.491563 0.285455
0.033987 0.501563 0.275455
0.023987 0.511563 0.285455
0.023987 0.521563 0.285455
0.033987 0.511563 0.275455
0.033987 0.521563 0.285455
0.043987 0.491563 0.255455
0.043987 0.491563 0.265455
0.043987 0.501563 0.265455
0.053987 0.491563 0.255455
0.053987 0.491563 0.265455
0.053987 0.501563 0.265455
0.043987 0.501563 0.275455
0.043987 0.511563 0.275455
0.043987 0.511563 0.285455
0.053987 0.511563 0.275455
0.053987 0.511563 0.285455
0.023987 0.501563 0.295455
0.033987 0.491563 0.295455
0.033987 0.501563 0.295455
0.033987 0.501563 0.305455
0.023987 0.511563 0.305455
0.023987 0.521563 0.295455
0.033987 0.511563 0.305455
0.033987 0.521563 0.295455
0.033987 0.521563 0.305455
0.043987 0.491563 0.305455
0.043987 0.501563 0.305455
0.053987 0.491563 0.305455
0.053987 0.501563 0.305455
0.053987 0.491563 0.315455
0.043987 0.511563 0.295455
0.043987 0.511563 0.305455
0.053987 0.511563 0.295455
0.053987 0.511563 0.305455
0.063987 0.451563 0.275455
0.073987 0.451563 0.285455
0.073987 0.481563 0.255455
0.063987 0.451563 0.295455
0.063987 0.451563 0.305455
0.073987 0.451563 0.295455
0.073987 0.451563 0.305455
0.063987 0.451563 0.315455
0.063987 0.451563 0.325455
0.073987 0.451563 0.315455
0.063987 0.481563 0.325455
0.073987 0.481563 0.325455
0.083987 0.451563 0.305455
0.083987 0.451563 0.315455
0.083987 0.451563 0.325455
0.093987 0.481563 0.295455
0.093987 0.481563 0.305455
0.083987 0.481563 0.325455
0.093987 0.481563 0.325455
0.063987 0.491563 0.255455
0.063987 0.501563 0.265455
0.073987 0.491563 0.255455
0.073987 0.501563 0.265455
0.063987 0.501563 0.275455
0.073987 0.501563 0.275455
0.073987 0.501563 0.285455
0.063987 0.511563 0.275455
0.063987 0.511563 0.285455
0.083987 0.491563 0.255455
0.083987 0.491563 0.265455
0.093987 0.491563 0.255455
0.083987 0.491563 0.285455
0.083987 0.501563 0.275455
0.093987 0.491563 0.275455
0.093987 0.491563 0.285455
0.063987 0.501563 0.295455
0.063987 0.501563 0.305455
0.073987 0.501563 0.295455
0.063987 0.491563 0.315455
0.063987 0.491563 0.325455
0.073987 0.491563 0.315455
0.073987 0.491563 0.325455
0.073987 0.501563 0.315455
0.063987 0.511563 0.295455
0.083987 0.491563 0.295455
0.083987 0.491563 0.305455
0.083987 0.501563 0.295455
0.083987 0.491563 0.315455
0.083987 0.491563 0.325455
0.083987 0.501563 0.315455
0.093987 0.491563 0.315455
0.053987 0.561563 0.205455
0.053987 0.561563 0.215455
0.043987 0.571563 0.205455
0.043987 0.581563 0.205455
0.053987 0.571563 0.195455
0.053987 0.571563 0.205455
0.053987 0.581563 0.205455
0.043987 0.591563 0.205455
0.053987 0.591563 0.205455
0.033987 0.591563 0.225455
0.043987 0.571563 0.215455
0.043987 0.581563 0.215455
0.043987 0.581563 0.225455
0.053987 0.571563 0.215455
0.053987 0.571563 0.225455
0.053987 0.581563 0.225455
0.053987 0.581563 0.235455
0.043987 0.591563 0.215455
0.043987 0.601563 0.215455
0.043987 0.601563 0.225455
0.053987 0.601563 0.215455
0.053987 0.601563 0.225455
0.043987 0.591563 0.235455
0.043987 0.601563 0.235455
0.043987 0.601563 0.245455
0.053987 0.591563 0.235455
0.053987 0.591563 0.245455
0.053987 0.601563 0.245455
0.073987 0.541563 0.195455
0.073987 0.551563 0.185455
0.073987 0.561563 0.185455
0.063987 0.551563 0.205455
0.063987 0.561563 0.195455
0.073987 0.551563 0.195455
0.073987 0.551563 0.205455
0.083987 0.541563 0.185455
0.093987 0.531563 0.185455
0.093987 0.541563 0.175455
0.093987 0.541563 0.185455
0.083987 0.541563 0.195455
0.083987 0.541563 0.205455
0.093987 0.531563 0.195455
0.093987 0.531563 0.205455
0.083987 0.551563 0.175455
0.083987 0.551563 0.185455
0.083987 0.561563 0.175455
0.083987 0.561563 0.185455
0.093987 0.561563 0.175455
0.093987 0.561563 0.185455
0.063987 0.561563 0.215455
0.063987 0.561563 0.225455
0.073987 0.551563 0.215455
0.073987 0.551563 0.225455
0.063987 0.561563 0.235455
0.073987 0.551563 0.235455
0.073987 0.561563 0.235455
0.083987 0.541563 0.215455
0.083987 0.541563 0.225455
0.093987 0.531563 0.215455
0.093987 0.541563 0.225455
0.083987 0.551563 0.225455
0.083987 0.561563 0.225455
0.093987 0.551563 0.225455
0.093987 0.561563 0.225455
0.063987 0.571563 0.195455
0.063987 0.581563 0.205455
0.073987 0.571563 0.195455
0.073987 0.581563 0.205455
0.083987 0.571563 0.185455
0.093987 0.571563 0.185455
0.083987 0.581563 0.195455
0.083987 0.581563 0.205455
0.093987 0.571563 0.195455
0.093987 0.581563 0.205455
0.063987 0.571563 0.235455
0.063987 0.571563 0.245455
0.063987 0.581563 0.235455
0.063987 0.581563 0.245455
0.073987 0.571563 0.245455
0.073987 0.581563 0.245455
0.063987 0.591563 0.215455
0.063987 0.601563 0.215455
0.063987 0.601563 0.225455
0.073987 0.591563 0.215455
0.073987 0.601563 0.225455
0.063987 0.591563 0.245455
0.083987 0.581563 0.215455
0.083987 0.571563 0.235455
0.083987 0.581563 0.245455
0.093987 0.571563 0.235455
0.093987 0.581563 0.245455
0.083987 0.591563 0.215455
0.083987 0.601563 0.215455
0.093987 0.591563 0.215455
0.093987 0.601563 0.215455
0.093987 0.601563 0.225455
0.093987 0.561563 0.305455
0.073987 0.581563 0.255455
0.073987 0.581563 0.265455
0.063987 0.591563 0.255455
0.063987 0.601563 0.255455
0.063987 0.601563 0.265455
0.073987 0.591563 0.255455
0.073987 0.591563 0.265455
0.073987 0.601563 0.265455
0.073987 0.591563 0.275455
0.073987 0.601563 0.275455
0.073987 0.601563 0.285455
0.083987 0.581563 0.255455
0.083987 0.581563 0.265455
0.093987 0.581563 0.255455
0.093987 0.581563 0.265455
0.083987 0.581563 0.275455
0.083987 0.581563 0.285455
0.093987 0.571563 0.285455
0.093987 0.581563 0.275455
0.083987 0.591563 0.285455
0.083987 0.601563 0.285455
0.083987 0.581563 0.295455
0.093987 0.571563 0.295455
0.093987 0.571563 0.305455
0.093987 0.581563 0.305455
0.093987 0.581563 0.315455
0.083987 0.591563 0.295455
0.083987 0.591563 0.305455
0.083987 0.601563 0.295455
0.083987 0.601563 0.305455
0.083987 0.601563 0.315455
0.083987 0.601563 0.325455
0.093987 0.591563 0.315455
0.093987 0.591563 0.325455
0.093987 0.601563 0.325455
0.043987 0.461563 0.335455
0.053987 0.451563 0.335455
0.053987 0.451563 0.345455
0.053987 0.461563 0.345455
0.043987 0.471563 0.335455
0.053987 0.471563 0.335455
0.053987 0.471563 0.345455
0.053987 0.481563 0.335455
0.063987 0.451563 0.345455
0.073987 0.461563 0.345455
0.063987 0.451563 0.355455
0.073987 0.451563 0.355455
0.063987 0.471563 0.335455
0.073987 0.471563 0.335455
0.073987 0.481563 0.335455
0.083987 0.451563 0.335455
0.083987 0.461563 0.345455
0.093987 0.451563 0.345455
0.093987 0.461563 0.335455
0.093987 0.461563 0.345455
0.083987 0.451563 0.355455
0.093987 0.451563 0.355455
0.083987 0.471563 0.335455
0.083987 0.471563 0.345455
0.083987 0.481563 0.335455
0.093987 0.471563 0.335455
0.093987 0.481563 0.335455
0.053987 0.611563 0.225455
0.043987 0.611563 0.235455
0.043987 0.611563 0.245455
0.053987 0.611563 0.235455
0.053987 0.611563 0.245455
0.053987 0.621563 0.245455
0.063987 0.611563 0.235455
0.063987 0.621563 0.245455
0.073987 0.611563 0.235455
0.073987 0.621563 0.245455
0.093987 0.611563 0.225455
0.093987 0.621563 0.225455
0.083987 0.611563 0.235455
0.083987 0.611563 0.245455
0.083987 0.621563 0.235455
0.083987 0.621563 0.245455
0.093987 0.621563 0.235455
0.093987 0.621563 0.245455
0.083987 0.631563 0.245455
0.093987 0.631563 0.245455
0.053987 0.611563 0.255455
0.053987 0.621563 0.255455
0.063987 0.611563 0.255455
0.063987 0.611563 0.265455
0.063987 0.621563 0.255455
0.063987 0.621563 0.265455
0.073987 0.621563 0.255455
0.073987 0.621563 0.265455
0.063987 0.621563 0.275455
0.073987 0.611563 0.275455
0.073987 0.621563 0.275455
0.073987 0.621563 0.285455
0.083987 0.621563 0.255455
0.083987 0.621563 0.265455
0.093987 0.621563 0.255455
0.093987 0.621563 0.265455
0.083987 0.621563 0.285455
0.093987 0.611563 0.275455
0.093987 0.621563 0.275455
0.093987 0.621563 0.285455
0.093987 0.631563 0.255455
0.093987 0.631563 0.265455
0.073987 0.611563 0.295455
0.073987 0.611563 0.305455
0.073987 0.621563 0.295455
0.083987 0.621563 0.295455
0.083987 0.621563 0.305455
0.093987 0.611563 0.305455
0.093987 0.621563 0.295455
0.083987 0.611563 0.315455
0.093987 0.611563 0.315455
0.133987 0.041563 0.215455
0.133987 0.041563 0.225455
0.133987 0.041563 0.235455
0.133987 0.041563 0.245455
0.153987 0.041563 0.175455
0.153987 0.041563 0.185455
0.143987 0.041563 0.195455
0.143987 0.041563 0.205455
0.153987 0.031563 0.195455
0.153987 0.031563 0.205455
0.173987 0.021563 0.185455
0.163987 0.021563 0.205455
0.173987 0.021563 0.195455
0.173987 0.021563 0.205455
0.163987 0.031563 0.175455
0.163987 0.031563 0.185455
0.173987 0.031563 0.175455
0.163987 0.031563 0.195455
0.153987 0.021563 0.215455
0.153987 0.021563 0.225455
0.153987 0.021563 0.235455
0.143987 0.031563 0.215455
0.143987 0.031563 0.225455
0.143987 0.041563 0.215455
0.143987 0.041563 0.225455
0.153987 0.031563 0.225455
0.143987 0.031563 0.235455
0.143987 0.041563 0.245455
0.153987 0.031563 0.245455
0.163987 0.021563 0.215455
0.163987 0.021563 0.225455
0.173987 0.011563 0.215455
0.173987 0.011563 0.225455
0.163987 0.021563 0.235455
0.163987 0.021563 0.245455
0.173987 0.011563 0.235455
0.173987 0.011563 0.245455
0.143987 0.041563 0.255455
0.153987 0.031563 0.255455
0.153987 0.041563 0.265455
0.153987 0.041563 0.275455
0.153987 0.041563 0.285455
0.163987 0.021563 0.255455
0.163987 0.021563 0.265455
0.173987 0.021563 0.255455
0.173987 0.021563 0.265455
0.173987 0.021563 0.275455
0.163987 0.031563 0.265455
0.163987 0.031563 0.275455
0.163987 0.041563 0.275455
0.163987 0.041563 0.285455
0.173987 0.031563 0.275455
0.173987 0.031563 0.285455
0.163987 0.041563 0.295455
0.173987 0.031563 0.295455
0.173987 0.041563 0.295455
0.173987 0.041563 0.305455
0.113987 0.081563 0.205455
0.133987 0.061563 0.175455
0.133987 0.061563 0.185455
0.123987 0.061563 0.205455
0.133987 0.051563 0.195455
0.133987 0.051563 0.205455
0.133987 0.061563 0.195455
0.133987 0.061563 0.205455
0.123987 0.071563 0.185455
0.123987 0.081563 0.175455
0.123987 0.081563 0.185455
0.133987 0.071563 0.175455
0.133987 0.081563 0.175455
0.123987 0.071563 0.195455
0.123987 0.071563 0.205455
0.123987 0.081563 0.195455
0.123987 0.081563 0.205455
0.113987 0.071563 0.215455
0.113987 0.071563 0.225455
0.113987 0.081563 0.225455
0.113987 0.071563 0.235455
0.113987 0.071563 0.245455
0.113987 0.081563 0.235455
0.113987 0.081563 0.245455
0.123987 0.051563 0.215455
0.123987 0.051563 0.225455
0.123987 0.061563 0.215455
0.123987 0.061563 0.225455
0.133987 0.051563 0.215455
0.133987 0.051563 0.225455
0.123987 0.051563 0.235455
0.123987 0.061563 0.235455
0.123987 0.061563 0.245455
0.133987 0.051563 0.235455
0.133987 0.051563 0.245455
0.133987 0.061563 0.245455
0.123987 0.071563 0.215455
0.123987 0.071563 0.225455
0.123987 0.071563 0.245455
0.113987 0.091563 0.185455
0.113987 0.101563 0.185455
0.113987 0.091563 0.195455
0.113987 0.091563 0.205455
0.113987 0.101563 0.195455
0.113987 0.101563 0.205455
0.113987 0.111563 0.175455
0.113987 0.111563 0.185455
0.113987 0.121563 0.175455
0.113987 0.121563 0.185455
0.103987 0.111563 0.205455
0.103987 0.121563 0.205455
0.113987 0.111563 0.195455
0.113987 0.121563 0.195455
0.123987 0.091563 0.175455
0.123987 0.091563 0.185455
0.123987 0.101563 0.175455
0.123987 0.091563 0.195455
0.103987 0.101563 0.215455
0.103987 0.101563 0.225455
0.113987 0.091563 0.215455
0.113987 0.091563 0.225455
0.113987 0.101563 0.225455
0.103987 0.101563 0.235455
0.103987 0.101563 0.245455
0.113987 0.091563 0.245455
0.113987 0.101563 0.235455
0.113987 0.101563 0.245455
0.103987 0.111563 0.215455
0.103987 0.111563 0.225455
0.103987 0.121563 0.215455
0.103987 0.111563 0.235455
0.103987 0.111563 0.245455
0.103987 0.121563 0.235455
0.143987 0.051563 0.175455
0.143987 0.051563 0.185455
0.143987 0.061563 0.175455
0.113987 0.081563 0.255455
0.123987 0.061563 0.255455
0.133987 0.051563 0.255455
0.133987 0.061563 0.265455
0.133987 0.061563 0.275455
0.123987 0.071563 0.255455
0.123987 0.071563 0.265455
0.123987 0.081563 0.265455
0.133987 0.071563 0.265455
0.123987 0.081563 0.275455
0.123987 0.081563 0.285455
0.133987 0.071563 0.275455
0.133987 0.071563 0.285455
0.133987 0.081563 0.295455
0.103987 0.101563 0.255455
0.113987 0.091563 0.255455
0.113987 0.101563 0.265455
0.103987 0.111563 0.255455
0.103987 0.121563 0.255455
0.113987 0.111563 0.265455
0.113987 0.121563 0.265455
0.113987 0.111563 0.275455
0.113987 0.121563 0.275455
0.123987 0.101563 0.265455
0.123987 0.091563 0.275455
0.123987 0.101563 0.275455
0.123987 0.101563 0.285455
0.133987 0.091563 0.285455
0.123987 0.111563 0.285455
0.123987 0.121563 0.285455
0.133987 0.091563 0.295455
0.133987 0.101563 0.295455
0.123987 0.111563 0.295455
0.123987 0.121563 0.295455
0.133987 0.111563 0.295455
0.133987 0.111563 0.305455
0.133987 0.121563 0.305455
0.143987 0.051563 0.265455
0.143987 0.051563 0.275455
0.143987 0.061563 0.285455
0.153987 0.051563 0.285455
0.153987 0.051563 0.295455
0.153987 0.061563 0.295455
0.143987 0.071563 0.295455
0.143987 0.081563 0.295455
0.143987 0.081563 0.305455
0.153987 0.071563 0.295455
0.153987 0.071563 0.305455
0.153987 0.081563 0.305455
0.163987 0.051563 0.295455
0.163987 0.051563 0.305455
0.163987 0.061563 0.305455
0.173987 0.051563 0.305455
0.173987 0.061563 0.315455
0.163987 0.071563 0.305455
0.163987 0.081563 0.315455
0.173987 0.071563 0.315455
0.173987 0.081563 0.315455
0.143987 0.091563 0.305455
0.143987 0.101563 0.305455
0.153987 0.091563 0.305455
0.153987 0.101563 0.315455
0.143987 0.111563 0.305455
0.143987 0.121563 0.305455
0.153987 0.111563 0.315455
0.153987 0.121563 0.315455
0.163987 0.091563 0.315455
0.163987 0.101563 0.315455
0.173987 0.091563 0.315455
0.173987 0.101563 0.315455
0.163987 0.111563 0.315455
0.163987 0.121563 0.315455
0.173987 0.111563 0.325455
0.173987 0.121563 0.315455
0.213987 0.001563 0.195455
0.213987 0.001563 0.205455
0.193987 0.001563 0.225455
0.193987 0.001563 0.235455
0.203987 0.001563 0.215455
0.203987 0.001563 0.225455
0.213987 0.001563 0.215455
0.213987 0.001563 0.225455
0.203987 0.001563 0.235455
0.213987 0.001563 0.235455
0.213987 0.001563 0.245455
0.183987 0.021563 0.175455
0.183987 0.021563 0.185455
0.193987 0.011563 0.185455
0.193987 0.021563 0.175455
0.183987 0.011563 0.195455
0.183987 0.011563 0.205455
0.193987 0.011563 0.195455
0.193987 0.011563 0.205455
0.203987 0.011563 0.175455
0.203987 0.011563 0.185455
0.213987 0.011563 0.175455
0.213987 0.011563 0.185455
0.203987 0.011563 0.195455
0.203987 0.011563 0.205455
0.183987 0.011563 0.215455
0.183987 0.011563 0.225455
0.183987 0.011563 0.235455
0.183987 0.011563 0.245455
0.193987 0.011563 0.245455
0.203987 0.011563 0.245455
0.233987 0.001563 0.185455
0.223987 0.001563 0.195455
0.223987 0.001563 0.205455
0.233987 0.001563 0.195455
0.233987 0.001563 0.205455
0.243987 0.001563 0.175455
0.243987 0.001563 0.185455
0.253987 0.001563 0.175455
0.253987 0.001563 0.185455
0.243987 0.001563 0.195455
0.243987 0.001563 0.205455
0.253987 0.001563 0.195455
0.253987 0.001563 0.205455
0.223987 0.001563 0.215455
0.233987 0.001563 0.215455
0.233987 0.001563 0.225455
0.223987 0.001563 0.235455
0.223987 0.001563 0.245455
0.233987 0.001563 0.235455
0.233987 0.001563 0.245455
0.243987 0.001563 0.215455
0.243987 0.001563 0.245455
0.223987 0.011563 0.175455
0.223987 0.011563 0.185455
0.233987 0.011563 0.175455
0.243987 0.011563 0.225455
0.253987 0.011563 0.215455
0.253987 0.011563 0.225455
0.243987 0.011563 0.235455
0.253987 0.011563 0.235455
0.253987 0.011563 0.245455
0.183987 0.011563 0.255455
0.183987 0.021563 0.265455
0.193987 0.011563 0.255455
0.193987 0.011563 0.265455
0.183987 0.021563 0.275455
0.183987 0.021563 0.285455
0.193987 0.011563 0.275455
0.193987 0.021563 0.275455
0.193987 0.021563 0.285455
0.183987 0.031563 0.285455
0.203987 0.011563 0.265455
0.213987 0.011563 0.255455
0.213987 0.011563 0.265455
0.203987 0.011563 0.275455
0.203987 0.011563 0.285455
0.203987 0.021563 0.285455
0.213987 0.011563 0.275455
0.213987 0.011563 0.285455
0.193987 0.021563 0.295455
0.183987 0.031563 0.295455
0.193987 0.031563 0.295455
0.193987 0.031563 0.305455
0.193987 0.041563 0.305455
0.203987 0.021563 0.295455
0.213987 0.021563 0.295455
0.213987 0.021563 0.305455
0.203987 0.031563 0.305455
0.213987 0.031563 0.305455
0.203987 0.041563 0.315455
0.213987 0.031563 0.315455
0.213987 0.041563 0.315455
0.213987 0.041563 0.325455
0.223987 0.001563 0.255455
0.223987 0.001563 0.265455
0.233987 0.001563 0.255455
0.233987 0.001563 0.265455
0.233987 0.001563 0.275455
0.243987 0.001563 0.255455
0.243987 0.001563 0.265455
0.253987 0.001563 0.255455
0.253987 0.001563 0.265455
0.243987 0.001563 0.275455
0.253987 0.001563 0.275455
0.223987 0.011563 0.275455
0.223987 0.011563 0.285455
0.233987 0.011563 0.275455
0.233987 0.011563 0.285455
0.243987 0.011563 0.285455
0.253987 0.011563 0.285455
0.223987 0.021563 0.295455
0.223987 0.021563 0.305455
0.233987 0.011563 0.295455
0.233987 0.021563 0.295455
0.233987 0.021563 0.305455
0.223987 0.021563 0.325455
0.233987 0.021563 0.325455
0.223987 0.031563 0.305455
0.223987 0.031563 0.315455
0.223987 0.031563 0.325455
0.233987 0.031563 0.315455
0.243987 0.011563 0.295455
0.243987 0.021563 0.295455
0.243987 0.021563 0.305455
0.253987 0.011563 0.295455
0.253987 0.021563 0.295455
0.253987 0.021563 0.305455
0.243987 0.011563 0.325455
0.243987 0.021563 0.325455
0.253987 0.011563 0.325455
0.253987 0.021563 0.315455
0.253987 0.021563 0.325455
0.243987 0.031563 0.315455
0.183987 0.051563 0.305455
0.183987 0.061563 0.315455
0.193987 0.051563 0.315455
0.193987 0.061563 0.325455
0.183987 0.071563 0.315455
0.183987 0.081563 0.325455
0.193987 0.071563 0.325455
0.193987 0.081563 0.325455
0.203987 0.051563 0.315455
0.203987 0.051563 0.325455
0.203987 0.061563 0.325455
0.183987 0.091563 0.325455
0.183987 0.101563 0.325455
0.193987 0.091563 0.325455
0.193987 0.101563 0.325455
0.183987 0.111563 0.325455
0.183987 0.121563 0.325455
0.193987 0.111563 0.325455
0.193987 0.121563 0.325455
0.193987 0.041563 0.365455
0.213987 0.021563 0.335455
0.213987 0.021563 0.345455
0.203987 0.021563 0.355455
0.203987 0.021563 0.365455
0.213987 0.011563 0.355455
0.213987 0.011563 0.365455
0.203987 0.031563 0.345455
0.203987 0.041563 0.335455
0.203987 0.041563 0.345455
0.213987 0.031563 0.335455
0.213987 0.031563 0.345455
0.203987 0.031563 0.365455
0.203987 0.041563 0.355455
0.193987 0.031563 0.375455
0.193987 0.031563 0.385455
0.193987 0.041563 0.385455
0.203987 0.011563 0.375455
0.203987 0.011563 0.385455
0.203987 0.021563 0.375455
0.203987 0.021563 0.385455
0.213987 0.011563 0.375455
0.213987 0.011563 0.385455
0.203987 0.011563 0.395455
0.203987 0.021563 0.395455
0.203987 0.021563 0.405455
0.213987 0.011563 0.395455
0.213987 0.011563 0.405455
0.213987 0.021563 0.405455
0.203987 0.031563 0.375455
0.203987 0.031563 0.395455
0.203987 0.031563 0.405455
0.203987 0.041563 0.395455
0.203987 0.041563 0.405455
