ply
format ascii 1.0
element vertex 1773
property float x
property float y
property float z
end_header
0.624288 0.334966 0.154968
0.844498 0.336794 0.152133
0.378266 0.340072 0.147964
0.378182 0.334611 0.152174
0.434202 0.336872 0.149938
0.433999 0.347403 0.151472
0.628636 0.339955 0.152166
0.669413 0.345329 0.151810
0.846236 0.345065 0.151679
0.212253 0.349280 0.151532
0.650564 0.347666 0.151470
0.440192 0.349719 0.147752
0.660352 0.347336 0.153218
0.398920 0.355357 0.153725
0.404678 0.359499 0.152158
0.847159 0.354340 0.150395
0.877246 0.356384 0.148024
0.439950 0.358918 0.148059
0.220929 0.360128 0.150882
0.407094 0.368216 0.153721
0.223324 0.366554 0.154653
0.440294 0.367862 0.147960
0.901143 0.368622 0.147322
0.227476 0.366312 0.148323
0.228458 0.369411 0.149572
0.871593 0.366370 0.149813
0.440700 0.375466 0.148179
0.232164 0.376537 0.153139
0.870722 0.376099 0.150842
0.407510 0.376284 0.153220
0.448925 0.384039 0.147656
0.875404 0.381224 0.148067
0.872118 0.386699 0.150722
0.902043 0.385696 0.147615
0.239540 0.386816 0.152667
0.908670 0.384859 0.148168
0.849072 0.388437 0.146761
0.854422 0.384890 0.151003
0.243429 0.393225 0.154286
0.849616 0.391965 0.147194
0.854763 0.394643 0.152982
0.877574 0.393858 0.147726
0.883935 0.393369 0.147736
0.892001 0.395381 0.147745
0.901275 0.395625 0.147189
0.247849 0.395591 0.150081
0.252541 0.403892 0.153281
0.846740 0.403639 0.148670
0.447814 0.404433 0.153655
0.260212 0.416787 0.151975
0.456183 0.416624 0.154068
0.846112 0.414726 0.148864
0.412844 0.415294 0.149829
0.263632 0.425400 0.153070
0.467700 0.425965 0.153570
0.843824 0.423594 0.153871
0.192952 0.426387 0.153310
0.188259 0.427758 0.147944
0.201742 0.428518 0.151644
0.836991 0.428043 0.151384
0.266818 0.429213 0.149931
0.181392 0.435033 0.149639
0.211631 0.435400 0.151346
0.269402 0.435128 0.152772
0.832097 0.430944 0.148007
0.468528 0.434509 0.150901
0.416461 0.434375 0.151599
0.474734 0.442568 0.152403
0.836417 0.434486 0.152643
0.831944 0.439662 0.148148
0.835320 0.444530 0.152959
0.182359 0.444827 0.150230
0.418164 0.443315 0.154457
0.829178 0.447108 0.148997
0.188208 0.451905 0.148100
0.232376 0.451347 0.153419
0.827244 0.453046 0.153223
0.477326 0.450410 0.151557
0.243275 0.451242 0.150659
0.484559 0.451927 0.150439
0.820467 0.451973 0.148649
0.262755 0.452521 0.153922
0.492905 0.452595 0.153593
0.418244 0.463094 0.152214
0.822347 0.459180 0.148274
0.497800 0.462491 0.152474
0.823146 0.462269 0.152151
0.818170 0.467069 0.153426
0.504188 0.473977 0.152240
0.812868 0.468949 0.148102
0.418650 0.471723 0.152973
0.190690 0.476433 0.150429
0.808887 0.475799 0.154108
0.196041 0.483263 0.153478
0.417143 0.484961 0.152004
0.806605 0.483809 0.153161
0.516188 0.480326 0.149535
0.523453 0.484096 0.151688
0.205704 0.489086 0.151114
0.795289 0.489342 0.153968
0.527619 0.491228 0.150620
0.787168 0.493655 0.154076
0.223235 0.493702 0.151373
0.415824 0.492423 0.154066
0.242792 0.502668 0.152943
0.413281 0.502096 0.153700
0.784597 0.503147 0.151732
0.533106 0.500224 0.150451
0.554013 0.501207 0.152020
0.213675 0.510425 0.151956
0.204680 0.506420 0.150898
0.244005 0.512253 0.152677
0.182707 0.507504 0.148989
0.187090 0.507044 0.154126
0.555542 0.507934 0.149887
0.775757 0.508735 0.151603
0.410610 0.511795 0.152176
0.563579 0.511142 0.152152
0.766478 0.510520 0.152701
0.575417 0.511957 0.148756
0.578556 0.513725 0.148186
0.232956 0.515667 0.150118
0.755728 0.509691 0.153955
0.755846 0.519045 0.150125
0.164857 0.512131 0.154319
0.162129 0.519003 0.149862
0.566174 0.518053 0.150306
0.582809 0.511750 0.151121
0.154372 0.519348 0.153487
0.406666 0.522197 0.152849
0.569989 0.518738 0.148855
0.609924 0.518013 0.149931
0.593008 0.520324 0.150004
0.619048 0.525474 0.148164
0.642392 0.525074 0.147969
0.646077 0.524316 0.147943
0.728786 0.521322 0.153316
0.747129 0.520509 0.153176
0.145890 0.522899 0.154123
0.606695 0.526568 0.148407
0.622700 0.521979 0.150993
0.651699 0.520621 0.152969
0.717516 0.520231 0.153118
0.405262 0.531693 0.152887
0.717246 0.531719 0.150023
0.601764 0.529552 0.148627
0.632523 0.529325 0.149681
0.660118 0.528972 0.151006
0.689014 0.528146 0.150372
0.677653 0.531844 0.149928
0.697796 0.529334 0.152340
0.637820 0.531925 0.149251
0.670116 0.530017 0.151192
0.707469 0.530732 0.151756
0.174750 0.540991 0.151856
0.177348 0.537040 0.147498
0.181486 0.544574 0.151566
0.403560 0.540749 0.150517
0.400121 0.542629 0.153804
0.185408 0.550136 0.154135
0.397862 0.549268 0.153472
0.190977 0.561739 0.150729
0.395337 0.560547 0.152611
0.191406 0.569583 0.150786
0.393320 0.568798 0.149744
0.392778 0.573236 0.148196
0.185646 0.571261 0.154542
0.182056 0.577553 0.151022
0.385653 0.578369 0.153274
0.177480 0.580294 0.153953
0.171528 0.588994 0.153095
0.168565 0.592734 0.152687
0.376254 0.588017 0.152688
0.172712 0.600264 0.153553
0.369669 0.598648 0.151780
0.184114 0.601926 0.153031
0.193483 0.606507 0.152505
0.372163 0.606372 0.153451
0.212567 0.607515 0.152125
0.378554 0.610260 0.151926
0.219612 0.611205 0.153498
0.384648 0.613823 0.149719
0.225287 0.615566 0.155126
0.233439 0.617896 0.153233
0.386718 0.619823 0.152242
0.244306 0.619837 0.153956
0.251994 0.620629 0.152368
0.280975 0.624513 0.153240
0.285342 0.623278 0.147778
0.292650 0.625730 0.152005
0.298719 0.629524 0.152470
0.397063 0.627919 0.150396
0.303513 0.637721 0.154775
0.405376 0.639864 0.149950
0.305944 0.642000 0.155603
0.309314 0.647304 0.153750
0.313896 0.656590 0.151614
0.400377 0.653408 0.147738
0.368783 0.653908 0.152201
0.377469 0.653033 0.151142
0.387353 0.653178 0.148791
0.358969 0.656501 0.154006
0.351702 0.660615 0.154039
0.350873 0.664769 0.153175
0.318161 0.666715 0.153928
0.323010 0.675041 0.152154
0.350280 0.676518 0.154400
0.354562 0.680938 0.150073
0.330992 0.685190 0.153710
0.355835 0.687045 0.150254
0.340913 0.695428 0.152027
0.357276 0.695746 0.149546
0.350860 0.697567 0.151098
0.339586 0.002563 0.152408
0.394082 0.001901 0.153424
0.665572 0.002854 0.150988
0.302642 0.003221 0.155267
0.309301 0.003256 0.154912
0.320835 0.003146 0.154445
0.728263 0.007443 0.154609
0.851960 0.008319 0.154391
0.259993 0.007778 0.153306
0.253713 0.010442 0.152711
0.640141 0.012355 0.156860
0.426783 0.015559 0.152648
0.847895 0.017671 0.150044
0.746027 0.017286 0.154041
0.146164 0.030380 0.151431
0.106201 0.036596 0.150614
0.136963 0.030802 0.150402
0.444278 0.029461 0.154736
0.116079 0.046466 0.151843
0.468497 0.054914 0.152088
0.819188 0.068562 0.149230
0.595396 0.065242 0.154245
0.154648 0.084455 0.151049
0.154232 0.093072 0.150907
0.588980 0.105117 0.153309
0.785461 0.106636 0.153408
0.587407 0.114878 0.154758
0.138131 0.123650 0.152941
0.756999 0.132425 0.155158
0.591566 0.143595 0.152578
0.134254 0.140616 0.152764
0.138165 0.145844 0.148264
0.135163 0.154492 0.150413
0.593644 0.151879 0.153079
0.536659 0.160132 0.154023
0.594905 0.163343 0.154181
0.310287 0.178653 0.154650
0.134855 0.179382 0.151885
0.546398 0.180873 0.151584
0.274339 0.202270 0.152246
0.359995 0.199997 0.154841
0.136292 0.202866 0.155021
0.142274 0.205387 0.149564
0.558181 0.206035 0.147844
0.779049 0.206599 0.150544
0.143253 0.212036 0.150804
0.272306 0.219612 0.151437
0.565632 0.220933 0.152986
0.791622 0.224147 0.153350
0.145047 0.231530 0.153875
0.273668 0.230100 0.150509
0.568889 0.230832 0.151598
0.153388 0.241516 0.151040
0.281159 0.239412 0.153567
0.803835 0.240867 0.153544
0.278236 0.243850 0.149087
0.155520 0.251569 0.151529
0.160890 0.261358 0.150540
0.295033 0.258471 0.150387
0.301512 0.260906 0.153145
0.165625 0.269999 0.150963
0.319022 0.280669 0.153616
0.663380 0.287841 0.153387
0.322064 0.285974 0.151372
0.665965 0.291979 0.152296
0.327717 0.289784 0.153604
0.668912 0.297362 0.154299
0.185438 0.308622 0.152211
0.193674 0.328111 0.153919
0.427422 0.328050 0.152385
0.201911 0.337109 0.150587
0.369925 0.335563 0.151169
0.385268 0.337494 0.152158
0.205523 0.344119 0.154019
0.390233 0.344942 0.152497
0.874615 0.345888 0.149963
0.882622 0.345719 0.148741
0.639645 0.345939 0.153662
0.881785 0.350642 0.148741
0.891779 0.347380 0.152371
0.435164 0.357521 0.152159
0.889846 0.353626 0.148144
0.895926 0.353863 0.148609
0.901467 0.357043 0.152456
0.869534 0.357333 0.151243
0.897307 0.360279 0.148446
0.904827 0.365168 0.150273
0.854335 0.366338 0.152314
0.435322 0.367117 0.153140
0.911692 0.367431 0.154640
0.912564 0.376322 0.149969
0.435237 0.377215 0.152362
0.848381 0.378091 0.148805
0.436643 0.386175 0.153902
0.443478 0.386489 0.150043
0.408738 0.385682 0.152898
0.915937 0.384796 0.150948
0.413543 0.387268 0.149247
0.445922 0.394479 0.153675
0.913730 0.396842 0.150256
0.872178 0.395773 0.150996
0.415080 0.395855 0.150248
0.854542 0.403926 0.153926
0.874353 0.404662 0.152138
0.882305 0.405621 0.150976
0.891550 0.406815 0.151286
0.904185 0.399905 0.148917
0.911819 0.404248 0.151205
0.413667 0.427693 0.153159
0.205399 0.434839 0.154501
0.214534 0.443547 0.155067
0.221601 0.445842 0.151636
0.269762 0.443250 0.152958
0.184261 0.455880 0.152453
0.417934 0.453598 0.153131
0.254951 0.453768 0.153344
0.185530 0.463765 0.153825
0.192001 0.464208 0.149373
0.812528 0.471590 0.154695
0.185059 0.472302 0.154579
0.514548 0.473914 0.151575
0.508546 0.481397 0.149602
0.201836 0.485438 0.152029
0.213693 0.491047 0.152102
0.802874 0.488978 0.154713
0.543098 0.493951 0.151509
0.533655 0.491371 0.153433
0.195759 0.507082 0.150480
0.571245 0.509256 0.151179
0.173941 0.508502 0.153524
0.222064 0.510107 0.150009
0.638293 0.520503 0.151760
0.600081 0.522327 0.151550
0.738182 0.521328 0.154606
0.659814 0.522445 0.153681
0.679871 0.521441 0.152919
0.143817 0.531828 0.151654
0.151884 0.535393 0.149963
0.164351 0.541913 0.151586
0.167628 0.597977 0.154455
0.205448 0.607843 0.153358
0.262930 0.622424 0.152282
0.271563 0.622062 0.150660
0.393253 0.622470 0.150333
0.402597 0.632691 0.149103
0.404759 0.647265 0.149295
0.395320 0.647983 0.151298
0.736837 0.010699 0.155006
0.852995 0.016351 0.155647
0.223298 0.017802 0.154895
0.833349 0.055802 0.155149
0.472105 0.059161 0.154943
0.146601 0.096024 0.153959
0.144170 0.105209 0.153866
0.529999 0.143956 0.154945
0.134580 0.163969 0.151654
0.134779 0.172508 0.152458
0.543885 0.172886 0.153351
0.550197 0.184372 0.153845
0.344830 0.186423 0.152139
0.561647 0.212219 0.154122
0.280632 0.230707 0.155844
0.292831 0.249811 0.154725
0.400374 0.260040 0.156023
0.154982 0.261619 0.153778
0.403811 0.262785 0.153907
0.308437 0.269671 0.154653
0.173683 0.297369 0.154153
0.360553 0.317598 0.154507
0.370495 0.327881 0.154951
0.843464 0.328054 0.154372
0.426335 0.337686 0.152513
0.882647 0.336612 0.151898
0.872281 0.337385 0.152220
0.853450 0.356280 0.152173
0.215866 0.357612 0.155113
0.852287 0.376478 0.150783
0.921102 0.385244 0.154571
0.408308 0.394283 0.153719
0.920803 0.394395 0.153277
0.408474 0.403263 0.154384
0.412858 0.405941 0.150525
0.901374 0.408493 0.151149
0.851610 0.412713 0.154052
0.184434 0.426306 0.154015
0.232414 0.495292 0.153833
0.573226 0.501686 0.153143
0.581051 0.504757 0.154196
0.590819 0.511336 0.153833
0.611016 0.512947 0.154930
0.155563 0.540988 0.153863
0.389351 0.571141 0.153174
0.381706 0.581825 0.155589
0.398082 0.638270 0.152232
0.386663 0.648516 0.154393
0.378930 0.649994 0.154943
0.826589 0.005584 0.153287
0.837764 0.005299 0.152936
0.815150 0.006189 0.155100
0.243660 0.008465 0.156788
0.432424 0.018784 0.155114
0.755676 0.021857 0.155625
0.203646 0.026775 0.155789
0.136732 0.035721 0.155987
0.145256 0.035376 0.156583
0.156005 0.032220 0.156794
0.164527 0.033653 0.156017
0.196700 0.030052 0.157183
0.452955 0.037942 0.154676
0.841345 0.045501 0.156734
0.465679 0.050493 0.155413
0.126173 0.057395 0.156396
0.136171 0.066217 0.155666
0.820412 0.071317 0.154546
0.509612 0.108328 0.153876
0.136835 0.115733 0.157342
0.521455 0.126096 0.155916
0.129456 0.145075 0.155809
0.130177 0.160855 0.156302
0.596298 0.168876 0.153149
0.288818 0.189522 0.156688
0.557139 0.198208 0.155484
0.608170 0.200524 0.153840
0.279335 0.201377 0.155675
0.557776 0.202456 0.153450
0.135707 0.212327 0.155794
0.615215 0.214324 0.153184
0.382764 0.227257 0.156325
0.146091 0.239970 0.155238
0.289577 0.242248 0.156424
0.811882 0.252580 0.154553
0.155956 0.269243 0.157024
0.651053 0.266490 0.154153
0.820928 0.270658 0.155575
0.165148 0.278558 0.154882
0.337978 0.298117 0.155975
0.177712 0.306449 0.156827
0.418446 0.310000 0.157789
0.349806 0.309894 0.155539
0.185998 0.318323 0.156411
0.842307 0.317991 0.155459
0.197157 0.335583 0.157126
0.893052 0.337464 0.154938
0.426451 0.346725 0.155899
0.632480 0.343343 0.155021
0.863599 0.346991 0.152926
0.395517 0.350070 0.155397
0.898354 0.346888 0.155325
0.862538 0.356321 0.152635
0.863925 0.366902 0.155159
0.862785 0.376982 0.156674
0.920830 0.377649 0.156792
0.234755 0.383051 0.156557
0.921248 0.403725 0.155553
0.254765 0.412485 0.156197
0.873688 0.414360 0.154604
0.409812 0.413752 0.155474
0.883727 0.416970 0.155594
0.891415 0.414688 0.154891
0.899921 0.414139 0.152825
0.464367 0.416468 0.156270
0.411361 0.425047 0.156537
0.175095 0.426750 0.156027
0.174396 0.434012 0.155209
0.265265 0.432307 0.156219
0.473226 0.433978 0.156269
0.175000 0.444092 0.155016
0.484990 0.444063 0.155529
0.176985 0.453321 0.155927
0.223805 0.452112 0.156425
0.505786 0.465331 0.155258
0.522986 0.476158 0.155424
0.551286 0.492142 0.154969
0.238391 0.496745 0.153430
0.194931 0.507687 0.155381
0.204424 0.509672 0.155707
0.746944 0.510599 0.155253
0.241198 0.518161 0.155924
0.599581 0.511476 0.155595
0.620483 0.515551 0.154675
0.233094 0.519615 0.153893
0.156105 0.516018 0.156067
0.640991 0.513812 0.156300
0.648189 0.515686 0.156591
0.631145 0.520748 0.153540
0.689180 0.520845 0.155438
0.139827 0.523878 0.155407
0.672162 0.522428 0.155168
0.136223 0.530717 0.154588
0.402496 0.535666 0.155328
0.186470 0.561039 0.156101
0.372493 0.592217 0.155075
0.187956 0.604692 0.155007
0.378773 0.616696 0.156410
0.387409 0.629279 0.155906
0.269432 0.624385 0.157032
0.326908 0.680716 0.155883
0.349315 0.688115 0.154367
0.339806 0.687087 0.156985
0.236915 0.012155 0.157077
0.422976 0.011205 0.156029
0.126066 0.047196 0.156952
0.145887 0.086145 0.156452
0.130371 0.153049 0.153454
0.130173 0.172146 0.157534
0.129687 0.182954 0.154968
0.278513 0.212742 0.156443
0.137580 0.220616 0.157181
0.279691 0.221608 0.155646
0.138983 0.228342 0.156996
0.147518 0.248713 0.157315
0.298626 0.253646 0.155648
0.169659 0.284891 0.155538
0.368134 0.319544 0.156811
0.872439 0.328514 0.155727
0.882380 0.325687 0.155807
0.378426 0.329434 0.156612
0.862941 0.335687 0.155079
0.853506 0.344021 0.156723
0.907695 0.360206 0.156414
0.401644 0.366265 0.156395
0.863384 0.384550 0.156687
0.864607 0.395414 0.156210
0.927443 0.396193 0.156826
0.929058 0.403849 0.156640
0.910155 0.415313 0.155036
0.197448 0.431398 0.156276
0.206672 0.439745 0.157394
0.490822 0.441115 0.156788
0.512723 0.465398 0.156153
0.189233 0.480022 0.155509
0.543957 0.486448 0.155241
0.778601 0.493464 0.157840
0.778521 0.502882 0.156826
0.563652 0.500571 0.156806
0.223187 0.516939 0.155018
0.705873 0.522578 0.155868
0.699588 0.521543 0.157012
0.144506 0.540395 0.156857
0.163476 0.548236 0.156939
0.389309 0.638084 0.156759
0.369364 0.651730 0.156618
0.357778 0.002984 0.157420
0.216951 0.020042 0.156363
0.850166 0.024813 0.155969
0.658128 0.279470 0.162402
0.670038 0.299992 0.160774
0.594625 0.298807 0.163332
0.419863 0.318996 0.157408
0.874619 0.321366 0.157150
0.612549 0.325581 0.165682
0.422035 0.329331 0.156455
0.890844 0.328339 0.156695
0.864434 0.329579 0.157953
0.384964 0.329612 0.160594
0.388199 0.336990 0.163023
0.853639 0.338699 0.158036
0.419584 0.337125 0.156643
0.414487 0.335073 0.163189
0.390826 0.344583 0.163392
0.421405 0.343306 0.156330
0.419321 0.346621 0.162650
0.631353 0.344691 0.161479
0.394740 0.348635 0.159124
0.431166 0.361462 0.157209
0.430262 0.364309 0.160961
0.434411 0.367991 0.163846
0.435200 0.375467 0.162732
0.865955 0.407505 0.156939
0.919736 0.415020 0.157479
0.903235 0.423448 0.157492
0.892943 0.423010 0.157286
0.267393 0.436945 0.162773
0.840843 0.437318 0.156112
0.840257 0.439710 0.157492
0.261842 0.451374 0.160102
0.222357 0.453781 0.161539
0.231633 0.452964 0.164215
0.521855 0.468240 0.156239
0.533293 0.483485 0.157564
0.212203 0.489214 0.163596
0.233507 0.492468 0.163944
0.243380 0.501197 0.164212
0.587209 0.505790 0.156676
0.182200 0.510865 0.162994
0.715425 0.514558 0.156373
0.243340 0.520860 0.161401
0.127863 0.534078 0.157782
0.135759 0.537196 0.156192
0.156542 0.548447 0.156739
0.174833 0.546151 0.158012
0.261718 0.623970 0.157318
0.377164 0.002309 0.160900
0.398622 0.000820 0.163222
0.660603 0.001264 0.161965
0.707884 0.000034 0.162291
0.717938 -0.000306 0.162723
0.303497 0.002416 0.163426
0.318908 0.003672 0.156683
0.328947 0.004189 0.162597
0.364281 0.002792 0.157764
0.368348 0.005300 0.164118
0.407829 0.003971 0.163031
0.656971 0.003988 0.159611
0.262292 0.004195 0.162383
0.338468 0.004129 0.162794
0.350160 0.006444 0.164113
0.359828 0.007198 0.163498
0.254138 0.005637 0.161910
0.729554 0.003016 0.160230
0.738389 0.004286 0.161609
0.844197 0.005487 0.161115
0.854132 0.006398 0.161543
0.418018 0.007257 0.162193
0.648542 0.005063 0.164804
0.822073 0.007449 0.164531
0.233121 0.010142 0.163377
0.427083 0.009852 0.164471
0.640406 0.008826 0.163959
0.795271 0.009677 0.163420
0.804011 0.008579 0.163062
0.861470 0.007938 0.164331
0.747067 0.008716 0.164032
0.429614 0.014302 0.160432
0.747654 0.014253 0.159861
0.789688 0.011742 0.163568
0.863300 0.017199 0.163556
0.219519 0.014593 0.160647
0.630586 0.014256 0.162898
0.785091 0.013656 0.164219
0.436534 0.018248 0.164147
0.756406 0.015673 0.162147
0.855981 0.019495 0.159904
0.213006 0.016089 0.163470
0.777508 0.018329 0.163400
0.770010 0.022182 0.158105
0.853788 0.025726 0.162938
0.204274 0.023504 0.159263
0.764495 0.022673 0.158939
0.440329 0.024260 0.158679
0.618190 0.024864 0.163360
0.445714 0.026171 0.163223
0.192946 0.025423 0.163051
0.185847 0.028567 0.165926
0.851227 0.035984 0.164185
0.181482 0.032386 0.160733
0.172526 0.033207 0.162805
0.449983 0.033601 0.159021
0.610328 0.035030 0.162010
0.164256 0.036681 0.164163
0.847371 0.039398 0.159732
0.156145 0.039150 0.162094
0.455906 0.035353 0.163767
0.132979 0.044832 0.156974
0.137036 0.047546 0.159797
0.459942 0.041933 0.160722
0.845628 0.048452 0.160635
0.465317 0.047297 0.163532
0.602419 0.046795 0.163548
0.134446 0.056757 0.158141
0.468450 0.052994 0.159624
0.598517 0.055636 0.162697
0.836708 0.058271 0.161586
0.137230 0.056384 0.159817
0.474418 0.055561 0.163271
0.140023 0.063113 0.158555
0.832033 0.064228 0.163549
0.479265 0.063158 0.160402
0.140742 0.065994 0.157513
0.828135 0.068936 0.162390
0.143294 0.066229 0.164267
0.594763 0.065316 0.163606
0.143015 0.074470 0.161679
0.481213 0.066723 0.164654
0.823866 0.073636 0.164138
0.486589 0.072038 0.163579
0.817710 0.079519 0.162877
0.491681 0.077959 0.163089
0.141826 0.081720 0.161361
0.813010 0.082865 0.161621
0.589205 0.084789 0.162513
0.142111 0.090313 0.158338
0.135682 0.093675 0.161880
0.588279 0.094983 0.161974
0.801749 0.091455 0.160425
0.795566 0.096548 0.162744
0.139659 0.097841 0.158189
0.503764 0.095890 0.164096
0.140186 0.101631 0.157693
0.785940 0.102935 0.162675
0.508498 0.101220 0.163901
0.587653 0.104655 0.163281
0.512133 0.105743 0.162755
0.778670 0.108753 0.162763
0.516287 0.115023 0.161742
0.766065 0.117866 0.164657
0.520878 0.121809 0.162486
0.132942 0.121804 0.159724
0.762804 0.122542 0.160704
0.126492 0.133841 0.163624
0.758343 0.124413 0.164675
0.526176 0.133912 0.162243
0.753100 0.134520 0.163828
0.127925 0.137148 0.158373
0.752598 0.141822 0.164003
0.124263 0.142303 0.161818
0.530731 0.143058 0.163137
0.751905 0.145076 0.160569
0.535664 0.152928 0.163288
0.592113 0.152085 0.164684
0.753774 0.161308 0.164234
0.124102 0.164346 0.161271
0.541760 0.162934 0.162739
0.124295 0.172245 0.160660
0.546275 0.172369 0.164103
0.549523 0.182096 0.161249
0.124404 0.180607 0.161243
0.311242 0.183759 0.161607
0.319249 0.182976 0.162895
0.329431 0.184678 0.162029
0.762717 0.183558 0.161479
0.302130 0.185156 0.160868
0.340203 0.188548 0.163668
0.130100 0.191822 0.158424
0.292854 0.194029 0.163084
0.349420 0.192516 0.163911
0.768535 0.191635 0.165739
0.604365 0.191297 0.163433
0.775538 0.201229 0.163422
0.125277 0.191675 0.162371
0.131097 0.202774 0.158234
0.284803 0.202811 0.159573
0.357602 0.201456 0.163078
0.779147 0.206287 0.161397
0.368155 0.211655 0.162949
0.615232 0.211448 0.161857
0.782295 0.211233 0.163427
0.376556 0.222449 0.161035
0.789594 0.218875 0.163195
0.132968 0.220773 0.159493
0.283421 0.219900 0.159944
0.792615 0.222735 0.163080
0.378269 0.230006 0.164511
0.625064 0.226233 0.163639
0.133361 0.229860 0.162264
0.289417 0.230929 0.163712
0.384130 0.233843 0.160847
0.569509 0.228406 0.163604
0.386031 0.240688 0.162121
0.804955 0.240930 0.162637
0.571765 0.239995 0.163670
0.135607 0.239086 0.163849
0.293692 0.239592 0.161904
0.631898 0.238086 0.161487
0.144148 0.250216 0.160255
0.575727 0.247142 0.164341
0.388994 0.249810 0.163460
0.395237 0.250934 0.159490
0.300365 0.251219 0.161471
0.577985 0.252896 0.161368
0.147613 0.255281 0.158326
0.640359 0.250249 0.162902
0.813392 0.251028 0.164964
0.145249 0.260375 0.162685
0.303628 0.256707 0.159082
0.580065 0.261960 0.164269
0.817046 0.260129 0.161184
0.305844 0.262635 0.157883
0.310247 0.259814 0.163688
0.399890 0.267639 0.160949
0.651644 0.268467 0.161752
0.824723 0.268542 0.163728
0.312494 0.267913 0.159729
0.582798 0.269880 0.162084
0.403062 0.272487 0.158948
0.155649 0.278533 0.162623
0.403038 0.278923 0.158860
0.586425 0.277769 0.163257
0.160518 0.276869 0.157194
0.320367 0.277517 0.160470
0.162255 0.281310 0.159308
0.588175 0.281233 0.161705
0.162301 0.289234 0.160059
0.408894 0.287126 0.161225
0.589242 0.288371 0.163398
0.662446 0.288083 0.160414
0.834627 0.288452 0.162696
0.830991 0.289106 0.157151
0.836853 0.297727 0.160656
0.168579 0.294835 0.157899
0.340946 0.294425 0.159417
0.413583 0.298927 0.160167
0.165662 0.297169 0.162747
0.172018 0.303222 0.158975
0.344089 0.302619 0.157542
0.599764 0.309705 0.164313
0.349682 0.299364 0.162969
0.671735 0.305064 0.158563
0.837316 0.303586 0.158030
0.173042 0.310908 0.164106
0.352609 0.306561 0.161497
0.358784 0.306441 0.163740
0.843098 0.312365 0.157891
0.178940 0.313993 0.158706
0.362467 0.311590 0.157729
0.676079 0.310190 0.164910
0.367632 0.310763 0.164724
0.604389 0.312776 0.157019
0.180442 0.319028 0.160922
0.415529 0.319387 0.159183
0.677888 0.318239 0.163207
0.370971 0.316593 0.161954
0.873267 0.317384 0.158987
0.884934 0.315833 0.159486
0.880350 0.319147 0.157242
0.188364 0.324251 0.157221
0.853124 0.317357 0.161980
0.417238 0.328053 0.160118
0.854774 0.326822 0.159768
0.894204 0.325349 0.160231
0.378408 0.327621 0.163755
0.680096 0.327649 0.163536
0.863725 0.325854 0.158939
0.189795 0.331256 0.160612
0.852719 0.329321 0.158082
0.678644 0.336686 0.164091
0.193452 0.338307 0.164101
0.621272 0.338774 0.164170
0.897166 0.338188 0.158775
0.902290 0.336646 0.163237
0.669437 0.345879 0.162821
0.904261 0.345629 0.162429
0.202743 0.347951 0.162246
0.639402 0.349775 0.163368
0.649229 0.350517 0.160833
0.658434 0.349861 0.161940
0.424248 0.351586 0.162746
0.905156 0.352050 0.158873
0.211706 0.358532 0.163425
0.428951 0.356846 0.162118
0.394741 0.359844 0.159756
0.910766 0.356760 0.161751
0.913751 0.363516 0.160417
0.220690 0.369098 0.162484
0.397993 0.367991 0.159610
0.227721 0.372800 0.157891
0.398196 0.376368 0.161028
0.922151 0.374603 0.161195
0.229259 0.379086 0.161968
0.233750 0.385642 0.161863
0.397195 0.384622 0.162811
0.437487 0.383885 0.160425
0.445123 0.386553 0.161526
0.925835 0.390448 0.157125
0.241807 0.395640 0.161516
0.400982 0.395470 0.163615
0.447655 0.393735 0.159715
0.864726 0.395029 0.158534
0.402149 0.397139 0.159406
0.932358 0.393907 0.160038
0.245541 0.403015 0.164259
0.403585 0.405576 0.162948
0.861803 0.404814 0.158770
0.450248 0.402102 0.159912
0.250083 0.405523 0.160013
0.456385 0.405554 0.162150
0.407308 0.414545 0.163455
0.450827 0.409534 0.157682
0.853125 0.414462 0.161642
0.861822 0.414877 0.162753
0.467862 0.414975 0.160051
0.926313 0.411984 0.157327
0.254577 0.413250 0.164100
0.258424 0.419953 0.159291
0.868077 0.419711 0.159224
0.921825 0.416820 0.158565
0.873734 0.420165 0.158462
0.882567 0.419970 0.158572
0.910815 0.420566 0.158592
0.843565 0.423659 0.163306
0.874917 0.425203 0.164083
0.884591 0.426811 0.161945
0.182892 0.426362 0.160465
0.174516 0.427226 0.164524
0.260624 0.424684 0.163470
0.475159 0.424424 0.163239
0.890925 0.427568 0.158433
0.904192 0.427670 0.160318
0.166453 0.427220 0.163450
0.411983 0.428819 0.159623
0.169918 0.434661 0.156856
0.193713 0.434808 0.160457
0.839939 0.433820 0.159998
0.163865 0.434329 0.160402
0.201234 0.437740 0.159382
0.413439 0.435506 0.163113
0.477814 0.434037 0.159668
0.484692 0.434136 0.160576
0.169495 0.441495 0.157755
0.839276 0.440846 0.159547
0.267404 0.442714 0.162253
0.497595 0.441754 0.162322
0.834393 0.444211 0.162770
0.171502 0.453138 0.160204
0.415575 0.452449 0.163571
0.823689 0.452315 0.161350
0.214342 0.451335 0.163608
0.241965 0.452495 0.162550
0.499910 0.450194 0.160606
0.501028 0.456416 0.158885
0.252659 0.452820 0.164152
0.822723 0.462359 0.160058
0.174858 0.463588 0.160642
0.177990 0.462595 0.157594
0.503101 0.459317 0.158673
0.515986 0.461544 0.158737
0.523410 0.463813 0.163176
0.813022 0.463743 0.162460
0.174508 0.471996 0.163234
0.527011 0.471062 0.158671
0.810632 0.468323 0.159434
0.804047 0.472670 0.161047
0.181566 0.476256 0.159956
0.416402 0.473311 0.162300
0.803902 0.482553 0.159258
0.186390 0.480719 0.161793
0.194066 0.483056 0.163871
0.536711 0.479715 0.159576
0.543046 0.481195 0.160771
0.553268 0.485640 0.164562
0.414559 0.483667 0.161614
0.203446 0.486488 0.162959
0.555221 0.490065 0.160192
0.776151 0.489551 0.161083
0.239714 0.495773 0.162847
0.563083 0.492722 0.163331
0.413472 0.491784 0.163639
0.412066 0.498975 0.159582
0.572410 0.498172 0.158546
0.582630 0.499951 0.161516
0.591853 0.504415 0.160807
0.745138 0.502733 0.158365
0.738439 0.501569 0.163150
0.747004 0.499650 0.160812
0.754985 0.501618 0.161263
0.771641 0.502360 0.158406
0.245569 0.510621 0.161836
0.739170 0.509821 0.158355
0.766378 0.506499 0.158253
0.172960 0.510000 0.164519
0.408090 0.511338 0.164405
0.604204 0.508011 0.162391
0.164638 0.509513 0.164468
0.193338 0.513851 0.162581
0.612310 0.509336 0.163638
0.155984 0.511563 0.163326
0.622227 0.510237 0.162452
0.707871 0.509931 0.163103
0.720518 0.509841 0.161468
0.407857 0.520743 0.163067
0.630199 0.515411 0.157558
0.629547 0.512143 0.163427
0.639681 0.511727 0.162145
0.649985 0.513122 0.160598
0.658730 0.512997 0.163690
0.680015 0.515316 0.158345
0.670938 0.514311 0.159733
0.705659 0.515774 0.157237
0.728649 0.511247 0.162028
0.729165 0.515306 0.158094
0.660853 0.517141 0.158830
0.688894 0.515078 0.160221
0.698676 0.513467 0.162380
0.144658 0.518398 0.159986
0.213297 0.521035 0.162864
0.663939 0.517143 0.158562
0.223094 0.524126 0.161444
0.135896 0.521070 0.163265
0.233980 0.524605 0.161445
0.130688 0.527159 0.160217
0.125207 0.529851 0.162587
0.401662 0.534445 0.163879
0.125550 0.542534 0.162228
0.130338 0.538547 0.158011
0.135703 0.541978 0.163443
0.399302 0.540114 0.164081
0.144414 0.542964 0.160667
0.155146 0.552528 0.161291
0.173793 0.550196 0.160515
0.164869 0.553366 0.161991
0.394333 0.557180 0.161677
0.391986 0.561584 0.162538
0.174666 0.559930 0.161573
0.179216 0.565878 0.156887
0.387267 0.569685 0.163794
0.174390 0.571242 0.161916
0.178997 0.571845 0.158179
0.383606 0.578019 0.159420
0.173191 0.580110 0.163488
0.379763 0.582554 0.164741
0.172298 0.587239 0.163891
0.375122 0.588867 0.162096
0.168706 0.592612 0.162664
0.371174 0.593089 0.163835
0.167844 0.599050 0.163098
0.365837 0.598905 0.163926
0.169299 0.602808 0.157994
0.185453 0.606514 0.163855
0.368774 0.609372 0.159900
0.194405 0.609250 0.161845
0.212180 0.611301 0.162704
0.376769 0.620942 0.160836
0.224244 0.617834 0.162161
0.234178 0.621451 0.163605
0.245998 0.622789 0.159075
0.255646 0.624268 0.158110
0.270677 0.627456 0.161449
0.293402 0.629156 0.162365
0.383595 0.627103 0.157047
0.298857 0.630560 0.163072
0.385017 0.636683 0.158488
0.377736 0.645340 0.159244
0.368539 0.647952 0.160930
0.314542 0.654189 0.162038
0.356130 0.654699 0.159243
0.348875 0.657707 0.162438
0.318282 0.658554 0.164425
0.347578 0.666594 0.160289
0.320346 0.665353 0.161677
0.322747 0.671441 0.158851
0.346164 0.672610 0.160062
0.329947 0.676324 0.162255
0.339413 0.677106 0.160994
0.386318 0.001997 0.163601
0.286362 0.003869 0.159294
0.280825 0.003631 0.161081
0.244284 0.006794 0.162925
0.204784 0.018320 0.164585
0.145497 0.045878 0.162795
0.147394 0.040122 0.159796
0.842046 0.054045 0.164078
0.496513 0.083995 0.162867
0.806349 0.087953 0.165311
0.134308 0.103628 0.160910
0.133253 0.112785 0.159676
0.773281 0.112514 0.163281
0.128716 0.125274 0.161498
0.588110 0.124639 0.162556
0.125062 0.154887 0.159869
0.593143 0.162267 0.162964
0.756231 0.172335 0.163658
0.760369 0.178627 0.162337
0.337043 0.185329 0.161741
0.555281 0.190116 0.164107
0.354180 0.195201 0.160064
0.609191 0.202006 0.163371
0.132262 0.213559 0.159867
0.284604 0.211650 0.160892
0.562091 0.211969 0.163721
0.620673 0.219964 0.163871
0.567595 0.224654 0.159896
0.285776 0.228149 0.160591
0.629274 0.231799 0.163668
0.141376 0.241485 0.159314
0.808491 0.248150 0.159313
0.397419 0.259221 0.162946
0.646356 0.259935 0.163419
0.147176 0.269209 0.164337
0.152866 0.273025 0.161465
0.319394 0.271810 0.163745
0.831366 0.280647 0.163383
0.328377 0.279561 0.163908
0.330700 0.286573 0.159958
0.339717 0.288360 0.162891
0.665397 0.293591 0.160224
0.845007 0.308715 0.161200
0.408144 0.309598 0.164359
0.407933 0.319634 0.162916
0.847057 0.318283 0.158899
0.862871 0.318048 0.161760
0.892807 0.319752 0.162684
0.186019 0.328547 0.164235
0.617742 0.330649 0.162051
0.856018 0.335840 0.158698
0.920624 0.368499 0.163928
0.931050 0.384657 0.161766
0.935121 0.403297 0.160164
0.931081 0.414703 0.160400
0.912195 0.425328 0.159948
0.264904 0.431583 0.161515
0.491574 0.434769 0.164073
0.163709 0.444886 0.162391
0.208885 0.445290 0.159775
0.265230 0.447290 0.163670
0.505587 0.453465 0.162901
0.415953 0.463906 0.163778
0.531708 0.474172 0.163249
0.786774 0.483180 0.163648
0.787075 0.488037 0.159970
0.795079 0.484351 0.162845
0.207616 0.489246 0.160504
0.221187 0.489677 0.164926
0.765085 0.493609 0.162566
0.573036 0.495268 0.164311
0.765592 0.501076 0.159881
0.734860 0.509099 0.160423
0.681181 0.512901 0.161846
0.147048 0.551417 0.164066
0.179953 0.551892 0.159926
0.396344 0.550445 0.165180
0.180314 0.556635 0.159561
0.173420 0.605179 0.164184
0.204534 0.611309 0.164670
0.263300 0.627067 0.163891
0.378487 0.629305 0.160480
0.281324 0.628238 0.164919
0.377669 0.637389 0.160196
0.312403 0.648304 0.162719
0.359950 0.648750 0.163469
0.668106 0.000107 0.163808
0.699696 0.000520 0.164713
0.271020 0.003428 0.162596
0.290490 0.002461 0.163246
0.310466 0.002655 0.165188
0.320558 0.004269 0.165243
0.728231 0.000313 0.165354
0.374469 0.004462 0.165641
0.837434 0.004893 0.161413
0.221845 0.012004 0.165281
0.623046 0.019813 0.164999
0.766027 0.019505 0.165485
0.451600 0.032043 0.162897
0.606645 0.042030 0.164477
0.144424 0.056197 0.164362
0.591627 0.075816 0.163761
0.134836 0.085494 0.165936
0.500445 0.088819 0.165351
0.791323 0.100368 0.163457
0.127590 0.106332 0.164835
0.128110 0.112316 0.165696
0.587434 0.114311 0.163085
0.518494 0.118121 0.161419
0.538212 0.158015 0.163957
0.752478 0.153146 0.165524
0.119073 0.180838 0.166151
0.598713 0.181666 0.163699
0.299520 0.189960 0.164746
0.125838 0.201986 0.165908
0.290113 0.202917 0.165040
0.559524 0.201405 0.165393
0.126737 0.212383 0.165360
0.565338 0.220544 0.164019
0.128912 0.221162 0.165468
0.370814 0.220857 0.165658
0.288188 0.221241 0.164971
0.797473 0.229245 0.164806
0.636543 0.244437 0.164779
0.137213 0.249272 0.165508
0.822042 0.261910 0.166197
0.827291 0.276798 0.162242
0.397069 0.278970 0.164234
0.157637 0.287211 0.165768
0.399204 0.288557 0.164077
0.347989 0.288882 0.165441
0.407695 0.298925 0.163789
0.412195 0.294034 0.160544
0.596985 0.300913 0.163222
0.843561 0.299051 0.165743
0.872460 0.309494 0.162008
0.885339 0.307128 0.163839
0.853508 0.307780 0.164449
0.862334 0.310972 0.164647
0.177359 0.318867 0.163762
0.604515 0.316031 0.165142
0.374202 0.319011 0.165640
0.408843 0.327423 0.164625
0.901343 0.327435 0.165170
0.195097 0.344558 0.167299
0.206780 0.354968 0.165592
0.391205 0.357494 0.164923
0.391849 0.366567 0.162674
0.216761 0.366559 0.165580
0.225513 0.375146 0.164375
0.445654 0.375307 0.164354
0.236704 0.391297 0.165511
0.455028 0.394849 0.165240
0.939997 0.396880 0.165786
0.402304 0.401215 0.163237
0.942364 0.403995 0.164650
0.466341 0.403895 0.163922
0.853738 0.405530 0.165057
0.941357 0.415207 0.163761
0.408570 0.423855 0.164610
0.931260 0.425583 0.165592
0.919895 0.427287 0.161871
0.836789 0.425060 0.164494
0.184240 0.434083 0.166069
0.411902 0.432371 0.165349
0.834858 0.435023 0.163955
0.891436 0.432882 0.161933
0.903515 0.435294 0.162712
0.911629 0.434143 0.164225
0.155797 0.435417 0.165535
0.202071 0.444052 0.164079
0.195358 0.439696 0.164874
0.413762 0.443790 0.162239
0.165890 0.454648 0.165814
0.501291 0.446253 0.164469
0.825614 0.445053 0.164362
0.514499 0.456618 0.165710
0.795301 0.474413 0.163871
0.539739 0.476602 0.164663
0.777395 0.482053 0.165013
0.767251 0.486683 0.166659
0.411977 0.495163 0.166003
0.410442 0.502595 0.165262
0.599982 0.505097 0.166048
0.145516 0.514158 0.164513
0.201636 0.516086 0.163069
0.203790 0.520148 0.166703
0.130536 0.524287 0.166062
0.403715 0.529397 0.165535
0.116299 0.532354 0.165086
0.116363 0.540671 0.163232
0.363448 0.602603 0.163484
0.361629 0.607196 0.165364
0.213969 0.617289 0.165173
0.367845 0.619139 0.164637
0.242685 0.623849 0.165448
0.304663 0.636274 0.165123
0.367592 0.638583 0.165269
0.307688 0.639801 0.164433
0.338627 0.665319 0.165757
0.680254 0.001041 0.165802
0.299301 0.002724 0.163667
0.633708 0.011567 0.164783
0.753075 0.008858 0.166730
0.861752 0.024161 0.166669
0.851978 0.046932 0.165424
0.588842 0.133815 0.164134
0.589813 0.142078 0.163561
0.120196 0.154644 0.166304
0.596913 0.174273 0.163995
0.557456 0.197634 0.165441
0.289094 0.213832 0.165191
0.800843 0.233833 0.166436
0.400195 0.295529 0.166371
0.892765 0.308795 0.165699
0.608028 0.321557 0.163939
0.391914 0.376221 0.166594
0.931099 0.377536 0.167571
0.474397 0.413622 0.165713
0.843860 0.414422 0.164576
0.864952 0.422049 0.166359
0.883618 0.433438 0.166325
0.921596 0.433790 0.165086
0.155070 0.443715 0.165357
0.207778 0.449275 0.166332
0.814607 0.456060 0.164936
0.804510 0.462918 0.166362
0.756508 0.492237 0.166060
0.728460 0.503078 0.165097
0.223530 0.528497 0.167051
0.252594 0.625638 0.165188
0.329433 0.666992 0.166552
0.689790 0.000395 0.165031
0.276909 0.003019 0.164896
0.811400 0.007258 0.164947
0.154077 0.044455 0.166912
0.119102 0.173851 0.166154
0.601164 0.180679 0.173082
0.307944 0.252582 0.164359
0.149632 0.277041 0.165450
0.872378 0.300875 0.165912
0.882860 0.299859 0.166810
0.898841 0.319460 0.167204
0.408384 0.326405 0.169415
0.379195 0.334056 0.166871
0.659664 0.352637 0.167466
0.845343 0.403277 0.165624
0.940915 0.423046 0.165432
0.484115 0.426528 0.166426
0.891083 0.440739 0.166334
0.900572 0.440077 0.166242
0.261152 0.448349 0.173394
0.223009 0.451220 0.171137
0.167206 0.465192 0.167829
0.184104 0.479770 0.170648
0.233863 0.493308 0.171568
0.746381 0.497059 0.166457
0.214517 0.526866 0.167684
0.106661 0.541812 0.166598
0.138835 0.547826 0.166344
0.368325 0.628494 0.166616
0.352671 0.649682 0.166648
0.738139 0.001661 0.166882
0.292026 0.003645 0.173316
0.655193 0.001901 0.168050
0.310271 0.005656 0.172323
0.242689 0.004014 0.171030
0.863633 0.007010 0.170744
0.757395 0.006906 0.172676
0.217559 0.011487 0.168051
0.867567 0.015649 0.167988
0.198486 0.018643 0.168025
0.181578 0.024763 0.172484
0.449394 0.025468 0.171508
0.178183 0.029994 0.167165
0.614064 0.031698 0.165956
0.609985 0.034972 0.171674
0.458250 0.035231 0.172247
0.605358 0.040868 0.172807
0.465795 0.044616 0.171172
0.855208 0.046402 0.170078
0.471094 0.050678 0.167849
0.597142 0.056298 0.173863
0.844778 0.058529 0.172036
0.477872 0.056424 0.171666
0.137794 0.073932 0.167684
0.825024 0.074503 0.173665
0.129950 0.095385 0.167478
0.766747 0.112974 0.171666
0.121302 0.143732 0.166646
0.754697 0.153944 0.171967
0.541993 0.162595 0.173624
0.759485 0.170545 0.172137
0.550054 0.181349 0.172766
0.119831 0.188151 0.166755
0.307581 0.186471 0.165708
0.313425 0.187141 0.168143
0.331247 0.186088 0.168879
0.605010 0.189819 0.171952
0.348108 0.196592 0.168264
0.351680 0.198363 0.166619
0.606136 0.196782 0.168530
0.350315 0.201310 0.170533
0.777227 0.198859 0.173331
0.358279 0.205821 0.167527
0.361972 0.207129 0.167098
0.358784 0.212133 0.171515
0.616195 0.213303 0.167786
0.562472 0.211826 0.172967
0.787102 0.212585 0.171300
0.365547 0.221446 0.170877
0.566111 0.220011 0.173008
0.128131 0.229533 0.167377
0.797775 0.226898 0.169224
0.376287 0.234423 0.168762
0.379659 0.237640 0.167535
0.299976 0.243482 0.166031
0.815571 0.246961 0.171097
0.304008 0.247226 0.168067
0.384514 0.251575 0.168682
0.576740 0.253745 0.167735
0.825525 0.259825 0.172544
0.136440 0.261010 0.173176
0.388835 0.261349 0.171644
0.392384 0.259740 0.166141
0.141040 0.264048 0.168498
0.317397 0.263933 0.168207
0.326733 0.271881 0.167647
0.829396 0.271720 0.167802
0.655649 0.273287 0.166667
0.331715 0.276361 0.169651
0.585896 0.279857 0.173393
0.836171 0.278119 0.172078
0.336648 0.282498 0.167997
0.339412 0.277580 0.173430
0.839700 0.293172 0.166569
0.159741 0.294745 0.166603
0.398611 0.298227 0.173523
0.164634 0.303314 0.167786
0.354049 0.302111 0.166311
0.400460 0.306735 0.170847
0.852014 0.299350 0.170993
0.851233 0.303113 0.166501
0.866103 0.301969 0.167203
0.887107 0.302953 0.165918
0.359603 0.307670 0.173545
0.402887 0.308835 0.173230
0.406313 0.318402 0.173159
0.902161 0.317464 0.171683
0.374142 0.320262 0.169730
0.608234 0.322377 0.168693
0.179356 0.322566 0.167438
0.187844 0.335182 0.167014
0.417801 0.336332 0.171224
0.676138 0.344827 0.171788
0.625815 0.343264 0.167458
0.420196 0.344052 0.170307
0.630556 0.348169 0.172998
0.908164 0.348768 0.172735
0.386117 0.345714 0.170076
0.909959 0.351501 0.167794
0.641806 0.352234 0.167610
0.651442 0.353673 0.167131
0.913695 0.354930 0.172012
0.434088 0.359171 0.167409
0.919143 0.360748 0.167486
0.212034 0.366468 0.171365
0.386926 0.367659 0.171812
0.436041 0.364167 0.169043
0.444868 0.369672 0.167287
0.925966 0.370496 0.167755
0.446303 0.365603 0.171881
0.221585 0.375936 0.172882
0.938348 0.384362 0.167195
0.229666 0.386097 0.172230
0.396783 0.393720 0.170620
0.465624 0.394845 0.172997
0.400976 0.403521 0.173099
0.466283 0.399126 0.166591
0.856645 0.403952 0.170380
0.473713 0.405818 0.172491
0.950335 0.404570 0.167928
0.950064 0.413047 0.167606
0.477484 0.412957 0.171275
0.947533 0.420804 0.166649
0.865472 0.422472 0.173231
0.834046 0.422956 0.169130
0.830142 0.428275 0.168188
0.928976 0.432781 0.166830
0.826787 0.435530 0.167639
0.884972 0.440364 0.167258
0.910638 0.440463 0.168385
0.194851 0.446238 0.173193
0.817383 0.447807 0.167349
0.268459 0.443538 0.172767
0.157277 0.448580 0.167983
0.252107 0.450480 0.172653
0.516033 0.451416 0.173696
0.810966 0.450963 0.167765
0.161981 0.456048 0.168616
0.242523 0.453443 0.173717
0.525148 0.461158 0.172914
0.794807 0.467642 0.167369
0.168749 0.469719 0.166744
0.531508 0.466136 0.173586
0.172855 0.474593 0.171962
0.543505 0.473946 0.172482
0.786521 0.471699 0.171261
0.786103 0.476831 0.166666
0.552576 0.481760 0.172251
0.196657 0.481374 0.174112
0.768061 0.482158 0.172215
0.209147 0.487223 0.168421
0.740749 0.496179 0.168001
0.586441 0.498296 0.172436
0.240908 0.503582 0.173283
0.592394 0.501401 0.173118
0.717290 0.505470 0.167858
0.245438 0.509790 0.172361
0.719174 0.503232 0.172115
0.155559 0.513000 0.174024
0.688890 0.510441 0.171107
0.139243 0.515213 0.167232
0.188927 0.516729 0.166613
0.247421 0.515745 0.168096
0.192826 0.517298 0.168006
0.245035 0.526056 0.168088
0.243066 0.526030 0.167583
0.122649 0.525917 0.168732
0.232125 0.527236 0.168099
0.232004 0.529412 0.174252
0.107396 0.533061 0.173440
0.107443 0.547647 0.167913
0.115349 0.546992 0.167885
0.134908 0.549648 0.171086
0.144087 0.555302 0.169062
0.148797 0.556979 0.167288
0.155461 0.557504 0.167209
0.166891 0.558591 0.166656
0.164444 0.560971 0.174251
0.166481 0.570263 0.172889
0.169487 0.570628 0.166057
0.170294 0.575522 0.166124
0.361787 0.601695 0.172460
0.169134 0.598668 0.172950
0.195021 0.609669 0.171558
0.202978 0.612935 0.171628
0.361056 0.614699 0.167322
0.221507 0.621951 0.171242
0.236745 0.624525 0.167093
0.291301 0.628242 0.171313
0.310578 0.638388 0.172574
0.361893 0.640111 0.167270
0.312655 0.645496 0.169931
0.339969 0.656374 0.168914
0.342698 0.659542 0.166070
0.661377 0.000553 0.173589
0.670480 0.001272 0.173661
0.680071 0.001228 0.172887
0.690354 0.001332 0.172017
0.706130 0.000518 0.172673
0.717017 0.001202 0.173762
0.262144 0.001653 0.172402
0.277417 0.001756 0.171539
0.287180 0.002358 0.169002
0.301993 0.004865 0.173848
0.378372 0.006264 0.173849
0.408817 0.003769 0.171788
0.648808 0.003089 0.169052
0.747968 0.005553 0.169216
0.252265 0.002911 0.171956
0.416828 0.004661 0.173568
0.842717 0.005155 0.173789
0.369347 0.010137 0.173299
0.425034 0.007481 0.171529
0.768568 0.014548 0.171650
0.201883 0.015565 0.172286
0.863876 0.028384 0.170945
0.857247 0.036847 0.170341
0.852818 0.053397 0.174602
0.835064 0.065963 0.173662
0.141511 0.062604 0.169710
0.593474 0.066923 0.173170
0.133647 0.074063 0.174517
0.811145 0.081751 0.172976
0.132520 0.085229 0.169188
0.794209 0.093258 0.174168
0.507197 0.095608 0.173561
0.782328 0.103340 0.169606
0.777082 0.105306 0.173901
0.772333 0.109749 0.169050
0.517634 0.111634 0.172768
0.519560 0.117044 0.171356
0.588313 0.117131 0.171973
0.122082 0.123024 0.168867
0.587951 0.125171 0.171742
0.523809 0.125021 0.172227
0.116925 0.143539 0.170680
0.590948 0.145523 0.170728
0.536335 0.151446 0.173336
0.118696 0.162691 0.167644
0.594382 0.168937 0.168705
0.547267 0.170864 0.172237
0.597809 0.174756 0.174558
0.765222 0.181767 0.173760
0.319890 0.185735 0.169371
0.554008 0.190489 0.174247
0.116283 0.191556 0.172898
0.302306 0.194065 0.171337
0.339399 0.193201 0.170499
0.769105 0.189900 0.171188
0.293879 0.203230 0.170276
0.612597 0.201976 0.171414
0.124223 0.213221 0.169253
0.796524 0.220685 0.173278
0.368863 0.230837 0.172463
0.630581 0.229846 0.173367
0.295081 0.231572 0.169291
0.301403 0.237688 0.172363
0.132767 0.241024 0.168674
0.810307 0.238907 0.170722
0.133152 0.251873 0.172943
0.572125 0.241715 0.172307
0.377007 0.241139 0.172589
0.311555 0.248760 0.171310
0.575052 0.250606 0.174092
0.320786 0.259370 0.171584
0.389579 0.268166 0.174181
0.394122 0.272817 0.168282
0.393155 0.279131 0.169839
0.146918 0.278773 0.173534
0.587322 0.281901 0.168387
0.660064 0.278570 0.172874
0.347468 0.281074 0.174202
0.395092 0.290064 0.172560
0.664374 0.286429 0.169025
0.671401 0.297048 0.172404
0.842937 0.288540 0.173061
0.156841 0.294946 0.172565
0.880997 0.295186 0.167603
0.860979 0.298848 0.170456
0.893148 0.298169 0.171135
0.162332 0.301504 0.170449
0.592466 0.299824 0.174151
0.895267 0.303865 0.168480
0.164197 0.307684 0.173295
0.170768 0.318514 0.172707
0.180749 0.329050 0.171904
0.904169 0.327352 0.172915
0.611321 0.328661 0.172798
0.374514 0.330376 0.169469
0.376645 0.337129 0.170116
0.619051 0.338266 0.172583
0.905360 0.337163 0.173150
0.671987 0.349593 0.172115
0.426281 0.346490 0.170199
0.385246 0.357824 0.171334
0.435586 0.355394 0.171777
0.925700 0.365562 0.167670
0.389332 0.377347 0.171958
0.456360 0.377939 0.173714
0.942268 0.383693 0.169889
0.457803 0.386028 0.171267
0.460086 0.391790 0.169598
0.944122 0.394423 0.168236
0.843531 0.396114 0.170340
0.852947 0.395375 0.169789
0.241116 0.396435 0.173283
0.842132 0.401227 0.169259
0.952284 0.404058 0.169284
0.404077 0.408655 0.167213
0.833939 0.412885 0.169901
0.253060 0.414540 0.174102
0.838173 0.418795 0.167379
0.953591 0.419061 0.167992
0.485096 0.423305 0.170360
0.951010 0.425125 0.171173
0.164854 0.425742 0.171858
0.172721 0.428454 0.170537
0.943704 0.428993 0.168759
0.156479 0.427913 0.173443
0.491167 0.426409 0.174009
0.176085 0.433670 0.172280
0.822966 0.436050 0.168868
0.879203 0.434452 0.172814
0.942327 0.435057 0.171111
0.931346 0.435394 0.169280
0.185272 0.438009 0.169552
0.412994 0.441690 0.170517
0.496683 0.434000 0.173176
0.819994 0.441028 0.169655
0.883263 0.444426 0.172318
0.921256 0.443330 0.169949
0.254196 0.446594 0.175496
0.892383 0.445219 0.167633
0.901726 0.445215 0.170950
0.813532 0.443755 0.171684
0.153096 0.446595 0.169755
0.413265 0.455362 0.173065
0.162591 0.464741 0.171326
0.802338 0.460119 0.168695
0.794906 0.461867 0.173263
0.415074 0.466650 0.172429
0.790640 0.468037 0.168352
0.776815 0.476376 0.172871
0.547546 0.478740 0.168835
0.203445 0.482437 0.173513
0.413729 0.483758 0.173647
0.578640 0.496201 0.172376
0.411342 0.500188 0.171886
0.621614 0.507442 0.171011
0.703895 0.508854 0.167935
0.164348 0.513680 0.171605
0.631488 0.509497 0.172066
0.698061 0.509492 0.169799
0.639411 0.509554 0.171323
0.670859 0.510604 0.172588
0.144777 0.513466 0.174261
0.180504 0.515180 0.169080
0.195695 0.523253 0.172451
0.126240 0.520755 0.174188
0.116621 0.529070 0.172457
0.242015 0.527809 0.172531
0.098381 0.539849 0.172848
0.096984 0.550026 0.169542
0.122785 0.546024 0.167760
0.126452 0.550302 0.173988
0.394240 0.557038 0.169510
0.387050 0.569411 0.174377
0.381866 0.580208 0.172983
0.357570 0.608352 0.172291
0.184668 0.608498 0.173443
0.358958 0.618210 0.169618
0.212828 0.619259 0.171762
0.360462 0.628576 0.169198
0.254048 0.627445 0.170014
0.271463 0.628130 0.172914
0.302118 0.631306 0.173503
0.356548 0.638023 0.168852
0.348892 0.647112 0.169486
0.320590 0.647894 0.173593
0.321377 0.655608 0.169260
0.389724 0.001643 0.174759
0.398925 0.000683 0.171044
0.649968 0.000944 0.173949
0.698122 0.001498 0.172031
0.729379 0.000807 0.174229
0.738249 0.000845 0.174787
0.270615 0.002797 0.173169
0.746779 0.000890 0.175104
0.640307 0.006985 0.173116
0.233846 0.005650 0.174799
0.321150 0.008437 0.172731
0.223918 0.009270 0.174673
0.337145 0.010017 0.170655
0.347741 0.010607 0.171678
0.359207 0.010807 0.173190
0.764019 0.010271 0.174330
0.794994 0.008919 0.174628
0.869670 0.008800 0.174652
0.212972 0.010493 0.173579
0.433095 0.010992 0.175175
0.632740 0.010861 0.174065
0.788748 0.011252 0.174227
0.438193 0.017252 0.173725
0.626889 0.013588 0.174742
0.785589 0.013599 0.175140
0.871732 0.016189 0.174053
0.776893 0.016293 0.173245
0.195617 0.018467 0.174436
0.620594 0.019282 0.173308
0.188443 0.020650 0.173837
0.444659 0.019541 0.175892
0.870724 0.027050 0.176155
0.173744 0.028682 0.174460
0.612550 0.028634 0.176495
0.862288 0.035807 0.175726
0.170228 0.031941 0.172143
0.164920 0.035560 0.174280
0.461522 0.039521 0.169910
0.158168 0.039964 0.173132
0.602360 0.046534 0.174210
0.153387 0.043828 0.175928
0.148564 0.048637 0.174957
0.472758 0.050448 0.173384
0.142597 0.055533 0.174074
0.596845 0.058724 0.172272
0.137835 0.066757 0.173493
0.484847 0.065967 0.175554
0.488895 0.072612 0.171935
0.494008 0.075516 0.174768
0.591906 0.075448 0.173612
0.817209 0.079160 0.174523
0.497383 0.081182 0.172357
0.804642 0.086839 0.174228
0.500902 0.086667 0.173232
0.588977 0.084308 0.173342
0.123853 0.094935 0.172749
0.587378 0.094652 0.174380
0.786174 0.099550 0.173832
0.123049 0.104048 0.171319
0.513029 0.104700 0.174230
0.122248 0.111949 0.171185
0.758379 0.123475 0.173501
0.117635 0.124067 0.174474
0.526679 0.131197 0.174144
0.753554 0.133412 0.173327
0.534096 0.143939 0.174543
0.752673 0.142986 0.175212
0.115726 0.155347 0.173645
0.537800 0.156930 0.174430
0.114450 0.163749 0.173184
0.756741 0.163120 0.173757
0.594296 0.162413 0.174724
0.595805 0.170432 0.172088
0.114157 0.180325 0.172888
0.319146 0.189928 0.174194
0.329582 0.190953 0.173286
0.309839 0.192547 0.174359
0.774437 0.192918 0.173960
0.556832 0.197635 0.174630
0.607765 0.194948 0.173005
0.117360 0.203493 0.174382
0.559025 0.203025 0.175012
0.782582 0.204772 0.175211
0.293826 0.210106 0.171398
0.119532 0.211185 0.173709
