ply
format ascii 1.0
element vertex 1771
property float x
property float y
property float z
end_header
0.122341 0.565845 0.311223
0.183560 0.565655 0.287521
0.689668 0.039441 0.325212
0.656592 0.042932 0.333256
0.873465 0.018645 0.318415
0.459503 0.039694 0.307739
0.735637 0.072275 0.303808
0.743983 0.095253 0.334591
0.160360 0.120270 0.307410
0.699075 0.074021 0.318446
0.162841 0.075987 0.312631
0.191657 0.148246 0.312442
0.469011 0.136592 0.320972
0.145906 0.108805 0.320202
0.162047 0.129867 0.326801
0.745486 0.156998 0.316329
0.808108 0.116635 0.312566
0.920083 0.172336 0.305808
0.170385 0.207470 0.294185
0.196390 0.224598 0.336569
0.196924 0.203076 0.318848
0.730676 0.222699 0.298751
0.681097 0.238699 0.292526
0.242784 0.227727 0.342880
0.904135 0.253464 0.307575
0.704082 0.266246 0.318107
0.125131 0.440289 0.323505
0.147019 0.430242 0.329147
0.155885 0.444526 0.289737
0.164145 0.464618 0.315325
0.120400 0.585228 0.289496
0.175224 0.540228 0.329847
0.067441 0.588366 0.312052
0.450691 -0.028295 0.339044
0.408906 0.031864 0.330455
0.415155 0.022502 0.312528
0.463574 0.007727 0.303474
0.726650 0.019848 0.309527
0.730806 0.002670 0.332123
0.728155 0.012910 0.306718
0.750497 0.021220 0.313736
0.755199 0.009146 0.329135
0.821898 0.013832 0.323718
0.505753 -0.005056 0.311158
0.715632 0.015018 0.330294
0.730107 0.026720 0.283975
0.773281 0.018517 0.306908
0.817018 0.005153 0.329304
0.850061 -0.018479 0.328250
0.841995 0.001687 0.320169
0.396853 0.026981 0.345544
0.797501 -0.033914 0.320590
0.846544 -0.010706 0.326586
0.402048 0.005696 0.299033
0.462374 0.035754 0.351302
0.681749 -0.006700 0.311098
0.879157 0.009425 0.325219
0.360790 0.015803 0.302009
0.712263 0.010877 0.315947
0.851678 0.046782 0.326001
0.478048 -0.015783 0.309417
0.691301 0.003918 0.323216
0.711202 0.027890 0.301267
0.402146 0.023082 0.317805
0.542424 0.020596 0.329953
0.570522 0.030814 0.300367
0.582242 0.029934 0.301767
0.636292 0.021974 0.326532
0.862420 0.022518 0.329557
0.590812 0.065528 0.335153
0.705456 0.023822 0.299951
0.272025 0.000049 0.302860
0.272538 0.031034 0.336717
0.343048 0.030260 0.308929
0.890308 0.025337 0.342300
0.248392 0.031215 0.318111
0.495901 0.043756 0.319102
0.633217 0.007354 0.342084
0.659421 0.016148 0.294452
0.237340 0.028022 0.290032
0.249036 0.016758 0.300850
0.260599 0.045212 0.308851
0.253444 0.030318 0.333827
0.487740 0.024517 0.336823
0.672770 0.041893 0.317613
0.230568 0.002742 0.314135
0.282332 0.045244 0.302827
0.873871 0.002466 0.303174
0.370290 0.058437 0.338635
0.208759 0.031136 0.318205
0.872098 0.038313 0.326722
0.349216 0.059029 0.314282
0.524553 0.022137 0.313691
0.298938 0.056511 0.321670
0.179782 0.073174 0.343210
0.336043 0.037729 0.329319
0.319681 0.034732 0.347214
0.474363 0.027590 0.304558
0.333871 0.070865 0.304492
0.339709 0.035196 0.305545
0.564188 0.036261 0.289179
0.332984 0.039143 0.289748
0.466945 0.071451 0.326706
0.874805 0.068499 0.324488
0.182404 0.056877 0.319213
0.197595 0.058948 0.311716
0.568875 0.063222 0.328682
0.637395 0.059367 0.308674
0.643773 0.041846 0.317649
0.636414 0.048469 0.349529
0.459064 0.046124 0.313810
0.651366 0.075179 0.308784
0.896079 0.066424 0.307268
0.564600 0.060799 0.318587
0.594122 0.067066 0.291993
0.590152 0.055128 0.318987
0.915964 0.056096 0.336299
0.709566 0.079770 0.319237
0.200895 0.061483 0.322251
0.604204 0.049807 0.362382
0.594603 0.025978 0.283311
0.661708 0.058158 0.286479
0.490899 0.051933 0.349528
0.568281 0.057389 0.318466
0.585973 0.052881 0.312492
0.667439 0.053406 0.317320
0.908995 0.053581 0.294518
0.190507 0.079601 0.291316
0.699399 0.058391 0.302587
0.496422 0.064989 0.300392
0.738779 0.086067 0.310752
0.704922 0.080994 0.323405
0.877874 0.066152 0.338229
0.179151 0.078399 0.264262
0.648317 0.089844 0.339867
0.201599 0.067115 0.300351
0.488212 0.090740 0.329685
0.659110 0.096583 0.298972
0.909727 0.085753 0.316886
0.423812 0.086893 0.336580
0.451832 0.110061 0.296112
0.470106 0.103114 0.298865
0.406172 0.111390 0.311927
0.480175 0.122080 0.308396
0.636871 0.098721 0.326183
0.425398 0.111025 0.321824
0.439244 0.125025 0.312086
0.713667 0.086632 0.316835
0.715148 0.124428 0.306601
0.904200 0.090847 0.314339
0.749007 0.109078 0.296303
0.387313 0.120129 0.327704
0.428841 0.100878 0.300941
0.717989 0.116824 0.288023
0.913594 0.133086 0.348078
0.728583 0.095866 0.324261
0.472611 0.120389 0.315270
0.723865 0.115128 0.337502
0.763896 0.121465 0.309264
0.162135 0.109308 0.350686
0.742677 0.124161 0.332423
0.778805 0.118292 0.315224
0.461547 0.101612 0.311696
0.719292 0.124120 0.298570
0.770727 0.115248 0.332839
0.455733 0.122483 0.276695
0.808204 0.130156 0.350212
0.945188 0.123933 0.314023
0.363323 0.116485 0.316343
0.656090 0.134052 0.286285
0.719763 0.144886 0.318593
0.790665 0.114422 0.335393
0.384113 0.155379 0.306681
0.813365 0.132361 0.293802
0.453481 0.116458 0.325473
0.620227 0.122351 0.311074
0.383436 0.117749 0.308234
0.807132 0.134278 0.339329
0.721460 0.159161 0.331262
0.946420 0.145684 0.326268
0.159770 0.152134 0.316359
0.368271 0.120946 0.337469
0.357293 0.131755 0.335241
0.832426 0.161024 0.316005
0.369213 0.141584 0.333903
0.819430 0.167111 0.278256
0.819199 0.161177 0.311583
0.717283 0.164091 0.315949
0.170725 0.141032 0.317051
0.365912 0.192902 0.344729
0.652638 0.145215 0.327395
0.159534 0.140977 0.325421
0.364635 0.151401 0.307005
0.724800 0.180877 0.324867
0.818316 0.170823 0.311588
0.634225 0.164001 0.313870
0.947522 0.185932 0.296891
0.652272 0.154285 0.322237
0.836481 0.173423 0.328792
0.162655 0.151870 0.326193
0.383996 0.157527 0.277460
0.914296 0.180177 0.325056
0.687887 0.167836 0.297422
0.823552 0.203024 0.304199
0.721566 0.187039 0.322913
0.308325 0.180941 0.299609
0.690898 0.179826 0.326332
0.894398 0.160948 0.325443
0.154142 0.192110 0.303050
0.322863 0.205431 0.343622
0.696490 0.188855 0.333751
0.319836 0.187053 0.296414
0.851389 0.190256 0.290805
0.316857 0.213645 0.275206
0.871616 0.207504 0.329288
0.151753 0.179400 0.317603
0.704476 0.182082 0.294719
0.702483 0.182754 0.325465
0.663361 0.194987 0.299527
0.725723 0.177688 0.288115
0.915089 0.189068 0.326003
0.274676 0.210301 0.302305
0.698909 0.195668 0.345956
0.746114 0.185314 0.283950
0.287534 0.237992 0.292679
0.201476 0.210513 0.346675
0.815556 0.172323 0.334266
0.926105 0.209901 0.305127
0.743084 0.199527 0.333447
0.906348 0.175737 0.290237
0.180983 0.199588 0.320809
0.747513 0.212894 0.346675
0.848881 0.236327 0.289389
0.206307 0.208272 0.317658
0.297600 0.196914 0.306225
0.710816 0.201209 0.294924
0.248626 0.208171 0.316845
0.244732 0.191341 0.328154
0.699555 0.255886 0.338458
0.940785 0.209898 0.290186
0.211122 0.217042 0.298667
0.256764 0.201042 0.320413
0.221046 0.235001 0.316265
0.256116 0.228118 0.328891
0.891459 0.231841 0.320410
0.875023 0.196290 0.322869
0.728439 0.209974 0.306030
0.718427 0.239219 0.311059
0.739468 0.235860 0.329616
0.704376 0.218590 0.296667
0.754704 0.223730 0.295345
0.704569 0.235613 0.317969
0.772991 0.216256 0.356451
0.690154 0.234524 0.325002
0.703092 0.246261 0.310848
0.699179 0.270818 0.318645
0.720556 0.256626 0.312844
0.718418 0.270279 0.325557
0.747633 0.282119 0.350218
0.743384 0.290605 0.333277
0.712215 0.273911 0.316240
0.727445 0.268912 0.327517
0.742375 0.314492 0.329560
0.702386 0.313928 0.312782
0.699936 0.301342 0.332778
0.710440 0.282879 0.319416
0.142379 0.440253 0.302176
0.177900 0.490680 0.314956
0.135043 0.429355 0.319173
0.133778 0.449902 0.276543
0.187548 0.431902 0.340098
0.202794 0.451163 0.311719
0.208125 0.432044 0.330151
0.122565 0.447649 0.321090
0.128886 0.455698 0.313125
0.085864 0.457023 0.311364
0.092350 0.477455 0.320916
0.091813 0.448452 0.326815
0.082922 0.443183 0.308243
0.186236 0.416936 0.316664
0.094890 0.469213 0.310350
0.066424 0.438012 0.314883
0.164700 0.456045 0.305274
0.175663 0.446035 0.333622
0.151051 0.463642 0.320833
0.047770 0.464986 0.315682
0.024341 0.475489 0.330797
0.027978 0.474037 0.311901
0.167204 0.482832 0.341715
0.120135 0.501841 0.319147
0.104492 0.520405 0.307758
0.096083 0.501015 0.328425
0.042836 0.492302 0.302976
0.035868 0.491451 0.329671
0.092308 0.495326 0.362200
0.094047 0.481281 0.315156
0.087264 0.488890 0.336034
0.074500 0.482232 0.307371
0.062775 0.487575 0.308767
0.117176 0.566050 0.312569
0.190579 0.576181 0.312366
0.174459 0.549520 0.308697
0.163228 0.542157 0.306571
0.184174 0.558288 0.327137
0.122725 0.571378 0.303742
0.151658 0.562212 0.340890
0.129224 0.581437 0.295560
0.169649 0.582172 0.308751
0.211035 0.538728 0.318323
0.167827 0.553754 0.301960
0.122353 0.569985 0.329873
0.202584 0.558644 0.328793
0.112927 0.580178 0.348584
0.168836 0.598456 0.331010
0.115775 0.592205 0.317996
0.111391 0.585467 0.281729
0.110796 0.568887 0.297060
0.131937 0.589207 0.317010
0.077013 0.606204 0.345464
0.148921 0.611356 0.315546
0.104367 0.596773 0.307097
0.101880 0.583792 0.308938
0.123350 0.586622 0.334310
0.075892 0.618055 0.306274
0.078805 0.610514 0.345483
0.111302 0.587852 0.321698
0.085340 0.612585 0.329769
0.081879 0.587605 0.334763
0.438380 -0.016135 0.302705
0.430758 -0.015536 0.310436
0.454616 -0.008624 0.331632
0.452968 0.014288 0.358879
0.786130 0.018762 0.337195
0.793086 0.022224 0.300746
0.706880 -0.006489 0.307618
0.636592 0.005637 0.325016
0.608861 0.004464 0.311072
0.571038 0.045334 0.326899
0.646845 0.043656 0.308771
0.586918 0.028541 0.329772
0.686614 0.049644 0.324215
0.581061 0.009185 0.324726
0.198913 0.021590 0.310509
0.233807 0.031847 0.328306
0.312351 0.048838 0.294326
0.189261 0.035003 0.333743
0.196933 0.047751 0.324140
0.157966 0.075738 0.304107
0.662963 0.112988 0.321452
0.918941 0.066530 0.333315
0.160916 0.093633 0.318910
0.153281 0.119740 0.346897
0.653082 0.103233 0.328889
0.746315 0.119798 0.316919
0.750860 0.108707 0.305743
0.660468 0.098362 0.300029
0.900799 0.131621 0.336792
0.441675 0.113617 0.329167
0.434332 0.118771 0.329861
0.927866 0.112785 0.322460
0.166520 0.119391 0.304594
0.739946 0.126063 0.309328
0.458805 0.138879 0.293121
0.177659 0.166157 0.277009
0.616950 0.126417 0.333848
0.169123 0.157934 0.315123
0.956283 0.146332 0.332251
0.150468 0.168540 0.331046
0.708174 0.171368 0.345818
0.141238 0.171903 0.325917
0.138090 0.176085 0.293106
0.332594 0.165231 0.307669
0.713825 0.167650 0.339064
0.155818 0.181978 0.312524
0.186529 0.183133 0.319157
0.163872 0.210375 0.314098
0.160364 0.161305 0.292118
0.177876 0.190726 0.299383
0.697149 0.205990 0.344166
0.220772 0.195595 0.294765
0.207545 0.206874 0.313169
0.222056 0.211461 0.332460
0.257936 0.198414 0.331391
0.226239 0.202781 0.308366
0.715667 0.223207 0.315561
0.205238 0.206103 0.303928
0.247747 0.184937 0.341203
0.684971 0.193210 0.326117
0.713325 0.207385 0.332385
0.875386 0.204821 0.343298
0.901352 0.226513 0.320845
0.749458 0.245628 0.312143
0.861615 0.238213 0.320630
0.722247 0.251850 0.303951
0.759598 0.264569 0.303814
0.693010 0.259223 0.300293
0.732396 0.277640 0.348022
0.152379 0.456831 0.327779
0.066452 0.472139 0.309842
0.136824 0.424775 0.277113
0.157494 0.438414 0.311515
0.170862 0.487707 0.334207
0.168856 0.472366 0.283028
0.159391 0.426955 0.295145
0.017013 0.455347 0.293040
0.022736 0.466141 0.314581
0.186735 0.542319 0.322033
0.145168 0.563314 0.317367
0.118446 0.548629 0.304588
0.077146 0.561432 0.307097
0.180419 0.574318 0.309689
0.095024 0.579702 0.283827
0.102078 0.583832 0.287003
0.061100 0.599027 0.315257
0.635893 0.014221 0.304744
0.621651 0.019639 0.333079
0.702815 0.038011 0.322163
0.895377 0.034633 0.309621
0.287278 0.035722 0.323683
0.326537 0.027906 0.288282
0.308588 0.042053 0.301069
0.185845 0.057706 0.326034
0.183885 0.084169 0.295888
0.915111 0.082338 0.310240
0.677803 0.070900 0.318667
0.667901 0.097045 0.331634
0.721887 0.084203 0.326509
0.455700 0.121846 0.321305
0.162747 0.136530 0.309352
0.448456 0.108579 0.289586
0.159104 0.105291 0.312808
0.163199 0.134286 0.328294
0.176564 0.119644 0.337007
0.740754 0.166238 0.309789
0.165781 0.164453 0.301105
0.342885 0.155676 0.340039
0.173899 0.171018 0.313796
0.731925 0.200606 0.299204
0.826292 0.166008 0.313227
0.165099 0.213229 0.312352
0.169611 0.213825 0.326608
0.753600 0.232891 0.325636
0.918265 0.203626 0.319453
0.758767 0.226407 0.350791
0.687467 0.279610 0.317931
0.175503 0.440969 0.301657
0.128283 0.458788 0.336125
0.133940 0.581684 0.295457
0.178080 0.564158 0.330593
0.090826 0.624214 0.311800
0.732954 0.005817 0.322635
0.783699 0.018468 0.329547
0.729749 0.010496 0.332181
0.587677 0.030667 0.340356
0.704906 0.040836 0.318068
0.280595 0.021375 0.332044
0.188890 0.023406 0.300231
0.280567 0.042054 0.337613
0.340898 0.050689 0.318148
0.573048 0.078131 0.325656
0.183920 0.043800 0.320787
0.335130 0.050882 0.319249
0.340925 0.088342 0.296823
0.176668 0.057468 0.318092
0.678078 0.062775 0.315969
0.171706 0.097299 0.296790
0.459138 0.085826 0.306305
0.441408 0.090021 0.330247
0.457635 0.095746 0.321603
0.652580 0.125922 0.335642
0.460721 0.109460 0.314768
0.727896 0.115379 0.313211
0.632376 0.118176 0.309237
0.664173 0.101735 0.305288
0.725566 0.113873 0.320307
0.145788 0.171997 0.334679
0.717637 0.169886 0.311468
0.174176 0.138562 0.316928
0.638098 0.147354 0.332820
0.207212 0.146695 0.305531
0.943053 0.165208 0.348253
0.158428 0.184344 0.326422
0.344234 0.165459 0.314747
0.202575 0.196841 0.330355
0.703478 0.195489 0.307306
0.720378 0.187628 0.330543
0.933091 0.187142 0.335812
0.749274 0.192665 0.344836
0.211527 0.201344 0.300707
0.855573 0.187126 0.333931
0.236387 0.209803 0.317721
0.884888 0.216067 0.305805
0.902007 0.238046 0.292162
0.746404 0.233395 0.297326
0.760698 0.273852 0.335928
0.150329 0.419434 0.301047
0.115170 0.423637 0.343052
0.097823 0.465905 0.347196
0.156401 0.523088 0.318029
0.170018 0.584886 0.319109
0.194583 0.578285 0.339751
0.176699 0.585180 0.318751
0.370102 -0.001520 0.304096
0.710270 0.033270 0.305518
0.703175 0.000259 0.330477
0.714806 0.081659 0.326699
0.718201 0.066800 0.307693
0.311530 0.052081 0.327038
0.214023 0.047815 0.336340
0.580108 0.054715 0.333779
0.686448 0.093457 0.308838
0.706269 0.082873 0.300944
0.704650 0.119831 0.310067
0.174544 0.100397 0.320019
0.164048 0.083549 0.324422
0.199820 0.118087 0.303893
0.179316 0.113617 0.306442
0.183694 0.113461 0.297123
0.161302 0.174592 0.323654
0.195246 0.204244 0.334745
0.213356 0.184212 0.319083
0.229035 0.202883 0.329701
0.223357 0.169699 0.327627
0.740020 0.234178 0.318098
0.778442 0.217853 0.323810
0.872745 0.210102 0.321114
0.139120 0.450283 0.301646
0.162647 0.585883 0.283737
0.352697 -0.026561 0.331280
0.417663 -0.000864 0.313699
0.460552 0.001786 0.304709
0.751537 0.003490 0.321838
0.761878 -0.013350 0.317347
0.799383 -0.011539 0.339535
0.802074 0.009031 0.330103
0.773756 0.002140 0.337701
0.796325 0.016746 0.337270
0.816918 0.006535 0.345286
0.402775 -0.007121 0.320817
0.737395 0.027400 0.332679
0.837458 0.018785 0.341070
0.832962 -0.000042 0.325013
0.445335 0.015077 0.334505
0.732505 0.001936 0.343714
0.835217 0.010417 0.321193
0.378222 0.016260 0.352049
0.674638 0.015171 0.291163
0.474345 0.035835 0.339251
0.732911 0.021753 0.334896
0.621810 0.008459 0.310027
0.683703 0.034493 0.343298
0.700959 -0.001548 0.328808
0.354669 0.032080 0.316884
0.868276 0.013317 0.326949
0.226745 0.025774 0.317240
0.267841 0.008066 0.320136
0.479798 0.033155 0.331206
0.557874 0.035659 0.346555
0.607049 0.007084 0.328938
0.585426 0.036721 0.323176
0.264405 0.033690 0.335564
0.281712 0.027569 0.323849
0.224885 0.023337 0.331097
0.556777 0.053993 0.319585
0.876629 0.052122 0.324450
0.363536 0.023936 0.289607
0.206709 0.059401 0.321946
0.668100 0.039169 0.348658
0.270075 0.013441 0.324126
0.496215 0.055945 0.320809
0.208533 0.058934 0.326060
0.285919 0.034452 0.315588
0.362277 0.025365 0.321363
0.169558 0.036758 0.312674
0.543036 0.025147 0.320755
0.682340 0.050865 0.337966
0.179851 0.062336 0.338449
0.297617 0.053865 0.335289
0.735892 0.075819 0.321264
0.374946 0.025615 0.333082
0.280370 0.070431 0.311386
0.604802 0.060305 0.288623
0.328989 0.047829 0.324285
0.565115 0.058176 0.309145
0.639685 0.052719 0.316244
0.670115 0.072386 0.336218
0.269160 0.031206 0.318815
0.712942 0.043709 0.303978
0.575990 0.029020 0.328599
0.583294 0.053352 0.356193
0.662039 0.057184 0.317537
0.488885 0.066537 0.327137
0.725657 0.064366 0.341932
0.902421 0.083200 0.332094
0.172423 0.077204 0.294688
0.497145 0.075750 0.341286
0.685498 0.097023 0.308844
0.672448 0.066969 0.326110
0.890672 0.097683 0.301499
0.497502 0.081884 0.333010
0.658815 0.096318 0.336329
0.707195 0.110602 0.328623
0.706559 0.074705 0.307206
0.919275 0.082558 0.303561
0.167476 0.110653 0.304282
0.509217 0.069329 0.300590
0.441343 0.105978 0.318082
0.891675 0.071515 0.329971
0.712463 0.085816 0.350267
0.711737 0.094353 0.330315
0.407674 0.087153 0.346472
0.174845 0.121260 0.330619
0.463193 0.101621 0.319390
0.730723 0.085323 0.348903
0.473045 0.103785 0.287438
0.738266 0.105123 0.308244
0.408019 0.107117 0.323434
0.455623 0.100413 0.307142
0.632102 0.107527 0.311226
0.721241 0.104884 0.351925
0.710670 0.102956 0.334079
0.743546 0.110421 0.364287
0.398945 0.117083 0.323354
0.776276 0.124513 0.299914
0.921979 0.114017 0.322558
0.775741 0.109144 0.323668
0.915072 0.159613 0.313923
0.176123 0.128002 0.314183
0.756160 0.117791 0.355066
0.181299 0.097864 0.333055
0.799567 0.130238 0.329285
0.381745 0.146558 0.322709
0.189445 0.125691 0.304808
0.354601 0.113813 0.329946
0.796613 0.132693 0.321533
0.732388 0.133366 0.323989
0.628004 0.134566 0.314135
0.350881 0.160062 0.296871
0.190361 0.128624 0.309382
0.747865 0.142587 0.329757
0.829809 0.170945 0.350301
0.681508 0.146387 0.306955
0.182676 0.159352 0.322111
0.207953 0.166581 0.316987
0.753881 0.198016 0.331942
0.740676 0.150883 0.321968
0.345376 0.163448 0.360232
0.190357 0.170221 0.334583
0.861038 0.176690 0.314203
0.668759 0.170967 0.309693
0.838351 0.199214 0.335261
0.934627 0.179105 0.367497
0.843688 0.197737 0.318480
0.207523 0.216470 0.329068
0.654374 0.181244 0.356760
0.325127 0.181188 0.326849
0.691251 0.188943 0.332661
0.927866 0.187549 0.333404
0.916097 0.194757 0.323219
0.288481 0.167848 0.356265
0.707327 0.197303 0.335920
0.307761 0.200372 0.306128
0.834717 0.212521 0.303517
0.260080 0.215130 0.319669
0.664791 0.195371 0.336689
0.751458 0.171668 0.342332
0.278957 0.162434 0.319283
0.859802 0.243154 0.329030
0.702661 0.207255 0.290924
0.923208 0.212374 0.343240
0.214678 0.227386 0.338242
0.770846 0.201206 0.340546
0.869048 0.222425 0.298874
0.754699 0.212350 0.314885
0.678694 0.220001 0.341361
0.776521 0.205392 0.330528
0.686467 0.238884 0.299157
0.774255 0.237525 0.315351
0.754594 0.255007 0.320039
0.698410 0.243027 0.309690
0.718172 0.241613 0.336468
0.729725 0.259918 0.334502
0.734218 0.272628 0.314425
0.695612 0.287220 0.305098
0.742765 0.261567 0.305605
0.114412 0.438726 0.342000
0.125325 0.431225 0.337271
0.112149 0.448276 0.330914
0.142646 0.434458 0.297833
0.102849 0.454641 0.320680
0.087087 0.471710 0.310577
0.069139 0.431836 0.312773
0.078800 0.444714 0.326788
0.092795 0.434012 0.337265
0.036653 0.440448 0.301267
0.029597 0.475333 0.338930
0.048867 0.459139 0.346212
0.167813 0.463887 0.299031
0.113238 0.472380 0.301748
0.069556 0.481030 0.322502
0.123117 0.577261 0.308274
0.140091 0.571004 0.328116
0.106650 0.582964 0.332393
0.149228 0.591948 0.335966
0.101957 0.565651 0.319383
0.176386 0.560621 0.332852
0.081472 0.603403 0.334993
0.136473 0.589221 0.315850
0.128766 0.580263 0.307877
0.109607 0.580664 0.329663
0.103202 0.599051 0.336028
0.072999 0.584905 0.316978
0.421023 0.008893 0.301731
0.418699 -0.021338 0.313818
0.735576 0.024694 0.322666
0.377301 0.027728 0.325718
0.664116 0.024927 0.339418
0.840029 -0.004370 0.348428
0.654235 0.016490 0.348080
0.637634 0.018344 0.315912
0.572246 0.016224 0.340415
0.654126 0.021340 0.321005
0.612567 0.029886 0.313082
0.740009 0.024963 0.322849
0.874690 0.010346 0.329851
0.691520 0.040406 0.346586
0.485262 0.038756 0.331772
0.866339 0.016328 0.308236
0.296783 0.064230 0.292695
0.632315 0.098319 0.337529
0.917899 0.062454 0.318170
0.719333 0.005261 0.320399
0.315615 0.092085 0.321089
0.182099 0.067273 0.307617
0.569864 0.064436 0.355620
0.710051 0.054322 0.322801
0.192091 0.086192 0.347181
0.898793 0.071640 0.341091
0.907547 0.079918 0.328967
0.203582 0.073491 0.327587
0.158313 0.072462 0.333713
0.672825 0.079121 0.318488
0.175052 0.065655 0.320694
0.404381 0.087122 0.333790
0.653020 0.106873 0.333668
0.465488 0.119096 0.308082
0.488151 0.095949 0.333662
0.670519 0.128333 0.305775
0.764656 0.109543 0.330710
0.181748 0.087099 0.329352
0.665979 0.102988 0.299522
0.779314 0.111270 0.347434
0.195966 0.132903 0.363156
0.364544 0.123036 0.330166
0.213345 0.130360 0.334514
0.195507 0.087464 0.324636
0.637185 0.142325 0.305523
0.189878 0.125363 0.332017
0.947068 0.164947 0.327792
0.749181 0.169760 0.346787
0.348147 0.142543 0.312335
0.717548 0.138087 0.336845
0.191703 0.147993 0.339166
0.325986 0.160786 0.328571
0.837965 0.163821 0.290304
0.202217 0.135000 0.297863
0.737767 0.179803 0.310384
0.190384 0.170086 0.339675
0.208567 0.187840 0.311155
0.333149 0.180354 0.342932
0.220214 0.154624 0.297123
0.218145 0.161796 0.322933
0.235605 0.174132 0.311048
0.756910 0.190184 0.325737
0.733896 0.186591 0.328881
0.913311 0.188517 0.339922
0.653965 0.174798 0.320325
0.861710 0.199437 0.312674
0.272939 0.206031 0.342122
0.759612 0.202933 0.320806
0.225558 0.204482 0.317010
0.842613 0.221639 0.294280
0.245676 0.207531 0.339345
0.889828 0.207143 0.325963
0.662091 0.192975 0.331249
0.896552 0.217122 0.320434
0.708994 0.212479 0.361144
0.746050 0.231533 0.341307
0.679229 0.230951 0.293715
0.747116 0.242062 0.313564
0.732382 0.255638 0.336278
0.704452 0.268677 0.328704
0.724456 0.279170 0.332735
0.732820 0.277882 0.292713
0.088379 0.425942 0.346688
0.168107 0.453523 0.291954
0.147910 0.449184 0.333893
0.128283 0.470650 0.341663
0.147784 0.482865 0.317001
0.125690 0.459337 0.339133
0.124544 0.465323 0.321354
0.066352 0.428989 0.332911
0.079888 0.490259 0.337868
0.063809 0.462212 0.317356
0.127678 0.462837 0.318279
0.074477 0.468714 0.334693
0.103247 0.491719 0.298551
0.097001 0.505930 0.299530
0.160194 0.556990 0.325336
0.178003 0.558448 0.304800
0.159931 0.572005 0.336486
0.139677 0.593347 0.325942
0.169605 0.592428 0.313795
0.131225 0.571398 0.313643
0.089509 0.579808 0.334408
0.112706 0.600133 0.342596
0.113797 0.590385 0.294999
0.072035 0.610709 0.297752
0.446569 0.012002 0.304371
0.767039 0.026525 0.291446
0.707772 0.014582 0.344853
0.705449 0.036466 0.332970
0.351683 0.044695 0.320196
0.675314 0.035676 0.342083
0.199585 0.053992 0.307800
0.686294 0.063061 0.319428
0.616647 0.059414 0.359890
0.611928 0.033077 0.297978
0.482728 0.057779 0.341623
0.203545 0.051807 0.318026
0.333176 0.096656 0.317695
0.330655 0.062614 0.329683
0.692508 0.058510 0.318833
0.460716 0.069206 0.330991
0.420142 0.080370 0.344921
0.642693 0.083257 0.337101
0.197303 0.091033 0.322690
0.687678 0.109937 0.332151
0.204285 0.140540 0.302292
0.738069 0.131810 0.344983
0.707313 0.117933 0.323352
0.672031 0.148610 0.348573
0.199897 0.151588 0.329428
0.918185 0.159771 0.361395
0.150519 0.150550 0.311824
0.201186 0.141939 0.323093
0.734978 0.169805 0.353760
0.193900 0.168709 0.313552
0.698554 0.167362 0.358976
0.918602 0.145434 0.313761
0.183817 0.159271 0.326008
0.715710 0.206627 0.331628
0.238001 0.187296 0.311871
0.777305 0.201438 0.319123
0.921570 0.179076 0.326323
0.271270 0.219028 0.306377
0.875232 0.231412 0.334988
0.863092 0.192561 0.308053
0.744490 0.259812 0.332913
0.126224 0.424642 0.332084
0.134003 0.459121 0.324543
0.056671 0.484588 0.319565
0.086064 0.468870 0.313058
0.142163 0.574636 0.346853
0.124069 0.591574 0.311316
0.175782 0.557377 0.290704
0.475124 -0.000191 0.364744
0.773667 0.001002 0.357891
0.786604 -0.000318 0.326802
0.220758 -0.012205 0.341450
0.286434 0.003941 0.316473
0.867365 0.018151 0.329020
0.246253 0.036450 0.336589
0.356489 0.039321 0.310078
0.228854 0.002413 0.331908
0.650731 0.010090 0.314073
0.738287 0.025854 0.341592
0.624828 0.009889 0.353103
0.677031 0.064091 0.306456
0.232148 0.039996 0.312820
0.602185 0.032735 0.310876
0.272382 0.006578 0.338260
0.872159 0.020435 0.337969
0.360898 0.037237 0.326000
0.284443 0.053540 0.341876
0.299171 0.063332 0.324375
0.743299 0.083004 0.313559
0.746864 0.091538 0.337979
0.649879 0.081896 0.326314
0.718442 0.072802 0.339651
0.441524 0.095466 0.320559
0.188244 0.077525 0.335666
0.687204 0.092895 0.332280
0.418308 0.120820 0.338437
0.733289 0.072243 0.319645
0.199927 0.097000 0.325732
0.446990 0.078226 0.345657
0.933845 0.083199 0.323239
0.732158 0.122455 0.321567
0.783453 0.119761 0.327176
0.386346 0.091026 0.341793
0.735473 0.117399 0.320659
0.798197 0.090335 0.322627
0.166737 0.125539 0.318976
0.404686 0.124064 0.324472
0.630726 0.154389 0.350762
0.741284 0.120038 0.359316
0.725051 0.136117 0.330252
0.796546 0.110924 0.332131
0.934041 0.100635 0.322461
0.807488 0.121926 0.312613
0.177421 0.139003 0.308764
0.686633 0.121602 0.334668
0.758911 0.115756 0.346311
0.937289 0.148097 0.312473
0.207651 0.133827 0.335725
0.391263 0.147950 0.334342
0.653461 0.148102 0.323412
0.214445 0.113846 0.313236
0.364045 0.136271 0.337207
0.811203 0.148627 0.331750
0.208611 0.118831 0.355565
0.206142 0.168101 0.332448
0.656539 0.190341 0.333762
0.730138 0.166727 0.322160
0.929299 0.179364 0.356029
0.864704 0.176937 0.337043
0.864282 0.180349 0.347685
0.210087 0.198773 0.336494
0.295188 0.199087 0.328511
0.863919 0.168583 0.306244
0.225475 0.197146 0.329924
0.856542 0.188438 0.320563
0.283751 0.178474 0.334043
0.282135 0.196222 0.338594
0.906486 0.160715 0.319599
0.690898 0.276857 0.331839
0.704590 0.296041 0.330381
0.753851 0.270780 0.321691
0.051879 0.476736 0.313823
0.112670 0.441510 0.336890
0.093995 0.469759 0.338359
0.114394 0.484436 0.338655
0.073108 0.468192 0.280053
0.085300 0.472243 0.370468
0.120901 0.592610 0.343343
0.424266 -0.015295 0.343435
0.466074 0.023963 0.322081
0.768510 -0.000165 0.319136
0.687382 0.025616 0.330090
0.700174 0.047350 0.330169
0.880581 0.044976 0.290664
0.570415 0.051516 0.330894
0.689868 0.059061 0.301342
0.703205 0.077156 0.315368
0.658275 0.089602 0.346553
0.684555 0.139498 0.335564
0.212930 0.129060 0.345763
0.893048 0.168944 0.345671
0.731379 0.187536 0.351351
0.889941 0.241190 0.345326
0.233081 0.226915 0.342475
0.884978 0.192774 0.313100
0.677331 0.196089 0.352917
0.661449 0.248011 0.340443
0.147300 0.446648 0.331331
0.390413 0.026373 0.355365
0.793766 0.020525 0.305785
0.815813 -0.007138 0.326954
0.296642 0.025780 0.332820
0.221272 0.022233 0.323112
0.858390 0.010534 0.348887
0.301767 0.078229 0.301816
0.708118 0.072002 0.328673
0.420965 0.086509 0.322960
0.445524 0.090135 0.313676
0.500646 0.120128 0.342519
0.751769 0.100573 0.329669
0.653618 0.113722 0.325118
0.388432 0.117322 0.329447
0.237769 0.130680 0.328536
0.224003 0.154197 0.316507
0.914164 0.130559 0.371339
0.850486 0.132090 0.354013
0.220091 0.157773 0.319750
0.719613 0.144039 0.316824
0.906189 0.126379 0.328696
0.773992 0.170236 0.321379
0.210699 0.146170 0.333828
0.918878 0.144022 0.321719
0.683068 0.162668 0.312932
0.212630 0.204044 0.317224
0.188055 0.149614 0.289890
0.324939 0.165528 0.318909
0.679955 0.174773 0.347409
0.245982 0.219589 0.353398
0.762788 0.219780 0.334376
0.776156 0.229877 0.351051
0.717650 0.219362 0.298149
0.753976 0.218887 0.336273
0.123561 0.444240 0.359734
0.096414 0.444617 0.320686
0.129413 0.435718 0.338945
0.113271 0.480292 0.309426
0.424087 0.003583 0.347378
0.801093 0.018878 0.356092
0.789972 -0.000990 0.354873
0.654269 0.031316 0.326559
0.866696 0.022722 0.312375
0.733187 0.032049 0.322805
0.362602 0.048184 0.344415
0.560763 0.034586 0.348192
0.727943 0.024428 0.340493
0.877691 0.026463 0.306160
0.287237 0.020982 0.321879
0.729904 0.063889 0.365628
0.629210 0.042723 0.340279
0.659077 0.048680 0.331503
0.895202 0.023953 0.337185
0.483822 0.087600 0.309299
0.638661 0.083155 0.358489
0.461589 0.091341 0.352058
0.756115 0.096004 0.337197
0.375166 0.099654 0.350668
0.474748 0.107461 0.344674
0.432497 0.098731 0.335489
0.910607 0.134657 0.339463
0.193406 0.127617 0.345691
0.681566 0.118040 0.325582
0.792729 0.115961 0.322282
0.664293 0.121139 0.356547
0.192874 0.110487 0.338492
0.664217 0.160702 0.312373
0.728459 0.162573 0.342168
0.699838 0.141546 0.369704
0.826025 0.149144 0.334943
0.672267 0.110781 0.340787
0.210315 0.146800 0.318188
0.916710 0.186105 0.321399
0.755898 0.152482 0.333291
0.229271 0.190298 0.338134
0.903900 0.171177 0.353186
0.748659 0.176556 0.316003
0.865889 0.181960 0.345083
0.919127 0.159408 0.321164
0.903586 0.218520 0.303950
0.868120 0.213985 0.326357
0.272699 0.192928 0.303733
0.262570 0.221740 0.356226
0.248241 0.207723 0.335143
0.766033 0.226986 0.324890
0.689650 0.286774 0.323269
0.114726 0.445002 0.308652
0.070135 0.468055 0.347229
0.111476 0.456442 0.339741
0.117735 0.439150 0.343111
0.082108 0.473407 0.316945
0.027994 0.497135 0.354663
0.047328 0.455640 0.338028
0.440020 -0.003009 0.362336
0.445235 0.008873 0.360797
0.792414 0.003813 0.322898
0.772519 -0.003293 0.334565
0.768202 0.040073 0.324288
0.825659 0.031804 0.347915
0.458948 -0.005967 0.327726
0.264026 0.000549 0.339324
0.232018 -0.006735 0.333006
0.249333 -0.004317 0.319228
0.375108 0.005537 0.327397
0.467401 0.007351 0.338666
0.862425 0.014787 0.353339
0.286221 0.008743 0.343302
0.251249 0.014094 0.315759
0.658842 0.002030 0.348377
0.683946 0.031693 0.338555
0.757111 0.006769 0.349398
0.217465 0.025959 0.317440
0.171205 0.039658 0.322571
0.598800 0.054955 0.349641
0.631364 0.045294 0.324926
0.857740 0.046629 0.354690
0.589596 0.015838 0.332639
0.706203 0.035142 0.326263
0.721572 0.042405 0.347862
0.283012 0.012291 0.323065
0.554265 0.048355 0.341378
0.304812 0.042773 0.343644
0.737892 0.046322 0.355288
0.574732 0.025890 0.329056
0.588247 0.056862 0.329222
0.605327 0.032886 0.300284
0.737246 0.062457 0.322346
0.859079 0.030930 0.314322
0.706722 0.072783 0.351308
0.332590 0.071505 0.353746
0.764169 0.079253 0.357670
0.748464 0.061321 0.331383
0.723959 0.059429 0.346158
0.673456 0.053916 0.331071
0.414055 0.062620 0.304179
0.433604 0.075821 0.332074
0.446903 0.089184 0.341394
0.736842 0.087909 0.335805
0.470130 0.083844 0.339718
0.754314 0.122764 0.359045
0.447785 0.126001 0.338913
0.909151 0.111961 0.340898
0.673718 0.104074 0.330535
0.672505 0.087200 0.339990
0.343685 0.118432 0.326415
0.223132 0.151265 0.350441
0.781658 0.126233 0.323071
0.367262 0.086799 0.319215
0.242126 0.107366 0.320823
0.218542 0.119061 0.339985
0.234036 0.121087 0.334690
0.662966 0.136028 0.324110
0.893876 0.136555 0.323325
0.818818 0.118874 0.316559
0.245221 0.129666 0.326163
0.238490 0.143073 0.317514
0.747059 0.139929 0.342622
0.215120 0.157735 0.318784
0.924209 0.158607 0.319569
0.843029 0.146222 0.345682
0.944332 0.154305 0.333785
0.833950 0.154015 0.325673
0.216801 0.178045 0.312353
0.660912 0.171366 0.356125
0.845369 0.177627 0.348816
0.236935 0.208644 0.331201
0.348198 0.221863 0.312408
0.905561 0.191238 0.304636
0.310442 0.152590 0.349183
0.695717 0.175304 0.325275
0.858273 0.194477 0.350189
0.291507 0.188377 0.317318
0.301101 0.196999 0.339650
0.267523 0.166370 0.325514
0.846957 0.196755 0.340711
0.912503 0.184202 0.316765
0.254649 0.184236 0.339929
0.795482 0.217920 0.317582
0.901624 0.180265 0.323607
0.886960 0.189986 0.322329
0.738402 0.230222 0.341836
0.657477 0.210067 0.320164
0.710840 0.269179 0.327838
0.699074 0.245235 0.348583
0.099056 0.429190 0.334825
0.100303 0.417224 0.348941
0.084594 0.430393 0.351040
0.134879 0.445580 0.341299
0.049569 0.453246 0.361414
0.042909 0.480664 0.284337
0.094928 0.459357 0.348658
0.083362 0.484563 0.323591
0.069564 0.490365 0.307264
0.408812 -0.007849 0.344677
0.410364 -0.014811 0.350554
0.471399 -0.010758 0.343321
0.767807 -0.022813 0.314985
0.390224 0.006749 0.337238
0.830260 0.006682 0.361739
0.253366 0.002762 0.321918
0.829190 0.024069 0.365812
0.262356 -0.005591 0.349225
0.393808 0.018882 0.346261
0.695814 0.005852 0.327061
0.757023 0.013181 0.342584
0.479067 0.021521 0.356540
0.633402 0.020841 0.335910
0.359635 0.034835 0.301669
0.618735 0.021307 0.310736
0.775571 0.019525 0.333893
0.719455 0.033653 0.339994
0.284379 0.008528 0.320071
0.473749 0.028130 0.356831
0.617603 0.017464 0.355540
0.375266 0.043222 0.330015
0.566771 0.009574 0.343292
0.210311 0.011817 0.348199
0.840076 0.033197 0.324040
0.219582 0.048952 0.344752
0.349977 0.044820 0.349611
0.503451 0.065718 0.334549
0.571018 0.047854 0.330192
0.347709 0.033861 0.342926
0.684564 0.042542 0.320077
0.473288 0.029104 0.340352
0.899442 0.055895 0.330923
0.215204 0.030118 0.359880
0.346167 0.048320 0.351847
0.688635 0.056526 0.339434
0.223109 0.052549 0.345628
0.708456 0.056365 0.349141
0.293286 0.070509 0.326854
0.628242 0.016686 0.368830
0.631075 0.048490 0.367433
0.680378 0.033840 0.342982
0.890397 0.073924 0.355724
0.178530 0.036327 0.328987
0.279441 0.034419 0.336111
0.311427 0.083768 0.352815
0.472267 0.042241 0.340459
0.607702 0.044219 0.338006
0.600316 0.076601 0.358523
0.672101 0.060983 0.340291
0.768548 0.047106 0.346922
0.281807 0.059825 0.328836
0.503924 0.063530 0.364435
0.669557 0.051869 0.335401
0.688402 0.051883 0.351546
0.319742 0.080083 0.338638
0.892892 0.061584 0.336677
0.189910 0.070828 0.339917
0.669730 0.054735 0.331561
0.910707 0.053726 0.328233
0.202830 0.060178 0.350438
0.470439 0.051831 0.321427
0.215773 0.079454 0.353280
0.707256 0.069771 0.338594
0.680446 0.118195 0.367542
0.725520 0.070555 0.332387
0.192464 0.093379 0.342409
0.770150 0.105749 0.356457
0.184238 0.094125 0.342785
0.455666 0.122186 0.341296
0.456182 0.102791 0.308999
0.449489 0.099947 0.347556
0.689870 0.104395 0.331559
0.757105 0.114597 0.346746
0.906789 0.108038 0.373589
0.379697 0.112286 0.339967
0.757235 0.115868 0.371655
0.715560 0.092831 0.349644
0.416166 0.118933 0.317981
0.922908 0.137472 0.343136
0.733860 0.119049 0.340634
0.777641 0.110465 0.303459
0.674431 0.091619 0.335259
0.689557 0.150997 0.349783
0.803914 0.133631 0.332530
0.926094 0.116643 0.329976
0.745985 0.138922 0.316029
0.237980 0.112056 0.331403
0.380142 0.118564 0.323259
0.366522 0.106686 0.341266
0.774108 0.153338 0.351583
0.346180 0.138717 0.318002
0.819841 0.136429 0.320760
0.345856 0.144666 0.350901
0.683617 0.160229 0.353709
0.212496 0.162456 0.331776
0.348655 0.176275 0.309197
0.836116 0.145541 0.358236
0.310946 0.175296 0.316793
0.763585 0.165858 0.339389
0.243634 0.180170 0.339440
0.360694 0.148718 0.332142
0.685401 0.191499 0.328249
0.835238 0.180534 0.335418
0.290085 0.187247 0.334686
0.756848 0.176100 0.346800
0.900083 0.169463 0.345888
0.243476 0.156003 0.297771
0.681730 0.198549 0.342648
0.199636 0.177398 0.344293
0.862074 0.196109 0.343691
0.907464 0.224296 0.337460
0.234336 0.182063 0.351622
0.278021 0.167719 0.338879
0.231886 0.203965 0.361734
0.693245 0.192972 0.317785
0.745422 0.230707 0.329149
0.853890 0.216579 0.360979
0.741808 0.184379 0.345626
0.892427 0.191867 0.337221
0.249091 0.170626 0.303150
0.252724 0.204137 0.329320
0.892573 0.204897 0.325963
0.282772 0.204998 0.349249
0.693859 0.162579 0.344291
0.686264 0.234151 0.335952
0.714067 0.216062 0.318334
0.785583 0.227972 0.334333
0.752054 0.211841 0.337257
0.680053 0.263498 0.329657
0.753108 0.234203 0.365904
0.729834 0.208290 0.310346
0.763620 0.242930 0.341249
0.700587 0.254590 0.309987
0.751940 0.231230 0.316867
0.695626 0.252291 0.374910
0.708982 0.277598 0.329768
0.722455 0.252720 0.370075
0.723913 0.274157 0.307844
0.731111 0.276009 0.338702
0.120076 0.419029 0.363927
0.113863 0.409756 0.363890
0.097455 0.445750 0.349691
0.071924 0.422393 0.336229
0.057056 0.430861 0.326952
0.037163 0.445146 0.332805
0.111060 0.447446 0.353877
0.145347 0.441004 0.337951
0.123850 0.433397 0.344624
0.093429 0.483732 0.335934
0.061798 0.485931 0.313994
0.093135 0.487717 0.347703
0.081551 0.493151 0.334229
0.438196 -0.010864 0.342770
0.423902 -0.023204 0.317499
0.224755 -0.013836 0.337886
0.260656 0.018573 0.348534
0.728026 0.004160 0.352969
0.834482 0.028172 0.333187
0.333105 0.048102 0.333708
0.687028 0.022812 0.371164
0.702871 0.064478 0.317759
0.181402 0.085198 0.332328
0.428769 0.073203 0.328763
0.431526 0.088945 0.338993
0.456515 0.100861 0.350913
0.744698 0.062476 0.357023
0.439385 0.124095 0.330067
0.438932 0.110938 0.336727
0.735371 0.084179 0.330881
0.689156 0.149334 0.359428
0.793843 0.107489 0.309796
0.671741 0.150184 0.332259
0.838898 0.171135 0.372510
0.261931 0.148883 0.357071
0.292349 0.196980 0.322758
0.086168 0.444265 0.359177
0.037846 0.475402 0.369987
0.440358 -0.001643 0.308204
0.195502 0.034110 0.382771
0.467085 0.069934 0.341779
0.910818 0.089839 0.344780
0.884448 0.062493 0.350975
0.747550 0.053684 0.312317
0.254090 0.105864 0.344921
0.229256 0.144813 0.359587
0.900348 0.172804 0.325335
0.235940 0.195671 0.347505
0.733921 0.164187 0.370278
0.768838 0.191470 0.328022
0.414787 0.008306 0.338180
0.754081 0.016903 0.337693
0.817965 0.010999 0.362635
0.258638 0.030345 0.352193
0.228118 0.010361 0.345562
0.609394 0.015055 0.333736
0.785995 0.026828 0.345538
0.877535 0.017427 0.351810
0.725547 0.008420 0.348518
0.711716 0.042362 0.328149
0.878093 0.031162 0.331739
0.731954 0.032044 0.320735
0.543150 0.012915 0.337960
0.746997 0.059481 0.368961
0.421454 0.054074 0.364020
0.465010 0.039612 0.362341
0.426975 0.059525 0.330709
0.693807 0.078646 0.324482
0.387777 0.096882 0.332175
0.383815 0.102597 0.319089
0.750570 0.086111 0.350851
0.672794 0.099493 0.343901
0.753823 0.110617 0.367567
0.917549 0.107028 0.340904
0.371934 0.138342 0.342470
0.742416 0.146472 0.355604
0.225751 0.129971 0.342337
0.364448 0.135685 0.339412
0.687182 0.150627 0.330855
0.322084 0.158351 0.334759
0.686610 0.139326 0.321044
0.912605 0.165865 0.341284
0.260633 0.175283 0.330922
0.735876 0.213321 0.363183
0.909565 0.177105 0.332069
0.252650 0.185133 0.350375
0.335213 0.176490 0.354031
0.885766 0.170051 0.300476
0.881257 0.159380 0.344980
0.293609 0.174563 0.348217
0.908759 0.181984 0.333045
0.287705 0.204010 0.308510
0.742753 0.285969 0.344861
0.747181 0.261515 0.353709
0.127278 0.431995 0.338449
0.117917 0.454357 0.322245
0.045262 0.479800 0.344570
0.098741 0.451230 0.340845
0.114105 0.489541 0.331531
0.234744 0.013723 0.313295
0.650811 0.022019 0.330399
0.697687 0.018454 0.346329
0.548552 0.034024 0.316393
0.732652 0.054889 0.339000
0.455340 0.030924 0.327475
0.287994 0.070428 0.334542
0.465502 0.086999 0.340010
0.461796 0.052976 0.310224
0.475139 0.072630 0.360135
0.416713 0.071460 0.315918
0.452079 0.061943 0.347185
0.454200 0.070336 0.351607
0.704935 0.078610 0.333548
0.720205 0.095899 0.336366
0.728054 0.089212 0.380058
0.388047 0.101988 0.318687
0.791653 0.100145 0.317847
0.389131 0.134352 0.340131
0.259985 0.151515 0.363641
0.241651 0.136044 0.340881
0.233915 0.149151 0.367635
0.227005 0.167481 0.332237
0.226465 0.151941 0.350597
0.316294 0.195262 0.330577
0.276048 0.190301 0.345422
0.682652 0.185183 0.333483
0.699896 0.252407 0.363197
0.126169 0.455413 0.333307
0.110445 0.486763 0.358772
0.398895 -0.001705 0.364293
0.412933 -0.011620 0.364478
0.383978 -0.014160 0.348095
0.449814 -0.003958 0.362024
0.378599 0.021134 0.319826
0.478631 0.019398 0.362609
0.243570 0.011823 0.365135
0.264431 -0.021401 0.336086
0.265222 -0.001049 0.340881
0.252334 -0.019524 0.357307
0.283975 0.010997 0.345464
0.456662 -0.020017 0.337719
0.235885 -0.000773 0.352150
0.259487 0.019874 0.339722
0.272700 0.018612 0.331732
0.359966 -0.002988 0.368448
0.476706 0.026344 0.332804
0.680218 -0.007163 0.343804
0.654685 0.010684 0.343915
0.708153 0.004202 0.333628
0.790686 -0.004231 0.337385
0.778182 0.010333 0.335951
0.236188 0.000585 0.333247
0.648052 0.014623 0.341880
0.686287 -0.008829 0.335461
0.779061 0.041329 0.351955
0.819273 0.011478 0.353018
0.252275 -0.004770 0.328815
0.451108 0.027684 0.337069
0.623641 0.016393 0.355884
0.783886 0.018250 0.335603
0.826178 0.013669 0.337862
0.707742 0.006422 0.365618
0.777777 0.026596 0.328253
0.374285 0.018366 0.382502
0.627540 0.032355 0.352419
0.814342 0.015086 0.326335
0.734567 0.035640 0.379502
0.807761 0.037067 0.358191
0.370709 0.027632 0.361292
0.583610 -0.003800 0.321915
0.750388 0.051820 0.397119
0.824086 0.022462 0.373148
0.497541 0.044612 0.332408
0.585913 0.020613 0.331875
0.302914 0.036932 0.321624
0.538540 0.007055 0.315916
0.829528 0.055500 0.355465
0.212118 0.055574 0.325731
0.706310 0.042095 0.374319
0.761157 0.022846 0.346400
0.209441 0.018108 0.366914
0.343497 0.073156 0.340975
0.496919 0.053379 0.370964
0.282649 0.074006 0.329634
0.544143 0.023933 0.339561
0.363066 0.042433 0.342600
0.307469 0.035141 0.362060
0.673922 0.043147 0.363778
0.884872 0.023144 0.379997
0.870869 0.047205 0.344839
0.740641 0.029502 0.345803
0.312095 0.030871 0.334400
0.374892 0.054277 0.343371
0.361734 0.033010 0.374265
0.501650 0.048363 0.333187
0.231152 0.022665 0.338699
0.569507 0.046268 0.364799
0.631574 0.043621 0.342811
0.653331 0.067931 0.350180
0.643172 0.053132 0.333029
0.747473 0.058219 0.329740
0.285889 0.055063 0.342173
0.335615 0.052188 0.335951
0.457742 0.043292 0.331370
0.575531 0.065637 0.338771
0.653396 0.022901 0.346870
0.678020 0.053728 0.328824
0.885178 0.070983 0.341584
0.623102 0.034668 0.345753
0.478415 0.027716 0.344404
0.595772 0.065140 0.382710
0.590775 0.045850 0.311323
0.594699 0.062077 0.347105
0.591835 0.043730 0.348114
0.201369 0.048060 0.321680
0.628640 0.071234 0.341744
0.435351 0.059035 0.342639
0.282046 0.063256 0.360198
0.328703 0.062467 0.324656
0.432924 0.061644 0.351290
0.419343 0.025889 0.349520
0.435132 0.072044 0.354350
0.703580 0.076760 0.350046
0.203947 0.057151 0.357930
0.354886 0.066671 0.329558
0.415496 0.062126 0.364894
0.461711 0.111161 0.330144
0.863409 0.056016 0.360368
0.490981 0.044709 0.352441
0.650925 0.041428 0.344701
0.734625 0.063885 0.369395
0.707958 0.059896 0.359201
0.423587 0.068554 0.361114
0.205949 0.080187 0.345232
0.438083 0.072703 0.336383
0.900716 0.076883 0.353379
0.890196 0.082763 0.328540
0.438849 0.041385 0.330571
0.672298 0.086773 0.360867
0.891292 0.048300 0.367854
0.416573 0.061305 0.346895
0.748214 0.091607 0.332568
0.394414 0.086870 0.361884
0.470089 0.053163 0.343595
0.720810 0.061403 0.355383
0.398196 0.075806 0.365007
0.420897 0.091902 0.341143
0.478164 0.092072 0.358626
0.463654 0.088758 0.328531
0.679652 0.056596 0.363752
0.738715 0.071221 0.368860
0.906979 0.079293 0.335780
0.208015 0.103281 0.353399
0.732371 0.098282 0.378164
0.660982 0.104157 0.340012
0.399287 0.065224 0.358211
0.766227 0.083365 0.335909
0.482793 0.080954 0.310026
0.469110 0.086303 0.361640
0.448223 0.097006 0.368618
0.680985 0.108860 0.334323
0.722966 0.084988 0.356375
0.918999 0.102939 0.341854
0.175688 0.100781 0.332762
0.431361 0.094487 0.373435
0.649039 0.118451 0.363034
0.753148 0.121739 0.342751
0.758293 0.101633 0.361523
0.753310 0.097451 0.357043
0.223870 0.113020 0.346719
0.392514 0.084900 0.360117
0.718684 0.079771 0.352278
0.919906 0.079242 0.360760
0.762564 0.107441 0.354542
0.647341 0.118546 0.326456
0.771461 0.118861 0.321671
0.710833 0.123144 0.317502
0.663907 0.112115 0.360776
0.410170 0.124737 0.332653
0.669196 0.128195 0.387263
0.793132 0.098357 0.337629
0.788243 0.098625 0.333506
0.902837 0.133363 0.368626
0.184378 0.093871 0.345307
0.741811 0.110816 0.392166
0.387805 0.088731 0.325107
0.736283 0.086611 0.353660
0.809471 0.139622 0.349815
0.225110 0.107421 0.338961
0.391658 0.102229 0.365948
0.681656 0.122254 0.327670
0.790788 0.104155 0.335712
0.197233 0.092579 0.350687
0.215303 0.092824 0.345319
0.245737 0.096627 0.367216
0.798085 0.130176 0.363980
0.895238 0.127434 0.358209
0.380523 0.115792 0.331091
0.675253 0.145349 0.333345
0.742710 0.114326 0.358769
0.901035 0.124052 0.320733
0.242232 0.151024 0.349707
0.358742 0.150571 0.330438
0.799509 0.124167 0.346897
0.838067 0.144862 0.367215
0.266852 0.112645 0.350636
0.685617 0.096674 0.366546
0.259275 0.170055 0.343387
0.690886 0.145257 0.349938
0.383390 0.151891 0.344898
0.826663 0.120961 0.347182
0.332208 0.142721 0.338553
0.922798 0.163803 0.352014
0.728902 0.170839 0.331502
0.900705 0.145581 0.342801
0.271855 0.155520 0.339030
0.319197 0.146294 0.344411
0.690196 0.145077 0.343525
0.751037 0.135238 0.315487
0.836578 0.144976 0.321212
0.846534 0.153156 0.375094
0.252328 0.162889 0.332806
0.302358 0.163212 0.375379
0.670819 0.202924 0.365981
0.848852 0.163005 0.346593
0.266543 0.155225 0.354389
0.322304 0.149202 0.341127
0.897013 0.135646 0.335443
0.768290 0.150668 0.371543
0.911492 0.164797 0.367176
0.321768 0.151986 0.333719
0.682113 0.214672 0.344230
0.854570 0.162263 0.361447
0.772205 0.171311 0.359944
0.304126 0.187637 0.350225
0.709099 0.196303 0.319124
0.304668 0.186345 0.329009
0.864360 0.173210 0.360034
0.242348 0.150482 0.364654
0.289926 0.149391 0.347574
0.878643 0.179556 0.380511
0.883579 0.188972 0.349405
0.879660 0.196882 0.341918
0.277813 0.171575 0.324313
0.283147 0.191969 0.363521
0.714921 0.178862 0.361715
0.694989 0.184991 0.370636
0.741684 0.188853 0.327373
0.726085 0.185633 0.335509
0.664911 0.195087 0.341700
0.781489 0.219220 0.348614
0.689193 0.206798 0.363261
0.732721 0.227749 0.345169
0.706738 0.218316 0.321479
0.788548 0.225290 0.364777
0.716707 0.217124 0.354246
0.699043 0.207750 0.384618
0.756191 0.211213 0.323645
0.763187 0.247306 0.326506
0.725520 0.254088 0.358500
0.704371 0.264956 0.339372
0.751277 0.255332 0.370308
0.734395 0.262672 0.347321
0.698767 0.246949 0.320926
0.732117 0.228021 0.344720
0.694492 0.270187 0.372721
0.754623 0.258012 0.326961
0.734879 0.280053 0.365480
0.152587 0.427904 0.321420
0.110146 0.407590 0.365364
0.099115 0.446320 0.362766
0.111276 0.433768 0.362271
0.121878 0.457274 0.349833
0.090650 0.442860 0.342867
0.073816 0.449076 0.371170
0.111628 0.435043 0.348085
0.074202 0.444423 0.336732
0.063165 0.442636 0.348314
0.072911 0.450093 0.362471
0.049696 0.470878 0.352012
0.148531 0.388489 0.371241
0.062553 0.463784 0.348875
0.105233 0.459039 0.337144
0.043897 0.488236 0.318451
0.106303 0.455677 0.327036
0.078964 0.450170 0.350817
0.103582 0.461442 0.335100
0.068722 0.462493 0.321421
0.061093 0.465266 0.337630
0.081905 0.468765 0.323884
0.087425 0.471547 0.349453
0.034535 0.478630 0.351105
0.436217 0.014905 0.351934
0.618469 0.016492 0.358408
0.756973 0.020764 0.357933
0.825887 0.021524 0.372655
0.360600 0.002499 0.337748
0.870353 0.027068 0.345303
0.582734 0.066202 0.340003
0.764854 0.084986 0.361770
0.736905 0.071327 0.348567
0.388661 0.116969 0.322930
0.888955 0.094366 0.360857
0.383093 0.099090 0.308578
0.383328 0.117923 0.333601
0.772397 0.093636 0.358416
0.186100 0.130105 0.342533
0.372889 0.140084 0.364174
0.265486 0.141501 0.326559
0.372812 0.131657 0.384703
0.264818 0.148650 0.356570
0.677539 0.171010 0.351722
0.890269 0.166464 0.317205
0.287572 0.139520 0.328325
0.329272 0.159849 0.341041
0.867130 0.182047 0.360524
0.887688 0.153839 0.340092
0.285684 0.162935 0.340471
0.263087 0.173546 0.325836
0.301176 0.148435 0.336930
0.867315 0.160329 0.345060
0.276864 0.142572 0.368727
0.859028 0.155803 0.341905
0.755297 0.185605 0.347654
0.416600 -0.014573 0.362335
0.686142 0.010316 0.327720
0.775669 0.022531 0.341856
0.593105 0.038861 0.338678
0.194571 0.049332 0.362402
0.457145 0.055661 0.358965
0.747414 0.055425 0.354233
0.456483 0.064778 0.333392
0.754096 0.038306 0.397114
0.413688 0.057058 0.356113
0.196317 0.087880 0.323824
0.378736 0.085700 0.338430
0.237058 0.086105 0.375021
0.191396 0.083015 0.324071
0.348752 0.097044 0.349662
0.206909 0.085772 0.336894
0.205452 0.107328 0.365632
0.373584 0.123995 0.355497
0.239965 0.127191 0.325901
0.349661 0.126146 0.341748
0.288996 0.144340 0.310878
0.257116 0.147013 0.336692
0.737078 0.132908 0.381104
0.253190 0.156572 0.340716
0.325921 0.144131 0.355812
0.912812 0.158076 0.366232
0.278545 0.160365 0.345712
0.310961 0.173083 0.328965
0.779998 0.184622 0.357276
0.898466 0.133409 0.342352
0.891186 0.168407 0.349155
0.073694 0.436186 0.354640
0.395844 0.012392 0.324752
0.462130 -0.016465 0.329064
0.413048 -0.023465 0.362175
0.265447 0.007773 0.368905
0.815887 0.037505 0.336044
0.579213 0.034674 0.379198
0.485156 0.024970 0.367215
0.857181 0.001589 0.344262
0.615316 0.045404 0.352048
0.303121 0.053562 0.343796
0.624382 0.041480 0.334261
0.207566 0.054314 0.352022
0.482342 0.064928 0.374771
0.893093 0.080982 0.341287
0.682293 0.065343 0.363098
0.424751 0.056724 0.375276
