ply
format ascii 1.0
element vertex 1773
property float x
property float y
property float z
end_header
0.362917 0.531153 0.056277
0.379840 0.533442 0.053088
0.367779 0.540873 0.053038
0.334624 0.551967 0.053972
0.337189 0.565922 0.056388
0.340722 0.563729 0.054328
0.348275 0.570080 0.058269
0.390513 0.572643 0.054099
0.361956 0.573792 0.054821
0.360610 0.591096 0.054598
0.377604 0.007000 0.058065
0.310879 0.015701 0.059748
0.309739 0.027508 0.050774
0.302839 0.029275 0.057719
0.303611 0.038053 0.047451
0.313617 0.036618 0.053441
0.132665 0.034634 0.052999
0.128678 0.037321 0.055532
0.156741 0.045518 0.058279
0.324744 0.046948 0.053624
0.412069 0.054768 0.056167
0.144441 0.053295 0.055573
0.349849 0.054868 0.056001
0.355689 0.054610 0.056290
0.371969 0.058145 0.052079
0.664374 0.070655 0.053615
0.747373 0.074201 0.058316
0.726258 0.083635 0.056995
0.619077 0.094180 0.056216
0.686473 0.096994 0.055146
0.622560 0.103045 0.058556
0.655596 0.115947 0.050518
0.373043 0.476536 0.055112
0.402495 0.476040 0.053789
0.368583 0.497584 0.055176
0.347643 0.511790 0.049909
0.349545 0.530665 0.055630
0.360461 0.534859 0.052710
0.361114 0.542444 0.053923
0.415270 0.542791 0.053694
0.412276 0.545335 0.051730
0.358950 0.580202 0.056180
0.368305 0.002500 0.058545
0.326518 -0.000667 0.061214
0.378388 0.002254 0.058284
0.299925 0.017792 0.060078
0.402488 0.030181 0.057949
0.132128 0.032320 0.057912
0.136768 0.029836 0.053327
0.143810 0.029325 0.058361
0.294744 0.035698 0.056432
0.150659 0.034846 0.057358
0.118947 0.047837 0.057304
0.302307 0.045850 0.056148
0.309567 0.046681 0.055342
0.704383 0.041607 0.060758
0.329804 0.053234 0.055695
0.337921 0.058616 0.060828
0.126922 0.063862 0.061977
0.134754 0.064404 0.059256
0.377859 0.073635 0.055002
0.376303 0.083622 0.058134
0.739556 0.082159 0.056456
0.745942 0.083427 0.059655
0.710273 0.091050 0.056814
0.376044 0.095195 0.058593
0.385478 0.094029 0.060074
0.394927 0.096327 0.052402
0.630230 0.088423 0.058145
0.358113 0.480669 0.059760
0.401527 0.481858 0.060105
0.360709 0.494015 0.058927
0.381837 0.503305 0.056541
0.340474 0.501917 0.060833
0.337338 0.510142 0.055294
0.397689 0.514249 0.056902
0.338819 0.521228 0.057091
0.407561 0.522685 0.059036
0.337983 0.530101 0.055504
0.412176 0.539786 0.056058
0.345320 0.539831 0.057584
0.326497 0.549998 0.055167
0.341899 0.543314 0.059973
0.407927 0.550995 0.056883
0.330391 0.560338 0.057733
0.395588 0.564343 0.061306
0.310799 0.010110 0.062681
0.290292 0.029562 0.062593
0.290974 0.049116 0.056384
0.116523 0.055564 0.061690
0.158423 0.054818 0.057721
0.689551 0.052497 0.057941
0.317238 0.058644 0.060391
0.359102 0.062273 0.056050
0.362478 0.066178 0.053989
0.676762 0.061597 0.057865
0.359608 0.075700 0.059619
0.366603 0.074054 0.059250
0.366834 0.083786 0.056299
0.694880 0.097533 0.058368
0.362644 0.478141 0.061314
0.385447 0.499228 0.060848
0.327653 0.546342 0.058422
0.353454 0.575755 0.057143
0.349640 0.590412 0.057851
0.281835 0.032967 0.057762
0.114616 0.036992 0.061143
0.278703 0.042561 0.055478
0.311787 0.056329 0.055645
0.141784 0.059760 0.059133
0.412824 0.067113 0.058310
0.363476 0.084683 0.057022
0.616805 0.097627 0.062710
0.695574 0.102648 0.064217
0.350680 0.493357 0.059797
0.329225 0.589940 0.057903
0.337559 0.588314 0.063357
0.379928 -0.001683 0.068181
0.321604 0.002636 0.059487
0.384751 0.007255 0.067466
0.312075 0.004877 0.067694
0.298443 0.015460 0.061711
0.397889 0.018098 0.062529
0.292663 0.018209 0.058937
0.290000 0.016052 0.068205
0.126562 0.031548 0.060418
0.121503 0.033559 0.058239
0.405569 0.036405 0.064392
0.111642 0.047952 0.065441
0.275343 0.040327 0.060316
0.715176 0.044700 0.062825
0.725774 0.044168 0.069571
0.164271 0.046511 0.067980
0.736477 0.047147 0.064010
0.160905 0.051185 0.061674
0.410542 0.049840 0.060367
0.156010 0.052313 0.058376
0.279971 0.053145 0.061011
0.288183 0.052463 0.056263
0.743940 0.053706 0.065820
0.296767 0.051667 0.063275
0.353200 0.064052 0.064699
0.122032 0.068956 0.068835
0.133799 0.068864 0.063237
0.752131 0.068696 0.065474
0.412507 0.072778 0.061626
0.414074 0.074589 0.065800
0.757637 0.074588 0.067049
0.354092 0.073488 0.063006
0.415213 0.078003 0.065266
0.660179 0.076653 0.065058
0.354953 0.086056 0.062800
0.717646 0.087678 0.058111
0.721047 0.098095 0.066624
0.731780 0.092121 0.062118
0.742851 0.091086 0.058422
0.371851 0.089463 0.058364
0.621941 0.094714 0.068249
0.619119 0.090252 0.062567
0.706224 0.091148 0.061544
0.740633 0.088936 0.061100
0.696437 0.103358 0.066423
0.620013 0.104575 0.066648
0.692265 0.108468 0.063299
0.681508 0.112877 0.067319
0.650054 0.114063 0.066385
0.387520 0.477391 0.063234
0.392359 0.475216 0.060741
0.360822 0.468611 0.066922
0.348466 0.481327 0.062003
0.396344 0.490183 0.062691
0.397834 0.501685 0.067089
0.329275 0.508045 0.059665
0.396802 0.509232 0.067451
0.331725 0.517430 0.058121
0.321249 0.541136 0.064885
0.320469 0.549644 0.059329
0.321852 0.556877 0.063189
0.397524 0.558934 0.062814
0.326900 0.563438 0.062127
0.336104 0.571133 0.062780
0.330196 0.581632 0.059913
0.317114 0.587325 0.066590
0.337659 0.578445 0.062779
0.391401 0.591091 0.059417
0.334949 0.594708 0.061599
0.387272 0.590021 0.061931
0.359821 0.595864 0.061606
0.386508 0.595467 0.062524
0.304896 0.634696 0.062646
0.313414 0.633057 0.068193
0.304776 0.635103 0.060664
0.312733 0.641091 0.063600
0.317295 0.639369 0.059577
0.310893 0.639629 0.064110
0.313536 0.645684 0.061389
0.321661 0.648503 0.061471
0.323497 0.649197 0.061669
0.318588 0.649853 0.067321
0.331148 0.646556 0.066377
0.358521 0.000969 0.066286
0.317080 0.002953 0.060527
0.385120 0.001747 0.064348
0.304152 0.007862 0.068241
0.279246 0.027011 0.059574
0.407362 0.024929 0.068202
0.104268 0.039426 0.063669
0.106584 0.023896 0.064838
0.112086 0.026001 0.067185
0.270081 0.032965 0.065223
0.154266 0.038088 0.067816
0.267973 0.045333 0.059956
0.161076 0.044743 0.061662
0.414380 0.043608 0.063023
0.708878 0.047334 0.067602
0.114843 0.054209 0.066959
0.167573 0.059795 0.061476
0.698944 0.053676 0.067889
0.273330 0.054588 0.064541
0.279970 0.055608 0.064947
0.286670 0.056909 0.062285
0.299386 0.062874 0.063687
0.118878 0.062002 0.067585
0.153326 0.064477 0.062895
0.309791 0.067553 0.063326
0.321214 0.064883 0.063728
0.339036 0.065793 0.063244
0.349863 0.064648 0.061770
0.416445 0.067597 0.065849
0.679330 0.064934 0.062547
0.332095 0.064329 0.062770
0.671443 0.070470 0.064883
0.654379 0.081590 0.065064
0.406242 0.090954 0.062600
0.651026 0.085227 0.066881
0.748284 0.091570 0.061304
0.640454 0.086299 0.063683
0.709682 0.093685 0.065720
0.689194 0.110859 0.068319
0.345011 0.477891 0.065278
0.394061 0.482842 0.064959
0.344211 0.492378 0.062021
0.338913 0.499071 0.065937
0.389456 0.503838 0.063426
0.326045 0.501366 0.068299
0.388888 0.508845 0.068357
0.323285 0.507788 0.059696
0.329460 0.522813 0.061900
0.403703 0.522339 0.063185
0.329448 0.534894 0.064834
0.334475 0.539901 0.063374
0.400368 0.541200 0.061823
0.328662 0.539800 0.065151
0.406240 0.550369 0.064275
0.321770 0.551363 0.062811
0.319562 0.562857 0.064050
0.387583 0.572077 0.062923
0.346805 0.573930 0.060666
0.321255 0.580991 0.061520
0.330626 0.580189 0.064225
0.320442 0.581208 0.059993
0.342885 0.586281 0.065602
0.329511 0.596123 0.065925
0.333369 0.598449 0.067811
0.361071 0.597386 0.064954
0.299275 0.629905 0.062846
0.292627 0.625953 0.065992
0.315544 0.636844 0.064784
0.332562 0.639596 0.064213
0.322177 -0.000296 0.071047
0.329796 0.002542 0.069312
0.398587 0.010572 0.066047
0.281493 0.022061 0.069658
0.098096 0.026821 0.064592
0.141274 0.030360 0.062288
0.269680 0.024979 0.067210
0.104386 0.035614 0.065955
0.164653 0.038347 0.068485
0.261057 0.048124 0.064217
0.414688 0.041291 0.070567
0.105419 0.050835 0.068743
0.415313 0.049884 0.067639
0.730578 0.043297 0.066446
0.701303 0.049698 0.064469
0.744081 0.050674 0.066915
0.173991 0.053215 0.062100
0.263881 0.056746 0.066019
0.416251 0.055166 0.068715
0.687389 0.058987 0.061227
0.756956 0.057173 0.065471
0.164222 0.068004 0.071049
0.170916 0.066536 0.067098
0.286592 0.062657 0.066153
0.758230 0.062867 0.065364
0.302048 0.067383 0.067422
0.146692 0.069379 0.070006
0.351664 0.074300 0.066065
0.668417 0.072662 0.068763
0.353121 0.080141 0.064539
0.414366 0.084106 0.066575
0.756071 0.087588 0.072151
0.640377 0.087848 0.068631
0.746755 0.092282 0.067671
0.370701 0.093503 0.066693
0.406966 0.092795 0.068412
0.633158 0.092498 0.068624
0.398944 0.096070 0.069869
0.611081 0.099576 0.066330
0.727774 0.099161 0.068797
0.742613 0.095744 0.064913
0.381574 0.100534 0.069376
0.389951 0.098063 0.067723
0.711753 0.103474 0.066841
0.633474 0.111288 0.066412
0.645026 0.111009 0.065655
0.658324 0.116873 0.068562
0.667746 0.117098 0.062272
0.671501 0.117573 0.068328
0.353923 0.453118 0.063462
0.351296 0.461477 0.065925
0.355538 0.454081 0.067065
0.341004 0.456537 0.068855
0.355283 0.462292 0.070708
0.337885 0.465540 0.064891
0.368841 0.473507 0.069008
0.376975 0.470904 0.068818
0.351757 0.470455 0.064802
0.339973 0.483493 0.066259
0.336305 0.491843 0.067449
0.318476 0.510392 0.066549
0.320118 0.520586 0.073071
0.396535 0.523856 0.067361
0.405548 0.531134 0.062024
0.397828 0.532949 0.068635
0.396039 0.537793 0.069200
0.329012 0.567823 0.068403
0.311644 0.569929 0.063820
0.321444 0.569393 0.065191
0.309302 0.580701 0.067897
0.343261 0.578070 0.058499
0.386230 0.577851 0.070908
0.325980 0.592237 0.070649
0.350186 0.598313 0.064235
0.379465 0.596331 0.064152
0.368371 0.595516 0.065815
0.293424 0.616140 0.069538
0.298500 0.620281 0.071253
0.316554 0.630262 0.065622
0.304977 0.634344 0.067863
0.311952 0.642543 0.067630
0.262662 0.036817 0.065163
0.252654 0.055722 0.069156
0.270323 0.067941 0.066484
0.280273 0.064231 0.066266
0.656627 0.123886 0.065434
0.339405 0.477002 0.067120
0.331530 0.483406 0.066574
0.331415 0.490698 0.067502
0.395055 0.544878 0.064366
0.316188 0.551491 0.069614
0.313829 0.585087 0.064385
0.379419 0.596501 0.066787
0.326782 0.630548 0.069362
0.345184 0.002255 0.067377
0.292315 0.009341 0.067113
0.138167 0.028695 0.067808
0.255755 0.045413 0.067929
0.254244 0.046499 0.069789
0.178354 0.060364 0.070660
0.256518 0.063369 0.069722
0.261657 0.067157 0.072928
0.685824 0.061689 0.069277
0.311051 0.077240 0.066966
0.319093 0.075008 0.065577
0.334502 0.075881 0.069211
0.417823 0.108197 0.069744
0.418555 0.112343 0.066347
0.417483 0.126239 0.070522
0.413628 0.135493 0.068409
0.332404 0.466477 0.069163
0.329747 0.471504 0.067538
0.320642 0.499892 0.069830
0.312213 0.544637 0.068990
0.310308 0.559225 0.068452
0.283060 0.611406 0.068261
0.288379 0.610258 0.072593
0.355044 -0.000891 0.068166
0.383085 0.000163 0.070009
0.404014 0.024008 0.071167
0.262203 0.031486 0.071269
0.171260 0.045813 0.069902
0.241699 0.049421 0.068797
0.243596 0.056925 0.066191
0.703211 0.051978 0.066726
0.188818 0.063590 0.068867
0.243293 0.064093 0.071019
0.428424 0.067367 0.073049
0.301144 0.071421 0.069961
0.425988 0.075179 0.071988
0.340663 0.074648 0.068669
0.301883 0.086885 0.067336
0.309134 0.085871 0.067185
0.317103 0.083037 0.071006
0.427737 0.082400 0.069528
0.282007 0.086387 0.067693
0.292162 0.088319 0.069173
0.425352 0.097096 0.071933
0.279140 0.095408 0.070790
0.363144 0.092479 0.072101
0.289605 0.096383 0.070120
0.297637 0.093035 0.072370
0.418598 0.096954 0.068127
0.269749 0.094976 0.070238
0.270889 0.107027 0.071491
0.281340 0.103369 0.070054
0.292920 0.102148 0.070810
0.409759 0.107762 0.069525
0.426695 0.103812 0.069102
0.714439 0.099921 0.070920
0.261874 0.106791 0.070309
0.276649 0.109499 0.067874
0.426464 0.113157 0.068404
0.263897 0.114560 0.067264
0.409381 0.110098 0.069516
0.251384 0.115605 0.066735
0.274247 0.115309 0.067748
0.398310 0.121906 0.072397
0.242221 0.112941 0.067689
0.242868 0.123587 0.066166
0.252421 0.124250 0.069724
0.268609 0.125090 0.072076
0.404558 0.123074 0.074373
0.409968 0.126151 0.066712
0.424687 0.118248 0.070239
0.259963 0.122591 0.065091
0.240798 0.134522 0.067125
0.254829 0.135567 0.065945
0.262820 0.131223 0.072290
0.265368 0.127916 0.073026
0.397165 0.135182 0.071076
0.423553 0.135213 0.063110
0.407817 0.129465 0.071217
0.406310 0.143646 0.069111
0.400196 0.140848 0.071613
0.420480 0.144638 0.069393
0.403971 0.152321 0.071133
0.417559 0.151732 0.070802
0.409669 0.165912 0.071413
0.416443 0.159758 0.069075
0.388120 0.481929 0.071289
0.322111 0.480624 0.066525
0.316385 0.493842 0.069195
0.316959 0.515669 0.069218
0.315264 0.518692 0.068958
0.321459 0.535247 0.070286
0.389822 0.555973 0.066442
0.301292 0.569826 0.067996
0.306099 0.580628 0.071034
0.282905 0.614116 0.068023
0.329024 0.621955 0.071645
0.321680 0.617780 0.068148
0.370722 0.000863 0.068440
0.260023 0.027372 0.076525
0.110667 0.046413 0.071568
0.417646 0.047884 0.074562
0.117678 0.045223 0.075685
0.240544 0.046606 0.073128
0.236882 0.058835 0.070665
0.186559 0.058232 0.072911
0.234434 0.063537 0.074352
0.156835 0.070360 0.068072
0.163926 0.069091 0.071581
0.277837 0.068525 0.068064
0.284133 0.072271 0.074164
0.290925 0.072800 0.072233
0.167908 0.070739 0.080631
0.758752 0.075726 0.072003
0.340879 0.076595 0.074366
0.325737 0.081705 0.070267
0.311615 0.091524 0.068438
0.274047 0.091811 0.069981
0.640001 0.097893 0.076392
0.262238 0.097172 0.069075
0.399909 0.099484 0.068178
0.253292 0.103445 0.070210
0.246477 0.107665 0.071491
0.286387 0.114192 0.070946
0.235076 0.115199 0.072003
0.233275 0.123151 0.069545
0.279088 0.117340 0.069965
0.275857 0.122633 0.072655
0.234246 0.134110 0.072180
0.270960 0.135234 0.068722
0.231069 0.145743 0.071848
0.250821 0.144949 0.070180
0.397149 0.142747 0.073482
0.423087 0.141498 0.073923
0.225967 0.145357 0.072368
0.241153 0.144385 0.069716
0.215972 0.146167 0.070030
0.235774 0.149950 0.074732
0.426143 0.151136 0.075317
0.409529 0.170669 0.072331
0.416949 0.170966 0.069586
0.418916 0.176208 0.073120
0.415452 0.179599 0.075593
0.356675 0.452002 0.079158
0.325650 0.466517 0.076589
0.310978 0.508613 0.071595
0.318899 0.530150 0.070091
0.393913 0.535303 0.071305
0.306613 0.546224 0.073270
0.305164 0.560097 0.074264
0.298339 0.561297 0.070749
0.381261 0.572175 0.072586
0.317485 0.592097 0.073863
0.280312 0.611336 0.074871
0.289793 0.607452 0.075182
0.333904 0.621804 0.074251
0.308374 0.623328 0.070963
0.319483 0.001890 0.074137
0.379971 0.000543 0.073457
0.383874 0.004041 0.073341
0.389438 0.005792 0.074416
0.313922 0.005887 0.076492
0.301896 0.012111 0.074902
0.396506 0.011094 0.074956
0.290919 0.009726 0.074138
0.285887 0.012990 0.072551
0.279878 0.017147 0.075668
0.398120 0.015957 0.074580
0.274737 0.021308 0.076636
0.265092 0.019916 0.073353
0.098018 0.027340 0.073908
0.106823 0.025152 0.077340
0.403268 0.024670 0.076910
0.115697 0.030042 0.075635
0.125248 0.028418 0.074360
0.132958 0.029552 0.075318
0.099095 0.036086 0.068879
0.143558 0.032145 0.077671
0.251083 0.027381 0.076510
0.158520 0.035648 0.072623
0.247152 0.035038 0.077109
0.408819 0.030427 0.079971
0.416679 0.040807 0.074794
0.108123 0.038666 0.078433
0.165373 0.038380 0.075252
0.173517 0.041348 0.076836
0.244631 0.034521 0.075061
0.232049 0.044465 0.079066
0.716981 0.050713 0.073919
0.726199 0.049169 0.077483
0.742603 0.047895 0.076155
0.176569 0.052654 0.073754
0.743680 0.053035 0.076602
0.119357 0.058464 0.074954
0.229650 0.054588 0.071942
0.422954 0.052640 0.071384
0.708200 0.056582 0.076249
0.749676 0.053174 0.074142
0.757293 0.053654 0.076244
0.425610 0.054837 0.075715
0.697315 0.060392 0.073423
0.765702 0.057226 0.079188
0.118271 0.064173 0.079896
0.183221 0.066491 0.072449
0.196239 0.065178 0.072182
0.429470 0.061797 0.075855
0.691114 0.061460 0.076465
0.762110 0.065462 0.077144
0.124925 0.066002 0.075045
0.242330 0.068008 0.071903
0.678022 0.071417 0.076376
0.252127 0.069752 0.072049
0.133088 0.071681 0.075511
0.143700 0.071215 0.075718
0.182689 0.073109 0.079665
0.263901 0.071589 0.070993
0.271965 0.070364 0.074403
0.155285 0.069219 0.075945
0.262294 0.074403 0.075561
0.283892 0.073420 0.074013
0.671636 0.074062 0.076962
0.764272 0.072545 0.076109
0.163358 0.071345 0.075466
0.429474 0.076483 0.075238
0.290724 0.079900 0.071677
0.349444 0.083068 0.074362
0.663256 0.079490 0.074287
0.285569 0.078695 0.069891
0.277141 0.078680 0.071573
0.333384 0.086318 0.075310
0.340622 0.083327 0.078216
0.351250 0.082378 0.074287
0.430821 0.083467 0.074708
0.654823 0.081409 0.076548
0.758555 0.087856 0.077902
0.651667 0.087338 0.077854
0.274417 0.086544 0.073777
0.321481 0.090726 0.072000
0.355627 0.090441 0.072929
0.436411 0.085077 0.079104
0.432559 0.092030 0.075468
0.755489 0.094812 0.076833
0.272030 0.092734 0.071883
0.316653 0.097706 0.074508
0.644719 0.091289 0.072106
0.308807 0.098934 0.071152
0.361711 0.094698 0.074033
0.744318 0.099822 0.077770
0.368488 0.095250 0.078172
0.260747 0.100051 0.071625
0.302245 0.097723 0.071556
0.392189 0.099528 0.074259
0.251612 0.095028 0.068295
0.303361 0.107090 0.075218
0.390019 0.100793 0.078621
0.731791 0.102275 0.078076
0.740894 0.098057 0.073269
0.253839 0.104158 0.071196
0.403163 0.104186 0.071361
0.401024 0.107237 0.080292
0.436777 0.108243 0.077596
0.620048 0.096232 0.073914
0.624854 0.100941 0.073045
0.718565 0.102879 0.079423
0.246171 0.100103 0.074516
0.299213 0.103429 0.071665
0.633649 0.099247 0.076696
0.296423 0.102785 0.069969
0.706935 0.107673 0.075682
0.698521 0.107928 0.070654
0.399262 0.114799 0.075478
0.429396 0.114766 0.074399
0.688866 0.113517 0.082015
0.243235 0.110286 0.073661
0.646975 0.113225 0.075332
0.678532 0.116306 0.074764
0.659286 0.116683 0.075304
0.281527 0.116485 0.071168
0.673779 0.115561 0.078820
0.282979 0.122145 0.074133
0.397304 0.125201 0.077344
0.427451 0.126159 0.074918
0.222060 0.132348 0.075289
0.281718 0.132346 0.080809
0.395201 0.131184 0.077503
0.423849 0.132919 0.071299
0.262400 0.145260 0.075244
0.424912 0.146622 0.075253
0.715135 0.135972 0.071820
0.717147 0.144153 0.073871
0.705461 0.148306 0.069431
0.256539 0.145909 0.073496
0.401342 0.154457 0.076723
0.717930 0.152306 0.076150
0.249857 0.153020 0.075833
0.220418 0.151909 0.071116
0.231234 0.153091 0.069546
0.240665 0.154439 0.071794
0.707665 0.152731 0.075643
0.398400 0.163574 0.080865
0.421487 0.166694 0.072445
0.408690 0.171528 0.077333
0.600699 0.404009 0.070882
0.590354 0.405594 0.074718
0.590595 0.411184 0.073408
0.612832 0.416585 0.070550
0.581658 0.416855 0.073380
0.601116 0.412056 0.074947
0.604646 0.421973 0.075575
0.631989 0.425334 0.070527
0.608166 0.427271 0.075646
0.622453 0.424036 0.067644
0.638362 0.424883 0.068779
0.600237 0.436863 0.069793
0.613202 0.433126 0.068978
0.621374 0.429424 0.075245
0.631797 0.434210 0.071796
0.639491 0.437818 0.074911
0.662363 0.435905 0.074391
0.647159 0.437661 0.069446
0.669780 0.435996 0.073176
0.609129 0.443042 0.073647
0.620465 0.438548 0.071475
0.628576 0.444585 0.072515
0.637591 0.444454 0.072612
0.649189 0.445817 0.069298
0.656343 0.440497 0.071278
0.670685 0.441369 0.073742
0.690472 0.442957 0.069231
0.661798 0.442210 0.072810
0.650440 0.442412 0.071029
0.633313 0.455770 0.071267
0.640205 0.451364 0.073506
0.646888 0.453375 0.070005
0.659495 0.448829 0.070399
0.672231 0.455008 0.072004
0.351129 0.451469 0.077184
0.679482 0.450405 0.075232
0.342937 0.454432 0.076522
0.331060 0.460751 0.077369
0.365536 0.462255 0.075648
0.320417 0.467683 0.079447
0.318761 0.474889 0.076043
0.369987 0.469327 0.074378
0.386789 0.479624 0.080328
0.378195 0.474874 0.081487
0.398357 0.474293 0.076928
0.388714 0.483243 0.075586
0.314706 0.483064 0.070816
0.316170 0.489874 0.071242
0.390083 0.488897 0.075620
0.392816 0.496334 0.076280
0.315194 0.503757 0.073575
0.394670 0.501477 0.075475
0.397003 0.509273 0.074916
0.393344 0.520734 0.074700
0.303205 0.522054 0.074894
0.313007 0.521264 0.074335
0.394409 0.532506 0.075094
0.309156 0.530527 0.075972
0.390082 0.540610 0.077202
0.306342 0.551286 0.070942
0.295995 0.549100 0.072384
0.308590 0.557702 0.074641
0.386202 0.557787 0.077586
0.295498 0.564655 0.071297
0.291147 0.570347 0.073015
0.378494 0.577544 0.076162
0.299773 0.581449 0.072735
0.311211 0.588604 0.074893
0.375894 0.588611 0.072362
0.368036 0.598580 0.075935
0.368498 0.592176 0.080372
0.327243 0.602069 0.072036
0.358073 0.592910 0.073436
0.341518 0.597452 0.080236
0.351130 0.595618 0.075395
0.281102 0.599531 0.076387
0.317872 0.608202 0.072741
0.331919 0.608794 0.073724
0.283269 0.615822 0.075954
0.316408 0.618163 0.073342
0.303774 0.613541 0.075666
0.313302 0.620355 0.073799
0.332292 0.631410 0.076210
0.294638 0.622842 0.073832
0.303201 0.634842 0.074479
0.325622 0.640110 0.074261
0.309008 0.638964 0.076304
0.317554 0.637930 0.076728
0.345997 -0.001855 0.071899
0.180182 0.047594 0.080872
0.196144 0.056693 0.081502
0.222217 0.055745 0.074358
0.222361 0.065857 0.075222
0.241883 0.072015 0.078589
0.250314 0.070666 0.076877
0.270609 0.079981 0.075446
0.263392 0.085021 0.077811
0.629239 0.098710 0.071836
0.240047 0.100505 0.075373
0.377554 0.096494 0.075947
0.642192 0.109075 0.077002
0.235260 0.105861 0.072701
0.297925 0.110872 0.073765
0.434235 0.117284 0.077428
0.220073 0.124414 0.074087
0.289274 0.122778 0.075661
0.707210 0.128294 0.074805
0.718364 0.124165 0.075590
0.708556 0.129706 0.075996
0.729749 0.124046 0.078659
0.700972 0.134129 0.071594
0.730791 0.132854 0.076535
0.275639 0.142489 0.076431
0.725602 0.142324 0.076402
0.212101 0.141918 0.073085
0.700471 0.143803 0.077815
0.729755 0.152453 0.077034
0.214198 0.153272 0.072652
0.213731 0.165048 0.067937
0.222491 0.164166 0.076669
0.233908 0.168946 0.073584
0.425564 0.163212 0.081708
0.709503 0.161665 0.076535
0.715898 0.163447 0.077484
0.424897 0.173703 0.076922
0.423780 0.180307 0.077175
0.688175 0.191505 0.074140
0.560995 0.355126 0.073212
0.556841 0.355886 0.072305
0.551912 0.370451 0.073102
0.559718 0.363443 0.073911
0.562773 0.372086 0.076498
0.570186 0.373664 0.075034
0.554969 0.376449 0.076195
0.582542 0.378295 0.075906
0.548035 0.386637 0.074627
0.556516 0.384590 0.073254
0.575723 0.385967 0.071421
0.580106 0.386093 0.078123
0.589750 0.385197 0.075450
0.563978 0.394966 0.073962
0.577485 0.392900 0.072946
0.570609 0.400894 0.072873
0.592051 0.395846 0.074256
0.610880 0.396632 0.076464
0.610947 0.406711 0.073725
0.620146 0.405445 0.074505
0.571911 0.404616 0.071957
0.580426 0.404225 0.066228
0.573057 0.414141 0.076571
0.629321 0.408363 0.076996
0.625348 0.416242 0.072160
0.705859 0.415473 0.076756
0.651162 0.413417 0.075694
0.577339 0.424900 0.073866
0.679573 0.416836 0.076518
0.695957 0.413259 0.073847
0.592434 0.421745 0.071481
0.653019 0.423525 0.072393
0.673290 0.425684 0.077581
0.663718 0.425000 0.073803
0.678156 0.431853 0.075480
0.701134 0.424685 0.071484
0.707764 0.423213 0.075248
0.689635 0.424615 0.073830
0.675924 0.436898 0.071697
0.687872 0.435917 0.069620
0.697977 0.435509 0.073792
0.711588 0.433174 0.074586
0.594642 0.433427 0.075176
0.601176 0.445097 0.076765
0.676079 0.443080 0.071006
0.700682 0.443318 0.077269
0.591884 0.445160 0.076040
0.619558 0.454154 0.074096
0.686958 0.451775 0.073541
0.650164 0.461178 0.072181
0.667362 0.462609 0.073745
0.680562 0.463687 0.079106
0.637898 0.463741 0.074956
0.658307 0.466621 0.069894
0.307771 0.489198 0.077345
0.307315 0.501358 0.071388
0.387214 0.545402 0.079020
0.289574 0.559228 0.076297
0.380130 0.567963 0.079883
0.296671 0.581036 0.075573
0.318207 0.595888 0.069820
0.274525 0.601084 0.077183
0.275909 0.601618 0.077523
0.301633 0.607033 0.073889
0.298564 0.631102 0.077641
0.402652 0.018668 0.078672
0.695541 0.064867 0.075723
0.193266 0.074215 0.076845
0.230773 0.075244 0.076601
0.763252 0.078421 0.079515
0.307418 0.103833 0.078167
0.302469 0.113410 0.072879
0.697592 0.110213 0.077494
0.221893 0.114603 0.077801
0.433314 0.121964 0.082702
0.687578 0.126954 0.077677
0.212713 0.126779 0.079833
0.693338 0.123694 0.075105
0.208916 0.135312 0.076974
0.690844 0.134430 0.075326
0.738626 0.135026 0.075133
0.688947 0.143674 0.079002
0.739365 0.142937 0.078684
0.206732 0.153221 0.078602
0.261308 0.152644 0.080889
0.669110 0.150160 0.072226
0.697021 0.152496 0.080196
0.239527 0.162200 0.073872
0.659021 0.164185 0.077103
0.672158 0.161240 0.076995
0.726275 0.164353 0.081110
0.681232 0.168715 0.075547
0.690895 0.161289 0.077403
0.666516 0.171228 0.073383
0.658636 0.173034 0.080019
0.677872 0.173076 0.076354
0.689786 0.172316 0.077548
0.661258 0.175222 0.080661
0.668030 0.184681 0.073452
0.679715 0.180349 0.072690
0.688534 0.178143 0.074861
0.699355 0.179436 0.075225
0.424715 0.186933 0.077498
0.678997 0.191942 0.071772
0.698505 0.190348 0.073015
0.673027 0.190369 0.082758
0.707748 0.189125 0.080924
0.684359 0.200591 0.076984
0.699839 0.198271 0.072973
0.706360 0.202254 0.076048
0.690286 0.199427 0.076767
0.687496 0.209811 0.075819
0.698979 0.214829 0.079124
0.709581 0.210120 0.073123
0.693976 0.222608 0.075021
0.690248 0.224625 0.075436
0.711145 0.220116 0.076049
0.715567 0.225659 0.073502
0.696133 0.228917 0.078781
0.705298 0.230853 0.076316
0.715714 0.226536 0.077001
0.534511 0.320013 0.075589
0.542338 0.317475 0.082641
0.532917 0.327015 0.077489
0.549175 0.325100 0.081827
0.520883 0.325807 0.077913
0.535182 0.339476 0.073239
0.542809 0.334541 0.073995
0.535275 0.346013 0.073539
0.537181 0.345631 0.072429
0.552120 0.346054 0.076858
0.565775 0.343857 0.074917
0.534759 0.356624 0.076114
0.543138 0.356177 0.078135
0.573990 0.365841 0.074788
0.543711 0.368796 0.077711
0.585972 0.365919 0.078530
0.590282 0.376805 0.078252
0.542036 0.376909 0.076066
0.599786 0.372230 0.077993
0.600204 0.383111 0.073792
0.540750 0.386910 0.079815
0.599266 0.395394 0.076031
0.541684 0.394457 0.079263
0.554534 0.394263 0.075200
0.622132 0.395797 0.079434
0.562130 0.402030 0.070768
0.630250 0.393894 0.077622
0.630982 0.405920 0.077392
0.706957 0.405050 0.078201
0.562653 0.415730 0.077724
0.699387 0.406574 0.079418
0.641827 0.415425 0.075383
0.714715 0.415905 0.076445
0.726162 0.405505 0.074772
0.669887 0.412468 0.076657
0.660386 0.417659 0.074389
0.689141 0.411814 0.079302
0.714331 0.427265 0.074029
0.575093 0.423650 0.076057
0.580739 0.434776 0.078397
0.708410 0.440518 0.080237
0.600529 0.454253 0.080156
0.609549 0.454944 0.075894
0.695972 0.452487 0.074367
0.707284 0.452215 0.075803
0.622115 0.463409 0.075446
0.693744 0.462417 0.071854
0.631969 0.462979 0.076621
0.670420 0.470236 0.080217
0.311700 0.481957 0.076258
0.389659 0.534344 0.075263
0.304189 0.547076 0.078375
0.313392 0.598758 0.076105
0.307343 0.608356 0.076457
0.284851 0.623679 0.077096
0.333063 0.001008 0.078170
0.355930 0.000303 0.075068
0.236095 0.041767 0.077728
0.112423 0.038239 0.078658
0.170851 0.042225 0.075413
0.219320 0.047204 0.083096
0.718082 0.055250 0.078732
0.212948 0.059341 0.079509
0.202122 0.065132 0.077485
0.214848 0.064735 0.078134
0.434067 0.072875 0.079563
0.220618 0.072693 0.082801
0.255484 0.085616 0.081541
0.330932 0.090645 0.080826
0.232330 0.099044 0.077548
0.395517 0.103320 0.082879
0.731777 0.098720 0.080280
0.227905 0.105825 0.078226
0.660923 0.124687 0.080555
0.703441 0.116897 0.081181
0.727806 0.115269 0.078448
0.669317 0.122891 0.079206
0.738447 0.124805 0.080039
0.437581 0.127505 0.080503
0.680725 0.134089 0.079427
0.674525 0.134068 0.076664
0.659424 0.137423 0.076717
0.433107 0.138801 0.080891
0.650305 0.141330 0.078601
0.204685 0.142754 0.077478
0.658409 0.142475 0.076853
0.668673 0.148262 0.074705
0.675901 0.142683 0.080794
0.736342 0.151801 0.081239
0.656179 0.152419 0.076036
0.690495 0.153345 0.076609
0.684367 0.158590 0.078590
0.206819 0.161952 0.077010
0.400025 0.160475 0.079666
0.649595 0.160527 0.079790
0.215429 0.172671 0.078364
0.219276 0.170605 0.080947
0.231128 0.169287 0.078133
0.718922 0.171798 0.080525
0.726443 0.170154 0.078093
0.651703 0.171052 0.079187
0.694645 0.171796 0.077717
0.410832 0.175920 0.082332
0.706852 0.179822 0.080017
0.421501 0.189358 0.079862
0.662827 0.192695 0.077116
0.719246 0.193696 0.077653
0.671423 0.201013 0.081797
0.719035 0.201159 0.078566
0.679309 0.213027 0.078443
0.718703 0.209858 0.076563
0.678907 0.225690 0.079246
0.690957 0.227892 0.077425
0.729782 0.228239 0.076281
0.718130 0.237967 0.077962
0.723775 0.242217 0.074143
0.738410 0.241826 0.082217
0.695938 0.241638 0.079279
0.702639 0.244122 0.078942
0.729385 0.248826 0.075486
0.719384 0.248802 0.076502
0.706904 0.253316 0.073081
0.720652 0.259204 0.077862
0.730293 0.260194 0.075892
0.739314 0.259877 0.079917
0.725834 0.267370 0.078814
0.741113 0.267766 0.078316
0.517366 0.289944 0.076107
0.503599 0.292772 0.077928
0.525198 0.291026 0.073184
0.532417 0.291034 0.076135
0.530598 0.296262 0.073951
0.511535 0.296074 0.077986
0.540822 0.300891 0.076855
0.503518 0.303912 0.074350
0.522494 0.299165 0.077071
0.531910 0.310315 0.077783
0.507844 0.309780 0.079734
0.522610 0.309673 0.075803
0.539749 0.308880 0.080567
0.512594 0.312647 0.080283
0.513802 0.318732 0.078484
0.526363 0.316370 0.080102
0.514439 0.327051 0.077515
0.551134 0.323829 0.079487
0.748658 0.324044 0.077466
0.759218 0.329018 0.079869
0.560507 0.328077 0.076019
0.520729 0.338450 0.079491
0.555443 0.341162 0.080737
0.745288 0.335501 0.078360
0.752907 0.337563 0.077287
0.762575 0.337472 0.077821
0.561912 0.340494 0.075574
0.525097 0.345823 0.078562
0.737579 0.347057 0.078147
0.754893 0.343424 0.078574
0.569838 0.346331 0.078949
0.744478 0.347138 0.076278
0.753986 0.351069 0.076723
0.573350 0.354334 0.079467
0.739157 0.357186 0.075342
0.529297 0.354092 0.076224
0.748518 0.354921 0.074354
0.584660 0.355906 0.077206
0.766611 0.355018 0.079766
0.744035 0.365521 0.079233
0.753021 0.364318 0.076802
0.524096 0.369541 0.080894
0.536860 0.368965 0.078201
0.734583 0.364714 0.072907
0.590770 0.366213 0.078032
0.530419 0.375306 0.076598
0.742264 0.374481 0.074445
0.740524 0.374317 0.078979
0.610246 0.376371 0.075104
0.739491 0.384900 0.077595
0.748260 0.385491 0.078472
0.534912 0.387687 0.080504
0.612915 0.384521 0.077784
0.726275 0.387821 0.078955
0.717591 0.391315 0.074034
0.727417 0.395404 0.081135
0.736834 0.393651 0.078424
0.744292 0.396443 0.078853
0.544770 0.402087 0.080777
0.718548 0.400874 0.076091
0.737366 0.400065 0.075508
0.554718 0.404108 0.079205
0.637733 0.403963 0.076622
0.650839 0.406347 0.081473
0.660723 0.406374 0.082344
0.671952 0.403053 0.075176
0.676122 0.403640 0.077809
0.738199 0.411558 0.080040
0.555699 0.415373 0.080964
0.728163 0.415724 0.076679
0.726292 0.424213 0.076487
0.737373 0.426809 0.081772
0.567372 0.427925 0.077133
0.571085 0.435272 0.080064
0.713749 0.434161 0.078876
0.725784 0.431513 0.077875
0.583255 0.444677 0.074224
0.730524 0.445693 0.077268
0.726059 0.437365 0.077032
0.592810 0.453205 0.080420
0.717156 0.455148 0.080573
0.709631 0.460460 0.078509
0.699513 0.466893 0.076353
0.611361 0.462855 0.078718
0.649944 0.476265 0.076049
0.660431 0.472425 0.080407
0.679178 0.472097 0.076298
0.315209 0.472550 0.076561
0.388591 0.499386 0.079997
0.391289 0.512743 0.079490
0.304362 0.517268 0.080593
0.390190 0.515662 0.074525
0.295095 0.522024 0.078974
0.301145 0.529510 0.083066
0.292565 0.551761 0.079673
0.382588 0.558537 0.075654
0.306165 0.587253 0.076526
0.359214 0.594332 0.080903
0.365791 0.000921 0.080744
0.267896 0.021665 0.079124
0.193325 0.050701 0.079723
0.202702 0.059295 0.078507
0.200367 0.070240 0.079627
0.215102 0.073238 0.082212
0.249207 0.088487 0.079636
0.643678 0.108443 0.080303
0.716635 0.115577 0.076306
0.218904 0.121358 0.079998
0.679251 0.125726 0.081243
0.731345 0.118650 0.083235
0.649601 0.132460 0.080717
0.210192 0.135683 0.076849
0.652354 0.149555 0.077642
0.251590 0.158030 0.080439
0.700678 0.165452 0.077252
0.734028 0.165043 0.078166
0.703390 0.171175 0.078699
0.205467 0.168595 0.080270
0.652426 0.181961 0.079172
0.657101 0.186264 0.081964
0.659723 0.198801 0.077579
0.670775 0.215562 0.076680
0.724392 0.214163 0.082137
0.675608 0.217464 0.082582
0.729733 0.222758 0.080001
0.685366 0.226569 0.078390
0.737659 0.228349 0.078047
0.688418 0.237576 0.077793
0.700121 0.250081 0.078712
0.737762 0.251198 0.080953
0.709727 0.259246 0.081316
0.513697 0.251310 0.080939
0.513801 0.259218 0.078816
0.508201 0.259563 0.078961
0.492438 0.261489 0.077449
0.748032 0.260211 0.077490
0.487393 0.259021 0.078394
0.512453 0.270834 0.077095
0.713661 0.265531 0.082037
0.485387 0.272723 0.082145
0.493902 0.269528 0.078513
0.507752 0.271013 0.076093
0.520627 0.272113 0.080744
0.746923 0.267620 0.078450
0.755096 0.268950 0.081410
0.722953 0.268722 0.080494
0.491927 0.279184 0.080996
0.501942 0.278904 0.080189
0.737619 0.279504 0.079799
0.745184 0.279050 0.076880
0.753042 0.278549 0.079805
0.515237 0.279753 0.077308
0.525587 0.279714 0.078076
0.726834 0.279521 0.081948
0.531586 0.282270 0.079401
0.731553 0.287589 0.082416
0.739404 0.285731 0.081188
0.749739 0.288822 0.081102
0.540918 0.290097 0.079626
0.492929 0.298181 0.076771
0.496858 0.288660 0.081741
0.730562 0.299569 0.080225
0.736603 0.299721 0.080179
0.748688 0.293392 0.076523
0.759353 0.296813 0.081035
0.761377 0.297957 0.082268
0.497301 0.305642 0.080099
0.758117 0.308837 0.080573
0.550891 0.307111 0.077561
0.738651 0.309938 0.080487
0.744864 0.303192 0.075880
0.764525 0.309720 0.083185
0.742646 0.317958 0.078493
0.756393 0.315460 0.078016
0.506753 0.318566 0.079760
0.557343 0.318293 0.081167
0.765800 0.321485 0.082548
0.562195 0.319940 0.078710
0.740334 0.318650 0.077266
0.737932 0.325906 0.080247
0.769476 0.331203 0.078542
0.507076 0.329824 0.080362
0.508341 0.330786 0.075904
0.737970 0.335838 0.078299
0.516772 0.338509 0.078927
0.765822 0.346164 0.080627
0.732702 0.347046 0.080540
0.516294 0.346886 0.079179
0.582630 0.348605 0.080297
0.519770 0.359437 0.078334
0.727527 0.359267 0.084311
0.590895 0.359029 0.080222
0.766799 0.369412 0.079832
0.603108 0.366790 0.080280
0.731162 0.370490 0.079807
0.524577 0.375951 0.078977
0.726564 0.375174 0.077453
0.751751 0.376991 0.078160
0.762896 0.375363 0.077682
0.718434 0.379436 0.079759
0.764516 0.382822 0.076238
0.715105 0.386988 0.078337
0.756763 0.388740 0.076364
0.709613 0.386706 0.080645
0.620623 0.386911 0.079131
0.708367 0.394301 0.081365
0.640077 0.395523 0.081264
0.650437 0.400861 0.078448
0.705370 0.395815 0.079397
0.747624 0.408497 0.080652
0.688443 0.405957 0.078907
0.751495 0.406323 0.076037
0.545776 0.414740 0.078203
0.744561 0.413977 0.080934
0.742293 0.422695 0.080001
0.739870 0.435267 0.077247
0.566361 0.433317 0.077502
0.572330 0.438927 0.077981
0.726174 0.449117 0.078473
0.603314 0.461597 0.082471
0.717017 0.454915 0.078619
0.624772 0.470595 0.081688
0.641234 0.470313 0.078886
0.688585 0.473369 0.079638
0.307279 0.494383 0.082497
0.293477 0.533185 0.079092
0.373077 0.583488 0.078519
0.282583 0.601979 0.078033
0.317393 0.632848 0.079904
0.288611 0.010872 0.086725
0.397552 0.019066 0.087632
0.126424 0.025032 0.086825
0.114783 0.035707 0.085806
0.117555 0.028572 0.082435
0.249743 0.029114 0.083402
0.241153 0.036737 0.085382
0.762464 0.048902 0.080740
0.214871 0.054654 0.081764
0.727054 0.059283 0.086746
0.203520 0.051819 0.081879
0.707206 0.060363 0.082540
0.119231 0.061616 0.084730
0.698001 0.063891 0.083596
0.764792 0.062618 0.085696
0.123665 0.066511 0.084717
0.134249 0.062608 0.089463
0.142394 0.070406 0.086007
0.681729 0.067339 0.086323
0.204509 0.076028 0.082624
0.241752 0.079993 0.083587
0.770414 0.074411 0.084190
0.441133 0.083044 0.083375
0.341662 0.090443 0.085210
0.352520 0.086015 0.085566
0.657593 0.083458 0.078783
0.243484 0.085281 0.086731
0.326728 0.092437 0.087367
0.362696 0.090568 0.085736
0.368003 0.097306 0.084695
0.637944 0.094702 0.083575
0.318168 0.099771 0.081936
0.441030 0.103595 0.081863
0.738241 0.102411 0.085155
0.220898 0.101042 0.083163
0.312095 0.105904 0.082484
0.718183 0.109939 0.080702
0.729462 0.108025 0.084539
0.306419 0.114657 0.084337
0.211726 0.115159 0.080520
0.396490 0.121830 0.080427
0.651414 0.123509 0.077246
0.741384 0.122000 0.082541
0.209105 0.127870 0.081690
0.648365 0.123586 0.082866
0.292354 0.130685 0.084219
0.749524 0.131943 0.083328
0.742673 0.135527 0.081704
0.206098 0.134855 0.084560
0.395952 0.131650 0.080369
0.744703 0.145112 0.085274
0.282700 0.138220 0.084114
0.634354 0.139753 0.083282
0.275233 0.143992 0.082451
0.428996 0.153958 0.082396
0.195353 0.152729 0.082511
0.271378 0.149867 0.082599
0.642444 0.152142 0.081267
0.197580 0.153424 0.082420
0.195233 0.159750 0.084188
0.248856 0.163447 0.085185
0.640260 0.166836 0.083539
0.236668 0.167487 0.084699
0.733004 0.171267 0.088207
0.230437 0.176725 0.075620
0.711683 0.170265 0.082863
0.718597 0.172109 0.083090
0.726982 0.175653 0.083917
0.646929 0.176531 0.083617
0.431060 0.180557 0.083417
0.649010 0.190538 0.081682
0.426622 0.193384 0.084763
0.726155 0.188168 0.083158
0.655883 0.197417 0.080255
0.729792 0.200774 0.081435
0.657076 0.200584 0.079770
0.725294 0.205997 0.079754
0.663081 0.213557 0.083022
0.729513 0.212565 0.081481
0.669469 0.220247 0.082518
0.730354 0.215738 0.080826
0.733250 0.224378 0.081230
0.497511 0.230553 0.080308
0.483694 0.224756 0.079881
0.680309 0.230240 0.082978
0.488600 0.230605 0.080207
0.492862 0.230450 0.078707
0.746192 0.231383 0.081410
0.474760 0.238548 0.081787
0.486643 0.241256 0.081394
0.491702 0.235426 0.083483
0.745079 0.240932 0.082989
0.503241 0.239352 0.081352
0.686371 0.239664 0.081906
0.481906 0.240172 0.082828
0.499267 0.240769 0.082355
0.747048 0.239534 0.081542
0.687191 0.249430 0.083959
0.749219 0.251349 0.080542
0.478724 0.252038 0.082042
0.489558 0.250527 0.080414
0.745201 0.251378 0.080517
0.485975 0.249061 0.082943
0.502187 0.246841 0.080809
0.500404 0.246044 0.081696
0.512740 0.249698 0.083292
0.507061 0.251425 0.081109
0.526951 0.250674 0.082537
0.523793 0.258303 0.078664
0.526226 0.259674 0.080399
0.704415 0.263086 0.078434
0.754671 0.261451 0.080530
0.757438 0.264529 0.082307
0.535240 0.260548 0.082804
0.532976 0.269417 0.076321
0.706793 0.268144 0.084344
0.758098 0.268230 0.079057
0.472645 0.268836 0.079937
0.484682 0.280864 0.079381
0.484580 0.278738 0.076957
0.718490 0.280737 0.076141
0.536116 0.278238 0.081437
0.717647 0.281544 0.084139
0.768580 0.280024 0.083432
0.544306 0.279152 0.085409
0.483218 0.285682 0.080687
0.714783 0.291274 0.081797
0.754913 0.287079 0.080620
0.763742 0.284328 0.079369
0.548981 0.287794 0.080465
0.488045 0.288848 0.083324
0.726500 0.289922 0.077076
0.487530 0.295621 0.080248
0.725276 0.301609 0.078974
0.483622 0.298690 0.081847
0.767672 0.298999 0.082910
0.489859 0.305568 0.078723
0.556644 0.304913 0.081719
0.726921 0.310228 0.080785
0.771042 0.311972 0.081430
0.734598 0.312202 0.083122
0.498392 0.317256 0.082328
0.561603 0.317838 0.081720
0.776159 0.320854 0.078277
0.767392 0.321640 0.081631
0.495531 0.328938 0.083730
0.566658 0.323552 0.081071
0.728316 0.323015 0.085260
0.776748 0.323945 0.081420
0.575055 0.326448 0.080040
0.729967 0.338835 0.081342
0.771473 0.338927 0.077638
0.501634 0.338372 0.078929
0.726620 0.333410 0.081396
0.571531 0.339034 0.081326
0.575168 0.340328 0.081567
0.502330 0.345298 0.083181
0.581524 0.344060 0.080421
0.727169 0.353158 0.080618
0.509373 0.349661 0.084174
0.514505 0.355812 0.085935
0.780508 0.357913 0.082150
0.590940 0.354533 0.081711
0.770267 0.361395 0.080428
0.727420 0.362743 0.083271
0.779242 0.363204 0.083279
0.602507 0.362810 0.081961
0.771581 0.366487 0.082095
0.519539 0.371255 0.085095
0.724887 0.367539 0.080817
0.721014 0.371201 0.080959
0.611774 0.373558 0.080136
0.706886 0.377517 0.082252
0.619378 0.377100 0.082491
0.525113 0.382967 0.077019
0.523442 0.384314 0.081130
0.622487 0.382935 0.085496
0.768241 0.385340 0.080370
0.630094 0.388990 0.083890
0.645539 0.386717 0.084313
0.755534 0.398073 0.076147
0.765504 0.394874 0.078901
0.532532 0.394494 0.079740
0.534898 0.392002 0.078826
0.698550 0.394794 0.081385
0.767444 0.399415 0.079896
0.651838 0.397187 0.081002
0.687910 0.399503 0.078111
0.680938 0.391042 0.085022
0.691250 0.394702 0.085030
0.760243 0.403665 0.078510
0.660011 0.400412 0.080571
0.664758 0.401865 0.080442
0.762798 0.410744 0.079679
0.540031 0.414720 0.083407
0.757846 0.418770 0.079795
0.754946 0.416638 0.083349
0.764393 0.416332 0.079663
0.557136 0.422363 0.080183
0.741935 0.427662 0.079472
0.747437 0.436722 0.077410
0.739442 0.435358 0.081026
0.560041 0.446116 0.085355
0.735913 0.441678 0.079091
0.584190 0.448857 0.082913
0.581899 0.451655 0.078297
0.343790 0.451033 0.086285
0.593750 0.454303 0.077838
0.727993 0.453616 0.081711
0.356873 0.457638 0.089411
0.330070 0.455367 0.086919
0.363961 0.465303 0.077226
0.604039 0.467418 0.083652
0.309218 0.473498 0.078307
0.367336 0.469602 0.081780
0.616717 0.468699 0.079344
0.705796 0.469748 0.076952
0.371552 0.471957 0.086027
0.609618 0.474646 0.086301
0.631981 0.470880 0.083311
0.700047 0.470083 0.079092
0.704727 0.473146 0.086043
0.622873 0.476582 0.082062
0.375574 0.475713 0.085206
0.672001 0.476642 0.078819
0.681120 0.473868 0.081654
0.690350 0.480076 0.079516
0.642917 0.479916 0.080608
0.382585 0.486477 0.088548
0.385289 0.488048 0.084859
0.299374 0.515892 0.085054
0.297724 0.520603 0.083625
0.291934 0.519229 0.083790
0.384684 0.526946 0.083058
0.293613 0.535192 0.080831
0.288403 0.547607 0.081523
0.376575 0.561689 0.081803
0.280372 0.561279 0.081750
0.283036 0.567808 0.085716
0.375910 0.571484 0.083681
0.286087 0.581100 0.085196
0.367161 0.583437 0.082940
0.273200 0.594419 0.077074
0.283538 0.598195 0.084066
0.301727 0.597315 0.081531
0.304477 0.604002 0.082065
0.289285 0.599387 0.083426
0.299583 0.605144 0.081175
0.291002 0.622933 0.086057
0.318205 0.631868 0.081745
0.347837 0.006537 0.089194
0.377994 0.000815 0.081123
0.384799 0.002999 0.081684
0.317727 0.002203 0.086725
0.323803 0.001413 0.082952
0.391348 0.004630 0.086674
0.315484 0.006441 0.080917
0.303355 0.009892 0.090038
0.283674 0.010225 0.082069
0.275324 0.018829 0.087113
0.270427 0.017427 0.082958
0.262195 0.020239 0.087215
0.406833 0.028105 0.088036
0.138674 0.025133 0.087133
0.147794 0.029273 0.086861
0.413571 0.035136 0.088034
0.154774 0.034248 0.084419
0.166187 0.036742 0.085331
0.232550 0.037236 0.083957
0.413902 0.041113 0.087492
0.175724 0.038691 0.087238
0.114682 0.046781 0.087601
0.183354 0.046351 0.085943
0.221324 0.044809 0.088107
0.418345 0.044664 0.084634
0.194419 0.048678 0.085954
0.213676 0.046679 0.087886
0.734043 0.053057 0.085716
0.744100 0.052511 0.086184
0.746564 0.047557 0.086608
0.756927 0.047822 0.086040
0.765513 0.046638 0.083070
0.114458 0.055764 0.083074
0.197676 0.052243 0.084633
0.425194 0.055710 0.087599
0.770618 0.058422 0.080575
0.720333 0.052398 0.086782
0.776190 0.056887 0.087725
0.706784 0.065051 0.086853
0.776034 0.063959 0.087624
0.430613 0.067796 0.083191
0.688011 0.067697 0.085637
0.437440 0.069674 0.085458
0.678580 0.070189 0.084232
0.157241 0.072180 0.086253
0.668702 0.072950 0.085776
0.165586 0.074588 0.084618
0.174833 0.078700 0.085497
0.187602 0.075049 0.082631
0.192066 0.080107 0.079343
0.214559 0.075337 0.083295
0.221443 0.079520 0.083115
0.230817 0.079002 0.079861
0.660831 0.076515 0.087682
0.233614 0.083406 0.086510
0.764590 0.083268 0.086185
0.250423 0.081817 0.079324
0.647900 0.085456 0.081590
0.758025 0.092923 0.083222
0.354963 0.088112 0.082003
0.228629 0.093870 0.082700
0.439291 0.094886 0.083831
0.750209 0.091262 0.087253
0.318598 0.097823 0.083530
0.746366 0.094585 0.087366
0.224886 0.093511 0.087660
0.376594 0.094904 0.085492
0.318830 0.104299 0.085700
0.388574 0.100401 0.087356
0.636572 0.106639 0.081369
0.394557 0.107383 0.084594
0.730741 0.105901 0.085475
0.640391 0.118161 0.084499
0.719523 0.114151 0.080382
0.310259 0.110360 0.086458
0.392987 0.113979 0.083639
0.740499 0.110460 0.082283
0.649219 0.116351 0.081615
0.747368 0.110756 0.089079
0.213341 0.122176 0.078072
0.636143 0.120739 0.086904
0.747474 0.125337 0.082121
0.203197 0.122385 0.086204
0.299521 0.122409 0.085976
0.441137 0.123941 0.082507
0.640593 0.135459 0.086382
0.436339 0.133192 0.082585
0.280087 0.144081 0.087603
0.198888 0.140344 0.082788
0.438343 0.139950 0.087475
0.392875 0.144919 0.089775
0.639827 0.153084 0.085653
0.741646 0.150061 0.079419
0.398259 0.155898 0.087728
0.436730 0.152975 0.089403
0.261004 0.153083 0.083906
0.193116 0.166236 0.082526
0.254552 0.166882 0.084387
0.261575 0.164253 0.087203
0.399305 0.163773 0.087478
0.427341 0.165094 0.083519
0.740920 0.167459 0.080146
0.193625 0.176230 0.084029
0.404766 0.172288 0.087375
0.242883 0.173401 0.085247
0.639360 0.173075 0.081583
0.202391 0.173688 0.083611
0.427869 0.168092 0.082837
0.209934 0.178408 0.082417
0.226358 0.173587 0.086782
0.214612 0.181758 0.082010
0.224735 0.182892 0.088408
0.410800 0.178391 0.087900
0.643929 0.181657 0.085999
0.715001 0.180080 0.082115
0.646412 0.182053 0.085411
0.411772 0.187293 0.083320
0.416488 0.190227 0.082361
0.729275 0.189667 0.083495
0.658003 0.215022 0.084000
0.463285 0.209445 0.082387
0.738773 0.212614 0.086005
0.480072 0.217270 0.077735
0.496119 0.220255 0.079484
0.737488 0.221812 0.085014
0.468010 0.220532 0.083778
0.477386 0.221154 0.084300
0.467909 0.229488 0.079669
0.502394 0.229184 0.083062
0.671418 0.229440 0.088316
0.740771 0.229751 0.079935
0.476519 0.231062 0.085277
0.463259 0.234378 0.081606
0.676859 0.238553 0.080378
0.516927 0.240399 0.087381
0.457593 0.243461 0.086531
0.462976 0.250607 0.079771
0.756259 0.247291 0.085266
0.694912 0.261355 0.087371
0.476017 0.262290 0.084117
0.538148 0.270424 0.081128
0.706656 0.278200 0.084019
0.479011 0.281468 0.081859
0.765997 0.287318 0.081556
0.554288 0.288813 0.083341
0.717882 0.296004 0.087806
0.780621 0.296328 0.084443
0.551710 0.299803 0.082849
0.486990 0.310229 0.081065
0.563083 0.310089 0.087034
0.775063 0.313189 0.087508
0.492835 0.317463 0.083113
0.726523 0.318789 0.079435
0.783480 0.315413 0.082458
0.784002 0.329598 0.081904
0.733071 0.327912 0.081428
0.495991 0.335622 0.085255
0.717624 0.337193 0.086622
0.581108 0.335665 0.087612
0.774443 0.336019 0.079942
0.775734 0.345291 0.085553
0.787338 0.345813 0.084451
0.718664 0.343672 0.088119
0.588124 0.346125 0.088482
0.504380 0.357982 0.086247
0.785523 0.359423 0.082466
0.720472 0.356953 0.081964
0.596280 0.357527 0.084192
0.512355 0.368755 0.085002
0.720121 0.371102 0.083440
0.613800 0.364607 0.084396
0.516850 0.377939 0.081863
0.523124 0.375323 0.079664
0.777100 0.378979 0.083736
0.712254 0.384059 0.080751
0.771163 0.383568 0.083440
0.633849 0.388674 0.085272
0.516319 0.388754 0.082090
0.651821 0.388473 0.088065
0.526910 0.394723 0.084255
0.643309 0.389928 0.082344
0.775695 0.396335 0.084369
0.658393 0.397387 0.080518
0.667550 0.399655 0.085526
0.534106 0.404856 0.085957
0.766160 0.404656 0.078378
0.535803 0.417456 0.087625
0.756484 0.424968 0.077774
0.554352 0.423004 0.079437
0.768385 0.422602 0.083415
0.544783 0.425032 0.085455
0.562930 0.437451 0.086906
0.743041 0.433465 0.079969
0.755552 0.436112 0.084719
0.734502 0.441576 0.080381
0.570956 0.445006 0.079709
0.580196 0.453682 0.083912
0.736352 0.453490 0.086092
0.569432 0.457655 0.086329
0.352598 0.450599 0.085983
0.591564 0.464871 0.081138
0.719473 0.464585 0.082458
0.319169 0.463352 0.082230
0.360701 0.461684 0.087346
0.599322 0.467652 0.083136
0.313443 0.467588 0.087247
0.634329 0.472023 0.081831
0.699136 0.476481 0.081624
0.660376 0.479503 0.082042
0.668037 0.480833 0.086660
0.640945 0.480521 0.086775
0.648536 0.482166 0.086636
0.662608 0.485493 0.084528
0.681490 0.487986 0.085585
0.686195 0.483600 0.087284
0.310768 0.482207 0.083093
0.305782 0.481576 0.086070
0.301604 0.490666 0.083931
0.298876 0.498491 0.085883
0.385735 0.503344 0.082524
0.384563 0.512027 0.085333
0.383469 0.519618 0.087208
0.297198 0.534663 0.082002
0.287663 0.536999 0.085227
0.298735 0.537281 0.081921
0.380624 0.540495 0.080552
0.379358 0.540869 0.085961
0.378167 0.554712 0.087532
0.279582 0.549057 0.084200
0.285465 0.569638 0.085272
0.371051 0.570666 0.086559
0.295118 0.583843 0.084824
0.301633 0.589192 0.084355
0.366913 0.591785 0.083722
0.361910 0.590640 0.086622
0.272951 0.592682 0.084069
0.279183 0.588898 0.086383
0.350005 0.597122 0.085277
0.265430 0.601166 0.086054
0.339019 0.596487 0.085338
0.350911 0.594880 0.079595
0.330669 0.596598 0.085034
0.273054 0.607838 0.085469
0.296144 0.605281 0.081339
0.327049 0.607719 0.085214
0.325381 0.613426 0.086471
0.284213 0.613785 0.085081
0.289722 0.622677 0.089830
0.319359 0.627857 0.082949
0.302519 0.625262 0.086456
0.311133 0.628236 0.082450
0.330867 0.000078 0.083917
0.432709 0.061279 0.085083
0.212815 0.084503 0.085624
