ply
format ascii 1.0
element vertex 1773
property float x
property float y
property float z
end_header
0.910237 0.117813 0.244205
0.910237 0.125313 0.244205
0.910237 0.132813 0.244205
0.910237 0.140313 0.244205
0.917737 0.132813 0.244205
0.910237 0.155313 0.236705
0.917737 0.155313 0.244205
0.910237 0.102813 0.251705
0.910237 0.102813 0.259205
0.910237 0.110313 0.251705
0.917737 0.102813 0.266705
0.917737 0.110313 0.266705
0.917737 0.110313 0.274205
0.917737 0.117813 0.259205
0.917737 0.125313 0.251705
0.917737 0.125313 0.259205
0.917737 0.117813 0.274205
0.925237 0.117813 0.274205
0.925237 0.125313 0.266705
0.917737 0.102813 0.281705
0.925237 0.102813 0.289205
0.925237 0.110313 0.289205
0.925237 0.102813 0.296705
0.925237 0.110313 0.296705
0.925237 0.117813 0.281705
0.925237 0.125313 0.281705
0.925237 0.125313 0.289205
0.925237 0.117813 0.296705
0.932737 0.125313 0.296705
0.932737 0.125313 0.304205
0.917737 0.132813 0.251705
0.917737 0.132813 0.259205
0.917737 0.147813 0.251705
0.925237 0.140313 0.259205
0.925237 0.132813 0.266705
0.925237 0.132813 0.274205
0.932737 0.140313 0.266705
0.925237 0.147813 0.259205
0.925237 0.155313 0.251705
0.932737 0.155313 0.259205
0.932737 0.155313 0.266705
0.932737 0.155313 0.274205
0.932737 0.132813 0.281705
0.932737 0.132813 0.289205
0.932737 0.140313 0.281705
0.932737 0.140313 0.289205
0.932737 0.132813 0.296705
0.932737 0.140313 0.296705
0.932737 0.147813 0.296705
0.932737 0.147813 0.304205
0.940237 0.155313 0.281705
0.940237 0.155313 0.289205
0.940237 0.155313 0.296705
0.940237 0.155313 0.304205
0.730237 0.005313 0.311705
0.737737 0.005313 0.311705
0.737737 0.005313 0.319205
0.745237 0.005313 0.311705
0.745237 0.005313 0.319205
0.752737 0.005313 0.311705
0.752737 0.005313 0.319205
0.745237 0.005313 0.326705
0.752737 0.005313 0.326705
0.730237 0.012813 0.319205
0.730237 0.020313 0.326705
0.737737 0.012813 0.326705
0.737737 0.020313 0.326705
0.730237 0.027813 0.334205
0.730237 0.035313 0.334205
0.737737 0.027813 0.334205
0.745237 0.012813 0.326705
0.745237 0.020313 0.334205
0.737737 0.035313 0.341705
0.752737 0.020313 0.341705
0.745237 0.027813 0.341705
0.745237 0.035313 0.341705
0.752737 0.035313 0.349205
0.767737 0.005313 0.311705
0.767737 0.005313 0.319205
0.760237 0.005313 0.326705
0.767737 0.005313 0.326705
0.775237 0.005313 0.319205
0.782737 0.005313 0.319205
0.775237 0.005313 0.326705
0.775237 0.005313 0.334205
0.782737 0.005313 0.326705
0.782737 0.005313 0.334205
0.760237 0.020313 0.334205
0.767737 0.012813 0.334205
0.767737 0.012813 0.341705
0.767737 0.020313 0.341705
0.760237 0.027813 0.349205
0.767737 0.027813 0.349205
0.767737 0.035313 0.356705
0.775237 0.012813 0.341705
0.775237 0.020313 0.349205
0.782737 0.012813 0.341705
0.775237 0.027813 0.356705
0.775237 0.035313 0.356705
0.782737 0.027813 0.356705
0.782737 0.035313 0.356705
0.790237 0.005313 0.311705
0.797737 0.005313 0.311705
0.797737 0.005313 0.319205
0.790237 0.005313 0.326705
0.797737 0.005313 0.334205
0.805237 0.005313 0.311705
0.805237 0.005313 0.319205
0.812737 0.005313 0.311705
0.812737 0.005313 0.319205
0.805237 0.005313 0.326705
0.812737 0.005313 0.326705
0.805237 0.005313 0.341705
0.812737 0.005313 0.341705
0.790237 0.020313 0.349205
0.797737 0.020313 0.349205
0.790237 0.027813 0.356705
0.797737 0.035313 0.356705
0.805237 0.020313 0.349205
0.812737 0.020313 0.349205
0.805237 0.027813 0.356705
0.805237 0.035313 0.356705
0.812737 0.027813 0.356705
0.812737 0.035313 0.364205
0.820237 0.005313 0.311705
0.820237 0.005313 0.319205
0.827737 0.005313 0.326705
0.835237 0.005313 0.311705
0.835237 0.005313 0.319205
0.842737 0.005313 0.311705
0.842737 0.005313 0.319205
0.835237 0.005313 0.326705
0.820237 0.012813 0.334205
0.835237 0.012813 0.334205
0.842737 0.012813 0.326705
0.820237 0.020313 0.349205
0.827737 0.012813 0.341705
0.827737 0.020313 0.349205
0.820237 0.027813 0.349205
0.827737 0.035313 0.356705
0.835237 0.012813 0.341705
0.835237 0.020313 0.341705
0.842737 0.020313 0.341705
0.835237 0.027813 0.349205
0.842737 0.027813 0.349205
0.835237 0.035313 0.356705
0.842737 0.035313 0.356705
0.730237 0.042813 0.334205
0.730237 0.065313 0.311705
0.730237 0.057813 0.334205
0.730237 0.065313 0.334205
0.737737 0.042813 0.341705
0.737737 0.050313 0.341705
0.737737 0.057813 0.341705
0.737737 0.065313 0.341705
0.745237 0.050313 0.349205
0.752737 0.042813 0.349205
0.745237 0.057813 0.349205
0.745237 0.065313 0.349205
0.752737 0.057813 0.349205
0.752737 0.065313 0.349205
0.730237 0.072813 0.311705
0.730237 0.072813 0.319205
0.730237 0.080313 0.311705
0.730237 0.080313 0.319205
0.737737 0.072813 0.311705
0.730237 0.072813 0.334205
0.730237 0.087813 0.326705
0.730237 0.095313 0.326705
0.737737 0.087813 0.334205
0.737737 0.095313 0.326705
0.745237 0.095313 0.334205
0.737737 0.072813 0.341705
0.745237 0.072813 0.341705
0.745237 0.080313 0.341705
0.752737 0.072813 0.349205
0.745237 0.087813 0.341705
0.752737 0.087813 0.341705
0.752737 0.087813 0.349205
0.752737 0.095313 0.341705
0.760237 0.042813 0.356705
0.760237 0.050313 0.356705
0.767737 0.050313 0.356705
0.760237 0.057813 0.356705
0.760237 0.065313 0.356705
0.767737 0.057813 0.356705
0.767737 0.065313 0.356705
0.775237 0.050313 0.356705
0.782737 0.042813 0.364205
0.782737 0.050313 0.364205
0.775237 0.057813 0.364205
0.775237 0.065313 0.364205
0.782737 0.057813 0.364205
0.782737 0.065313 0.364205
0.760237 0.072813 0.349205
0.767737 0.072813 0.356705
0.760237 0.087813 0.349205
0.760237 0.095313 0.341705
0.767737 0.095313 0.349205
0.767737 0.087813 0.356705
0.775237 0.072813 0.356705
0.782737 0.080313 0.364205
0.775237 0.095313 0.349205
0.775237 0.087813 0.356705
0.782737 0.087813 0.364205
0.782737 0.095313 0.356705
0.730237 0.110313 0.311705
0.737737 0.102813 0.319205
0.737737 0.110313 0.311705
0.730237 0.110313 0.326705
0.730237 0.110313 0.334205
0.737737 0.102813 0.326705
0.730237 0.117813 0.319205
0.730237 0.125313 0.319205
0.737737 0.125313 0.319205
0.730237 0.117813 0.326705
0.730237 0.125313 0.334205
0.737737 0.125313 0.326705
0.745237 0.110313 0.311705
0.745237 0.110313 0.319205
0.752737 0.110313 0.319205
0.745237 0.102813 0.326705
0.752737 0.102813 0.326705
0.752737 0.110313 0.326705
0.730237 0.102813 0.349205
0.730237 0.110313 0.349205
0.730237 0.102813 0.356705
0.730237 0.102813 0.364205
0.737737 0.117813 0.341705
0.737737 0.117813 0.349205
0.737737 0.125313 0.341705
0.737737 0.125313 0.349205
0.737737 0.117813 0.356705
0.737737 0.117813 0.364205
0.737737 0.125313 0.356705
0.737737 0.125313 0.364205
0.745237 0.125313 0.356705
0.745237 0.125313 0.364205
0.730237 0.132813 0.311705
0.730237 0.132813 0.319205
0.730237 0.140313 0.311705
0.730237 0.140313 0.319205
0.737737 0.132813 0.311705
0.737737 0.132813 0.319205
0.737737 0.140313 0.319205
0.730237 0.132813 0.326705
0.737737 0.132813 0.326705
0.737737 0.140313 0.326705
0.730237 0.155313 0.319205
0.737737 0.147813 0.311705
0.737737 0.147813 0.319205
0.730237 0.155313 0.326705
0.737737 0.155313 0.326705
0.745237 0.140313 0.334205
0.745237 0.147813 0.334205
0.745237 0.155313 0.326705
0.745237 0.155313 0.334205
0.737737 0.132813 0.341705
0.745237 0.132813 0.349205
0.745237 0.140313 0.349205
0.745237 0.132813 0.356705
0.745237 0.132813 0.364205
0.752737 0.140313 0.356705
0.752737 0.140313 0.364205
0.752737 0.155313 0.349205
0.752737 0.155313 0.356705
0.752737 0.155313 0.364205
0.767737 0.110313 0.319205
0.760237 0.102813 0.334205
0.760237 0.110313 0.326705
0.760237 0.110313 0.334205
0.767737 0.110313 0.326705
0.767737 0.117813 0.311705
0.775237 0.117813 0.311705
0.775237 0.117813 0.319205
0.782737 0.117813 0.311705
0.775237 0.117813 0.326705
0.782737 0.117813 0.326705
0.760237 0.102813 0.341705
0.767737 0.102813 0.341705
0.767737 0.110313 0.341705
0.775237 0.102813 0.349205
0.775237 0.110313 0.341705
0.782737 0.110313 0.341705
0.782737 0.110313 0.349205
0.782737 0.117813 0.341705
0.730237 0.110313 0.371705
0.730237 0.117813 0.371705
0.730237 0.125313 0.379205
0.737737 0.125313 0.371705
0.737737 0.132813 0.379205
0.737737 0.140313 0.379205
0.730237 0.132813 0.386705
0.730237 0.140313 0.386705
0.730237 0.147813 0.394205
0.730237 0.155313 0.394205
0.737737 0.147813 0.386705
0.737737 0.155313 0.386705
0.737737 0.155313 0.394205
0.745237 0.132813 0.371705
0.745237 0.140313 0.379205
0.745237 0.147813 0.379205
0.752737 0.147813 0.371705
0.752737 0.147813 0.379205
0.752737 0.155313 0.371705
0.745237 0.155313 0.386705
0.790237 0.042813 0.364205
0.790237 0.050313 0.364205
0.797737 0.042813 0.364205
0.790237 0.057813 0.364205
0.797737 0.065313 0.364205
0.805237 0.042813 0.364205
0.805237 0.050313 0.364205
0.812737 0.042813 0.364205
0.812737 0.050313 0.364205
0.805237 0.057813 0.364205
0.790237 0.072813 0.364205
0.790237 0.080313 0.364205
0.797737 0.072813 0.364205
0.790237 0.087813 0.364205
0.797737 0.087813 0.364205
0.797737 0.095313 0.364205
0.805237 0.087813 0.364205
0.805237 0.095313 0.364205
0.812737 0.095313 0.364205
0.820237 0.042813 0.364205
0.827737 0.042813 0.364205
0.835237 0.042813 0.364205
0.835237 0.050313 0.364205
0.842737 0.050313 0.364205
0.805237 0.065313 0.371705
0.812737 0.057813 0.371705
0.812737 0.065313 0.371705
0.805237 0.072813 0.371705
0.812737 0.072813 0.371705
0.812737 0.087813 0.371705
0.820237 0.065313 0.371705
0.827737 0.057813 0.371705
0.835237 0.057813 0.371705
0.835237 0.065313 0.371705
0.842737 0.057813 0.371705
0.842737 0.065313 0.371705
0.827737 0.072813 0.371705
0.827737 0.087813 0.371705
0.827737 0.095313 0.371705
0.835237 0.072813 0.371705
0.842737 0.072813 0.371705
0.835237 0.087813 0.371705
0.835237 0.095313 0.371705
0.842737 0.087813 0.371705
0.842737 0.095313 0.371705
0.790237 0.125313 0.311705
0.790237 0.125313 0.319205
0.790237 0.117813 0.326705
0.790237 0.117813 0.334205
0.797737 0.125313 0.326705
0.790237 0.110313 0.349205
0.790237 0.102813 0.356705
0.797737 0.102813 0.356705
0.797737 0.110313 0.356705
0.790237 0.117813 0.341705
0.797737 0.117813 0.349205
0.797737 0.125313 0.341705
0.805237 0.102813 0.364205
0.805237 0.110313 0.356705
0.805237 0.110313 0.364205
0.812737 0.102813 0.364205
0.812737 0.110313 0.356705
0.805237 0.125313 0.341705
0.805237 0.125313 0.349205
0.812737 0.125313 0.349205
0.812737 0.125313 0.356705
0.797737 0.132813 0.319205
0.805237 0.132813 0.311705
0.805237 0.132813 0.319205
0.812737 0.140313 0.311705
0.812737 0.140313 0.319205
0.805237 0.132813 0.326705
0.805237 0.132813 0.334205
0.812737 0.140313 0.326705
0.812737 0.140313 0.334205
0.812737 0.132813 0.341705
0.812737 0.132813 0.349205
0.820237 0.102813 0.364205
0.820237 0.125313 0.364205
0.827737 0.117813 0.364205
0.827737 0.125313 0.364205
0.835237 0.117813 0.364205
0.835237 0.125313 0.364205
0.842737 0.125313 0.364205
0.820237 0.140313 0.334205
0.820237 0.147813 0.311705
0.827737 0.155313 0.311705
0.827737 0.155313 0.319205
0.820237 0.147813 0.326705
0.827737 0.147813 0.334205
0.827737 0.155313 0.326705
0.820237 0.132813 0.349205
0.827737 0.140313 0.349205
0.827737 0.132813 0.356705
0.820237 0.147813 0.341705
0.835237 0.132813 0.356705
0.835237 0.140313 0.356705
0.842737 0.132813 0.356705
0.842737 0.132813 0.364205
0.835237 0.147813 0.349205
0.835237 0.155313 0.341705
0.842737 0.147813 0.349205
0.842737 0.155313 0.349205
0.842737 0.147813 0.356705
0.835237 0.102813 0.371705
0.842737 0.102813 0.371705
0.842737 0.117813 0.371705
0.850237 0.012813 0.311705
0.850237 0.012813 0.319205
0.857737 0.012813 0.311705
0.857737 0.020313 0.319205
0.850237 0.020313 0.326705
0.857737 0.027813 0.334205
0.865237 0.020313 0.311705
0.865237 0.027813 0.319205
0.872737 0.027813 0.311705
0.872737 0.027813 0.319205
0.865237 0.027813 0.326705
0.865237 0.027813 0.334205
0.872737 0.027813 0.326705
0.872737 0.035313 0.326705
0.850237 0.027813 0.341705
0.850237 0.035313 0.349205
0.857737 0.027813 0.341705
0.850237 0.035313 0.356705
0.865237 0.035313 0.341705
0.865237 0.035313 0.349205
0.872737 0.035313 0.341705
0.872737 0.035313 0.349205
0.880237 0.035313 0.311705
0.880237 0.035313 0.319205
0.880237 0.035313 0.326705
0.850237 0.042813 0.356705
0.850237 0.042813 0.364205
0.850237 0.050313 0.364205
0.857737 0.042813 0.356705
0.850237 0.057813 0.364205
0.872737 0.042813 0.349205
0.865237 0.042813 0.356705
0.872737 0.050313 0.356705
0.865237 0.057813 0.364205
0.865237 0.065313 0.364205
0.872737 0.057813 0.356705
0.872737 0.065313 0.356705
0.872737 0.065313 0.364205
0.872737 0.072813 0.364205
0.872737 0.087813 0.364205
0.887737 0.042813 0.319205
0.887737 0.050313 0.311705
0.887737 0.050313 0.319205
0.887737 0.042813 0.326705
0.887737 0.050313 0.326705
0.887737 0.057813 0.334205
0.895237 0.050313 0.311705
0.895237 0.057813 0.311705
0.895237 0.057813 0.319205
0.902737 0.065313 0.311705
0.902737 0.065313 0.319205
0.895237 0.057813 0.326705
0.895237 0.065313 0.334205
0.902737 0.065313 0.326705
0.880237 0.042813 0.341705
0.887737 0.050313 0.341705
0.880237 0.057813 0.349205
0.887737 0.065313 0.349205
0.880237 0.057813 0.356705
0.880237 0.065313 0.356705
0.895237 0.065313 0.341705
0.902737 0.072813 0.326705
0.880237 0.072813 0.356705
0.880237 0.080313 0.364205
0.887737 0.072813 0.356705
0.887737 0.080313 0.364205
0.880237 0.087813 0.364205
0.880237 0.095313 0.364205
0.895237 0.072813 0.341705
0.895237 0.072813 0.349205
0.902737 0.072813 0.341705
0.902737 0.080313 0.341705
0.902737 0.087813 0.349205
0.902737 0.095313 0.349205
0.895237 0.087813 0.356705
0.895237 0.095313 0.356705
0.902737 0.095313 0.356705
0.850237 0.065313 0.371705
0.857737 0.072813 0.371705
0.850237 0.087813 0.371705
0.850237 0.095313 0.371705
0.857737 0.087813 0.371705
0.865237 0.072813 0.371705
0.865237 0.095313 0.371705
0.872737 0.095313 0.371705
0.850237 0.125313 0.364205
0.857737 0.117813 0.364205
0.865237 0.102813 0.364205
0.865237 0.110313 0.364205
0.872737 0.102813 0.364205
0.872737 0.110313 0.364205
0.865237 0.125313 0.364205
0.872737 0.125313 0.364205
0.850237 0.132813 0.364205
0.850237 0.140313 0.356705
0.857737 0.140313 0.356705
0.857737 0.140313 0.364205
0.850237 0.155313 0.349205
0.850237 0.155313 0.356705
0.865237 0.132813 0.364205
0.872737 0.132813 0.364205
0.872737 0.140313 0.356705
0.865237 0.155313 0.356705
0.872737 0.155313 0.356705
0.880237 0.102813 0.364205
0.887737 0.102813 0.364205
0.887737 0.110313 0.364205
0.880237 0.117813 0.364205
0.880237 0.125313 0.364205
0.887737 0.117813 0.364205
0.902737 0.102813 0.349205
0.895237 0.102813 0.364205
0.902737 0.102813 0.356705
0.895237 0.117813 0.364205
0.895237 0.125313 0.356705
0.902737 0.117813 0.356705
0.902737 0.125313 0.356705
0.880237 0.132813 0.356705
0.887737 0.140313 0.356705
0.887737 0.155313 0.349205
0.880237 0.155313 0.356705
0.902737 0.132813 0.349205
0.902737 0.140313 0.349205
0.895237 0.132813 0.356705
0.902737 0.132813 0.356705
0.895237 0.155313 0.349205
0.902737 0.155313 0.349205
0.895237 0.147813 0.356705
0.902737 0.147813 0.356705
0.850237 0.102813 0.371705
0.910237 0.072813 0.311705
0.910237 0.072813 0.319205
0.910237 0.080313 0.326705
0.917737 0.087813 0.319205
0.917737 0.095313 0.311705
0.917737 0.095313 0.319205
0.910237 0.087813 0.326705
0.917737 0.095313 0.326705
0.910237 0.087813 0.341705
0.910237 0.095313 0.341705
0.917737 0.102813 0.326705
0.917737 0.110313 0.334205
0.925237 0.102813 0.311705
0.925237 0.102813 0.319205
0.925237 0.110313 0.319205
0.925237 0.117813 0.311705
0.925237 0.117813 0.319205
0.932737 0.125313 0.319205
0.925237 0.117813 0.326705
0.925237 0.125313 0.326705
0.910237 0.102813 0.349205
0.917737 0.102813 0.341705
0.917737 0.110313 0.341705
0.910237 0.117813 0.349205
0.910237 0.125313 0.349205
0.917737 0.117813 0.341705
0.917737 0.125313 0.341705
0.917737 0.140313 0.334205
0.917737 0.155313 0.334205
0.932737 0.132813 0.311705
0.932737 0.132813 0.319205
0.932737 0.140313 0.311705
0.932737 0.140313 0.319205
0.925237 0.132813 0.326705
0.925237 0.132813 0.334205
0.925237 0.140313 0.326705
0.932737 0.155313 0.319205
0.925237 0.147813 0.334205
0.925237 0.155313 0.326705
0.925237 0.155313 0.334205
0.910237 0.132813 0.349205
0.910237 0.140313 0.349205
0.917737 0.132813 0.341705
0.917737 0.140313 0.341705
0.910237 0.155313 0.349205
0.917737 0.155313 0.341705
0.490237 0.170313 0.094205
0.497737 0.162813 0.094205
0.490237 0.185313 0.086705
0.497737 0.177813 0.094205
0.505237 0.177813 0.094205
0.497737 0.162813 0.101705
0.505237 0.162813 0.101705
0.505237 0.170313 0.101705
0.512737 0.162813 0.109205
0.512737 0.170313 0.109205
0.512737 0.177813 0.101705
0.512737 0.185313 0.101705
0.490237 0.192813 0.086705
0.497737 0.200313 0.086705
0.497737 0.207813 0.086705
0.505237 0.192813 0.086705
0.505237 0.192813 0.094205
0.505237 0.200313 0.086705
0.512737 0.192813 0.094205
0.512737 0.200313 0.094205
0.505237 0.207813 0.086705
0.512737 0.215313 0.086705
0.520237 0.170313 0.109205
0.520237 0.162813 0.116705
0.520237 0.170313 0.116705
0.527737 0.162813 0.124205
0.527737 0.170313 0.124205
0.520237 0.185313 0.109205
0.527737 0.185313 0.109205
0.527737 0.177813 0.116705
0.527737 0.185313 0.116705
0.535237 0.177813 0.124205
0.535237 0.185313 0.124205
0.520237 0.207813 0.094205
0.520237 0.215313 0.094205
0.520237 0.192813 0.101705
0.527737 0.192813 0.109205
0.527737 0.200313 0.101705
0.527737 0.200313 0.109205
0.535237 0.192813 0.116705
0.535237 0.200313 0.116705
0.542737 0.192813 0.116705
0.542737 0.192813 0.124205
0.542737 0.200313 0.116705
0.542737 0.200313 0.124205
0.535237 0.207813 0.109205
0.535237 0.215313 0.101705
0.542737 0.215313 0.109205
0.542737 0.207813 0.116705
0.542737 0.207813 0.124205
0.542737 0.215313 0.116705
0.527737 0.162813 0.131705
0.535237 0.162813 0.131705
0.535237 0.170313 0.131705
0.542737 0.170313 0.139205
0.535237 0.162813 0.146705
0.535237 0.162813 0.154205
0.542737 0.162813 0.154205
0.542737 0.170313 0.154205
0.542737 0.177813 0.131705
0.542737 0.177813 0.139205
0.542737 0.185313 0.146705
0.542737 0.162813 0.161705
0.542737 0.162813 0.169205
0.542737 0.170313 0.161705
0.542737 0.162813 0.184205
0.542737 0.192813 0.131705
0.490237 0.222813 0.079205
0.490237 0.230313 0.079205
0.497737 0.230313 0.079205
0.490237 0.237813 0.079205
0.497737 0.245313 0.079205
0.505237 0.230313 0.079205
0.505237 0.222813 0.086705
0.512737 0.222813 0.086705
0.512737 0.230313 0.086705
0.505237 0.237813 0.079205
0.505237 0.245313 0.079205
0.512737 0.237813 0.079205
0.512737 0.245313 0.079205
0.490237 0.252813 0.079205
0.497737 0.260313 0.079205
0.497737 0.267813 0.079205
0.497737 0.275313 0.079205
0.505237 0.252813 0.079205
0.505237 0.260313 0.079205
0.512737 0.252813 0.079205
0.512737 0.260313 0.079205
0.505237 0.267813 0.079205
0.505237 0.275313 0.079205
0.512737 0.267813 0.079205
0.520237 0.222813 0.086705
0.520237 0.230313 0.086705
0.527737 0.222813 0.094205
0.527737 0.230313 0.086705
0.527737 0.245313 0.086705
0.535237 0.222813 0.094205
0.535237 0.230313 0.094205
0.535237 0.237813 0.086705
0.535237 0.237813 0.094205
0.542737 0.237813 0.094205
0.535237 0.222813 0.101705
0.542737 0.222813 0.109205
0.542737 0.230313 0.101705
0.542737 0.237813 0.101705
0.520237 0.260313 0.079205
0.527737 0.260313 0.079205
0.527737 0.252813 0.086705
0.527737 0.267813 0.079205
0.535237 0.252813 0.086705
0.535237 0.260313 0.086705
0.542737 0.252813 0.086705
0.542737 0.252813 0.094205
0.542737 0.260313 0.086705
0.542737 0.260313 0.094205
0.535237 0.267813 0.079205
0.535237 0.275313 0.079205
0.542737 0.267813 0.086705
0.550237 0.207813 0.124205
0.550237 0.215313 0.124205
0.602737 0.162813 0.116705
0.602737 0.162813 0.124205
0.602737 0.170313 0.124205
0.550237 0.185313 0.139205
0.550237 0.177813 0.154205
0.550237 0.185313 0.154205
0.550237 0.170313 0.176705
0.550237 0.170313 0.184205
0.550237 0.177813 0.161705
0.550237 0.185313 0.169205
0.550237 0.177813 0.176705
0.550237 0.185313 0.184205
0.550237 0.192813 0.139205
0.550237 0.200313 0.131705
0.557737 0.200313 0.139205
0.550237 0.192813 0.146705
0.550237 0.192813 0.154205
0.557737 0.200313 0.154205
0.557737 0.207813 0.139205
0.557737 0.215313 0.131705
0.557737 0.207813 0.146705
0.557737 0.215313 0.146705
0.565237 0.215313 0.154205
0.557737 0.192813 0.161705
0.557737 0.200313 0.161705
0.557737 0.200313 0.169205
0.557737 0.192813 0.176705
0.557737 0.192813 0.184205
0.557737 0.200313 0.176705
0.557737 0.200313 0.184205
0.565237 0.215313 0.161705
0.565237 0.215313 0.176705
0.565237 0.215313 0.184205
0.602737 0.162813 0.131705
0.602737 0.170313 0.131705
0.595237 0.162813 0.146705
0.595237 0.162813 0.154205
0.595237 0.170313 0.154205
0.602737 0.170313 0.146705
0.602737 0.177813 0.139205
0.602737 0.185313 0.131705
0.602737 0.177813 0.146705
0.602737 0.185313 0.154205
0.595237 0.162813 0.161705
0.595237 0.170313 0.169205
0.595237 0.162813 0.176705
0.602737 0.162813 0.184205
0.602737 0.170313 0.184205
0.595237 0.177813 0.161705
0.602737 0.177813 0.169205
0.602737 0.185313 0.161705
0.595237 0.177813 0.176705
0.602737 0.177813 0.184205
0.602737 0.192813 0.146705
0.602737 0.192813 0.154205
0.602737 0.192813 0.161705
0.602737 0.192813 0.169205
0.550237 0.230313 0.109205
0.550237 0.222813 0.116705
0.550237 0.230313 0.116705
0.557737 0.230313 0.124205
0.550237 0.237813 0.109205
0.550237 0.245313 0.109205
0.557737 0.245313 0.109205
0.557737 0.237813 0.116705
0.565237 0.237813 0.124205
0.565237 0.245313 0.124205
0.550237 0.267813 0.094205
0.550237 0.275313 0.086705
0.550237 0.252813 0.101705
0.550237 0.260313 0.101705
0.557737 0.260313 0.101705
0.557737 0.260313 0.109205
0.557737 0.275313 0.101705
0.565237 0.252813 0.116705
0.565237 0.260313 0.116705
0.572737 0.252813 0.124205
0.572737 0.260313 0.124205
0.565237 0.267813 0.109205
0.565237 0.275313 0.101705
0.572737 0.267813 0.116705
0.572737 0.267813 0.124205
0.572737 0.275313 0.116705
0.580237 0.267813 0.124205
0.557737 0.222813 0.131705
0.565237 0.230313 0.131705
0.565237 0.222813 0.146705
0.565237 0.222813 0.154205
0.565237 0.230313 0.146705
0.565237 0.230313 0.154205
0.565237 0.237813 0.131705
0.565237 0.237813 0.139205
0.565237 0.245313 0.131705
0.572737 0.237813 0.146705
0.572737 0.237813 0.154205
0.572737 0.245313 0.154205
0.565237 0.222813 0.161705
0.565237 0.230313 0.161705
0.565237 0.222813 0.176705
0.565237 0.222813 0.184205
0.565237 0.230313 0.184205
0.572737 0.230313 0.176705
0.572737 0.237813 0.161705
0.572737 0.245313 0.161705
0.565237 0.237813 0.184205
0.572737 0.237813 0.184205
0.572737 0.245313 0.176705
0.572737 0.252813 0.131705
0.572737 0.260313 0.131705
0.572737 0.252813 0.146705
0.572737 0.252813 0.176705
0.572737 0.252813 0.184205
0.572737 0.260313 0.184205
0.580237 0.260313 0.139205
0.580237 0.252813 0.146705
0.580237 0.252813 0.154205
0.580237 0.260313 0.146705
0.580237 0.260313 0.154205
0.580237 0.267813 0.131705
0.580237 0.267813 0.139205
0.587737 0.275313 0.131705
0.580237 0.267813 0.154205
0.587737 0.275313 0.146705
0.587737 0.275313 0.154205
0.580237 0.252813 0.161705
0.580237 0.252813 0.169205
0.580237 0.260313 0.161705
0.580237 0.260313 0.176705
0.580237 0.260313 0.184205
0.580237 0.267813 0.161705
0.587737 0.275313 0.161705
0.580237 0.267813 0.176705
0.580237 0.267813 0.184205
0.580237 0.275313 0.184205
0.535237 0.162813 0.199205
0.542737 0.162813 0.191705
0.542737 0.162813 0.199205
0.542737 0.170313 0.191705
0.542737 0.170313 0.199205
0.535237 0.162813 0.206705
0.535237 0.162813 0.214205
0.535237 0.170313 0.214205
0.542737 0.170313 0.214205
0.542737 0.177813 0.214205
0.542737 0.185313 0.214205
0.527737 0.162813 0.221705
0.527737 0.162813 0.229205
0.527737 0.170313 0.229205
0.520237 0.162813 0.236705
0.520237 0.162813 0.244205
0.520237 0.170313 0.244205
0.527737 0.162813 0.236705
0.527737 0.170313 0.236705
0.527737 0.185313 0.229205
0.520237 0.177813 0.236705
0.520237 0.177813 0.244205
0.520237 0.185313 0.244205
0.527737 0.177813 0.236705
0.535237 0.170313 0.221705
0.535237 0.185313 0.221705
0.542737 0.177813 0.221705
0.542737 0.192813 0.214205
0.520237 0.200313 0.244205
0.527737 0.192813 0.236705
0.527737 0.192813 0.244205
0.527737 0.200313 0.236705
0.527737 0.200313 0.244205
0.520237 0.207813 0.244205
0.527737 0.215313 0.236705
0.527737 0.215313 0.244205
0.535237 0.192813 0.229205
0.535237 0.200313 0.229205
0.542737 0.192813 0.221705
0.542737 0.200313 0.221705
0.535237 0.207813 0.229205
0.542737 0.215313 0.221705
0.542737 0.215313 0.229205
0.490237 0.162813 0.266705
0.490237 0.170313 0.266705
0.497737 0.162813 0.266705
0.497737 0.170313 0.266705
0.497737 0.185313 0.259205
0.490237 0.177813 0.266705
0.505237 0.162813 0.251705
0.505237 0.162813 0.259205
0.505237 0.170313 0.259205
0.512737 0.162813 0.251705
0.512737 0.170313 0.251705
0.505237 0.177813 0.259205
0.512737 0.185313 0.251705
0.512737 0.185313 0.259205
0.490237 0.192813 0.266705
0.490237 0.200313 0.266705
0.497737 0.192813 0.266705
0.497737 0.200313 0.266705
0.497737 0.207813 0.259205
0.490237 0.215313 0.266705
0.505237 0.192813 0.259205
0.505237 0.200313 0.259205
0.512737 0.192813 0.259205
0.512737 0.200313 0.259205
0.505237 0.215313 0.259205
0.512737 0.215313 0.259205
0.520237 0.192813 0.251705
0.520237 0.200313 0.251705
0.520237 0.215313 0.251705
0.527737 0.230313 0.244205
0.527737 0.237813 0.244205
0.542737 0.222813 0.221705
0.542737 0.222813 0.229205
0.542737 0.230313 0.229205
0.535237 0.222813 0.236705
0.535237 0.222813 0.244205
0.535237 0.230313 0.236705
0.535237 0.230313 0.244205
0.535237 0.237813 0.244205
0.535237 0.245313 0.244205
0.542737 0.237813 0.236705
0.527737 0.252813 0.244205
0.542737 0.252813 0.229205
0.535237 0.260313 0.244205
0.542737 0.252813 0.236705
0.542737 0.260313 0.236705
0.535237 0.267813 0.244205
0.535237 0.275313 0.244205
0.542737 0.267813 0.236705
0.542737 0.275313 0.244205
0.490237 0.230313 0.259205
0.497737 0.222813 0.259205
0.497737 0.237813 0.259205
0.505237 0.222813 0.259205
0.505237 0.230313 0.259205
0.512737 0.222813 0.259205
0.512737 0.230313 0.251705
0.512737 0.230313 0.259205
0.505237 0.237813 0.259205
0.505237 0.245313 0.251705
0.505237 0.245313 0.259205
0.512737 0.237813 0.251705
0.512737 0.237813 0.259205
0.490237 0.260313 0.259205
0.497737 0.252813 0.259205
0.497737 0.267813 0.259205
0.497737 0.275313 0.251705
0.505237 0.252813 0.251705
0.505237 0.260313 0.259205
0.512737 0.252813 0.251705
0.512737 0.260313 0.251705
0.505237 0.267813 0.259205
0.505237 0.275313 0.259205
0.512737 0.267813 0.251705
0.512737 0.275313 0.251705
0.512737 0.275313 0.259205
0.520237 0.222813 0.251705
0.520237 0.230313 0.251705
0.527737 0.237813 0.251705
0.520237 0.252813 0.251705
0.527737 0.260313 0.251705
0.520237 0.267813 0.251705
0.520237 0.275313 0.251705
0.550237 0.177813 0.191705
0.550237 0.177813 0.199205
0.550237 0.185313 0.199205
0.550237 0.192813 0.191705
0.550237 0.192813 0.199205
0.550237 0.200313 0.199205
0.557737 0.200313 0.191705
0.550237 0.200313 0.214205
0.557737 0.207813 0.191705
0.557737 0.207813 0.199205
0.557737 0.215313 0.191705
0.557737 0.215313 0.199205
0.550237 0.207813 0.214205
0.550237 0.215313 0.214205
0.602737 0.162813 0.191705
0.602737 0.170313 0.191705
0.557737 0.222813 0.199205
0.550237 0.222813 0.214205
0.557737 0.222813 0.206705
0.557737 0.230313 0.206705
0.557737 0.230313 0.214205
0.557737 0.237813 0.214205
0.557737 0.245313 0.214205
0.565237 0.222813 0.191705
0.565237 0.230313 0.191705
0.565237 0.230313 0.199205
0.565237 0.237813 0.191705
0.565237 0.237813 0.199205
0.565237 0.245313 0.206705
0.550237 0.222813 0.221705
0.550237 0.230313 0.221705
0.550237 0.237813 0.221705
0.550237 0.237813 0.229205
0.557737 0.252813 0.214205
0.565237 0.252813 0.199205
0.572737 0.252813 0.191705
0.572737 0.260313 0.191705
0.572737 0.260313 0.199205
0.565237 0.252813 0.206705
0.565237 0.260313 0.214205
0.572737 0.267813 0.191705
0.572737 0.267813 0.199205
0.572737 0.275313 0.199205
0.565237 0.267813 0.206705
0.565237 0.267813 0.214205
0.565237 0.275313 0.214205
0.550237 0.252813 0.229205
0.550237 0.260313 0.229205
0.557737 0.252813 0.221705
0.557737 0.260313 0.221705
0.550237 0.260313 0.236705
0.557737 0.267813 0.221705
0.557737 0.275313 0.229205
0.550237 0.267813 0.236705
0.565237 0.275313 0.221705
0.580237 0.275313 0.191705
0.490237 0.290313 0.079205
0.497737 0.290313 0.079205
0.490237 0.297813 0.079205
0.490237 0.305313 0.079205
0.497737 0.305313 0.079205
0.505237 0.290313 0.079205
0.512737 0.282813 0.079205
0.512737 0.290313 0.079205
0.505237 0.297813 0.079205
0.505237 0.305313 0.079205
0.512737 0.297813 0.079205
0.490237 0.320313 0.079205
0.497737 0.312813 0.079205
0.497737 0.327813 0.079205
0.497737 0.335313 0.086705
0.505237 0.320313 0.079205
0.512737 0.312813 0.079205
0.512737 0.320313 0.079205
0.505237 0.327813 0.079205
0.505237 0.335313 0.079205
0.512737 0.327813 0.079205
0.512737 0.335313 0.079205
0.520237 0.282813 0.079205
0.527737 0.290313 0.079205
0.520237 0.297813 0.079205
0.535237 0.282813 0.079205
0.535237 0.290313 0.079205
0.542737 0.290313 0.079205
0.542737 0.282813 0.086705
0.535237 0.297813 0.079205
0.535237 0.305313 0.079205
0.542737 0.297813 0.079205
0.542737 0.305313 0.079205
0.520237 0.312813 0.079205
0.527737 0.320313 0.079205
0.527737 0.327813 0.079205
0.527737 0.335313 0.079205
0.535237 0.320313 0.079205
0.542737 0.320313 0.079205
0.535237 0.327813 0.071705
0.535237 0.335313 0.079205
0.542737 0.327813 0.079205
0.542737 0.335313 0.079205
0.490237 0.342813 0.086705
0.490237 0.357813 0.094205
0.490237 0.365313 0.094205
0.497737 0.357813 0.086705
0.497737 0.365313 0.086705
0.505237 0.342813 0.079205
0.512737 0.350313 0.079205
0.512737 0.357813 0.079205
0.505237 0.357813 0.086705
0.505237 0.365313 0.086705
0.512737 0.365313 0.086705
0.497737 0.380313 0.094205
0.497737 0.387813 0.094205
0.505237 0.380313 0.086705
0.512737 0.380313 0.086705
0.505237 0.387813 0.086705
0.505237 0.387813 0.094205
0.505237 0.395313 0.094205
0.512737 0.387813 0.086705
0.512737 0.395313 0.086705
0.512737 0.395313 0.094205
0.490237 0.380313 0.109205
0.490237 0.387813 0.101705
0.490237 0.395313 0.109205
0.497737 0.395313 0.101705
0.490237 0.395313 0.116705
0.520237 0.342813 0.079205
0.527737 0.342813 0.079205
0.520237 0.357813 0.079205
0.520237 0.365313 0.079205
0.527737 0.357813 0.079205
0.527737 0.365313 0.079205
0.535237 0.342813 0.079205
0.542737 0.350313 0.079205
0.535237 0.357813 0.079205
0.535237 0.365313 0.079205
0.542737 0.357813 0.071705
0.542737 0.365313 0.079205
0.520237 0.372813 0.079205
0.527737 0.380313 0.079205
0.520237 0.387813 0.079205
0.527737 0.395313 0.086705
0.535237 0.372813 0.079205
0.542737 0.372813 0.079205
0.535237 0.387813 0.079205
0.535237 0.395313 0.079205
0.542737 0.387813 0.079205
0.542737 0.395313 0.079205
0.557737 0.282813 0.094205
0.557737 0.290313 0.086705
0.550237 0.305313 0.079205
0.557737 0.297813 0.079205
0.557737 0.305313 0.079205
0.565237 0.290313 0.094205
0.572737 0.290313 0.094205
0.565237 0.297813 0.086705
0.565237 0.297813 0.094205
0.565237 0.305313 0.086705
0.572737 0.297813 0.094205
0.572737 0.305313 0.094205
0.572737 0.282813 0.109205
0.572737 0.290313 0.101705
0.572737 0.297813 0.101705
0.550237 0.320313 0.079205
0.557737 0.320313 0.079205
0.550237 0.327813 0.079205
0.557737 0.335313 0.079205
0.565237 0.320313 0.079205
0.572737 0.312813 0.086705
0.572737 0.320313 0.086705
0.565237 0.327813 0.079205
0.565237 0.335313 0.079205
0.572737 0.327813 0.079205
0.572737 0.335313 0.079205
0.580237 0.290313 0.109205
0.580237 0.282813 0.116705
0.580237 0.282813 0.124205
0.580237 0.290313 0.116705
0.587737 0.290313 0.124205
0.580237 0.297813 0.109205
0.587737 0.297813 0.109205
0.587737 0.305313 0.101705
0.587737 0.305313 0.109205
0.587737 0.297813 0.116705
0.595237 0.297813 0.124205
0.595237 0.305313 0.116705
0.595237 0.305313 0.124205
0.580237 0.312813 0.094205
0.580237 0.320313 0.094205
0.580237 0.327813 0.086705
0.580237 0.335313 0.086705
0.587737 0.327813 0.094205
0.595237 0.335313 0.094205
0.602737 0.335313 0.094205
0.587737 0.312813 0.101705
0.595237 0.312813 0.109205
0.595237 0.320313 0.101705
0.595237 0.320313 0.109205
0.595237 0.312813 0.116705
0.602737 0.312813 0.124205
0.602737 0.320313 0.116705
0.602737 0.320313 0.124205
0.595237 0.327813 0.101705
0.602737 0.327813 0.109205
0.602737 0.335313 0.101705
0.587737 0.282813 0.139205
0.587737 0.290313 0.131705
0.587737 0.282813 0.146705
0.587737 0.282813 0.154205
0.587737 0.290313 0.146705
0.595237 0.290313 0.154205
0.595237 0.297813 0.131705
0.595237 0.305313 0.131705
0.602737 0.305313 0.131705
0.602737 0.305313 0.139205
0.595237 0.297813 0.146705
0.595237 0.297813 0.154205
0.602737 0.305313 0.154205
0.587737 0.282813 0.161705
0.587737 0.282813 0.169205
0.587737 0.290313 0.161705
0.587737 0.282813 0.176705
0.587737 0.290313 0.176705
0.587737 0.290313 0.184205
0.587737 0.297813 0.184205
0.595237 0.297813 0.161705
0.595237 0.305313 0.161705
0.602737 0.305313 0.161705
0.595237 0.297813 0.176705
0.595237 0.305313 0.176705
0.595237 0.305313 0.184205
0.602737 0.312813 0.131705
0.602737 0.312813 0.154205
0.595237 0.312813 0.169205
0.602737 0.312813 0.161705
0.595237 0.312813 0.176705
0.595237 0.312813 0.184205
0.602737 0.320313 0.176705
0.602737 0.320313 0.184205
0.602737 0.327813 0.184205
0.550237 0.342813 0.079205
0.550237 0.357813 0.071705
0.550237 0.365313 0.071705
0.557737 0.357813 0.071705
0.565237 0.350313 0.079205
0.572737 0.342813 0.079205
0.565237 0.365313 0.071705
0.572737 0.357813 0.079205
0.572737 0.365313 0.079205
0.550237 0.380313 0.071705
0.550237 0.387813 0.071705
0.550237 0.395313 0.079205
0.565237 0.372813 0.071705
0.572737 0.372813 0.071705
0.565237 0.387813 0.071705
0.565237 0.395313 0.071705
0.572737 0.387813 0.071705
0.572737 0.395313 0.071705
0.580237 0.342813 0.079205
0.580237 0.350313 0.079205
0.587737 0.342813 0.086705
0.587737 0.350313 0.086705
0.580237 0.357813 0.079205
0.580237 0.365313 0.079205
0.587737 0.357813 0.079205
0.602737 0.342813 0.094205
0.602737 0.350313 0.086705
0.595237 0.357813 0.079205
0.595237 0.365313 0.079205
0.602737 0.365313 0.079205
0.602737 0.357813 0.086705
0.580237 0.380313 0.071705
0.580237 0.387813 0.071705
0.580237 0.395313 0.071705
0.587737 0.387813 0.071705
0.587737 0.395313 0.071705
0.595237 0.372813 0.079205
0.602737 0.372813 0.079205
0.602737 0.387813 0.079205
0.602737 0.395313 0.071705
0.490237 0.312813 0.244205
0.490237 0.320313 0.244205
0.490237 0.327813 0.244205
0.497737 0.327813 0.244205
0.497737 0.335313 0.244205
0.512737 0.320313 0.244205
0.505237 0.327813 0.244205
0.505237 0.335313 0.244205
0.512737 0.327813 0.244205
0.512737 0.335313 0.244205
0.535237 0.282813 0.244205
0.535237 0.290313 0.244205
0.542737 0.290313 0.244205
0.535237 0.297813 0.244205
0.535237 0.305313 0.244205
0.542737 0.297813 0.244205
0.542737 0.305313 0.244205
0.527737 0.320313 0.244205
0.520237 0.327813 0.244205
0.520237 0.335313 0.244205
0.527737 0.327813 0.244205
0.535237 0.320313 0.244205
0.542737 0.320313 0.244205
0.535237 0.327813 0.244205
0.535237 0.335313 0.244205
0.542737 0.327813 0.244205
0.542737 0.335313 0.244205
0.497737 0.290313 0.251705
0.490237 0.297813 0.251705
0.505237 0.282813 0.251705
0.505237 0.290313 0.251705
0.512737 0.290313 0.251705
0.505237 0.297813 0.251705
0.505237 0.305313 0.251705
0.512737 0.297813 0.251705
0.512737 0.305313 0.251705
0.497737 0.312813 0.251705
0.505237 0.320313 0.251705
0.520237 0.290313 0.251705
0.520237 0.297813 0.251705
0.527737 0.312813 0.251705
0.497737 0.342813 0.236705
0.490237 0.365313 0.229205
0.497737 0.365313 0.229205
0.490237 0.357813 0.236705
0.497737 0.357813 0.236705
0.497737 0.365313 0.236705
0.505237 0.350313 0.236705
0.512737 0.342813 0.244205
0.505237 0.357813 0.236705
0.505237 0.365313 0.236705
0.512737 0.357813 0.244205
0.512737 0.365313 0.236705
0.490237 0.395313 0.206705
0.490237 0.395313 0.214205
0.497737 0.380313 0.229205
0.490237 0.387813 0.221705
0.497737 0.387813 0.229205
0.497737 0.395313 0.221705
0.505237 0.372813 0.236705
0.505237 0.380313 0.236705
0.512737 0.372813 0.236705
0.505237 0.387813 0.229205
0.505237 0.395313 0.221705
0.505237 0.395313 0.229205
0.512737 0.387813 0.229205
0.512737 0.395313 0.229205
0.520237 0.350313 0.244205
0.527737 0.342813 0.244205
0.520237 0.357813 0.244205
0.527737 0.365313 0.236705
0.535237 0.350313 0.244205
0.542737 0.342813 0.244205
0.535237 0.357813 0.244205
0.535237 0.365313 0.244205
0.542737 0.357813 0.244205
0.542737 0.365313 0.244205
0.520237 0.380313 0.236705
0.527737 0.380313 0.236705
0.520237 0.387813 0.236705
0.520237 0.395313 0.236705
0.527737 0.387813 0.236705
0.535237 0.372813 0.236705
0.542737 0.380313 0.236705
0.535237 0.387813 0.236705
0.535237 0.395313 0.236705
0.542737 0.387813 0.236705
0.542737 0.395313 0.236705
0.565237 0.282813 0.214205
0.572737 0.282813 0.206705
0.572737 0.290313 0.214205
0.572737 0.297813 0.214205
0.572737 0.305313 0.214205
0.550237 0.282813 0.229205
0.557737 0.282813 0.229205
0.557737 0.290313 0.229205
0.550237 0.282813 0.236705
0.550237 0.290313 0.236705
0.557737 0.297813 0.229205
0.550237 0.297813 0.236705
0.550237 0.305313 0.236705
0.557737 0.297813 0.236705
0.557737 0.305313 0.236705
0.565237 0.290313 0.221705
0.565237 0.297813 0.221705
0.565237 0.305313 0.229205
0.572737 0.297813 0.221705
0.572737 0.305313 0.221705
0.550237 0.320313 0.236705
0.557737 0.312813 0.236705
0.550237 0.327813 0.236705
0.550237 0.335313 0.244205
0.557737 0.327813 0.236705
0.557737 0.335313 0.236705
0.565237 0.312813 0.229205
0.565237 0.320313 0.229205
0.572737 0.320313 0.221705
0.572737 0.327813 0.229205
0.572737 0.335313 0.229205
0.565237 0.327813 0.236705
0.565237 0.335313 0.236705
0.580237 0.282813 0.191705
0.580237 0.282813 0.199205
0.580237 0.290313 0.191705
0.580237 0.290313 0.199205
0.580237 0.297813 0.199205
0.587737 0.297813 0.191705
0.587737 0.305313 0.191705
0.580237 0.305313 0.206705
0.587737 0.312813 0.199205
0.587737 0.320313 0.199205
0.580237 0.312813 0.206705
0.580237 0.320313 0.214205
0.587737 0.320313 0.206705
0.587737 0.327813 0.206705
0.587737 0.327813 0.214205
0.587737 0.335313 0.214205
0.595237 0.320313 0.191705
0.595237 0.327813 0.199205
0.602737 0.327813 0.191705
0.602737 0.335313 0.191705
0.602737 0.335313 0.199205
0.595237 0.335313 0.206705
0.580237 0.327813 0.221705
0.580237 0.335313 0.221705
0.550237 0.342813 0.244205
0.550237 0.357813 0.236705
0.550237 0.365313 0.236705
0.565237 0.342813 0.236705
0.572737 0.342813 0.236705
0.572737 0.350313 0.236705
0.565237 0.357813 0.236705
0.565237 0.365313 0.236705
0.572737 0.357813 0.236705
0.572737 0.365313 0.236705
0.550237 0.372813 0.236705
0.550237 0.387813 0.236705
0.550237 0.395313 0.236705
0.557737 0.395313 0.236705
0.565237 0.372813 0.236705
0.572737 0.380313 0.236705
0.565237 0.387813 0.236705
0.565237 0.395313 0.236705
0.572737 0.387813 0.236705
0.572737 0.395313 0.236705
0.595237 0.342813 0.206705
0.595237 0.342813 0.214205
0.602737 0.342813 0.206705
0.602737 0.350313 0.214205
0.602737 0.357813 0.214205
0.602737 0.365313 0.214205
0.580237 0.350313 0.229205
0.587737 0.350313 0.221705
0.580237 0.357813 0.229205
0.580237 0.365313 0.229205
0.587737 0.357813 0.221705
0.587737 0.365313 0.229205
0.595237 0.357813 0.221705
0.595237 0.365313 0.229205
0.602737 0.365313 0.221705
0.587737 0.372813 0.229205
0.580237 0.380313 0.236705
0.580237 0.387813 0.236705
0.580237 0.395313 0.236705
0.587737 0.395313 0.236705
0.595237 0.372813 0.229205
0.602737 0.372813 0.229205
0.602737 0.387813 0.229205
0.595237 0.387813 0.236705
0.602737 0.395313 0.236705
0.617737 0.162813 0.094205
0.625237 0.162813 0.094205
0.625237 0.170313 0.094205
0.632737 0.162813 0.086705
0.632737 0.170313 0.086705
0.625237 0.177813 0.094205
0.625237 0.185313 0.094205
0.632737 0.177813 0.086705
0.610237 0.162813 0.101705
0.617737 0.162813 0.101705
0.617737 0.170313 0.101705
0.617737 0.170313 0.109205
0.610237 0.162813 0.116705
0.610237 0.170313 0.116705
0.610237 0.170313 0.124205
0.617737 0.177813 0.109205
0.617737 0.185313 0.101705
0.610237 0.177813 0.116705
0.610237 0.185313 0.116705
0.610237 0.185313 0.124205
0.632737 0.192813 0.094205
0.632737 0.200313 0.094205
0.617737 0.192813 0.109205
0.610237 0.192813 0.124205
0.617737 0.192813 0.116705
0.617737 0.200313 0.116705
0.617737 0.200313 0.124205
0.625237 0.192813 0.101705
0.625237 0.200313 0.101705
0.632737 0.215313 0.109205
0.625237 0.207813 0.116705
0.625237 0.207813 0.124205
0.625237 0.215313 0.116705
0.640237 0.162813 0.079205
0.647737 0.162813 0.079205
0.647737 0.170313 0.079205
0.640237 0.170313 0.086705
0.647737 0.177813 0.079205
0.647737 0.185313 0.079205
0.640237 0.177813 0.086705
0.662737 0.162813 0.079205
0.662737 0.170313 0.079205
0.655237 0.185313 0.079205
0.662737 0.177813 0.079205
0.640237 0.192813 0.086705
0.640237 0.192813 0.094205
0.640237 0.200313 0.086705
0.640237 0.200313 0.094205
0.647737 0.192813 0.086705
0.647737 0.200313 0.086705
0.640237 0.207813 0.094205
0.647737 0.215313 0.094205
0.655237 0.192813 0.079205
0.655237 0.200313 0.079205
0.662737 0.192813 0.079205
0.662737 0.200313 0.079205
0.655237 0.207813 0.086705
0.662737 0.215313 0.086705
0.640237 0.215313 0.101705
0.610237 0.185313 0.184205
0.610237 0.192813 0.131705
0.610237 0.200313 0.131705
0.617737 0.200313 0.131705
0.610237 0.192813 0.146705
0.610237 0.200313 0.146705
0.610237 0.200313 0.154205
0.617737 0.207813 0.131705
0.617737 0.215313 0.131705
0.610237 0.207813 0.154205
0.617737 0.207813 0.146705
0.617737 0.215313 0.146705
0.617737 0.215313 0.154205
0.625237 0.215313 0.131705
0.610237 0.192813 0.169205
0.610237 0.200313 0.161705
0.610237 0.200313 0.169205
0.610237 0.192813 0.176705
0.610237 0.192813 0.184205
0.610237 0.200313 0.176705
0.617737 0.192813 0.184205
0.617737 0.200313 0.184205
0.617737 0.207813 0.161705
0.617737 0.215313 0.169205
0.617737 0.215313 0.176705
0.625237 0.215313 0.169205
0.625237 0.207813 0.184205
0.625237 0.215313 0.184205
0.632737 0.222813 0.116705
0.632737 0.222813 0.124205
0.632737 0.230313 0.124205
0.647737 0.222813 0.094205
0.647737 0.230313 0.094205
0.655237 0.222813 0.086705
0.655237 0.222813 0.094205
0.655237 0.230313 0.094205
0.662737 0.237813 0.094205
0.640237 0.222813 0.101705
0.640237 0.222813 0.109205
0.640237 0.230313 0.109205
0.647737 0.230313 0.101705
0.640237 0.230313 0.116705
0.640237 0.230313 0.124205
0.647737 0.237813 0.109205
0.640237 0.237813 0.124205
0.647737 0.237813 0.116705
0.647737 0.245313 0.124205
0.655237 0.245313 0.101705
0.655237 0.245313 0.109205
0.662737 0.245313 0.101705
0.655237 0.245313 0.116705
0.647737 0.252813 0.124205
0.662737 0.252813 0.101705
0.662737 0.252813 0.109205
0.662737 0.260313 0.109205
0.655237 0.252813 0.116705
0.655237 0.252813 0.124205
0.655237 0.260313 0.124205
0.662737 0.260313 0.116705
0.662737 0.267813 0.109205
0.662737 0.267813 0.116705
0.662737 0.267813 0.124205
0.617737 0.222813 0.154205
0.625237 0.222813 0.131705
0.625237 0.222813 0.139205
0.632737 0.230313 0.131705
0.625237 0.230313 0.154205
0.632737 0.230313 0.146705
0.632737 0.237813 0.146705
0.632737 0.237813 0.154205
0.617737 0.222813 0.161705
0.625237 0.230313 0.161705
0.625237 0.222813 0.176705
0.632737 0.222813 0.184205
0.632737 0.230313 0.176705
0.632737 0.230313 0.184205
0.632737 0.237813 0.161705
0.632737 0.245313 0.161705
0.640237 0.237813 0.131705
0.640237 0.245313 0.139205
0.640237 0.245313 0.146705
0.640237 0.230313 0.184205
0.640237 0.237813 0.176705
0.640237 0.237813 0.184205
0.647737 0.245313 0.176705
0.647737 0.252813 0.131705
0.647737 0.252813 0.139205
0.647737 0.260313 0.131705
0.640237 0.252813 0.146705
0.640237 0.252813 0.154205
0.647737 0.260313 0.146705
0.647737 0.260313 0.154205
0.647737 0.267813 0.154205
0.655237 0.260313 0.131705
0.662737 0.267813 0.131705
0.662737 0.275313 0.131705
0.655237 0.267813 0.146705
0.655237 0.275313 0.154205
0.662737 0.275313 0.146705
0.640237 0.252813 0.161705
0.647737 0.260313 0.161705
0.640237 0.252813 0.176705
0.647737 0.252813 0.184205
0.647737 0.260313 0.176705
0.655237 0.260313 0.184205
0.655237 0.267813 0.161705
0.655237 0.275313 0.169205
0.662737 0.275313 0.169205
0.655237 0.267813 0.176705
0.655237 0.267813 0.184205
0.655237 0.275313 0.176705
0.662737 0.275313 0.184205
0.670237 0.162813 0.071705
0.670237 0.170313 0.071705
0.677737 0.162813 0.079205
0.677737 0.170313 0.071705
0.670237 0.185313 0.079205
0.692737 0.162813 0.079205
0.692737 0.170313 0.079205
0.685237 0.185313 0.071705
0.692737 0.177813 0.079205
0.670237 0.192813 0.079205
0.670237 0.200313 0.079205
0.677737 0.192813 0.071705
0.677737 0.200313 0.079205
0.670237 0.215313 0.079205
0.677737 0.207813 0.079205
0.692737 0.192813 0.071705
0.692737 0.200313 0.071705
0.685237 0.207813 0.079205
0.700237 0.162813 0.079205
0.700237 0.170313 0.079205
0.707737 0.162813 0.079205
0.707737 0.170313 0.079205
0.700237 0.185313 0.079205
0.707737 0.185313 0.079205
0.715237 0.162813 0.071705
0.715237 0.170313 0.079205
0.715237 0.177813 0.079205
0.722737 0.185313 0.079205
0.700237 0.192813 0.071705
0.700237 0.200313 0.071705
0.707737 0.192813 0.079205
0.707737 0.200313 0.079205
0.700237 0.207813 0.079205
0.707737 0.215313 0.079205
0.715237 0.192813 0.079205
0.715237 0.200313 0.079205
0.722737 0.200313 0.079205
0.715237 0.215313 0.079205
0.722737 0.215313 0.079205
0.670237 0.222813 0.079205
0.677737 0.222813 0.079205
0.677737 0.230313 0.079205
0.670237 0.230313 0.086705
0.670237 0.237813 0.086705
0.670237 0.237813 0.094205
0.677737 0.237813 0.086705
0.685237 0.230313 0.079205
0.692737 0.222813 0.079205
0.692737 0.230313 0.079205
0.685237 0.237813 0.079205
0.692737 0.237813 0.079205
0.670237 0.252813 0.094205
0.677737 0.252813 0.086705
0.677737 0.252813 0.094205
0.677737 0.260313 0.094205
0.685237 0.252813 0.086705
0.685237 0.260313 0.086705
0.685237 0.260313 0.094205
0.685237 0.267813 0.094205
0.692737 0.267813 0.086705
0.670237 0.260313 0.101705
0.670237 0.267813 0.109205
0.677737 0.267813 0.101705
0.677737 0.275313 0.101705
0.677737 0.275313 0.109205
0.670237 0.267813 0.116705
0.670237 0.275313 0.116705
0.670237 0.275313 0.124205
0.700237 0.222813 0.071705
0.700237 0.230313 0.079205
0.707737 0.222813 0.071705
0.707737 0.230313 0.071705
0.700237 0.237813 0.079205
0.700237 0.245313 0.079205
0.707737 0.245313 0.079205
0.715237 0.222813 0.079205
0.715237 0.230313 0.079205
0.715237 0.237813 0.079205
0.707737 0.252813 0.079205
0.707737 0.260313 0.079205
0.700237 0.260313 0.086705
0.707737 0.267813 0.079205
0.700237 0.267813 0.086705
0.700237 0.275313 0.086705
0.715237 0.252813 0.079205
0.715237 0.260313 0.079205
0.715237 0.267813 0.079205
0.722737 0.275313 0.079205
0.610237 0.162813 0.191705
0.610237 0.162813 0.199205
0.610237 0.170313 0.191705
0.617737 0.170313 0.199205
0.617737 0.162813 0.206705
0.617737 0.170313 0.206705
0.610237 0.177813 0.191705
0.617737 0.177813 0.199205
0.617737 0.185313 0.191705
0.617737 0.185313 0.199205
0.625237 0.162813 0.214205
0.625237 0.170313 0.206705
0.632737 0.170313 0.214205
0.625237 0.177813 0.206705
0.632737 0.177813 0.214205
0.632737 0.162813 0.221705
0.617737 0.192813 0.191705
0.625237 0.192813 0.199205
0.625237 0.200313 0.191705
0.625237 0.200313 0.199205
0.632737 0.200313 0.199205
0.625237 0.192813 0.206705
0.632737 0.192813 0.206705
0.625237 0.207813 0.191705
0.632737 0.207813 0.191705
0.632737 0.207813 0.199205
0.640237 0.185313 0.214205
0.640237 0.162813 0.221705
0.640237 0.162813 0.229205
0.640237 0.170313 0.221705
0.647737 0.162813 0.229205
0.647737 0.170313 0.221705
0.640237 0.177813 0.221705
0.647737 0.177813 0.221705
0.655237 0.170313 0.229205
0.662737 0.170313 0.229205
0.655237 0.162813 0.236705
0.662737 0.162813 0.236705
0.662737 0.170313 0.236705
0.655237 0.185313 0.221705
0.662737 0.177813 0.229205
0.640237 0.192813 0.214205
0.640237 0.200313 0.206705
0.647737 0.192813 0.214205
0.647737 0.200313 0.214205
0.640237 0.207813 0.206705
0.640237 0.215313 0.206705
0.647737 0.207813 0.214205
0.655237 0.215313 0.214205
0.662737 0.215313 0.214205
0.647737 0.192813 0.221705
0.655237 0.192813 0.221705
0.655237 0.200313 0.221705
0.662737 0.200313 0.221705
0.662737 0.207813 0.221705
0.647737 0.162813 0.266705
0.662737 0.162813 0.259205
0.662737 0.162813 0.266705
0.647737 0.162813 0.281705
0.647737 0.162813 0.289205
0.647737 0.162813 0.296705
0.655237 0.170313 0.289205
0.662737 0.162813 0.281705
0.662737 0.170313 0.281705
0.662737 0.170313 0.289205
0.655237 0.162813 0.296705
0.662737 0.170313 0.296705
0.632737 0.222813 0.191705
0.640237 0.222813 0.191705
0.640237 0.222813 0.199205
0.640237 0.230313 0.191705
0.640237 0.230313 0.199205
0.647737 0.230313 0.199205
0.647737 0.222813 0.206705
0.640237 0.237813 0.191705
0.647737 0.245313 0.191705
