ply
format ascii 1.0
element vertex 1772
property float x
property float y
property float z
end_header
0.726502 0.012972 0.173492
0.234969 0.004605 0.179736
0.646523 -0.001428 0.181227
0.748370 0.003026 0.186122
0.390999 0.009266 0.190180
0.692979 0.004517 0.192064
0.858834 0.000953 0.199206
0.782649 -0.002765 0.193236
0.804666 -0.000744 0.191577
0.825462 0.010357 0.177120
0.232538 0.000436 0.178026
0.434043 -0.003529 0.180337
0.198471 0.005319 0.184679
0.217342 0.015677 0.182689
0.365433 -0.001198 0.167142
0.329120 0.014163 0.177257
0.605510 0.022380 0.161683
0.881877 0.036920 0.168051
0.860639 0.067440 0.184469
0.477229 0.049624 0.182110
0.827304 0.074438 0.182326
0.494351 0.083091 0.183786
0.514389 0.101810 0.181358
0.114396 0.137877 0.166604
0.752423 0.136389 0.174774
0.753475 0.137657 0.177388
0.106196 0.158679 0.187650
0.586033 0.144994 0.182296
0.748790 0.155036 0.200441
0.539080 0.168855 0.185171
0.587898 0.164517 0.177130
0.548572 0.176790 0.175278
0.767410 0.185337 0.182903
0.303304 0.204565 0.184536
0.334436 0.193623 0.182454
0.786140 0.192051 0.174073
0.301242 0.194758 0.184027
0.355108 0.229227 0.184597
0.613331 0.206479 0.184396
0.354155 0.221975 0.187533
0.118972 0.221795 0.189993
0.555681 0.221161 0.167827
0.303836 0.229264 0.175324
0.815399 0.227557 0.183509
0.307277 0.234232 0.185970
0.801136 0.243840 0.173152
0.377351 0.249226 0.188456
0.639073 0.250199 0.196980
0.818005 0.259536 0.190000
0.383953 0.259547 0.187375
0.310832 0.256442 0.166268
0.334799 0.253535 0.180356
0.560991 0.257634 0.185430
0.829385 0.253860 0.180691
0.143683 0.270353 0.171510
0.337354 0.262462 0.168128
0.880913 0.275982 0.194752
0.134473 0.285261 0.169140
0.894618 0.287569 0.177505
0.399391 0.295322 0.188881
0.910479 0.291892 0.177328
0.152925 0.288217 0.174984
0.412042 0.313518 0.170823
0.592815 0.308575 0.184815
0.156231 0.313675 0.172634
0.409447 0.322094 0.170345
0.169802 0.314073 0.188421
0.186137 0.323046 0.190310
0.612860 0.309445 0.176796
0.189109 0.330819 0.175135
0.602938 0.332074 0.167094
0.433153 0.324837 0.184722
0.377102 0.333194 0.182282
0.689522 0.345634 0.181276
0.841696 0.352177 0.179564
0.827899 0.336458 0.175172
0.454735 0.357482 0.173738
0.389806 0.350422 0.165273
0.928426 0.352211 0.183189
0.944764 0.359074 0.177146
0.948585 0.354777 0.187283
0.837571 0.364158 0.179743
0.840425 0.366862 0.172624
0.372181 0.380318 0.199427
0.847999 0.369391 0.192355
0.947829 0.374130 0.179698
0.396916 0.387605 0.190047
0.828384 0.368589 0.178258
0.822210 0.379326 0.183926
0.475214 0.371298 0.180619
0.877431 0.393214 0.186695
0.966398 0.393748 0.165537
0.877326 0.395743 0.178290
0.487338 0.412567 0.168715
0.404163 0.411833 0.179781
0.977898 0.400453 0.172811
0.969234 0.408284 0.196957
0.268336 0.417985 0.185667
0.395333 0.409618 0.183303
0.829565 0.403228 0.187657
0.969278 0.419691 0.183446
0.816397 0.435160 0.173754
0.164707 0.445583 0.176313
0.142229 0.430582 0.184666
0.134058 0.435352 0.179489
0.177793 0.438530 0.183070
0.952925 0.431922 0.182696
0.797876 0.442287 0.192686
0.140588 0.445362 0.173691
0.945101 0.443325 0.167300
0.518195 0.454736 0.168234
0.870782 0.457804 0.191980
0.927994 0.453208 0.179282
0.413490 0.440866 0.191610
0.232865 0.463710 0.173287
0.527579 0.460287 0.198059
0.129751 0.463078 0.186927
0.896653 0.453669 0.168168
0.910309 0.456208 0.186742
0.915214 0.460764 0.180220
0.143216 0.463726 0.189819
0.546530 0.473484 0.165967
0.189410 0.476989 0.178656
0.563316 0.496971 0.166472
0.224603 0.489758 0.198161
0.590313 0.496091 0.179841
0.236357 0.499984 0.187108
0.711655 0.510230 0.177946
0.403796 0.502488 0.184083
0.691679 0.497995 0.182483
0.402254 0.513815 0.184306
0.661991 0.512002 0.184475
0.153691 0.502287 0.175003
0.146887 0.519635 0.173357
0.175624 0.531732 0.178957
0.186617 0.537211 0.181594
0.114756 0.518663 0.180281
0.071643 0.559556 0.196588
0.119545 0.545555 0.179863
0.402823 0.540937 0.176685
0.395327 0.558066 0.185653
0.083464 0.560222 0.173363
0.184115 0.577200 0.190383
0.347278 0.605841 0.172911
0.375612 0.610665 0.198031
0.362540 0.619384 0.177459
0.191481 0.607610 0.176233
0.197458 0.620806 0.174639
0.340782 0.619426 0.183394
0.203378 0.628431 0.193380
0.219279 0.622100 0.182104
0.332787 0.624503 0.172383
0.296515 0.629920 0.181860
0.329839 0.635779 0.193546
0.308317 0.648440 0.182436
0.320791 0.633586 0.182949
0.404774 -0.009149 0.189726
0.267016 0.004366 0.180952
0.286935 0.002413 0.182195
0.673296 0.006053 0.188318
0.719370 0.014339 0.179693
0.686345 0.002237 0.181321
0.822043 0.020217 0.181213
0.326269 -0.004834 0.163862
0.323849 0.017880 0.171045
0.356753 0.009322 0.185944
0.872177 0.018470 0.180740
0.880412 0.038388 0.163176
0.465309 0.030843 0.176092
0.140660 0.052093 0.184180
0.612211 0.041946 0.175593
0.857670 0.055633 0.176002
0.597191 0.057775 0.183805
0.128034 0.078171 0.185013
0.821891 0.090763 0.200806
0.504467 0.080700 0.187112
0.596409 0.095086 0.193304
0.778862 0.098003 0.195547
0.115999 0.112434 0.180745
0.771548 0.108599 0.184867
0.595505 0.112415 0.188361
0.588227 0.123237 0.182790
0.092606 0.129689 0.188254
0.578050 0.130758 0.184121
0.105109 0.147764 0.183215
0.596640 0.147544 0.176455
0.541491 0.142146 0.198608
0.590964 0.159041 0.185782
0.768499 0.155712 0.170371
0.771044 0.191981 0.203668
0.321709 0.203890 0.182447
0.330906 0.199170 0.181477
0.621537 0.210613 0.175199
0.307912 0.205338 0.176700
0.116342 0.194385 0.183470
0.562814 0.202861 0.175039
0.790835 0.214147 0.172831
0.305927 0.213859 0.174561
0.332419 0.227034 0.185923
0.800686 0.216886 0.190804
0.643589 0.221129 0.171868
0.121315 0.232267 0.188376
0.309290 0.241446 0.171914
0.122270 0.242656 0.184067
0.641252 0.248972 0.189229
0.654599 0.256781 0.181846
0.315577 0.237865 0.186726
0.387789 0.257441 0.186047
0.126690 0.269722 0.194353
0.382098 0.259891 0.178524
0.846953 0.269425 0.204988
0.887658 0.285210 0.171170
0.390055 0.272802 0.188097
0.596551 0.270906 0.178554
0.876375 0.269529 0.189826
0.861985 0.282859 0.186491
0.897224 0.300191 0.178667
0.124811 0.296184 0.172644
0.345220 0.272380 0.167942
0.682716 0.291439 0.166234
0.848616 0.285178 0.190372
0.855296 0.295349 0.190032
0.900469 0.285277 0.170804
0.396820 0.286788 0.159809
0.686204 0.295981 0.178409
0.393356 0.302058 0.201700
0.358708 0.309869 0.176238
0.154655 0.298710 0.203326
0.424959 0.316608 0.183129
0.406043 0.306908 0.175431
0.364339 0.316099 0.172112
0.402498 0.308824 0.176533
0.356648 0.334273 0.180362
0.682423 0.318395 0.182241
0.365796 0.333425 0.179444
0.427056 0.341027 0.167184
0.907678 0.317186 0.181233
0.195571 0.346997 0.168838
0.363683 0.339892 0.185050
0.843485 0.358466 0.170679
0.857110 0.355582 0.175110
0.831369 0.376759 0.167140
0.817833 0.350330 0.190835
0.835074 0.366103 0.173821
0.464783 0.352036 0.184654
0.217278 0.369267 0.191701
0.215107 0.378322 0.180509
0.839686 0.374635 0.176774
0.949564 0.380508 0.186837
0.946474 0.362992 0.177906
0.467224 0.375041 0.182174
0.235083 0.377498 0.168359
0.836543 0.380895 0.161355
0.466183 0.394520 0.171506
0.957687 0.392278 0.171011
0.829143 0.415230 0.180940
0.482102 0.414260 0.194792
0.965060 0.421532 0.196452
0.410239 0.426815 0.191669
0.262424 0.414842 0.178786
0.968668 0.428885 0.181777
0.139172 0.437341 0.177622
0.180998 0.431077 0.171433
0.184835 0.446944 0.188782
0.950309 0.452705 0.186526
0.256810 0.447323 0.174872
0.279046 0.436595 0.185828
0.209656 0.445886 0.183048
0.247355 0.446635 0.187329
0.221734 0.449696 0.181113
0.246074 0.454091 0.188443
0.891260 0.462816 0.182389
0.143926 0.472363 0.174472
0.411638 0.455754 0.173674
0.784170 0.453130 0.189343
0.410061 0.463777 0.181224
0.178120 0.471598 0.206852
0.170517 0.464938 0.193161
0.205619 0.462185 0.183853
0.416068 0.481530 0.186401
0.760307 0.477420 0.179382
0.198091 0.478249 0.184863
0.205821 0.471361 0.175731
0.764045 0.477314 0.198591
0.569457 0.487755 0.176975
0.209227 0.498138 0.185860
0.585486 0.501088 0.195758
0.624574 0.495170 0.178382
0.257785 0.509339 0.197757
0.695153 0.510480 0.187746
0.250447 0.513001 0.175096
0.646577 0.518873 0.164238
0.256313 0.501431 0.186854
0.239098 0.525871 0.195985
0.106487 0.516894 0.194366
0.192226 0.535887 0.172664
0.240104 0.527668 0.200348
0.229139 0.534324 0.177174
0.247500 0.535661 0.181176
0.397133 0.537387 0.176932
0.078703 0.570802 0.183937
0.079203 0.584950 0.179578
0.097792 0.565841 0.191129
0.389638 0.560325 0.179077
0.389337 0.590596 0.192121
0.349974 0.615170 0.186214
0.252353 0.633091 0.177785
0.254413 0.628389 0.175375
0.333079 0.631088 0.183074
0.306925 0.618056 0.186889
0.326553 0.633082 0.181888
0.373779 0.000955 0.190305
0.650100 0.006498 0.194251
0.666414 -0.003246 0.183757
0.662666 -0.008515 0.182832
0.731838 -0.005032 0.193019
0.745541 0.007543 0.182692
0.235312 0.006613 0.188975
0.255547 0.011138 0.181193
0.682667 -0.009989 0.188123
0.707930 0.008750 0.180817
0.234579 0.019611 0.182333
0.420048 0.000194 0.170661
0.845487 0.022642 0.184346
0.289072 0.007287 0.170322
0.381406 0.005020 0.181883
0.645591 -0.004392 0.183228
0.775508 0.024785 0.188015
0.816647 -0.004904 0.189056
0.308756 0.014987 0.189157
0.317073 0.008665 0.184568
0.432002 0.003159 0.203889
0.377303 0.021418 0.191568
0.188763 0.022704 0.194244
0.310998 0.022261 0.192909
0.453644 0.017210 0.170309
0.617191 0.011922 0.189095
0.783685 0.025582 0.192916
0.793544 0.014744 0.183731
0.792575 0.006050 0.188829
0.615254 0.012334 0.183523
0.885394 0.016969 0.180052
0.177907 0.019411 0.175444
0.454132 0.032915 0.179285
0.166830 0.030504 0.165221
0.606224 0.016074 0.188108
0.175721 0.016004 0.187699
0.452590 0.031478 0.172474
0.147950 0.039444 0.193020
0.874959 0.028532 0.179185
0.616521 0.034940 0.197616
0.599371 0.033522 0.206271
0.463140 0.038672 0.189824
0.607002 0.055538 0.188518
0.869654 0.035022 0.196951
0.478776 0.048675 0.180604
0.144324 0.063491 0.182446
0.856816 0.062483 0.183108
0.496222 0.065581 0.187091
0.829051 0.068403 0.182016
0.822078 0.061916 0.177625
0.594687 0.074208 0.169552
0.587607 0.091438 0.190129
0.807303 0.084111 0.202390
0.490551 0.078416 0.180206
0.819739 0.080594 0.185319
0.122774 0.085228 0.185443
0.795101 0.094198 0.190093
0.797153 0.067371 0.178662
0.118796 0.091601 0.186808
0.514470 0.108488 0.181395
0.768275 0.110667 0.181298
0.525383 0.097806 0.188212
0.523819 0.119052 0.175055
0.522706 0.109656 0.195484
0.599402 0.109797 0.192445
0.765256 0.107879 0.174441
0.746098 0.119640 0.184028
0.109250 0.121670 0.182526
0.528499 0.131398 0.194391
0.524320 0.137854 0.182501
0.546707 0.164011 0.181145
0.096422 0.162409 0.185824
0.118982 0.159844 0.180518
0.757074 0.167437 0.188085
0.112064 0.183864 0.184298
0.543956 0.158897 0.175654
0.604527 0.162477 0.180124
0.763852 0.155737 0.190606
0.091508 0.179766 0.187034
0.768308 0.175236 0.189458
0.627577 0.174947 0.177028
0.564952 0.203283 0.187280
0.605988 0.173807 0.176907
0.106445 0.183173 0.197330
0.618134 0.186222 0.176580
0.610356 0.201479 0.198866
0.799056 0.202765 0.173662
0.326219 0.228088 0.179142
0.315614 0.213639 0.181802
0.563020 0.204684 0.174224
0.308031 0.193514 0.182885
0.291377 0.212985 0.178804
0.561032 0.215956 0.186879
0.647545 0.230676 0.178242
0.372161 0.233980 0.184583
0.575592 0.236148 0.181725
0.116698 0.231374 0.190247
0.308720 0.238521 0.187842
0.637535 0.241309 0.185907
0.589182 0.259144 0.179421
0.134032 0.259831 0.182231
0.578376 0.264586 0.185040
0.629830 0.248520 0.196974
0.337585 0.276948 0.197103
0.824530 0.271106 0.189677
0.573655 0.281284 0.197244
0.666467 0.278204 0.177567
0.897065 0.256160 0.179800
0.863433 0.276121 0.207989
0.133125 0.279510 0.175690
0.324354 0.277913 0.181581
0.401247 0.283914 0.185818
0.847563 0.285593 0.182406
0.341357 0.263396 0.182639
0.678531 0.275398 0.186147
0.594919 0.285998 0.188525
0.584862 0.285063 0.177054
0.158211 0.296181 0.169233
0.357915 0.297743 0.182151
0.584669 0.291410 0.185734
0.690139 0.314963 0.177587
0.436755 0.315220 0.186181
0.903331 0.328840 0.182480
0.183759 0.319821 0.187508
0.681617 0.325055 0.181191
0.604649 0.314796 0.178144
0.161123 0.316053 0.188591
0.439855 0.353986 0.190684
0.692640 0.343915 0.185488
0.845101 0.342990 0.174072
0.681493 0.344492 0.180978
0.438745 0.343523 0.188564
0.892458 0.331631 0.176750
0.915101 0.344669 0.172578
0.844937 0.345490 0.189000
0.438544 0.339874 0.181420
0.613165 0.337103 0.195888
0.680710 0.368365 0.169180
0.902500 0.366276 0.181374
0.944672 0.351791 0.159590
0.198911 0.345030 0.190310
0.617910 0.353023 0.185885
0.447245 0.364413 0.192187
0.627421 0.358957 0.195109
0.825342 0.357147 0.186169
0.187442 0.358127 0.191003
0.648383 0.364235 0.180017
0.207650 0.369391 0.169267
0.866497 0.378691 0.180986
0.934105 0.372718 0.180360
0.456757 0.389442 0.187318
0.211140 0.389941 0.180374
0.969884 0.388081 0.177760
0.984588 0.385891 0.194777
0.222627 0.374738 0.181058
0.376796 0.384582 0.183601
0.230319 0.390009 0.185440
0.818856 0.397656 0.165166
0.251595 0.407883 0.177533
0.872160 0.414632 0.191601
0.244930 0.406838 0.184001
0.968067 0.400561 0.191066
0.978015 0.415946 0.176690
0.826535 0.416087 0.174785
0.498476 0.423220 0.187533
0.271699 0.417379 0.182055
0.490167 0.424906 0.164874
0.853883 0.415894 0.186701
0.157892 0.430789 0.189245
0.162878 0.434662 0.166309
0.863530 0.425992 0.174972
0.151805 0.435959 0.178104
0.484296 0.436723 0.172944
0.869388 0.421363 0.162341
0.808947 0.440886 0.184912
0.506569 0.429518 0.186374
0.877646 0.420060 0.176626
0.278455 0.430429 0.177246
0.258405 0.442964 0.180807
0.500330 0.440289 0.194485
0.871815 0.437249 0.174658
0.422381 0.443939 0.188566
0.198031 0.443663 0.198238
0.515719 0.460333 0.181125
0.943349 0.449134 0.180035
0.955951 0.439880 0.196264
0.146424 0.456441 0.189209
0.220867 0.456026 0.190876
0.781137 0.444533 0.193747
0.775541 0.455968 0.186118
0.896087 0.461838 0.191074
0.915132 0.479999 0.182992
0.909314 0.456704 0.181924
0.936190 0.473948 0.176734
0.795162 0.457605 0.188921
0.401763 0.477763 0.181441
0.531125 0.471116 0.194004
0.155098 0.485039 0.170572
0.781737 0.471980 0.185755
0.169310 0.460166 0.189083
0.776750 0.477456 0.188561
0.543789 0.475708 0.186614
0.567034 0.488401 0.182157
0.211860 0.489944 0.185571
0.411469 0.493183 0.170882
0.730776 0.494980 0.193136
0.404285 0.508344 0.187848
0.728700 0.489119 0.188108
0.734156 0.502829 0.172709
0.595693 0.492432 0.191652
0.597992 0.507382 0.184924
0.703710 0.478122 0.182415
0.625824 0.501538 0.177717
0.674368 0.500831 0.192751
0.141766 0.514383 0.181694
0.157220 0.513655 0.195031
0.149583 0.521876 0.182458
0.404385 0.515463 0.178005
0.129155 0.517419 0.189277
0.112497 0.522057 0.189829
0.189995 0.526028 0.179681
0.220398 0.528489 0.186643
0.103405 0.533171 0.183483
0.213874 0.536108 0.173471
0.091919 0.532314 0.185081
0.096413 0.533047 0.184694
0.077207 0.544410 0.178537
0.143128 0.551810 0.185434
0.123879 0.564828 0.188883
0.148042 0.576834 0.171454
0.159416 0.553775 0.181486
0.170448 0.567312 0.186605
0.082150 0.563528 0.183874
0.081649 0.580963 0.185371
0.388792 0.566318 0.190968
0.159035 0.575578 0.191051
0.393535 0.593939 0.195528
0.170183 0.592877 0.192366
0.378266 0.598738 0.182926
0.172055 0.592804 0.186006
0.380989 0.589582 0.181239
0.175334 0.605599 0.175510
0.184048 0.615453 0.183611
0.199451 0.621040 0.183559
0.219489 0.618161 0.191574
0.248795 0.623355 0.178865
0.265390 0.638420 0.176134
0.294027 0.623386 0.190527
0.332915 0.628074 0.181262
0.668393 0.013228 0.184657
0.249598 -0.000158 0.188928
0.193828 0.013072 0.185495
0.160057 0.027888 0.194651
0.151053 0.039760 0.185499
0.144359 0.045780 0.171740
0.123548 0.109717 0.175886
0.101596 0.141205 0.204789
0.342660 0.215774 0.181887
0.868492 0.267864 0.189048
0.662639 0.272440 0.175793
0.406426 0.279067 0.188169
0.860863 0.272095 0.177588
0.903247 0.295243 0.175118
0.908857 0.301619 0.187761
0.908916 0.320528 0.178288
0.354577 0.334336 0.183455
0.687802 0.321606 0.166636
0.839840 0.334892 0.193889
0.174265 0.339919 0.185791
0.951094 0.366936 0.185972
0.961904 0.439950 0.182137
0.807177 0.450851 0.188431
0.139665 0.448373 0.191115
0.591111 0.489289 0.175784
0.217968 0.492909 0.185054
0.628991 0.501981 0.175154
0.654484 0.510693 0.183273
0.174925 0.537777 0.180039
0.411531 0.539569 0.187042
0.289720 0.656004 0.187588
0.301275 0.619595 0.184509
0.748236 0.021410 0.189340
0.239062 0.009564 0.189866
0.723139 0.005750 0.188478
0.847470 0.012385 0.189562
0.199589 0.027305 0.192489
0.364343 0.015180 0.177288
0.893293 0.023675 0.185316
0.856324 0.042292 0.194402
0.851056 0.068904 0.189387
0.587951 0.066583 0.178004
0.107471 0.128709 0.170201
0.599001 0.161770 0.192682
0.605571 0.156487 0.210464
0.777813 0.187669 0.180342
0.119682 0.205452 0.186982
0.548184 0.207978 0.182365
0.611090 0.213311 0.195224
0.613419 0.228917 0.182079
0.327377 0.213343 0.176089
0.810996 0.220117 0.171993
0.318061 0.224619 0.176597
0.369291 0.252741 0.177767
0.384380 0.249029 0.182780
0.399153 0.263574 0.176555
0.129897 0.268868 0.183783
0.871554 0.263431 0.189215
0.897021 0.265563 0.184045
0.881588 0.253871 0.186892
0.396500 0.294190 0.192889
0.367501 0.307896 0.178090
0.349557 0.310758 0.186769
0.844665 0.329049 0.196279
0.432637 0.338598 0.186345
0.841627 0.325418 0.189103
0.362790 0.336577 0.186960
0.916381 0.332876 0.198037
0.840818 0.342439 0.197317
0.372777 0.347061 0.189131
0.675074 0.341780 0.188603
0.935378 0.344292 0.176265
0.962319 0.363558 0.200334
0.842659 0.381805 0.175506
0.829884 0.381871 0.185152
0.977769 0.368965 0.174072
0.391400 0.389810 0.193990
0.486552 0.412808 0.188192
0.499740 0.427853 0.188962
0.863344 0.421439 0.180200
0.986895 0.420326 0.182656
0.142649 0.431597 0.183883
0.127115 0.431478 0.191811
0.888947 0.433548 0.180355
0.969401 0.446801 0.188546
0.204485 0.448774 0.177568
0.139158 0.440664 0.177916
0.887844 0.460062 0.179095
0.941631 0.457342 0.186717
0.138860 0.446951 0.187592
0.784718 0.458310 0.191112
0.768374 0.465887 0.186225
0.544035 0.461780 0.193802
0.751253 0.486781 0.182672
0.426634 0.491404 0.201528
0.413519 0.488826 0.183186
0.417075 0.519056 0.176153
0.653907 0.521482 0.185685
0.658397 0.500694 0.171525
0.433978 0.518850 0.185166
0.154929 0.526412 0.170673
0.400275 0.529775 0.192627
0.427176 0.537350 0.189964
0.421467 0.556002 0.189652
0.098051 0.573307 0.189503
0.087972 0.576151 0.186437
0.091324 0.580308 0.190366
0.394091 0.570128 0.176639
0.352019 0.619131 0.187382
0.184280 0.614913 0.185425
0.320719 0.617209 0.182734
0.203610 0.617860 0.188662
0.328587 0.620905 0.175543
0.841696 0.000403 0.192101
0.311026 0.008583 0.192353
0.759407 0.166795 0.178411
0.333046 0.227890 0.188506
0.364743 0.221215 0.184574
0.367133 0.227131 0.182398
0.130191 0.244894 0.165573
0.655040 0.281341 0.168609
0.404814 0.258613 0.183063
0.917852 0.282028 0.170945
0.339882 0.283730 0.202086
0.419291 0.277397 0.188776
0.917132 0.292839 0.183253
0.597173 0.303641 0.186370
0.672403 0.302908 0.191070
0.596252 0.320719 0.187004
0.910007 0.319475 0.180261
0.987995 0.376842 0.179993
0.975738 0.406998 0.171824
0.977760 0.419439 0.193884
0.960468 0.440000 0.183074
0.211208 0.508556 0.185444
0.430941 0.526439 0.184461
0.435767 0.533920 0.197367
0.437854 0.539202 0.187663
0.441537 0.539872 0.180484
0.443981 0.527860 0.194045
0.447698 0.552493 0.192205
0.417321 0.541346 0.188327
0.448308 0.551930 0.183342
0.418003 0.559691 0.188067
0.432053 0.557192 0.180005
0.440794 0.555793 0.198827
0.171832 0.586824 0.177330
0.389186 0.010884 0.194081
0.631525 -0.008086 0.190236
0.260225 0.011459 0.191358
0.276542 0.008882 0.185340
0.690911 0.025111 0.193037
0.715302 -0.012530 0.182021
0.312186 0.018769 0.184632
0.348098 0.004517 0.207140
0.460246 0.011401 0.196805
0.305958 0.026782 0.173905
0.628528 0.023223 0.194954
0.168703 0.010606 0.186273
0.623362 0.031889 0.178079
0.444442 0.035980 0.183960
0.478849 0.034800 0.194869
0.149300 0.052792 0.187996
0.480884 0.042281 0.193286
0.866808 0.041535 0.182888
0.156227 0.041285 0.192723
0.491960 0.056891 0.201092
0.506478 0.100865 0.187422
0.581390 0.080841 0.191897
0.112101 0.092669 0.186538
0.590643 0.113071 0.182613
0.586680 0.096022 0.184531
0.595830 0.108258 0.200890
0.107566 0.121231 0.192419
0.754447 0.133809 0.189059
0.765733 0.159794 0.199663
0.779083 0.174414 0.193648
0.632251 0.180483 0.183586
0.134626 0.209726 0.182915
0.361012 0.230246 0.187435
0.113296 0.229099 0.196127
0.564147 0.242997 0.185688
0.380452 0.246429 0.189332
0.326617 0.248350 0.185884
0.640070 0.231356 0.199701
0.335519 0.242980 0.187734
0.395205 0.256836 0.178694
0.130380 0.246770 0.194106
0.877034 0.265090 0.180098
0.579452 0.259697 0.192972
0.894951 0.264007 0.183918
0.883570 0.265543 0.184484
0.332181 0.270311 0.188882
0.415687 0.280241 0.192174
0.913364 0.273871 0.183098
0.876524 0.261437 0.190555
0.856269 0.267827 0.191570
0.856916 0.294389 0.178329
0.134091 0.280548 0.188348
0.901728 0.283673 0.194087
0.405912 0.277134 0.174957
0.356872 0.298888 0.198624
0.141366 0.278846 0.189327
0.671929 0.296542 0.181010
0.424860 0.302182 0.201298
0.350552 0.308361 0.180795
0.913859 0.299265 0.199293
0.675602 0.314490 0.193480
0.831581 0.322289 0.190995
0.836694 0.323411 0.198448
0.843399 0.314032 0.189651
0.682349 0.314318 0.191704
0.165850 0.334566 0.183096
0.356180 0.321808 0.179726
0.854930 0.319997 0.189590
0.356661 0.338958 0.207114
0.856381 0.330560 0.190431
0.434986 0.336503 0.190807
0.845094 0.352830 0.192682
0.183466 0.355923 0.205601
0.904772 0.344356 0.188584
0.681161 0.333424 0.196083
0.619617 0.359704 0.189696
0.916148 0.364509 0.199612
0.935526 0.362842 0.181748
0.447710 0.351508 0.198073
0.640119 0.345644 0.181685
0.648425 0.367461 0.175622
0.669070 0.361170 0.189805
0.828329 0.360123 0.191695
0.376120 0.382974 0.191060
0.968714 0.373538 0.192907
0.979786 0.371764 0.176416
0.857446 0.370105 0.182530
0.213481 0.381782 0.194579
0.226074 0.397562 0.193081
0.460942 0.372882 0.193632
0.875810 0.388307 0.191419
0.244533 0.374811 0.190051
0.468387 0.383277 0.201186
0.823017 0.422518 0.191350
0.869521 0.390829 0.190369
0.986830 0.395500 0.191492
0.396840 0.404574 0.184444
1.004428 0.404539 0.185195
0.857735 0.414512 0.187556
0.392719 0.420077 0.195858
0.978703 0.442816 0.190698
0.139806 0.426775 0.190734
0.139477 0.436643 0.185688
0.972823 0.435407 0.195143
0.142330 0.435053 0.179700
0.119734 0.443443 0.195339
0.115676 0.442633 0.199792
0.173222 0.436138 0.180731
0.971446 0.445731 0.181181
0.795032 0.443905 0.200498
0.218464 0.440564 0.191382
0.250120 0.448380 0.189840
0.128080 0.455257 0.173050
0.541347 0.448192 0.193892
0.962686 0.467220 0.193791
0.948541 0.460645 0.185166
0.784304 0.469724 0.199710
0.147696 0.469202 0.182504
0.895340 0.470957 0.183486
0.921770 0.473946 0.192156
0.937115 0.469111 0.192521
0.413153 0.467337 0.202107
0.764711 0.471981 0.194097
0.204207 0.481107 0.167918
0.777259 0.471222 0.196800
0.546284 0.483510 0.188176
0.583845 0.489066 0.198491
0.736264 0.488686 0.188198
0.736057 0.478687 0.181715
0.221756 0.488471 0.191315
0.711586 0.479521 0.200146
0.712649 0.496629 0.177853
0.225017 0.513008 0.190011
0.607877 0.504054 0.168985
0.616965 0.495995 0.196121
0.651068 0.494120 0.193289
0.678514 0.495671 0.200404
0.227356 0.502674 0.173355
0.246831 0.502403 0.199112
0.412702 0.523508 0.185897
0.430134 0.521533 0.177629
0.119349 0.539296 0.203135
0.132666 0.511822 0.182883
0.431151 0.535964 0.194953
0.257322 0.512677 0.194313
0.433132 0.537989 0.183094
0.169690 0.537623 0.181685
0.440188 0.537160 0.192175
0.455117 0.538871 0.186173
0.255110 0.536539 0.191886
0.458949 0.534502 0.177141
0.464915 0.539221 0.195362
0.455057 0.541170 0.195303
0.214348 0.547740 0.193351
0.448762 0.552072 0.192535
0.474456 0.547229 0.184462
0.472382 0.548935 0.178545
0.084420 0.547524 0.208470
0.456288 0.553838 0.195031
0.456190 0.539227 0.181442
0.457389 0.553898 0.194931
0.450573 0.559309 0.188150
0.423813 0.569025 0.187463
0.441784 0.550711 0.197287
0.441049 0.566304 0.185291
0.136981 0.566011 0.175619
0.413902 0.575652 0.181324
0.401861 0.585500 0.191846
0.398853 0.559358 0.196743
0.074099 0.568104 0.183444
0.094890 0.582158 0.189961
0.407218 0.574114 0.189587
0.388253 0.579624 0.202588
0.179486 0.592010 0.198477
0.381496 0.585095 0.202094
0.359310 0.598677 0.203076
0.361861 0.603799 0.183757
0.230795 0.628332 0.195610
0.246307 0.638224 0.193315
0.253988 0.635731 0.203812
0.311262 0.633727 0.186607
0.649211 0.001420 0.200382
0.662319 -0.010247 0.202710
0.655804 0.014828 0.188292
0.750564 0.007787 0.194724
0.752867 -0.001097 0.192848
0.764053 0.007184 0.178180
0.229569 0.014667 0.196745
0.238468 0.010013 0.194545
0.252017 0.002700 0.192106
0.391713 0.001400 0.185004
0.390879 -0.002790 0.195886
0.635049 0.000256 0.177356
0.672639 -0.010603 0.180669
0.739334 0.015627 0.193152
0.740952 -0.000037 0.194705
0.739456 0.001775 0.197969
0.225171 -0.006635 0.182376
0.220583 0.000018 0.182782
0.737688 -0.009932 0.188624
0.774670 -0.007140 0.198438
0.847235 -0.010833 0.206832
0.865006 0.002521 0.186904
0.873393 0.006979 0.187319
0.219432 0.010668 0.191604
0.277702 0.016920 0.194923
0.413131 0.008107 0.192140
0.634081 0.008224 0.196555
0.733994 0.010982 0.209582
0.815143 -0.006877 0.190055
0.207229 0.004352 0.191538
0.384854 0.023355 0.188718
0.683143 0.020817 0.182437
0.799011 0.008148 0.186906
0.446990 0.012777 0.201197
0.795646 0.012614 0.193727
0.207871 0.022646 0.196003
0.292943 0.003930 0.202323
0.781875 -0.000191 0.183068
0.193934 0.004133 0.195806
0.362551 0.012742 0.187080
0.628296 -0.000808 0.184570
0.873463 0.012048 0.197046
0.897530 0.027187 0.199554
0.314171 0.016266 0.193127
0.352529 0.001801 0.199238
0.442501 0.015074 0.199927
0.190678 0.022650 0.207947
0.631203 0.026863 0.193777
0.171658 0.035395 0.185963
0.319686 0.023883 0.197791
0.443793 0.023494 0.192559
0.885907 0.020380 0.187734
0.152245 0.020128 0.205450
0.610449 0.036640 0.196392
0.469046 0.026357 0.184039
0.889393 0.046045 0.207049
0.178985 0.039674 0.194474
0.880862 0.033429 0.191840
0.150915 0.051712 0.178196
0.867642 0.040762 0.197441
0.471382 0.031622 0.192326
0.606976 0.043011 0.203543
0.148466 0.063140 0.190404
0.863765 0.056137 0.196275
0.603219 0.061095 0.206149
0.852908 0.054582 0.194144
0.118145 0.069697 0.196928
0.493159 0.067436 0.190724
0.854014 0.070592 0.196134
0.603255 0.073316 0.202388
0.847509 0.082652 0.183276
0.142659 0.075737 0.197430
0.830314 0.071927 0.202897
0.588431 0.087323 0.191928
0.806242 0.078719 0.186902
0.132153 0.077420 0.188877
0.486069 0.062793 0.184965
0.821750 0.074367 0.179594
0.120535 0.087964 0.208058
0.812374 0.076138 0.186644
0.799994 0.094449 0.186423
0.121421 0.094365 0.193082
0.507849 0.082195 0.195697
0.793005 0.096177 0.186377
0.515468 0.092281 0.197098
0.789096 0.096216 0.185362
0.097846 0.105462 0.194264
0.521118 0.115082 0.182423
0.786084 0.107582 0.182021
0.521304 0.109354 0.200971
0.757587 0.103908 0.187756
0.111029 0.130671 0.181409
0.523202 0.109071 0.189914
0.513920 0.115224 0.176205
0.769251 0.110142 0.193642
0.754415 0.126122 0.169179
0.522158 0.130451 0.187435
0.113610 0.134758 0.196607
0.542088 0.130786 0.167966
0.595172 0.137306 0.188313
0.521069 0.143212 0.192546
0.765364 0.150265 0.196510
0.598701 0.140829 0.197251
0.106328 0.148388 0.196946
0.111097 0.168398 0.202482
0.554465 0.151517 0.195544
0.606692 0.152081 0.189162
0.765521 0.149468 0.191303
0.533632 0.176729 0.188618
0.607772 0.154922 0.194725
0.766719 0.170691 0.200695
0.537665 0.165153 0.180629
0.531318 0.179453 0.194765
0.604532 0.181150 0.189874
0.766830 0.173749 0.203436
0.100326 0.184713 0.193181
0.618339 0.171384 0.183583
0.533803 0.181855 0.186289
0.773786 0.184486 0.184819
0.089613 0.180497 0.188987
0.102672 0.190108 0.183670
0.560839 0.205543 0.185155
0.615109 0.191481 0.204508
0.795213 0.181590 0.196935
0.619985 0.187239 0.197913
0.620428 0.202346 0.191185
0.558425 0.194806 0.190179
0.104996 0.195130 0.198539
0.777272 0.198492 0.189510
0.557708 0.211488 0.194213
0.792093 0.219974 0.192670
0.093860 0.208454 0.177569
0.113392 0.215642 0.193124
0.565686 0.213790 0.190274
0.788788 0.212197 0.206567
0.630201 0.198714 0.182272
0.795620 0.225380 0.195799
0.324991 0.211962 0.186446
0.354489 0.218229 0.185178
0.643368 0.198635 0.193830
0.802401 0.222586 0.190657
0.343507 0.212951 0.199019
0.802514 0.218026 0.188261
0.338932 0.219500 0.181792
0.359929 0.225999 0.202155
0.321316 0.238537 0.184651
0.379628 0.244813 0.189756
0.375392 0.225129 0.186259
0.643605 0.227863 0.193518
0.818942 0.224473 0.208696
0.569913 0.221541 0.191718
0.109698 0.242209 0.177145
0.317315 0.230007 0.188915
0.819269 0.243327 0.193234
0.334283 0.240463 0.197696
0.568686 0.240576 0.183613
0.826901 0.249411 0.191748
0.646061 0.233688 0.185160
0.821687 0.253704 0.181902
0.387871 0.244252 0.203585
0.644322 0.249864 0.197899
0.568972 0.250651 0.203146
0.134547 0.256001 0.200758
0.843804 0.257345 0.173137
0.656263 0.261228 0.194902
0.891449 0.246508 0.186256
0.893417 0.260827 0.186143
0.891709 0.250342 0.200858
0.336863 0.267418 0.199686
0.400937 0.265829 0.186102
0.650364 0.262139 0.193825
0.900674 0.263965 0.182710
0.837644 0.273275 0.180983
0.413024 0.278125 0.194314
0.858040 0.267825 0.192192
0.417323 0.249824 0.196085
0.652731 0.263413 0.189971
0.833179 0.266041 0.197979
0.136748 0.274566 0.202546
0.589504 0.273140 0.188619
0.842558 0.273710 0.184462
0.574796 0.278496 0.186350
0.902122 0.269616 0.201872
0.840242 0.261866 0.186755
0.913350 0.272652 0.184318
0.324548 0.274437 0.193218
0.422400 0.277618 0.192389
0.573264 0.276661 0.184620
0.670686 0.285196 0.189584
0.343107 0.289920 0.190128
0.415176 0.275157 0.207338
0.576117 0.292174 0.189046
0.922030 0.280148 0.179573
0.659778 0.282511 0.201749
0.337996 0.300458 0.190620
0.149013 0.292392 0.202037
0.590420 0.298679 0.193966
0.669605 0.287527 0.176311
0.361376 0.301171 0.202252
0.594586 0.292900 0.181041
0.420641 0.304828 0.203836
0.156542 0.311315 0.194740
0.154012 0.306677 0.197471
0.591299 0.320071 0.205623
0.917571 0.310552 0.198334
0.440011 0.316098 0.199340
0.828591 0.309171 0.191328
0.165246 0.321172 0.190006
0.345256 0.312217 0.192197
0.426415 0.303861 0.196831
0.600274 0.318362 0.193371
0.677129 0.301938 0.204825
0.899978 0.313772 0.191370
0.598168 0.328227 0.188509
0.700965 0.317213 0.192617
0.427795 0.319515 0.200046
0.602911 0.321537 0.191231
0.822096 0.317475 0.204364
0.896214 0.327260 0.198950
0.169835 0.329418 0.201358
0.821406 0.336823 0.198259
0.853791 0.335908 0.197647
0.908143 0.327605 0.182202
0.175417 0.332448 0.198787
0.609770 0.339811 0.176493
0.691314 0.353609 0.190583
0.375865 0.357762 0.187094
0.689893 0.340994 0.202874
0.437463 0.348392 0.193922
0.613734 0.345581 0.188735
0.633905 0.344483 0.193734
0.832313 0.349694 0.184213
0.189352 0.340650 0.196919
0.612424 0.346541 0.180853
0.930591 0.355702 0.191287
0.197721 0.357649 0.189281
0.833037 0.362576 0.188552
0.919048 0.359434 0.192816
0.922700 0.348065 0.195593
0.676964 0.351432 0.199325
0.374455 0.360511 0.192803
0.862803 0.353431 0.186341
0.936439 0.355105 0.178065
0.203018 0.353515 0.188991
0.449145 0.360405 0.186188
0.639376 0.354343 0.181885
0.672541 0.369206 0.196943
0.950861 0.377979 0.180595
0.221252 0.367839 0.193284
0.457849 0.354460 0.201527
0.840511 0.373793 0.188548
0.380491 0.358969 0.190768
0.190783 0.375303 0.195089
0.974905 0.348762 0.183718
0.207693 0.358649 0.204996
0.454494 0.368141 0.180816
0.820150 0.378814 0.190717
0.958585 0.369423 0.191890
0.952932 0.368246 0.190098
0.975037 0.367692 0.179776
0.463157 0.365189 0.201038
0.980862 0.388408 0.191538
0.820482 0.389191 0.201147
0.880918 0.372387 0.207977
0.473620 0.389455 0.194667
0.391369 0.391412 0.192558
0.476880 0.402642 0.193511
0.811829 0.386453 0.206873
0.981859 0.402104 0.190055
0.230893 0.396224 0.189799
0.882947 0.409518 0.185071
0.245941 0.405045 0.185658
0.258803 0.396195 0.181108
0.481975 0.418959 0.190266
0.984744 0.402289 0.197193
0.823655 0.406256 0.186000
0.264862 0.411460 0.175285
1.001846 0.416968 0.189411
0.383442 0.411119 0.192802
0.504589 0.417788 0.172687
0.815858 0.412275 0.216189
0.874550 0.417560 0.191187
0.498567 0.421298 0.196201
0.261388 0.417908 0.186049
0.500929 0.424886 0.199482
0.869745 0.421009 0.188198
0.994501 0.423796 0.194102
0.818243 0.416525 0.192052
0.251235 0.418887 0.192807
0.874158 0.414848 0.185107
0.985613 0.427332 0.193063
0.159328 0.434085 0.199478
0.156392 0.428229 0.191383
0.174294 0.437099 0.202694
0.264489 0.431604 0.191530
0.392188 0.425843 0.187542
0.497469 0.443767 0.191308
0.789069 0.441334 0.202239
0.890399 0.425831 0.192739
0.170527 0.433288 0.192268
0.278445 0.431063 0.193888
0.255609 0.443675 0.189997
0.508598 0.437197 0.184819
0.172009 0.430785 0.181749
0.192951 0.440293 0.191030
0.423971 0.429502 0.195185
0.806565 0.437896 0.187775
0.203620 0.424456 0.194833
0.880032 0.448029 0.180418
0.413429 0.447133 0.197629
0.799343 0.455992 0.197599
0.983199 0.448286 0.191261
0.225252 0.458233 0.195593
0.231622 0.443578 0.196248
0.241392 0.460107 0.193508
0.237747 0.451370 0.197132
0.877504 0.450300 0.188080
0.532275 0.458920 0.189868
0.796292 0.467094 0.212356
0.879180 0.469249 0.197118
0.950184 0.464604 0.205715
0.957663 0.461041 0.195261
0.125135 0.462745 0.188262
0.131898 0.458754 0.184709
0.403248 0.462448 0.189171
0.537305 0.458621 0.202222
0.793443 0.453429 0.192075
0.909149 0.460290 0.202825
0.907665 0.464741 0.199713
0.956802 0.451184 0.182823
0.947089 0.453145 0.187633
0.549704 0.475572 0.200536
0.883395 0.479952 0.207180
0.893170 0.467115 0.196566
0.151152 0.460677 0.197295
0.162767 0.473876 0.197376
0.905613 0.471438 0.207024
0.920103 0.466959 0.202733
0.165945 0.479502 0.188560
0.770164 0.456876 0.185847
0.170136 0.468546 0.185260
0.189414 0.471263 0.196736
0.910514 0.460028 0.176996
0.549286 0.464128 0.193356
0.187633 0.477075 0.193595
0.194561 0.491297 0.191304
0.433801 0.490420 0.194696
0.761581 0.464334 0.194681
0.741067 0.484540 0.196174
0.430398 0.500530 0.179499
0.748205 0.486464 0.198725
0.577772 0.499989 0.184515
0.431812 0.485293 0.198929
0.440381 0.491584 0.187767
0.425490 0.502226 0.203764
0.432950 0.491904 0.206319
0.443441 0.503345 0.187977
0.584823 0.491077 0.204522
0.704653 0.490051 0.191099
0.612159 0.500933 0.206977
0.692332 0.486978 0.198111
0.695062 0.496182 0.201103
0.635095 0.515778 0.195922
0.670579 0.506716 0.191148
0.428617 0.504204 0.206858
0.258007 0.515638 0.199184
0.432417 0.511865 0.173464
0.133543 0.520411 0.195628
0.448455 0.508834 0.202627
0.458624 0.531268 0.198361
0.461347 0.527328 0.191531
0.115319 0.539645 0.195350
0.135536 0.529253 0.185653
0.157684 0.519061 0.179129
0.093274 0.523017 0.180360
0.169064 0.536978 0.194324
0.452351 0.535781 0.180740
0.096675 0.546204 0.191407
0.467517 0.537084 0.195330
0.169849 0.539299 0.188875
0.194939 0.530333 0.195111
0.188621 0.543452 0.196442
0.239821 0.548610 0.206015
0.478799 0.533529 0.198682
0.093678 0.526004 0.181807
0.240282 0.535650 0.197268
0.081929 0.537039 0.183567
0.214489 0.534559 0.202227
0.488055 0.546595 0.182435
0.473440 0.557361 0.213807
0.065982 0.549877 0.187145
0.441416 0.557749 0.189058
0.066110 0.562270 0.187541
0.427290 0.574460 0.186920
0.118146 0.574954 0.203686
0.150430 0.563538 0.180788
0.148326 0.563826 0.193996
0.157767 0.573851 0.202760
0.166221 0.592419 0.182153
0.441277 0.569308 0.195426
0.443303 0.555847 0.196407
0.108261 0.563878 0.186796
0.084731 0.567604 0.203122
0.123042 0.554644 0.190934
0.423083 0.570946 0.205178
0.422499 0.592453 0.188428
0.429624 0.563452 0.185760
0.446404 0.583652 0.189620
0.079797 0.579728 0.196231
0.080411 0.585276 0.184826
0.386234 0.578098 0.194004
0.398094 0.580928 0.212367
0.425656 0.576205 0.192458
0.441956 0.571317 0.186803
0.466680 0.579748 0.187588
0.160328 0.596814 0.185324
0.394789 0.599832 0.205854
0.457003 0.591887 0.179323
0.474684 0.589242 0.184237
0.490448 0.577845 0.184319
0.170515 0.605408 0.187630
0.461778 0.603580 0.199180
0.481877 0.612216 0.190106
0.356688 0.606102 0.200052
0.174907 0.607529 0.192602
0.357627 0.619619 0.197384
0.188640 0.615560 0.180469
0.187994 0.608682 0.190866
0.338035 0.602384 0.196278
0.337522 0.612995 0.192076
0.178082 0.626145 0.190095
0.321385 0.615330 0.189312
0.194710 0.613793 0.184060
0.294142 0.629329 0.204952
0.202921 0.618429 0.202482
0.298089 0.623936 0.186049
0.273697 0.630455 0.192152
0.273014 0.623000 0.185538
0.239350 0.643682 0.192708
0.296287 0.635676 0.206862
0.809829 0.007781 0.184376
0.850514 -0.009844 0.199530
0.375376 0.021560 0.204433
0.817248 0.056616 0.180392
0.572650 0.218278 0.186259
0.366297 0.226441 0.202434
0.368291 0.219195 0.192890
0.640129 0.211544 0.207675
0.326387 0.225605 0.207332
0.389153 0.245675 0.196586
0.880722 0.257052 0.204625
0.908824 0.258576 0.195672
0.140123 0.285351 0.193778
0.181384 0.333155 0.188624
0.897015 0.341037 0.207842
0.854008 0.365244 0.194614
0.949987 0.364096 0.212317
0.403491 0.384692 0.197570
0.874377 0.393688 0.195678
0.370145 0.388797 0.195865
0.397026 0.404387 0.179812
0.113632 0.430055 0.196576
0.868781 0.442653 0.191010
0.510990 0.442644 0.190372
0.208308 0.455325 0.206867
0.421768 0.486601 0.187092
0.464993 0.488560 0.199272
0.211622 0.492202 0.194750
0.426819 0.482641 0.185168
0.452051 0.493281 0.179931
0.589345 0.490438 0.198906
0.594651 0.492212 0.189118
0.449015 0.504923 0.198072
0.236718 0.511646 0.200770
0.658830 0.498087 0.197901
0.131937 0.523907 0.201481
0.062700 0.548960 0.197725
0.407703 0.591158 0.202762
0.429756 0.598838 0.206682
0.413324 0.580174 0.176328
0.446819 0.589380 0.184751
0.460115 0.599103 0.189411
0.470830 0.607181 0.196990
0.340572 0.623624 0.177435
0.245961 -0.012289 0.194879
0.674509 -0.001409 0.197593
0.724780 0.005158 0.185485
0.768397 0.005540 0.202285
0.409677 0.014363 0.189958
0.833852 -0.000581 0.193511
0.702096 0.001158 0.184376
0.272504 0.022315 0.195304
0.165105 0.030514 0.205911
0.874594 0.050928 0.188635
0.842786 0.079114 0.190049
0.496560 0.069871 0.182443
0.603186 0.075899 0.188384
0.095886 0.117540 0.191771
0.099918 0.165227 0.200984
0.387747 0.238467 0.181168
0.566994 0.235104 0.201074
0.390988 0.238175 0.180972
0.903353 0.254436 0.206618
0.644252 0.258600 0.191486
0.125827 0.270108 0.200136
0.329045 0.281288 0.204405
0.651864 0.266074 0.204212
0.334886 0.306079 0.195408
0.821036 0.305495 0.190848
0.842484 0.299605 0.184990
0.339782 0.297922 0.182109
0.819760 0.314165 0.200102
0.841625 0.298683 0.192852
0.149605 0.310915 0.179235
0.811663 0.319943 0.201180
0.361574 0.327243 0.182383
0.828421 0.341088 0.203262
0.611061 0.333189 0.194139
0.829190 0.328966 0.185675
0.449352 0.344656 0.189245
0.821668 0.339779 0.190796
0.369745 0.370494 0.184665
0.822554 0.369665 0.199814
0.674878 0.354476 0.199966
0.862920 0.369255 0.198199
0.630571 0.350879 0.191109
0.916403 0.359615 0.198661
0.905858 0.363669 0.203935
0.916242 0.373282 0.198021
0.941025 0.387615 0.187791
0.981285 0.379007 0.185314
0.984725 0.385266 0.192444
0.484086 0.400190 0.190219
0.391146 0.403771 0.193410
0.988530 0.413623 0.206416
0.868443 0.426206 0.199945
0.498316 0.430666 0.190004
0.116706 0.429486 0.198577
0.398736 0.449480 0.195436
0.106425 0.435404 0.185113
0.510312 0.439287 0.186239
0.102792 0.439434 0.208569
0.977873 0.438903 0.206876
0.127256 0.461089 0.194299
0.984422 0.459272 0.210856
0.960395 0.448125 0.197876
0.396497 0.464314 0.203006
0.544564 0.472306 0.196094
0.433310 0.473251 0.188605
0.755035 0.480003 0.196279
0.478565 0.466829 0.184305
0.574395 0.454992 0.194228
0.459341 0.485093 0.186205
0.576678 0.490590 0.196043
0.444501 0.487869 0.193983
0.709177 0.483424 0.185689
0.482749 0.553976 0.196430
0.055786 0.567121 0.185690
0.065859 0.567099 0.201402
0.129893 0.561310 0.187183
0.128678 0.556975 0.185818
0.138417 0.568598 0.199055
0.165489 0.569109 0.204769
0.463402 0.577515 0.184647
0.083573 0.567938 0.202431
0.396363 0.592300 0.194721
0.415972 0.594148 0.191722
0.440716 0.602670 0.174330
0.377233 0.601332 0.188130
0.466596 0.593205 0.198054
0.314873 0.629973 0.196992
0.212280 0.615981 0.198323
0.150552 0.052878 0.187924
0.859648 0.069630 0.205310
0.845251 0.083928 0.203879
0.780585 0.115847 0.185729
0.596467 0.113522 0.180045
0.608286 0.172468 0.188631
0.619439 0.208896 0.195014
0.119939 0.227452 0.190486
0.577772 0.286258 0.208783
0.818516 0.289728 0.188160
0.824843 0.279256 0.193028
0.831746 0.332607 0.185277
0.902109 0.371915 0.187540
0.935595 0.369345 0.188976
0.881632 0.366378 0.188107
0.817840 0.372463 0.203107
0.909938 0.383764 0.199416
0.931023 0.380489 0.189391
0.881973 0.376881 0.203215
0.794484 0.406079 0.192910
0.116645 0.438585 0.208105
0.443649 0.477865 0.208071
0.442527 0.472910 0.205543
0.470456 0.482627 0.197165
0.429402 0.476597 0.210609
0.610427 0.498187 0.192272
0.232745 0.496529 0.216065
0.188001 0.532821 0.170702
0.218758 0.544330 0.183833
0.071882 0.551714 0.200312
0.187118 -0.004239 0.210666
0.309242 0.021220 0.218350
0.318534 0.014995 0.182700
0.299070 0.022163 0.191493
0.350756 0.019127 0.198622
0.359806 0.020244 0.201200
0.842672 0.073890 0.191918
0.805861 0.087422 0.214579
0.861510 0.081994 0.198638
0.609314 0.144338 0.193365
0.608450 0.182151 0.200481
0.354059 0.219773 0.194260
0.358145 0.217224 0.183062
0.821268 0.229539 0.204457
0.803559 0.239013 0.189226
0.811469 0.236804 0.203019
0.898966 0.237760 0.185868
0.791835 0.247883 0.190702
0.808750 0.259117 0.188728
0.856135 0.260861 0.183505
0.813479 0.260317 0.192828
0.818322 0.270536 0.202707
0.819052 0.276323 0.196320
0.811260 0.280190 0.202761
0.825919 0.298914 0.208629
0.832144 0.282433 0.193870
0.848015 0.291602 0.201065
0.854141 0.300859 0.200851
0.426705 0.319466 0.196827
0.908899 0.362063 0.195918
0.890001 0.365264 0.199008
0.880099 0.386762 0.190054
0.857761 0.388595 0.190749
0.897625 0.373541 0.205023
0.902701 0.388294 0.196294
0.931254 0.367954 0.197676
0.913860 0.388949 0.196039
0.931847 0.390835 0.186421
0.932763 0.378314 0.198999
0.903467 0.403907 0.189098
0.878750 0.404462 0.201195
0.253503 0.411132 0.191505
0.089602 0.433997 0.182150
0.801449 0.428321 0.198272
0.120896 0.460059 0.179839
0.417723 0.453705 0.200631
0.418330 0.471993 0.205563
0.416731 0.472984 0.190591
0.441034 0.467462 0.206063
0.427665 0.470975 0.209205
0.459474 0.472127 0.195489
0.473270 0.465324 0.207443
0.470297 0.482032 0.206426
0.182395 0.494480 0.182665
0.471743 0.482681 0.198552
0.694761 0.493792 0.184460
0.253977 0.502695 0.198041
0.429663 0.510556 0.200892
0.448748 0.520481 0.209081
0.255717 0.517790 0.209596
0.118278 0.531718 0.214438
0.173656 0.538167 0.194932
0.222377 0.519985 0.182703
0.053571 0.563144 0.196200
0.424232 0.572399 0.193919
0.643244 -0.000540 0.203395
0.650653 0.004179 0.196859
0.777012 0.000188 0.191801
0.762067 0.007437 0.204433
0.783079 0.007286 0.193405
0.221156 0.012957 0.202487
0.238398 0.007107 0.211705
0.396481 0.016223 0.200735
0.396927 0.003807 0.202974
0.414940 -0.009827 0.204675
0.635594 0.006303 0.200550
0.743362 0.017459 0.185068
0.785758 -0.003862 0.200082
0.218430 -0.006529 0.214833
0.256200 0.013192 0.205574
0.383423 0.007515 0.189292
0.666290 0.003683 0.210570
0.797695 0.000659 0.200553
0.865304 0.008956 0.198076
0.870127 0.009913 0.193263
0.201528 0.010177 0.203343
0.421751 -0.008053 0.212724
0.625471 0.005452 0.194081
0.731245 0.017649 0.197420
0.824726 0.006980 0.197978
0.883865 -0.002948 0.201023
0.255264 0.010680 0.194086
0.692179 0.010994 0.205224
0.809487 0.009087 0.193491
0.190221 0.008981 0.197738
0.264709 0.005508 0.184071
0.380085 0.005750 0.199810
0.441200 0.010287 0.206422
0.718961 0.002503 0.197247
0.717097 0.010439 0.206014
0.787014 0.002991 0.209516
0.169324 0.002720 0.212524
0.671123 0.002259 0.195903
0.280130 0.008706 0.191943
0.294039 0.022402 0.199920
0.354749 0.032036 0.201150
0.628252 0.013231 0.201542
0.177256 0.006825 0.189886
0.463527 0.027255 0.209744
0.879115 0.015550 0.201239
0.163664 0.016288 0.201114
0.617232 0.018389 0.215743
0.885302 0.015008 0.206328
0.445932 0.027733 0.207680
0.458046 0.020844 0.198375
0.893730 0.031590 0.201187
0.158084 0.030892 0.205001
0.623773 0.031117 0.205971
0.606632 0.044670 0.194683
0.892437 0.041216 0.190869
0.161361 0.020380 0.185401
0.467091 0.027141 0.215203
0.591086 0.035652 0.204382
0.874999 0.036617 0.210459
0.149888 0.049937 0.191914
0.451596 0.038994 0.194300
0.615704 0.035220 0.199749
0.469432 0.051031 0.192803
0.872601 0.050751 0.206262
0.877173 0.046566 0.187985
0.140503 0.031400 0.207673
0.883116 0.047374 0.204320
0.143851 0.037584 0.212761
0.474008 0.047351 0.196611
0.602835 0.048769 0.188079
0.133778 0.061505 0.200388
0.880338 0.060863 0.188189
0.594429 0.067976 0.192323
0.489254 0.071429 0.210215
0.842702 0.061261 0.206461
0.825985 0.080792 0.199193
0.833371 0.064204 0.179434
0.833186 0.080752 0.199890
0.868381 0.079481 0.189783
0.505405 0.071075 0.198971
0.603498 0.075066 0.190518
0.127625 0.083935 0.204328
0.811971 0.074876 0.210804
0.137952 0.079937 0.193386
0.791820 0.081154 0.211754
0.850519 0.093910 0.202960
0.842260 0.073289 0.206422
0.871955 0.064442 0.207672
0.518628 0.090318 0.197043
0.817188 0.070058 0.206827
0.126653 0.083496 0.213347
0.779829 0.099001 0.207325
0.504357 0.102205 0.193610
0.506190 0.081068 0.201282
0.102791 0.104835 0.192546
0.515681 0.090520 0.216061
0.782148 0.073420 0.207856
0.592847 0.091430 0.211101
0.592769 0.108429 0.217486
0.118945 0.110457 0.197872
0.780270 0.119051 0.209735
0.518503 0.111498 0.211715
0.599625 0.115652 0.194102
0.119238 0.127885 0.188208
0.523890 0.113335 0.205889
0.600629 0.113985 0.185311
0.786585 0.114845 0.193989
0.514615 0.147615 0.189185
0.598779 0.130561 0.203213
0.770707 0.144730 0.196759
0.107948 0.137914 0.215364
0.100155 0.123281 0.207476
0.598804 0.142751 0.199201
0.543718 0.145638 0.197938
0.780512 0.132562 0.177679
0.534568 0.156502 0.190686
0.092873 0.137705 0.202501
0.759796 0.145009 0.203013
0.619433 0.152726 0.188768
0.607664 0.147921 0.187944
0.535383 0.158237 0.201016
0.617984 0.160536 0.201167
0.104166 0.159513 0.183987
0.780264 0.165298 0.202104
0.534798 0.175857 0.208297
0.099189 0.174409 0.201697
0.540357 0.179163 0.220709
0.778169 0.165469 0.192540
0.618611 0.170780 0.195967
0.104329 0.190797 0.199689
0.548737 0.176654 0.198911
0.616213 0.177497 0.203632
0.786590 0.179969 0.188213
0.525239 0.180842 0.195121
0.095024 0.194287 0.204694
0.553647 0.196635 0.212914
0.780489 0.194840 0.203075
0.631855 0.205106 0.188785
0.776606 0.200664 0.199735
0.103516 0.194855 0.200164
0.627999 0.197306 0.202438
0.791361 0.195487 0.179994
0.540728 0.202015 0.197896
0.621861 0.201961 0.196662
0.551299 0.221358 0.205610
0.100404 0.221821 0.201702
0.778740 0.222229 0.188671
0.648136 0.207192 0.207849
0.356274 0.202631 0.181855
0.553099 0.223340 0.209363
0.805108 0.218000 0.194291
0.795692 0.211173 0.200902
0.355728 0.194763 0.198473
0.370258 0.203928 0.199230
0.343066 0.206679 0.225067
0.373809 0.224987 0.197911
0.638063 0.208330 0.192780
0.338806 0.227324 0.177711
0.367993 0.223006 0.200302
0.639519 0.218059 0.185921
0.797259 0.226102 0.201929
0.782642 0.213308 0.210640
0.793702 0.219259 0.203394
0.806478 0.219305 0.187842
0.806141 0.213591 0.200107
0.115577 0.228308 0.196024
0.562599 0.219868 0.199360
0.324430 0.222941 0.205254
0.333468 0.225888 0.204934
0.410507 0.247818 0.201104
0.649429 0.234965 0.195087
0.782000 0.225821 0.207070
0.778513 0.222054 0.186610
0.799457 0.222941 0.192370
0.118060 0.229976 0.202000
0.803544 0.224170 0.200705
0.798209 0.238786 0.203914
0.566061 0.218583 0.189609
0.323678 0.237401 0.198689
0.556708 0.228936 0.186632
0.641409 0.230989 0.198227
0.789319 0.239245 0.194416
0.806423 0.230607 0.215647
0.103054 0.234730 0.197759
0.409146 0.264858 0.198037
0.797506 0.241412 0.193677
0.871244 0.240600 0.191543
0.893326 0.231966 0.197200
0.894031 0.242626 0.192182
0.899909 0.241394 0.192908
0.808784 0.267745 0.190658
0.818469 0.250738 0.208214
0.568798 0.233350 0.211097
0.815674 0.241973 0.211921
0.873803 0.257373 0.206192
0.129710 0.255300 0.196202
0.397402 0.244999 0.202371
0.579226 0.254096 0.203790
0.900964 0.257612 0.200092
0.663345 0.252602 0.204880
0.805375 0.273604 0.197896
0.316605 0.249346 0.191231
0.394327 0.256206 0.213918
0.862602 0.247238 0.211458
0.119452 0.261453 0.203538
0.321884 0.269171 0.181694
0.403625 0.257625 0.211396
0.566776 0.263417 0.203833
0.803793 0.262392 0.200157
0.803112 0.270813 0.189953
0.861852 0.255841 0.200858
0.656840 0.248504 0.190612
0.921855 0.253112 0.211873
0.850302 0.257911 0.205768
0.829745 0.258261 0.198377
0.332894 0.280276 0.195408
0.670328 0.268856 0.199676
