ply
format ascii 1.0
element vertex 1773
property float x
property float y
property float z
end_header
0.894153 0.472145 0.806829
0.886054 0.472835 0.817177
0.877726 0.473720 0.826489
0.868718 0.474374 0.835917
0.859496 0.473992 0.845679
0.850531 0.475198 0.855477
0.841872 0.475983 0.863134
0.833146 0.476935 0.872335
0.824214 0.477281 0.880460
0.812628 0.476409 0.889540
0.802944 0.477673 0.896292
0.794106 0.479799 0.905112
0.782283 0.479271 0.911229
0.771540 0.480325 0.919292
0.761596 0.482170 0.925665
0.749597 0.482713 0.933438
0.738628 0.483136 0.939242
0.727722 0.483321 0.944512
0.716518 0.484676 0.950371
0.703474 0.485401 0.955447
0.692467 0.486258 0.960886
0.680882 0.487502 0.965835
0.669414 0.487883 0.970725
0.657221 0.488956 0.974921
0.644175 0.490351 0.978512
0.632231 0.490911 0.982360
0.620361 0.490981 0.985478
0.607584 0.492041 0.988603
0.594421 0.493498 0.991158
0.582045 0.494524 0.993869
0.569789 0.494788 0.995906
0.557317 0.495310 0.996445
0.544680 0.497566 0.997609
0.531342 0.498170 0.998047
0.519114 0.499816 0.999664
0.506449 0.499679 0.999570
0.500986 0.500053 0.000407
0.512300 0.497906 0.000161
0.524822 0.497540 -0.000054
0.538348 0.496006 0.001547
0.550736 0.495321 0.001841
0.563337 0.493763 0.004919
0.576072 0.492706 0.006479
0.589016 0.490933 0.008432
0.601819 0.490514 0.010512
0.614150 0.489768 0.013665
0.626555 0.488230 0.016429
0.639421 0.487405 0.019524
0.650878 0.485731 0.023454
0.662954 0.483966 0.026478
0.675215 0.483294 0.031919
0.686106 0.481566 0.037544
0.698553 0.480865 0.041353
0.710303 0.479224 0.046893
0.720866 0.478613 0.052736
0.732929 0.477571 0.058430
0.744148 0.476569 0.064239
0.754659 0.474383 0.070150
0.766379 0.473884 0.077300
0.776762 0.473367 0.085185
0.787138 0.472284 0.092065
0.796691 0.471471 0.099058
0.807372 0.469885 0.106980
0.818566 0.468843 0.115217
0.827280 0.468572 0.122924
0.837124 0.467389 0.132106
0.846280 0.466393 0.140091
0.855588 0.466122 0.148888
0.863283 0.464275 0.159152
0.872733 0.464736 0.167646
0.881191 0.462854 0.179259
0.888875 0.462618 0.189514
0.897068 0.461111 0.198599
0.905018 0.460255 0.209552
0.911908 0.459807 0.218823
0.918006 0.459648 0.229200
0.925056 0.459091 0.240780
0.932036 0.458376 0.251357
0.938111 0.457436 0.263242
0.944515 0.456903 0.274857
0.949757 0.456392 0.286739
0.955662 0.455748 0.298029
0.960488 0.454804 0.309752
0.964868 0.454681 0.320999
0.968788 0.454628 0.334512
0.973005 0.453738 0.345963
0.977203 0.454176 0.357676
0.980294 0.453502 0.370237
0.983194 0.452814 0.382309
0.986923 0.452261 0.395502
0.988668 0.452472 0.407255
0.991373 0.452457 0.420414
0.992769 0.451371 0.433058
0.994746 0.451615 0.445509
0.996188 0.453061 0.458798
0.997429 0.451515 0.471935
0.998245 0.451098 0.483392
0.997115 0.452283 0.496052
0.997442 0.451399 0.509747
0.997209 0.451557 0.522641
0.996569 0.452748 0.534483
0.995897 0.452713 0.547773
0.994536 0.452479 0.560017
0.991854 0.452277 0.574106
0.990196 0.452761 0.586355
0.987762 0.452439 0.598826
0.985483 0.453772 0.611176
0.981564 0.453866 0.624457
0.978918 0.454082 0.636545
0.975583 0.454702 0.648446
0.971551 0.454135 0.660299
0.967408 0.454773 0.673372
0.962242 0.454958 0.684088
0.957464 0.455533 0.696546
0.951630 0.456090 0.708968
0.946547 0.457055 0.720594
0.942002 0.457186 0.731744
0.935318 0.458261 0.743532
0.928880 0.457967 0.754009
0.921250 0.457968 0.765202
0.916469 0.459184 0.775197
0.907597 0.460117 0.787137
0.900628 0.460595 0.796700
0.893339 0.460689 0.806421
0.884979 0.462393 0.817009
0.876272 0.462647 0.826497
0.867981 0.463525 0.836571
0.858746 0.464948 0.845665
0.850717 0.467018 0.854837
0.841210 0.466858 0.864284
0.832487 0.468276 0.873476
0.820918 0.469557 0.879782
0.812912 0.469511 0.888668
0.802776 0.470200 0.896207
0.791734 0.471885 0.904400
0.781766 0.472440 0.912419
0.771500 0.472991 0.918280
0.760864 0.475149 0.925989
0.748811 0.476253 0.932865
0.738880 0.477236 0.939924
0.727475 0.478006 0.945072
0.715496 0.478513 0.950532
0.704139 0.479325 0.955926
0.693323 0.481044 0.961453
0.680668 0.482955 0.964816
0.668386 0.483749 0.970123
0.656374 0.484911 0.974229
0.644678 0.486007 0.978446
0.632178 0.487327 0.982136
0.620353 0.488505 0.985333
0.606770 0.489133 0.988074
0.595250 0.490841 0.989770
0.581960 0.491120 0.993649
0.568942 0.492626 0.994884
0.557201 0.495091 0.997009
0.543791 0.495781 0.998439
0.532087 0.496362 0.999191
0.518961 0.497824 0.999250
0.506337 0.499066 0.999914
0.499478 0.500304 0.000049
0.511151 0.498119 -0.000063
0.524974 0.497832 0.000981
0.538559 0.495096 0.001415
0.551146 0.493896 0.002234
0.563324 0.492904 0.004030
0.575156 0.490295 0.006014
0.588224 0.489908 0.007790
0.601373 0.487604 0.011434
0.613080 0.485583 0.013483
0.626034 0.484641 0.016685
0.638989 0.482918 0.020285
0.651145 0.482253 0.023829
0.661809 0.479929 0.028133
0.674390 0.478684 0.031507
0.686435 0.477041 0.036264
0.698463 0.475783 0.041382
0.710128 0.473673 0.046582
0.720358 0.472175 0.052497
0.733484 0.471280 0.058568
0.743103 0.470186 0.064861
0.755163 0.468987 0.070826
0.765426 0.467622 0.077055
0.776753 0.465524 0.084586
0.787723 0.463950 0.091809
0.797194 0.462986 0.100655
0.806673 0.461605 0.106953
0.816776 0.461145 0.115315
0.826509 0.460334 0.123319
0.836538 0.459161 0.132908
0.844643 0.456848 0.141917
0.854463 0.456748 0.150103
0.862813 0.454863 0.158810
0.872237 0.454116 0.168204
0.880029 0.453542 0.178640
0.888033 0.451809 0.188372
0.896163 0.451630 0.199133
0.904229 0.451218 0.208485
0.910186 0.448800 0.219106
0.918331 0.449189 0.229625
0.923731 0.447142 0.241351
0.930400 0.446717 0.251553
0.936637 0.447273 0.263764
0.943249 0.445681 0.274169
0.948329 0.445635 0.285635
0.953944 0.443768 0.297528
0.958134 0.443825 0.309989
0.963572 0.443420 0.321085
0.967639 0.442063 0.332506
0.972111 0.441707 0.345909
0.976261 0.442221 0.357313
0.978763 0.441193 0.370550
0.982594 0.440175 0.383134
0.985011 0.441149 0.394917
0.988306 0.439859 0.408174
0.990423 0.440081 0.420816
0.991717 0.439933 0.432735
0.994527 0.438790 0.445905
0.994361 0.439200 0.458178
0.994847 0.438221 0.471015
0.996449 0.439069 0.484149
0.995702 0.438558 0.496785
0.996974 0.439277 0.510247
0.995465 0.438941 0.521968
0.995558 0.439679 0.535251
0.993991 0.439313 0.548690
0.992544 0.439408 0.561432
0.991006 0.440557 0.573268
0.989044 0.439694 0.585668
0.986308 0.439505 0.598818
0.984049 0.440817 0.611217
0.980322 0.440563 0.623364
0.977482 0.441347 0.636464
0.973458 0.441657 0.648752
0.969984 0.441955 0.660594
0.966616 0.442199 0.672749
0.961337 0.443128 0.684691
0.956721 0.443933 0.696973
0.951607 0.444193 0.708746
0.945857 0.446096 0.719235
0.940172 0.447047 0.731667
0.933947 0.446390 0.742805
0.927212 0.447089 0.754189
0.920725 0.447799 0.765545
0.913967 0.448613 0.775948
0.907406 0.449693 0.786213
0.898565 0.450623 0.795795
0.891634 0.451443 0.806743
0.883667 0.453221 0.816227
0.874598 0.453170 0.826083
0.866217 0.455123 0.836654
0.858680 0.455854 0.845460
0.849320 0.457080 0.855328
0.840476 0.458168 0.863833
0.830635 0.460140 0.872091
0.821687 0.459990 0.880769
0.811865 0.461927 0.888529
0.800512 0.462351 0.897141
0.790034 0.464560 0.904679
0.781044 0.465483 0.912223
0.771135 0.466758 0.919618
0.760183 0.467182 0.926000
0.749084 0.469263 0.933806
0.737777 0.470558 0.938987
0.727039 0.472651 0.945187
0.715554 0.472949 0.950604
0.703884 0.474965 0.955689
0.692250 0.476789 0.960760
0.679566 0.478357 0.966262
0.668414 0.479549 0.970205
0.656456 0.481088 0.974498
0.643233 0.481936 0.978674
0.631603 0.483576 0.982385
0.619962 0.485216 0.984621
0.607285 0.487574 0.988003
0.595160 0.488539 0.990786
0.581253 0.489214 0.993195
0.569411 0.491304 0.995490
0.557220 0.493026 0.996627
0.544391 0.494932 0.997900
0.530795 0.497072 0.998278
0.519019 0.497278 0.999750
0.506108 0.499191 1.000458
0.499645 0.500063 -0.000432
0.511963 0.497835 0.000310
0.525237 0.495659 0.001367
0.537621 0.495299 0.001591
0.551060 0.492180 0.002716
0.561922 0.489510 0.003862
0.575922 0.489207 0.005582
0.588111 0.486002 0.007545
0.601020 0.484411 0.010436
0.613520 0.483436 0.013212
0.625032 0.480989 0.017220
0.638259 0.479963 0.019867
0.649863 0.477920 0.024269
0.662063 0.475825 0.027603
0.673113 0.473745 0.031027
0.685123 0.472272 0.036508
0.696315 0.469724 0.040923
0.708587 0.468532 0.047013
0.720775 0.467056 0.052211
0.731486 0.464841 0.058147
0.742774 0.463040 0.064438
0.753719 0.462463 0.071262
0.763194 0.460556 0.077647
0.774690 0.459540 0.085894
0.785379 0.457608 0.091930
0.796072 0.455855 0.099537
0.806604 0.453899 0.107745
0.816536 0.452782 0.115077
0.825988 0.451804 0.123273
0.835092 0.449726 0.131893
0.844386 0.448555 0.140507
0.853906 0.447062 0.150822
0.862285 0.446426 0.159224
0.870815 0.445607 0.168595
0.877964 0.443367 0.178907
0.885780 0.441867 0.188460
0.894752 0.441114 0.198218
0.902069 0.439722 0.209296
0.908866 0.439327 0.218605
0.916635 0.437921 0.230692
0.923014 0.436739 0.241150
0.929764 0.435254 0.251073
0.935869 0.435909 0.263505
0.942311 0.435240 0.274815
0.947101 0.433483 0.284813
0.952461 0.432555 0.297417
0.956767 0.431570 0.309311
0.962363 0.430618 0.321551
0.967382 0.431040 0.333277
0.969556 0.429980 0.345453
0.974399 0.429407 0.358163
0.976523 0.428515 0.370393
0.980600 0.427992 0.382255
0.983510 0.428631 0.394559
0.986732 0.427337 0.408175
0.988017 0.427779 0.419639
0.990197 0.425644 0.433046
0.991796 0.426411 0.445862
0.992620 0.425865 0.459026
0.993586 0.426890 0.471310
0.993456 0.426849 0.483428
0.994833 0.425785 0.496319
0.994259 0.427111 0.509625
0.994814 0.427184 0.522454
0.992835 0.426144 0.535183
0.992473 0.427779 0.547889
0.990464 0.425971 0.560770
0.988922 0.426535 0.573658
0.987682 0.427488 0.585495
0.983999 0.428057 0.598744
0.982200 0.428000 0.611590
0.979175 0.429061 0.624209
0.976058 0.429100 0.637117
0.973565 0.430641 0.649633
0.968797 0.429724 0.660849
0.964176 0.429572 0.672352
0.958972 0.431147 0.685245
0.955060 0.432074 0.696329
0.949753 0.432782 0.708368
0.944294 0.433254 0.720526
0.939064 0.434674 0.731118
0.932869 0.435835 0.742946
0.926120 0.436474 0.753616
0.918661 0.437201 0.764654
0.913359 0.437723 0.775210
0.905103 0.439371 0.786464
0.898527 0.440918 0.796798
0.890880 0.441829 0.806493
0.882665 0.443159 0.817252
0.874108 0.443956 0.826912
0.865716 0.445418 0.835945
0.857736 0.446915 0.846395
0.847966 0.447973 0.854499
0.838847 0.450093 0.863692
0.830226 0.450193 0.872033
0.821032 0.452160 0.880824
0.810753 0.453673 0.888967
0.801037 0.455718 0.897017
0.791187 0.456658 0.904811
0.780287 0.458434 0.912070
0.769096 0.459788 0.919245
0.758832 0.461003 0.925915
0.748127 0.463712 0.932055
0.735936 0.464666 0.938672
0.725010 0.466882 0.945486
0.713779 0.468265 0.951119
0.703460 0.469310 0.955886
0.691671 0.471520 0.961473
0.680132 0.473644 0.966103
0.668369 0.474632 0.970400
0.655130 0.476325 0.974886
0.643467 0.479329 0.978629
0.631354 0.479776 0.981732
0.618705 0.482289 0.985222
0.606964 0.484077 0.988655
0.593867 0.486030 0.990520
0.582656 0.487839 0.993331
0.569624 0.489180 0.995193
0.556708 0.490916 0.996582
0.543459 0.492363 0.998517
0.531042 0.495467 0.998717
0.519104 0.495990 0.999461
0.504949 0.499519 0.999493
0.500704 0.499434 -0.000929
0.512859 0.497712 -0.000343
0.525437 0.495288 -0.000127
0.537838 0.493436 0.001132
0.550770 0.490801 0.001327
0.563080 0.489318 0.004361
0.575841 0.486292 0.006262
0.588099 0.484686 0.008436
0.599336 0.483375 0.010403
0.612489 0.481065 0.012845
0.625440 0.477624 0.017218
0.637372 0.475407 0.019635
0.648217 0.473660 0.023020
0.661569 0.472116 0.027827
0.673133 0.469581 0.031526
0.684653 0.467420 0.036767
0.697064 0.465538 0.041273
0.707794 0.464554 0.046783
0.719417 0.461385 0.052801
0.730821 0.459737 0.058352
0.741883 0.458328 0.063607
0.752513 0.455509 0.070557
0.763324 0.453812 0.077364
0.773513 0.452120 0.085340
0.784543 0.449633 0.091733
0.794848 0.449588 0.099712
0.804842 0.446932 0.107200
0.814168 0.445031 0.115919
0.824172 0.443216 0.122712
0.833379 0.442172 0.131920
0.841876 0.439788 0.140274
0.850802 0.438825 0.149898
0.860803 0.437505 0.159020
0.868409 0.435359 0.168548
0.876786 0.434401 0.179291
0.885758 0.432626 0.187964
0.893428 0.430779 0.199197
0.900425 0.429609 0.209633
0.907118 0.428223 0.218028
0.915286 0.426788 0.230018
0.920938 0.426341 0.240657
0.927913 0.425483 0.252008
0.934075 0.424894 0.263266
0.939462 0.422850 0.274759
0.944819 0.422799 0.285097
0.950334 0.421198 0.297240
0.955057 0.420724 0.309179
0.959982 0.419529 0.322397
0.964964 0.420020 0.333822
0.968177 0.418532 0.345685
0.971997 0.416868 0.358136
0.975555 0.416396 0.371585
0.979322 0.415957 0.383423
0.981247 0.415104 0.394919
0.984057 0.414027 0.407185
0.986698 0.415339 0.419503
0.987621 0.414705 0.432786
0.989359 0.413557 0.446240
0.990620 0.413754 0.458876
0.991965 0.414247 0.471605
0.992226 0.413585 0.484695
0.992825 0.413466 0.497222
0.992846 0.413486 0.510708
0.991815 0.414552 0.522701
0.990970 0.413759 0.535647
0.989754 0.413927 0.548557
0.989705 0.413112 0.561407
0.986583 0.414536 0.573087
0.985080 0.414449 0.586046
0.982453 0.415650 0.598657
0.979839 0.416606 0.611619
0.977073 0.416649 0.624334
0.974369 0.416833 0.635721
0.970568 0.417544 0.648179
0.966412 0.418332 0.660873
0.962522 0.419258 0.672105
0.957892 0.420262 0.685249
0.953533 0.420864 0.697006
0.948229 0.421693 0.709075
0.942643 0.421731 0.720589
0.936517 0.423407 0.731617
0.930514 0.424016 0.742705
0.924413 0.424976 0.753341
0.917462 0.425673 0.764184
0.910396 0.427464 0.776411
0.902920 0.429425 0.786341
0.896654 0.430115 0.798225
0.888753 0.431983 0.806973
0.881915 0.433243 0.817306
0.872796 0.434700 0.826267
0.863941 0.436216 0.836366
0.855386 0.437466 0.845430
0.846971 0.439674 0.854998
0.837085 0.440521 0.864352
0.828978 0.442831 0.873204
0.819300 0.443530 0.881928
0.809097 0.445287 0.888781
0.799442 0.447038 0.897274
0.790008 0.448310 0.903904
0.779761 0.451437 0.911885
0.768826 0.452558 0.918667
0.757320 0.454622 0.926496
0.746662 0.456682 0.932721
0.736353 0.459076 0.938974
0.724232 0.460326 0.944876
0.713960 0.462003 0.950822
0.701012 0.465006 0.956964
0.690721 0.466872 0.961682
0.678349 0.468888 0.965722
0.666551 0.470841 0.970449
0.654902 0.473256 0.975011
0.642671 0.473846 0.978905
0.630520 0.477353 0.981527
0.618945 0.479407 0.985714
0.606170 0.480473 0.988868
0.594037 0.484299 0.990947
0.580753 0.485440 0.992786
0.569021 0.487435 0.994913
0.556145 0.489444 0.996404
0.543598 0.491577 0.998123
0.531357 0.495573 0.998661
0.519079 0.496236 0.999607
0.505407 0.500082 0.999535
0.500210 0.499673 0.000485
0.512272 0.497576 0.000155
0.525829 0.495057 0.001064
0.537034 0.491833 0.001646
0.549310 0.489834 0.001647
0.563682 0.487949 0.003964
0.574920 0.484831 0.005141
0.587176 0.481657 0.008255
0.600347 0.479930 0.010077
0.612074 0.476731 0.013370
0.624398 0.474007 0.016221
0.635527 0.472422 0.019014
0.648472 0.469823 0.023617
0.661212 0.467984 0.028004
0.672692 0.465756 0.031323
0.684345 0.463685 0.037203
0.695254 0.460886 0.041408
0.706621 0.458543 0.046881
0.718250 0.455437 0.053127
0.728739 0.453040 0.058588
0.740526 0.451437 0.064586
0.750800 0.449021 0.071155
0.762057 0.447229 0.077596
0.773549 0.445390 0.083775
0.782728 0.442364 0.091469
0.792701 0.441703 0.099691
0.803551 0.439055 0.107565
0.812295 0.436605 0.114615
0.822112 0.435254 0.123602
0.831864 0.433106 0.131698
0.841386 0.430971 0.139801
0.850261 0.429071 0.149654
0.857723 0.427324 0.159813
0.866489 0.425958 0.168765
0.875485 0.424522 0.178323
0.883014 0.422264 0.188011
0.892083 0.422022 0.198434
0.897809 0.419821 0.208946
0.904984 0.418108 0.219539
0.912434 0.417424 0.230274
0.918584 0.416234 0.240447
0.926515 0.412916 0.251231
0.932175 0.412995 0.263252
0.937851 0.411418 0.274006
0.943200 0.410570 0.285506
0.947882 0.408952 0.298078
0.953269 0.409019 0.308878
0.957325 0.406872 0.321357
0.962805 0.406930 0.333384
0.965500 0.406313 0.345407
0.969800 0.404531 0.356942
0.973420 0.404475 0.370825
0.976075 0.403949 0.381820
0.979640 0.402070 0.395128
0.982699 0.402508 0.408443
0.983951 0.402262 0.420980
0.985292 0.401893 0.432965
0.986503 0.401890 0.445677
0.988029 0.401973 0.457961
0.990471 0.401702 0.471893
0.990302 0.401339 0.484067
0.990463 0.401837 0.497434
0.990029 0.400465 0.510718
0.989536 0.400190 0.521855
0.987723 0.401827 0.535550
0.988160 0.400491 0.548601
0.985659 0.401211 0.561269
0.984873 0.400802 0.573166
0.982779 0.402083 0.586444
0.980154 0.402200 0.598618
0.977147 0.403273 0.611140
0.974065 0.405022 0.623903
0.971887 0.404272 0.636328
0.967626 0.405222 0.648568
0.964247 0.405348 0.660959
0.959801 0.407184 0.672559
0.954813 0.408768 0.685132
0.950459 0.408705 0.696594
0.946272 0.409901 0.709119
0.940196 0.411020 0.719967
0.934687 0.411768 0.731310
0.928697 0.413569 0.742739
0.921981 0.414901 0.753693
0.914861 0.415884 0.764308
0.908837 0.417740 0.775758
0.902090 0.418125 0.786193
0.894100 0.420818 0.796091
0.886954 0.422798 0.805901
0.878607 0.423695 0.817370
0.871235 0.425646 0.826614
0.862492 0.427597 0.836451
0.853187 0.429239 0.846195
0.845549 0.429906 0.854256
0.835451 0.432096 0.863958
0.826637 0.433646 0.872433
0.817041 0.436105 0.880445
0.808217 0.437590 0.889281
0.798227 0.439783 0.896763
0.787628 0.441616 0.904721
0.778147 0.444498 0.911882
0.766851 0.445934 0.919233
0.756283 0.448260 0.926522
0.746014 0.449661 0.932970
0.734181 0.452860 0.939106
0.724115 0.453923 0.945085
0.712060 0.456699 0.950889
0.700156 0.459307 0.956740
0.689769 0.460901 0.960484
0.677516 0.463932 0.965892
0.665943 0.467026 0.971092
0.654042 0.469895 0.974372
0.641888 0.471318 0.978415
0.631133 0.474034 0.981321
0.617882 0.476324 0.985106
0.605707 0.478797 0.988462
0.593765 0.480780 0.991781
0.580760 0.483177 0.992394
0.567845 0.486703 0.995607
0.556068 0.488525 0.996212
0.543701 0.492430 0.997809
0.530553 0.493156 0.998642
0.518177 0.495875 0.999950
0.505553 0.498333 0.999530
0.499664 0.499408 -0.000086
0.512191 0.497624 0.000119
0.524898 0.493692 0.000247
0.537974 0.491401 0.001113
0.550021 0.488808 0.001671
0.562141 0.485886 0.003858
0.575587 0.483369 0.005550
0.586832 0.480759 0.008775
0.599130 0.477555 0.010143
0.611330 0.474260 0.012953
0.624536 0.471848 0.015886
0.636299 0.469004 0.019286
0.647861 0.466816 0.023413
0.659360 0.462537 0.028258
0.671814 0.461612 0.032132
0.682930 0.457763 0.037193
0.694345 0.455737 0.041207
0.706745 0.453248 0.046291
0.716522 0.449742 0.051860
0.729068 0.447608 0.058348
0.739696 0.446030 0.064917
0.749909 0.443073 0.070620
0.760991 0.439789 0.078382
0.770844 0.438484 0.085508
0.781820 0.434635 0.092632
0.791417 0.433485 0.098896
0.802090 0.431323 0.107176
0.811560 0.429190 0.114661
0.820890 0.427173 0.123239
0.829926 0.424838 0.129940
0.838828 0.422297 0.140420
0.849092 0.420537 0.149414
0.856082 0.417716 0.158797
0.865646 0.417143 0.168613
0.873649 0.414857 0.178383
0.880928 0.411729 0.188155
0.887895 0.411524 0.199194
0.895599 0.409756 0.208899
0.903496 0.407393 0.219317
0.911030 0.406432 0.230666
0.916164 0.404135 0.241291
0.923323 0.403655 0.251696
0.928418 0.402090 0.263382
0.935188 0.400489 0.274668
0.940921 0.399388 0.286059
0.946063 0.397725 0.298463
0.950678 0.397625 0.308863
0.955191 0.395584 0.321328
0.960088 0.394909 0.333458
0.963584 0.393361 0.345479
0.966931 0.392676 0.358484
0.970509 0.392229 0.369943
0.973841 0.391505 0.382095
0.976461 0.390702 0.393985
0.979399 0.390081 0.407479
0.979798 0.389308 0.420963
0.983495 0.389077 0.432580
0.983547 0.389860 0.445765
0.985750 0.388781 0.458672
0.986597 0.388728 0.471180
0.987215 0.389404 0.484779
0.987458 0.387944 0.496621
0.987270 0.388783 0.509758
0.987063 0.388577 0.523074
0.986255 0.388733 0.535772
0.985238 0.389328 0.548010
0.983782 0.388781 0.560756
0.982333 0.389469 0.573405
0.979737 0.389616 0.586677
0.977495 0.390745 0.598090
0.974403 0.390809 0.612129
0.972129 0.392137 0.623637
0.969319 0.393337 0.636742
0.965069 0.393768 0.648620
0.961693 0.393911 0.661030
0.957156 0.395235 0.672858
0.952877 0.395207 0.684577
0.948076 0.396978 0.696719
0.942138 0.398771 0.707665
0.937845 0.399187 0.719860
0.931626 0.401572 0.730972
0.925659 0.402395 0.742100
0.919876 0.403320 0.753602
0.914356 0.405426 0.765487
0.906533 0.407151 0.774601
0.899415 0.408430 0.786449
0.892259 0.410839 0.796235
0.884477 0.411606 0.807005
0.876274 0.413586 0.816646
0.869724 0.415700 0.826601
0.860699 0.417328 0.835836
0.852084 0.418858 0.844644
0.843049 0.421889 0.855226
0.833707 0.422306 0.863399
0.824780 0.425437 0.872246
0.815512 0.428224 0.881173
0.806064 0.429923 0.888247
0.797062 0.431733 0.897036
0.785445 0.434630 0.904755
0.776192 0.436165 0.911908
0.765129 0.438802 0.919319
0.755296 0.441140 0.925792
0.744410 0.444215 0.931893
0.733891 0.447002 0.939560
0.722109 0.448971 0.945469
0.711484 0.451183 0.950235
0.700594 0.453586 0.956248
0.689303 0.457206 0.960862
0.676727 0.460061 0.965264
0.666778 0.462542 0.969667
0.653564 0.464366 0.974864
0.641434 0.467934 0.978466
0.628462 0.469103 0.982807
0.616567 0.473643 0.985690
0.604970 0.476033 0.988100
0.593142 0.478141 0.990588
0.580776 0.481887 0.993032
0.568295 0.484358 0.994456
0.555444 0.487808 0.997390
0.543097 0.490372 0.998185
0.531659 0.492416 0.999328
0.518722 0.496143 0.999901
0.505599 0.497133 1.000522
0.500264 0.500076 0.001016
0.512354 0.496780 0.000233
0.524771 0.494083 0.000391
0.538042 0.489834 0.001906
0.549801 0.488094 0.001976
0.561901 0.484158 0.004528
0.574163 0.480586 0.005614
0.586928 0.478375 0.007950
0.598272 0.474913 0.010560
0.611287 0.472131 0.012251
0.622837 0.469434 0.016311
0.635281 0.464759 0.020297
0.646691 0.462864 0.023412
0.658748 0.460113 0.028019
0.670571 0.455901 0.031961
0.681376 0.454098 0.036054
0.692890 0.451723 0.042032
0.704751 0.448044 0.047348
0.715963 0.444257 0.052390
0.726872 0.441195 0.058998
0.737982 0.438954 0.064288
0.748761 0.435619 0.070737
0.759074 0.433647 0.077087
0.770161 0.430534 0.084405
0.780323 0.428155 0.091394
0.789704 0.425257 0.099009
0.799011 0.423158 0.107534
0.810733 0.420684 0.114975
0.819159 0.419080 0.123915
0.827157 0.415737 0.131815
0.837070 0.413492 0.141149
0.846351 0.411134 0.149916
0.854000 0.409022 0.158925
0.862279 0.408063 0.168630
0.871008 0.404790 0.178713
0.877594 0.402857 0.188947
0.887133 0.401760 0.198911
0.894160 0.398687 0.209909
0.900828 0.398153 0.220017
0.907259 0.395358 0.230036
0.914498 0.394199 0.240546
0.920160 0.391690 0.251806
0.926455 0.390578 0.263238
0.932757 0.389206 0.274830
0.937991 0.387751 0.285610
0.942986 0.385957 0.298058
0.948327 0.384744 0.309731
0.952839 0.384839 0.321219
0.957160 0.384047 0.333145
0.960419 0.382173 0.345406
0.964308 0.380769 0.357765
0.967626 0.380111 0.370380
0.970852 0.379269 0.382206
0.973542 0.378747 0.394837
0.976186 0.377601 0.407039
0.977459 0.376975 0.420087
0.980694 0.377028 0.432566
0.981643 0.377139 0.445059
0.982912 0.377968 0.458833
0.983057 0.376541 0.472418
0.984339 0.375813 0.483629
0.983291 0.376407 0.495991
0.983196 0.376397 0.510092
0.984029 0.375691 0.522413
0.983506 0.376235 0.535861
0.981744 0.376404 0.548969
0.980477 0.376627 0.560356
0.979186 0.377271 0.574377
0.976998 0.377093 0.586851
0.975664 0.378118 0.598263
0.972005 0.379222 0.611374
0.969124 0.380937 0.623651
0.966990 0.380338 0.637055
0.961624 0.382417 0.648994
0.958791 0.382541 0.660817
0.954761 0.384514 0.673375
0.951738 0.385074 0.684480
0.945826 0.385688 0.697556
0.940371 0.386354 0.709532
0.934479 0.387926 0.720056
0.929019 0.391029 0.731049
0.923777 0.390829 0.743054
0.916466 0.394170 0.753939
0.910277 0.394623 0.764833
0.903274 0.397016 0.775535
0.897533 0.397927 0.786044
0.890357 0.400194 0.797484
0.882511 0.402918 0.806325
0.874929 0.403505 0.816589
0.866094 0.405853 0.827406
0.858513 0.408082 0.836501
0.850369 0.410342 0.845583
0.841970 0.412454 0.854079
0.832621 0.414883 0.863807
0.823508 0.416963 0.872390
0.813303 0.420696 0.879921
0.804253 0.422347 0.888782
0.794670 0.424749 0.897040
0.785386 0.426817 0.905226
0.774284 0.429306 0.912331
0.763998 0.432797 0.918712
0.753859 0.434751 0.925245
0.742031 0.437651 0.932239
0.731506 0.440949 0.939158
0.719941 0.443700 0.944685
0.709874 0.445884 0.950515
0.698362 0.449240 0.955823
0.687092 0.451414 0.960997
0.675281 0.454514 0.964708
0.664254 0.458127 0.970624
0.652966 0.461547 0.974475
0.639999 0.464489 0.979258
0.628963 0.467029 0.981091
0.616069 0.469724 0.984843
0.604300 0.473896 0.987672
0.591858 0.476504 0.991181
0.580453 0.479281 0.992266
0.568107 0.483056 0.995861
0.555637 0.485819 0.997143
0.543272 0.488752 0.997806
0.530716 0.492005 0.999202
0.519681 0.495672 1.000626
0.505753 0.499123 1.000832
0.499809 0.499582 0.000116
0.512851 0.497127 0.000225
0.524083 0.492882 0.001132
0.536820 0.488430 0.001251
0.548922 0.486857 0.003648
0.562030 0.482232 0.004135
0.573770 0.478842 0.006687
0.586057 0.475989 0.008427
0.598558 0.473158 0.010610
0.609730 0.468285 0.012988
0.622110 0.464911 0.016090
0.633844 0.461634 0.018648
0.645896 0.458637 0.024276
0.657834 0.455068 0.026669
0.668805 0.452374 0.031057
0.680515 0.449365 0.036050
0.692272 0.446143 0.041133
0.702851 0.442059 0.046637
0.713657 0.438370 0.051464
0.725073 0.436234 0.057860
0.735632 0.432729 0.064959
0.747186 0.429215 0.071167
0.757119 0.426940 0.078478
0.767841 0.424254 0.084803
0.778316 0.421517 0.091992
0.787442 0.418706 0.098622
0.797904 0.416578 0.106183
0.807038 0.413243 0.114307
0.815747 0.409851 0.123973
0.825551 0.408689 0.132415
0.834437 0.404301 0.140697
0.843942 0.403038 0.149653
0.852268 0.400329 0.158853
0.860466 0.398634 0.168915
0.868717 0.396535 0.178114
0.875312 0.393564 0.188450
0.883380 0.391647 0.198342
0.890931 0.389677 0.208847
0.897202 0.387239 0.219438
0.905208 0.385356 0.229524
0.911221 0.383050 0.241527
0.917858 0.381331 0.250867
0.924041 0.379962 0.263840
0.929121 0.378005 0.275437
0.934134 0.376713 0.285041
0.940833 0.375462 0.297322
0.946043 0.374128 0.308688
0.948924 0.373130 0.320540
0.953837 0.371829 0.333304
0.956563 0.369765 0.345728
0.960881 0.368944 0.358152
0.963933 0.368108 0.370551
0.966852 0.367057 0.381728
0.970441 0.366362 0.395127
0.972534 0.365375 0.407818
0.975953 0.365870 0.420384
0.976351 0.365730 0.433153
0.978439 0.364402 0.446397
0.978620 0.363878 0.457894
0.980421 0.364139 0.471785
0.979924 0.365022 0.484847
0.980945 0.363333 0.496343
0.981328 0.363300 0.511239
0.981188 0.363801 0.522741
0.980710 0.365058 0.535453
0.979414 0.364228 0.547580
0.977226 0.363703 0.561182
0.975653 0.365568 0.574169
0.973574 0.365374 0.586526
0.970473 0.366487 0.597940
0.968015 0.367351 0.611055
0.965698 0.367645 0.624303
0.962331 0.369157 0.635642
0.958908 0.369727 0.647953
0.956401 0.371122 0.660877
0.951141 0.372020 0.672642
0.947443 0.372915 0.684893
0.942169 0.376184 0.697087
0.937257 0.375840 0.708316
0.931483 0.378144 0.720041
0.927139 0.378692 0.731693
0.920827 0.380906 0.743144
0.914857 0.381982 0.753429
0.907825 0.384452 0.764810
0.901098 0.385942 0.775054
0.894356 0.388439 0.785773
0.887845 0.390015 0.796134
0.880222 0.393022 0.807184
0.871051 0.395038 0.817111
0.863529 0.395916 0.826737
0.856676 0.399436 0.837080
0.847412 0.401572 0.846544
0.839713 0.404380 0.855817
0.830483 0.406700 0.863634
0.820440 0.409599 0.872624
0.812601 0.411878 0.881729
0.801751 0.414807 0.889392
0.791863 0.417164 0.896840
0.782193 0.419800 0.905104
0.772418 0.422410 0.911469
0.761582 0.424946 0.919134
0.751117 0.428880 0.926757
0.740712 0.431316 0.932745
0.731011 0.434603 0.938753
0.719186 0.438370 0.945908
0.707656 0.440547 0.951099
0.698035 0.444279 0.955937
0.685902 0.447605 0.960853
0.674902 0.450660 0.966517
0.662869 0.453627 0.970280
0.651784 0.457764 0.974357
0.638999 0.461481 0.978454
0.628090 0.464109 0.983015
0.615879 0.467021 0.985493
0.604155 0.469815 0.987913
0.591622 0.473254 0.990116
0.579356 0.477978 0.992559
0.566642 0.480759 0.995452
0.555916 0.484212 0.996537
0.543048 0.487941 0.998022
0.530580 0.490741 0.998852
0.517695 0.495185 0.999284
0.505598 0.498539 0.999103
0.500103 0.500613 0.000403
0.512565 0.495558 0.000359
0.524850 0.493004 0.000907
0.535836 0.488631 0.002115
0.549020 0.484866 0.002885
0.560767 0.481114 0.003898
0.573160 0.476188 0.006791
0.585657 0.473539 0.008355
0.597221 0.469287 0.010679
0.609167 0.465644 0.012924
0.620712 0.462061 0.016549
0.633007 0.458382 0.019690
0.643800 0.454980 0.023245
0.656190 0.450590 0.027488
0.666739 0.447121 0.031740
0.679962 0.443871 0.036207
0.690935 0.440169 0.041374
0.701160 0.437448 0.047452
0.712769 0.433824 0.052209
0.722474 0.429834 0.058161
0.734192 0.427033 0.064228
0.745441 0.423501 0.070245
0.756002 0.420527 0.077559
0.765505 0.416807 0.084527
0.776550 0.414194 0.092835
0.785674 0.410975 0.099359
0.795177 0.408239 0.106966
0.804909 0.405366 0.115146
0.814178 0.401728 0.123764
0.823981 0.399451 0.132127
0.831967 0.397212 0.141221
0.841179 0.394140 0.150800
0.849604 0.391755 0.159678
0.857572 0.388638 0.167977
0.865443 0.386062 0.179412
0.873504 0.384203 0.188535
0.880535 0.381186 0.199476
0.887404 0.378751 0.208953
0.893577 0.376221 0.219232
0.901563 0.374831 0.229509
0.908182 0.372743 0.241538
0.915258 0.371294 0.252310
0.920523 0.369207 0.262668
0.926385 0.366696 0.274369
0.931617 0.365917 0.286314
0.937035 0.364567 0.297505
0.940829 0.363131 0.309910
0.946493 0.360849 0.321319
0.949937 0.360176 0.333374
0.953536 0.358951 0.346140
0.958512 0.357284 0.357773
0.960503 0.356844 0.370797
0.964150 0.355776 0.382359
0.966885 0.354431 0.395118
0.969044 0.353755 0.408037
0.971479 0.352700 0.420130
0.972984 0.352956 0.432674
0.975471 0.352431 0.445190
0.975333 0.351172 0.458661
0.976867 0.351219 0.471490
0.977122 0.351342 0.484114
0.978198 0.352403 0.496950
0.976988 0.351497 0.509457
0.975658 0.351111 0.523124
0.975927 0.351476 0.533857
0.974848 0.352415 0.548694
0.973753 0.351777 0.560660
0.973651 0.353125 0.573003
0.970552 0.353496 0.586230
0.968369 0.353850 0.599455
0.966199 0.355217 0.611254
0.963025 0.355499 0.623918
0.958575 0.356829 0.636582
0.955258 0.358245 0.648347
0.951492 0.360537 0.660665
0.948187 0.361626 0.673014
0.943062 0.362210 0.684987
0.939094 0.363079 0.695927
0.933859 0.365561 0.708827
0.929076 0.366207 0.720568
0.923278 0.367756 0.732314
0.916594 0.370134 0.742152
0.910912 0.372094 0.754198
0.904002 0.372923 0.765062
0.897910 0.374729 0.775948
0.891301 0.378601 0.787044
0.884690 0.380094 0.797971
0.877489 0.383239 0.806408
0.868844 0.384988 0.816408
0.861446 0.387091 0.826264
0.853778 0.389304 0.837003
0.846083 0.392030 0.845473
0.836539 0.396409 0.854112
0.827773 0.398132 0.864172
0.818724 0.399963 0.872452
0.808822 0.403098 0.881418
0.799883 0.406393 0.888710
0.790171 0.409229 0.897684
0.780505 0.412137 0.904821
0.771212 0.415425 0.912006
0.760238 0.419003 0.919546
0.749687 0.422472 0.926643
0.739850 0.425207 0.932787
0.728284 0.428263 0.939008
0.718689 0.431986 0.945578
0.706997 0.435018 0.951185
0.694928 0.437997 0.957393
0.684593 0.443397 0.961085
0.673787 0.446445 0.966694
0.662248 0.450185 0.970239
0.650146 0.453501 0.974686
0.639375 0.455932 0.978629
0.625511 0.460256 0.982668
0.615476 0.463919 0.984949
0.603271 0.468242 0.988252
0.590336 0.471417 0.990367
0.579106 0.474791 0.993731
0.567286 0.479265 0.994996
0.554179 0.483307 0.997607
0.542739 0.486001 0.998135
0.529715 0.490040 0.999853
0.518370 0.495874 0.997950
0.505731 0.498966 1.000323
0.499709 0.499056 -0.000640
0.512221 0.495408 0.000057
0.524339 0.492551 0.000999
0.536133 0.487355 0.000632
0.548644 0.483549 0.002469
0.560448 0.479186 0.004936
0.572108 0.475249 0.005720
0.585080 0.470948 0.007569
0.597071 0.467046 0.010056
0.607924 0.462966 0.013270
0.620651 0.459447 0.017086
0.631343 0.454977 0.020483
0.643064 0.451906 0.023544
0.654696 0.447289 0.027532
0.666907 0.442819 0.031890
0.677376 0.438774 0.037619
0.688654 0.435981 0.041692
0.700085 0.431650 0.047902
0.710904 0.428770 0.051654
0.720725 0.424505 0.058347
0.732800 0.421925 0.063743
0.742544 0.417017 0.071596
0.753310 0.413920 0.076820
0.763520 0.410963 0.084752
0.773091 0.407191 0.091543
0.783220 0.403677 0.098596
0.792204 0.400773 0.107481
0.801827 0.396636 0.115445
0.812805 0.394719 0.124323
0.819613 0.391776 0.132039
0.829499 0.387167 0.140035
0.838452 0.385803 0.149867
0.845836 0.383016 0.159526
0.854200 0.379775 0.169115
0.861973 0.376525 0.178195
0.869085 0.374532 0.188250
0.878040 0.372061 0.198380
0.884188 0.368318 0.208346
0.892241 0.367223 0.218883
0.898327 0.364957 0.229328
0.904890 0.362946 0.240823
0.911593 0.360599 0.251850
0.916922 0.358270 0.263088
0.922367 0.356853 0.275086
0.928396 0.355022 0.285916
0.933693 0.353261 0.298124
0.938407 0.351684 0.309238
0.940784 0.349825 0.321276
0.946052 0.348362 0.333813
0.950248 0.346457 0.346016
0.954246 0.346459 0.357157
0.956881 0.344256 0.369819
0.959293 0.343457 0.382290
0.962944 0.343589 0.395430
0.965596 0.342490 0.407446
0.967385 0.340769 0.420401
0.969318 0.340586 0.433916
0.970853 0.340423 0.445293
0.971327 0.338811 0.457901
0.971732 0.339083 0.471055
0.973235 0.339295 0.483424
0.973700 0.338513 0.497565
0.973493 0.339524 0.509825
0.973246 0.338860 0.522923
0.972561 0.339373 0.536133
0.970608 0.339824 0.548692
0.969530 0.340975 0.561071
0.968349 0.340961 0.573779
0.966568 0.341739 0.586399
0.962810 0.341917 0.598323
0.962705 0.342841 0.610775
0.958748 0.344643 0.623117
0.955984 0.344511 0.636051
0.952851 0.346206 0.648775
0.948903 0.347794 0.660481
0.943707 0.349113 0.673671
0.940077 0.350941 0.684953
0.934973 0.352168 0.695924
0.929462 0.353488 0.708036
0.925836 0.356183 0.719541
0.920625 0.358220 0.730971
0.914673 0.359705 0.743482
0.908068 0.361633 0.752497
0.901916 0.363221 0.765100
0.895346 0.366443 0.775359
0.887130 0.367877 0.786896
0.880956 0.369830 0.796478
0.873930 0.373256 0.806370
0.865974 0.374815 0.816624
0.858750 0.378536 0.827158
0.850307 0.380339 0.835727
0.843183 0.383163 0.846110
0.833153 0.386621 0.855036
0.824915 0.389637 0.863943
0.816428 0.391584 0.873049
0.806575 0.397003 0.881183
0.796897 0.397943 0.888576
0.787790 0.401900 0.896947
0.778004 0.404801 0.904699
0.768483 0.408503 0.912779
0.757987 0.412349 0.918648
0.747321 0.416031 0.926025
0.737795 0.418507 0.932299
0.725917 0.422327 0.938305
0.715767 0.427192 0.944492
0.704983 0.429486 0.950595
0.692620 0.433603 0.956340
0.683073 0.438165 0.961159
0.671676 0.440618 0.965621
0.660279 0.445618 0.970305
0.649314 0.449849 0.974611
0.637097 0.452581 0.978353
0.625642 0.457065 0.981089
0.614545 0.461859 0.985485
0.601415 0.465198 0.987825
0.591230 0.468750 0.990374
0.577750 0.471873 0.993150
0.566191 0.477866 0.994239
0.553954 0.480833 0.997101
0.542493 0.485446 0.998294
0.530377 0.489907 0.999308
0.517997 0.494121 1.000011
0.505945 0.498741 0.999796
0.499931 0.499802 -0.000012
0.511687 0.495809 0.000656
0.524184 0.492285 0.000197
0.537172 0.486548 0.002205
0.547828 0.481945 0.003202
0.559488 0.477696 0.004529
0.572095 0.473513 0.005737
0.583623 0.469330 0.007529
0.595676 0.465359 0.010901
0.607807 0.460654 0.012553
0.618809 0.456229 0.016295
0.630396 0.451321 0.019886
0.641951 0.447402 0.023724
0.652735 0.442750 0.026618
0.665154 0.439187 0.032356
0.676558 0.435072 0.036781
0.687880 0.430760 0.041371
0.698961 0.426892 0.045602
0.708895 0.423286 0.052929
0.719686 0.419022 0.058119
0.730178 0.415848 0.064625
0.740252 0.411832 0.070232
0.750726 0.407313 0.076658
0.759987 0.403870 0.083771
0.770765 0.401141 0.092498
0.780364 0.396861 0.099976
0.789906 0.393317 0.106135
0.799274 0.389499 0.115559
0.808455 0.385604 0.124459
0.818240 0.383127 0.130542
0.827032 0.380113 0.141132
0.835013 0.377035 0.150074
0.843473 0.372831 0.159520
0.851572 0.370182 0.168910
0.859005 0.366508 0.178522
0.866631 0.364410 0.187987
0.873905 0.363335 0.198429
0.882085 0.359350 0.208899
0.888330 0.356656 0.218793
0.895673 0.354272 0.229249
0.901537 0.352036 0.241152
0.907744 0.350189 0.252405
0.912748 0.347337 0.263216
0.918887 0.346198 0.274529
0.923574 0.344321 0.285720
0.929760 0.342212 0.297829
0.934219 0.340109 0.309992
0.938726 0.338311 0.322477
0.943644 0.336337 0.333276
0.946767 0.336128 0.345895
0.950517 0.334470 0.357725
0.952432 0.332340 0.371007
0.956122 0.331720 0.382952
0.958924 0.331256 0.395204
0.961059 0.330312 0.407722
0.962531 0.329350 0.419984
0.965263 0.328239 0.432933
0.966372 0.328152 0.445483
0.968112 0.327605 0.458631
0.969409 0.327361 0.472093
0.968787 0.327346 0.484222
0.968709 0.327374 0.496551
0.969814 0.326512 0.509886
0.969126 0.327697 0.522763
0.968205 0.327711 0.534840
0.966066 0.328066 0.548559
0.965272 0.327736 0.561138
0.964407 0.329339 0.574190
0.962290 0.329877 0.586587
0.960237 0.330001 0.599121
0.956423 0.330373 0.611067
0.954422 0.331690 0.624599
0.950917 0.333952 0.636126
0.947270 0.334680 0.648875
0.944690 0.336993 0.661391
0.940723 0.337277 0.673622
0.935635 0.339277 0.684913
0.931786 0.341351 0.697698
0.926401 0.342219 0.708280
0.921599 0.344985 0.719750
0.916212 0.347208 0.730913
0.910106 0.349150 0.742791
0.903978 0.350950 0.753701
0.898117 0.353628 0.764812
0.891607 0.356270 0.776159
0.883196 0.358240 0.786733
0.878477 0.361576 0.797412
0.870522 0.364228 0.807023
0.863851 0.366215 0.816776
0.855496 0.368616 0.827293
0.847500 0.371634 0.835226
0.838935 0.375684 0.846111
0.830483 0.377844 0.855525
0.822437 0.381844 0.863304
0.813364 0.384794 0.872914
0.804652 0.388184 0.880522
0.795040 0.390828 0.888976
0.784376 0.394569 0.896858
0.775343 0.399543 0.904942
0.766527 0.402479 0.911356
0.755336 0.406170 0.918626
0.744763 0.409953 0.925895
0.735224 0.413561 0.932648
0.725271 0.417757 0.938880
0.715222 0.420640 0.945081
0.703349 0.425584 0.950601
0.693106 0.428889 0.956496
0.681391 0.432852 0.961662
0.670471 0.437881 0.965504
0.658373 0.440727 0.970247
0.648285 0.445455 0.974417
0.635246 0.449377 0.978246
0.625460 0.453871 0.982353
0.613643 0.458471 0.985078
0.600553 0.462872 0.988213
0.589822 0.466696 0.991363
0.577883 0.471422 0.992237
0.565726 0.475442 0.994409
0.554091 0.480284 0.996382
0.541772 0.484566 0.997271
0.529798 0.489150 0.999423
0.517775 0.493537 0.999511
0.506170 0.498686 0.999299
0.499598 0.500077 -0.000054
0.511962 0.495242 0.000507
0.524372 0.489945 0.000607
0.535207 0.486005 0.001262
0.547580 0.480805 0.002621
0.560405 0.476339 0.004312
0.571380 0.472085 0.006704
0.582914 0.467021 0.007512
0.594670 0.463070 0.011063
0.605399 0.458262 0.013203
0.617886 0.453311 0.016672
0.629312 0.448050 0.020025
0.639844 0.443378 0.022842
0.651181 0.438816 0.027610
0.662860 0.434474 0.031571
0.674381 0.430860 0.037988
0.685929 0.426849 0.041213
0.695379 0.421647 0.045699
0.706988 0.417488 0.052682
0.717773 0.413458 0.058304
0.727840 0.409898 0.064440
0.739315 0.405071 0.070929
0.748299 0.400906 0.077446
0.758132 0.397153 0.084268
0.768754 0.393895 0.091998
0.777404 0.388786 0.099755
0.787309 0.385862 0.107308
0.796611 0.382229 0.115511
0.805805 0.377238 0.123328
0.813970 0.374164 0.131165
0.822691 0.371344 0.141721
0.831027 0.368594 0.149496
0.839339 0.364502 0.159429
0.847588 0.360654 0.168877
0.855314 0.357369 0.178213
0.862839 0.356015 0.188142
0.870099 0.352556 0.197934
0.877810 0.350406 0.208512
0.884191 0.347380 0.219388
0.890633 0.345080 0.230481
0.897257 0.341967 0.240957
0.903270 0.339749 0.251860
0.909598 0.337254 0.263237
0.914195 0.335062 0.274499
0.920359 0.333907 0.284987
0.925088 0.330401 0.298147
0.929715 0.328562 0.309423
0.933586 0.327297 0.321396
0.937634 0.325452 0.334277
0.941995 0.324360 0.346432
0.945263 0.322027 0.358785
0.949306 0.321598 0.371174
0.951558 0.320568 0.383014
0.954174 0.318796 0.395802
0.956745 0.317844 0.406958
0.958423 0.318114 0.419474
0.960917 0.316550 0.433416
0.961521 0.315313 0.446708
0.962761 0.316181 0.459328
0.964759 0.316012 0.471780
0.964082 0.316214 0.484847
0.964331 0.315009 0.496396
0.964103 0.315091 0.509387
0.963456 0.315344 0.522665
0.963512 0.315940 0.534955
0.963454 0.315979 0.547958
0.961113 0.316615 0.561780
0.959469 0.317041 0.574524
0.957840 0.317010 0.586666
0.955699 0.319784 0.598039
0.952622 0.320323 0.611455
0.949981 0.320116 0.624069
0.947236 0.321746 0.636580
0.942915 0.323020 0.648943
0.940066 0.324828 0.660586
0.935511 0.326231 0.672727
0.931361 0.327529 0.683972
0.927042 0.329933 0.697524
0.921668 0.331914 0.708785
0.917142 0.334075 0.719347
0.911809 0.336449 0.731607
0.906410 0.338463 0.742143
0.900138 0.340930 0.752615
0.894237 0.342260 0.765433
0.887666 0.345443 0.775766
0.881487 0.347311 0.785669
0.874168 0.352211 0.797056
0.866806 0.353552 0.806505
0.859418 0.357417 0.817438
0.852102 0.360147 0.825942
0.843845 0.362826 0.836642
0.836216 0.366367 0.845112
0.826571 0.369488 0.853817
0.818547 0.371202 0.863530
0.810016 0.376384 0.872486
0.801092 0.379753 0.881185
0.792427 0.383927 0.889378
0.782566 0.387217 0.897343
0.773162 0.392244 0.904599
0.762575 0.394757 0.911413
0.753204 0.399524 0.917976
0.743874 0.403054 0.926408
0.733075 0.407032 0.932517
0.722104 0.412328 0.939482
0.712317 0.416082 0.944625
0.701250 0.419811 0.950309
0.690863 0.423989 0.955327
0.680323 0.428284 0.960881
0.669080 0.432755 0.965934
0.656500 0.438336 0.969163
0.645394 0.442525 0.974806
0.634054 0.446523 0.978505
0.623584 0.450773 0.981286
0.612182 0.454360 0.985427
0.599756 0.459473 0.988665
0.588063 0.463834 0.990913
0.577585 0.469878 0.993150
0.564568 0.474262 0.995581
0.552059 0.478739 0.996790
0.541699 0.483331 0.998705
0.529316 0.487570 0.998989
0.517244 0.494002 0.999734
0.506103 0.498015 1.000182
0.500310 0.500393 0.000190
0.511198 0.494656 0.000104
0.523221 0.490351 0.001086
0.535841 0.484184 0.002102
0.547646 0.480038 0.002395
0.558759 0.474885 0.003368
0.570163 0.470642 0.005023
0.582389 0.465427 0.008225
0.594073 0.459856 0.009691
0.604418 0.455072 0.013230
0.616707 0.450028 0.016231
0.627002 0.445464 0.020097
0.639900 0.440424 0.023871
0.651102 0.436123 0.027125
0.661425 0.431207 0.032181
0.672930 0.426234 0.036039
0.684259 0.420866 0.042066
0.694587 0.415902 0.046737
0.703956 0.412151 0.052237
0.714829 0.407143 0.058685
0.726049 0.403256 0.063028
0.736114 0.398794 0.071184
0.745382 0.394886 0.077849
0.754887 0.389903 0.085575
0.765165 0.386077 0.091245
0.775502 0.382249 0.099600
0.783900 0.378971 0.107340
0.793516 0.373443 0.115546
0.801867 0.370689 0.123316
0.811359 0.367121 0.132318
0.820143 0.363468 0.140756
0.827211 0.359976 0.148511
0.836366 0.355664 0.160066
0.843947 0.353144 0.168297
0.850946 0.348758 0.178270
0.859945 0.346369 0.189072
0.866974 0.343004 0.198095
0.873688 0.339273 0.208646
0.880685 0.337384 0.220031
0.888144 0.333973 0.230012
0.894395 0.332399 0.240793
0.898898 0.329784 0.251373
0.905136 0.326574 0.263451
0.910463 0.324343 0.274636
0.915623 0.323219 0.286041
0.920623 0.320543 0.297881
0.924711 0.317674 0.310701
0.930109 0.315643 0.321097
0.933117 0.314017 0.333176
0.937693 0.311807 0.345659
0.940970 0.311644 0.358014
0.943813 0.309900 0.370294
0.947401 0.308544 0.382266
0.950465 0.307721 0.395142
0.951511 0.306823 0.407807
0.952815 0.305984 0.420514
0.955610 0.305432 0.433706
0.957610 0.304460 0.445509
0.957828 0.304708 0.458442
0.957956 0.302770 0.471709
0.960176 0.304266 0.484549
0.959213 0.303158 0.496943
0.958854 0.303223 0.509470
0.958447 0.303666 0.522463
0.957395 0.304332 0.535379
0.958148 0.303987 0.547601
0.956494 0.304348 0.562078
0.955340 0.305650 0.573991
0.953034 0.306109 0.585080
0.950895 0.307986 0.599451
0.948721 0.308290 0.611281
0.945793 0.309698 0.623250
0.942684 0.310841 0.636110
0.938116 0.312529 0.649119
0.935921 0.313817 0.661114
0.930840 0.314822 0.672397
0.926589 0.317262 0.685215
0.922786 0.318767 0.697049
0.917915 0.321774 0.709175
0.912567 0.323154 0.719915
0.907412 0.326012 0.731554
0.902226 0.327380 0.742482
0.896014 0.331054 0.753791
0.889739 0.333315 0.765309
0.882894 0.336215 0.775820
0.876135 0.338343 0.784742
0.870250 0.342547 0.796812
0.862940 0.344336 0.806250
0.854887 0.347294 0.816747
0.847676 0.352159 0.827070
0.840641 0.354948 0.836384
0.831566 0.357076 0.844837
0.824592 0.360937 0.854965
0.815374 0.364310 0.864749
0.806792 0.368596 0.871589
0.798465 0.373387 0.880154
0.788767 0.375588 0.888315
0.779196 0.380770 0.897249
0.770212 0.384898 0.903417
0.760329 0.388841 0.912135
0.751004 0.391828 0.919365
0.741624 0.396612 0.926035
0.731242 0.400545 0.932360
0.720944 0.405559 0.938936
0.709157 0.409505 0.945602
0.698186 0.414776 0.951155
0.688795 0.419532 0.956384
0.676943 0.423852 0.960786
0.667404 0.428248 0.965663
0.655429 0.433485 0.970997
0.643745 0.437395 0.975046
0.633798 0.442864 0.978609
0.621678 0.448543 0.981941
0.610616 0.452217 0.986112
0.598494 0.457270 0.988545
0.587837 0.462185 0.991814
0.575973 0.467178 0.993681
0.564159 0.473208 0.994602
0.552626 0.478125 0.997230
0.541080 0.483372 0.998079
0.528958 0.487602 0.999649
0.517363 0.493427 0.999590
0.505452 0.497215 1.000858
0.500016 0.499875 0.000027
0.511555 0.494093 0.000574
0.523563 0.489322 0.001266
0.534388 0.484124 0.002101
0.546423 0.478116 0.002116
0.557841 0.474017 0.004308
0.569930 0.467602 0.005984
0.581237 0.462395 0.007396
0.592346 0.457380 0.009598
0.603890 0.451490 0.014707
0.615496 0.446743 0.016020
0.626375 0.441553 0.019003
0.637467 0.437014 0.023132
0.649217 0.431736 0.028455
0.659845 0.427195 0.032042
0.671132 0.422737 0.035398
0.681523 0.416527 0.041729
0.691221 0.411707 0.047001
0.702240 0.406912 0.052291
0.712181 0.402596 0.058970
0.722531 0.397277 0.065033
0.733803 0.393450 0.071067
0.742640 0.388863 0.076849
0.753205 0.384709 0.084660
0.761907 0.380352 0.092022
0.771291 0.374914 0.098067
0.781257 0.370732 0.107047
0.790274 0.367009 0.115886
0.798991 0.361938 0.122924
0.807366 0.358434 0.131709
0.815124 0.354242 0.141379
0.824185 0.350840 0.149915
0.831620 0.347411 0.159593
0.840333 0.344128 0.169046
0.848239 0.340358 0.178966
0.855923 0.336678 0.188243
0.862823 0.333869 0.197905
0.869412 0.330702 0.208454
0.876103 0.327980 0.219712
0.881571 0.324926 0.230980
0.888471 0.321803 0.240468
0.895523 0.319142 0.251060
0.899927 0.315678 0.264114
0.905579 0.313949 0.274393
0.910783 0.310720 0.286242
0.914917 0.309371 0.297917
0.919532 0.306383 0.309115
0.924433 0.305485 0.320980
0.929104 0.303127 0.333206
0.933001 0.301248 0.345884
0.936375 0.300415 0.357485
0.939246 0.299454 0.370530
0.941494 0.297591 0.381795
0.945105 0.295914 0.395926
0.946727 0.295011 0.407333
0.948973 0.294462 0.420412
0.950249 0.293741 0.432826
0.951736 0.292499 0.445912
0.952775 0.291731 0.459137
0.954584 0.291818 0.471191
0.954622 0.291577 0.484039
0.954350 0.291631 0.496731
0.953976 0.291979 0.509652
0.954220 0.291392 0.522564
0.953562 0.291844 0.535913
0.951933 0.292439 0.548480
0.951693 0.293165 0.561119
0.949383 0.292907 0.573173
0.947636 0.295272 0.585813
0.945555 0.295729 0.598471
0.943197 0.296059 0.610968
0.940127 0.298611 0.623961
0.937231 0.299406 0.636916
0.933219 0.300591 0.648302
0.929916 0.302891 0.661491
0.926929 0.303981 0.672934
0.921176 0.306334 0.685298
0.917964 0.308748 0.696713
0.912668 0.309958 0.707588
0.908045 0.312889 0.720489
0.902375 0.314983 0.730811
0.896832 0.318500 0.742590
0.890973 0.319870 0.753852
0.886184 0.323458 0.764844
0.878782 0.325861 0.775891
0.872227 0.328740 0.787564
0.865055 0.332121 0.796771
0.859514 0.335428 0.807377
0.851627 0.338914 0.818486
0.843608 0.342428 0.826454
0.836784 0.346367 0.836426
0.827878 0.348680 0.845846
0.820090 0.352721 0.854529
0.811466 0.356162 0.863150
0.803334 0.361004 0.872157
0.794345 0.365039 0.879945
0.785748 0.369719 0.889572
0.776416 0.373226 0.897486
0.766791 0.378185 0.904657
0.757581 0.382594 0.912451
0.747841 0.386272 0.918869
0.737560 0.390521 0.926588
0.727086 0.395196 0.933364
0.717311 0.400749 0.939375
0.707398 0.404884 0.944622
0.697000 0.409656 0.951439
0.685190 0.415453 0.955843
0.675681 0.418967 0.961087
0.664527 0.423829 0.965140
0.654555 0.429308 0.969881
0.642960 0.434994 0.974991
0.632056 0.438642 0.979351
0.620921 0.445619 0.982820
0.609818 0.449215 0.985382
0.597845 0.454678 0.987421
0.585986 0.459857 0.991747
0.575746 0.465182 0.992632
0.563512 0.471108 0.994679
0.551662 0.475779 0.995757
0.540466 0.480441 0.998111
0.529751 0.487230 0.999320
0.517290 0.493063 0.999690
0.504901 0.496711 1.000579
0.499353 0.499541 0.000629
0.511120 0.494769 0.000094
0.523889 0.488129 0.000588
0.534377 0.482677 0.001399
0.546701 0.477366 0.003361
0.557310 0.471850 0.004442
0.568190 0.466466 0.006734
0.579778 0.460858 0.008457
0.591504 0.455281 0.011146
0.603246 0.449077 0.014266
0.613882 0.443052 0.017023
0.624773 0.437493 0.018445
0.635883 0.432869 0.023823
0.647394 0.428129 0.027833
0.657728 0.423727 0.032170
