ply
format ascii 1.0
element vertex 1773
property float x
property float y
property float z
end_header
0.824477 0.461454 0.885500
0.835477 0.461454 0.874500
0.824477 0.472454 0.885500
0.824477 0.483454 0.885500
0.835477 0.472454 0.874500
0.835477 0.483454 0.874500
0.846477 0.450454 0.852500
0.846477 0.461454 0.852500
0.846477 0.461454 0.863500
0.846477 0.472454 0.852500
0.846477 0.472454 0.863500
0.846477 0.483454 0.852500
0.846477 0.483454 0.863500
0.769477 0.659454 0.885500
0.813477 0.494454 0.885500
0.813477 0.505454 0.885500
0.813477 0.516454 0.885500
0.813477 0.527454 0.885500
0.813477 0.538454 0.885500
0.813477 0.549454 0.885500
0.802477 0.560454 0.885500
0.802477 0.571454 0.885500
0.813477 0.560454 0.885500
0.813477 0.571454 0.885500
0.857477 0.494454 0.841500
0.857477 0.505454 0.841500
0.857477 0.516454 0.841500
0.857477 0.527454 0.841500
0.824477 0.494454 0.885500
0.824477 0.505454 0.885500
0.835477 0.494454 0.874500
0.835477 0.505454 0.874500
0.824477 0.516454 0.885500
0.824477 0.527454 0.885500
0.835477 0.516454 0.874500
0.835477 0.527454 0.874500
0.846477 0.494454 0.863500
0.846477 0.505454 0.863500
0.857477 0.494454 0.852500
0.857477 0.505454 0.852500
0.846477 0.516454 0.852500
0.846477 0.516454 0.863500
0.846477 0.527454 0.852500
0.846477 0.527454 0.863500
0.857477 0.516454 0.852500
0.857477 0.538454 0.841500
0.857477 0.549454 0.841500
0.857477 0.560454 0.841500
0.857477 0.571454 0.841500
0.835477 0.549454 0.863500
0.824477 0.538454 0.885500
0.824477 0.549454 0.874500
0.824477 0.549454 0.885500
0.835477 0.538454 0.874500
0.835477 0.549454 0.874500
0.835477 0.560454 0.863500
0.835477 0.571454 0.863500
0.824477 0.560454 0.874500
0.824477 0.571454 0.874500
0.846477 0.538454 0.852500
0.846477 0.538454 0.863500
0.846477 0.549454 0.852500
0.846477 0.560454 0.852500
0.846477 0.571454 0.852500
0.791477 0.604454 0.885500
0.791477 0.615454 0.885500
0.802477 0.582454 0.885500
0.802477 0.593454 0.885500
0.813477 0.582454 0.885500
0.813477 0.593454 0.885500
0.802477 0.604454 0.885500
0.802477 0.615454 0.885500
0.813477 0.604454 0.874500
0.813477 0.604454 0.885500
0.813477 0.615454 0.874500
0.780477 0.637454 0.885500
0.791477 0.626454 0.885500
0.791477 0.637454 0.885500
0.780477 0.648454 0.885500
0.780477 0.659454 0.885500
0.791477 0.648454 0.885500
0.791477 0.659454 0.874500
0.813477 0.626454 0.863500
0.813477 0.637454 0.863500
0.802477 0.626454 0.885500
0.802477 0.637454 0.874500
0.813477 0.626454 0.874500
0.802477 0.659454 0.863500
0.813477 0.648454 0.852500
0.813477 0.648454 0.863500
0.813477 0.659454 0.852500
0.802477 0.648454 0.874500
0.835477 0.615454 0.841500
0.846477 0.582454 0.841500
0.846477 0.593454 0.841500
0.857477 0.582454 0.841500
0.857477 0.593454 0.841500
0.846477 0.604454 0.841500
0.846477 0.615454 0.841500
0.857477 0.604454 0.830500
0.857477 0.604454 0.841500
0.857477 0.615454 0.830500
0.824477 0.593454 0.863500
0.835477 0.582454 0.863500
0.835477 0.593454 0.852500
0.835477 0.593454 0.863500
0.824477 0.582454 0.874500
0.824477 0.593454 0.874500
0.824477 0.604454 0.863500
0.824477 0.615454 0.863500
0.835477 0.604454 0.852500
0.835477 0.615454 0.852500
0.846477 0.582454 0.852500
0.835477 0.626454 0.841500
0.835477 0.637454 0.841500
0.824477 0.659454 0.841500
0.835477 0.648454 0.841500
0.835477 0.659454 0.841500
0.857477 0.637454 0.819500
0.846477 0.626454 0.841500
0.846477 0.637454 0.841500
0.857477 0.626454 0.830500
0.857477 0.637454 0.830500
0.857477 0.648454 0.819500
0.857477 0.659454 0.808500
0.857477 0.659454 0.819500
0.846477 0.648454 0.830500
0.846477 0.659454 0.830500
0.824477 0.626454 0.852500
0.824477 0.626454 0.863500
0.824477 0.637454 0.852500
0.516477 0.890454 0.192500
0.516477 0.901454 0.203500
0.527477 0.890454 0.192500
0.527477 0.901454 0.203500
0.516477 0.912454 0.214500
0.516477 0.923454 0.225500
0.527477 0.912454 0.214500
0.527477 0.923454 0.225500
0.538477 0.890454 0.192500
0.538477 0.901454 0.203500
0.549477 0.890454 0.192500
0.549477 0.890454 0.203500
0.549477 0.901454 0.203500
0.538477 0.912454 0.214500
0.538477 0.923454 0.225500
0.549477 0.912454 0.214500
0.549477 0.912454 0.225500
0.516477 0.923454 0.236500
0.527477 0.923454 0.236500
0.538477 0.923454 0.236500
0.549477 0.923454 0.236500
0.571477 0.879454 0.192500
0.582477 0.879454 0.192500
0.593477 0.879454 0.192500
0.560477 0.890454 0.192500
0.560477 0.890454 0.203500
0.560477 0.901454 0.203500
0.571477 0.890454 0.203500
0.571477 0.901454 0.203500
0.560477 0.912454 0.214500
0.560477 0.912454 0.225500
0.571477 0.912454 0.214500
0.571477 0.912454 0.225500
0.582477 0.890454 0.203500
0.582477 0.901454 0.203500
0.593477 0.890454 0.203500
0.582477 0.901454 0.214500
0.593477 0.901454 0.214500
0.582477 0.912454 0.225500
0.593477 0.912454 0.225500
0.560477 0.923454 0.236500
0.571477 0.923454 0.236500
0.571477 0.923454 0.247500
0.582477 0.923454 0.236500
0.582477 0.923454 0.247500
0.593477 0.912454 0.236500
0.593477 0.923454 0.247500
0.516477 0.934454 0.247500
0.527477 0.934454 0.247500
0.516477 0.945454 0.258500
0.516477 0.945454 0.269500
0.527477 0.934454 0.258500
0.527477 0.945454 0.269500
0.538477 0.934454 0.247500
0.549477 0.934454 0.247500
0.538477 0.934454 0.258500
0.538477 0.945454 0.269500
0.549477 0.934454 0.258500
0.549477 0.945454 0.269500
0.560477 0.934454 0.247500
0.560477 0.934454 0.258500
0.560477 0.945454 0.269500
0.571477 0.934454 0.258500
0.571477 0.945454 0.269500
0.582477 0.934454 0.258500
0.582477 0.934454 0.269500
0.593477 0.934454 0.258500
0.593477 0.934454 0.269500
0.516477 0.956454 0.291500
0.527477 0.956454 0.291500
0.516477 0.956454 0.302500
0.516477 0.967454 0.313500
0.527477 0.956454 0.302500
0.527477 0.956454 0.313500
0.538477 0.945454 0.291500
0.549477 0.945454 0.291500
0.538477 0.956454 0.302500
0.538477 0.956454 0.313500
0.549477 0.956454 0.302500
0.549477 0.956454 0.313500
0.516477 0.967454 0.324500
0.516477 0.967454 0.335500
0.527477 0.967454 0.324500
0.527477 0.967454 0.335500
0.538477 0.967454 0.324500
0.538477 0.967454 0.335500
0.549477 0.967454 0.324500
0.549477 0.967454 0.335500
0.516477 0.978454 0.346500
0.516477 0.978454 0.357500
0.527477 0.978454 0.346500
0.527477 0.978454 0.357500
0.538477 0.978454 0.346500
0.538477 0.978454 0.357500
0.549477 0.978454 0.346500
0.549477 0.978454 0.357500
0.560477 0.945454 0.291500
0.571477 0.945454 0.291500
0.560477 0.956454 0.302500
0.560477 0.956454 0.313500
0.571477 0.956454 0.302500
0.571477 0.956454 0.313500
0.582477 0.945454 0.291500
0.593477 0.945454 0.291500
0.582477 0.945454 0.302500
0.593477 0.945454 0.302500
0.582477 0.956454 0.313500
0.593477 0.956454 0.313500
0.560477 0.967454 0.324500
0.560477 0.967454 0.335500
0.571477 0.956454 0.324500
0.571477 0.967454 0.335500
0.560477 0.967454 0.346500
0.571477 0.967454 0.346500
0.582477 0.956454 0.324500
0.582477 0.967454 0.335500
0.593477 0.956454 0.324500
0.593477 0.956454 0.335500
0.582477 0.967454 0.346500
0.582477 0.967454 0.357500
0.593477 0.967454 0.346500
0.593477 0.967454 0.357500
0.560477 0.978454 0.357500
0.571477 0.978454 0.357500
0.604477 0.879454 0.192500
0.615477 0.868454 0.192500
0.615477 0.879454 0.203500
0.626477 0.868454 0.192500
0.626477 0.879454 0.203500
0.637477 0.868454 0.192500
0.637477 0.868454 0.203500
0.637477 0.879454 0.203500
0.604477 0.890454 0.203500
0.615477 0.890454 0.203500
0.604477 0.901454 0.214500
0.615477 0.901454 0.214500
0.615477 0.901454 0.225500
0.604477 0.912454 0.225500
0.626477 0.890454 0.203500
0.626477 0.890454 0.214500
0.626477 0.901454 0.225500
0.637477 0.890454 0.214500
0.637477 0.901454 0.225500
0.604477 0.912454 0.236500
0.604477 0.923454 0.247500
0.615477 0.912454 0.236500
0.615477 0.912454 0.247500
0.615477 0.923454 0.247500
0.604477 0.923454 0.258500
0.615477 0.923454 0.258500
0.637477 0.901454 0.236500
0.626477 0.912454 0.236500
0.626477 0.912454 0.247500
0.637477 0.912454 0.247500
0.626477 0.923454 0.258500
0.626477 0.923454 0.269500
0.637477 0.923454 0.258500
0.637477 0.923454 0.269500
0.648477 0.857454 0.192500
0.659477 0.857454 0.192500
0.648477 0.868454 0.203500
0.648477 0.879454 0.203500
0.659477 0.868454 0.203500
0.659477 0.879454 0.214500
0.670477 0.846454 0.192500
0.670477 0.857454 0.192500
0.670477 0.857454 0.203500
0.681477 0.846454 0.192500
0.681477 0.857454 0.203500
0.670477 0.868454 0.203500
0.681477 0.868454 0.203500
0.670477 0.879454 0.214500
0.681477 0.868454 0.214500
0.681477 0.879454 0.225500
0.648477 0.890454 0.214500
0.648477 0.890454 0.225500
0.659477 0.890454 0.225500
0.670477 0.890454 0.225500
0.648477 0.901454 0.236500
0.648477 0.901454 0.247500
0.659477 0.901454 0.236500
0.659477 0.901454 0.247500
0.648477 0.912454 0.258500
0.648477 0.923454 0.269500
0.659477 0.912454 0.258500
0.659477 0.912454 0.269500
0.670477 0.890454 0.236500
0.670477 0.901454 0.247500
0.681477 0.890454 0.236500
0.681477 0.890454 0.247500
0.670477 0.901454 0.258500
0.681477 0.901454 0.258500
0.670477 0.912454 0.258500
0.670477 0.912454 0.269500
0.681477 0.912454 0.269500
0.648477 0.923454 0.291500
0.659477 0.923454 0.291500
0.659477 0.923454 0.302500
0.670477 0.923454 0.291500
0.681477 0.912454 0.291500
0.670477 0.923454 0.302500
0.670477 0.923454 0.313500
0.681477 0.923454 0.302500
0.681477 0.923454 0.313500
0.681477 0.923454 0.324500
0.604477 0.934454 0.269500
0.615477 0.934454 0.269500
0.604477 0.934454 0.291500
0.615477 0.934454 0.291500
0.604477 0.945454 0.302500
0.604477 0.945454 0.313500
0.615477 0.945454 0.302500
0.615477 0.945454 0.313500
0.626477 0.934454 0.291500
0.637477 0.934454 0.291500
0.626477 0.934454 0.302500
0.626477 0.945454 0.313500
0.637477 0.934454 0.302500
0.637477 0.945454 0.313500
0.604477 0.956454 0.324500
0.604477 0.956454 0.335500
0.615477 0.956454 0.324500
0.615477 0.956454 0.335500
0.604477 0.967454 0.346500
0.604477 0.967454 0.357500
0.615477 0.956454 0.346500
0.626477 0.945454 0.324500
0.637477 0.945454 0.324500
0.637477 0.945454 0.335500
0.626477 0.956454 0.335500
0.626477 0.967454 0.357500
0.637477 0.956454 0.346500
0.637477 0.956454 0.357500
0.648477 0.934454 0.302500
0.648477 0.934454 0.313500
0.659477 0.934454 0.313500
0.648477 0.945454 0.324500
0.659477 0.934454 0.324500
0.659477 0.945454 0.335500
0.659477 0.945454 0.346500
0.648477 0.956454 0.346500
0.648477 0.956454 0.357500
0.659477 0.956454 0.357500
0.670477 0.934454 0.324500
0.670477 0.945454 0.335500
0.681477 0.934454 0.335500
0.670477 0.945454 0.346500
0.670477 0.945454 0.357500
0.681477 0.945454 0.346500
0.681477 0.945454 0.357500
0.516477 0.978454 0.368500
0.516477 0.989454 0.379500
0.527477 0.978454 0.368500
0.527477 0.989454 0.379500
0.516477 0.989454 0.390500
0.527477 0.989454 0.390500
0.538477 0.978454 0.368500
0.538477 0.989454 0.379500
0.549477 0.978454 0.368500
0.549477 0.978454 0.379500
0.538477 0.989454 0.390500
0.549477 0.989454 0.390500
0.516477 0.989454 0.412500
0.516477 0.989454 0.423500
0.527477 0.989454 0.412500
0.527477 0.989454 0.423500
0.527477 0.989454 0.434500
0.516477 1.000454 0.434500
0.516477 1.000454 0.445500
0.527477 1.000454 0.445500
0.538477 0.989454 0.412500
0.538477 0.989454 0.423500
0.549477 0.989454 0.412500
0.549477 0.989454 0.423500
0.538477 0.989454 0.434500
0.549477 0.989454 0.434500
0.549477 0.989454 0.445500
0.538477 1.000454 0.445500
0.593477 0.967454 0.368500
0.560477 0.978454 0.368500
0.560477 0.978454 0.379500
0.571477 0.978454 0.368500
0.571477 0.978454 0.379500
0.560477 0.989454 0.390500
0.571477 0.978454 0.390500
0.582477 0.978454 0.368500
0.582477 0.978454 0.379500
0.582477 0.978454 0.390500
0.560477 0.989454 0.412500
0.560477 0.989454 0.423500
0.571477 0.989454 0.412500
0.571477 0.989454 0.423500
0.560477 0.989454 0.434500
0.560477 0.989454 0.445500
0.571477 0.989454 0.434500
0.571477 0.989454 0.445500
0.582477 0.978454 0.412500
0.593477 0.989454 0.423500
0.593477 0.989454 0.434500
0.593477 0.989454 0.445500
0.516477 1.000454 0.456500
0.516477 1.000454 0.467500
0.527477 1.000454 0.456500
0.527477 1.000454 0.467500
0.516477 1.000454 0.489500
0.527477 1.000454 0.489500
0.538477 1.000454 0.456500
0.538477 1.000454 0.467500
0.549477 1.000454 0.456500
0.549477 1.000454 0.467500
0.538477 1.000454 0.489500
0.549477 1.000454 0.489500
0.516477 1.000454 0.500500
0.516477 1.000454 0.511500
0.527477 1.000454 0.500500
0.527477 1.000454 0.511500
0.516477 1.000454 0.522500
0.516477 1.000454 0.533500
0.527477 1.000454 0.522500
0.527477 1.000454 0.533500
0.538477 1.000454 0.500500
0.538477 1.000454 0.511500
0.549477 1.000454 0.500500
0.549477 1.000454 0.511500
0.538477 1.000454 0.522500
0.538477 1.000454 0.533500
0.549477 1.000454 0.522500
0.549477 1.000454 0.533500
0.560477 0.989454 0.456500
0.571477 0.989454 0.456500
0.571477 0.989454 0.467500
0.571477 0.989454 0.489500
0.560477 1.000454 0.467500
0.560477 1.000454 0.489500
0.593477 0.989454 0.456500
0.593477 0.989454 0.467500
0.593477 0.989454 0.489500
0.571477 0.989454 0.500500
0.571477 0.989454 0.511500
0.560477 0.989454 0.533500
0.571477 0.989454 0.522500
0.571477 0.989454 0.533500
0.560477 1.000454 0.500500
0.560477 1.000454 0.511500
0.560477 1.000454 0.522500
0.593477 0.989454 0.500500
0.593477 0.989454 0.511500
0.593477 0.989454 0.522500
0.593477 0.989454 0.533500
0.615477 0.967454 0.368500
0.626477 0.967454 0.368500
0.626477 0.967454 0.379500
0.637477 0.967454 0.368500
0.637477 0.967454 0.379500
0.626477 0.967454 0.390500
0.637477 0.967454 0.390500
0.637477 0.967454 0.412500
0.604477 0.978454 0.379500
0.615477 0.978454 0.379500
0.604477 0.978454 0.390500
0.615477 0.978454 0.390500
0.604477 0.978454 0.412500
0.604477 0.978454 0.423500
0.615477 0.978454 0.412500
0.615477 0.978454 0.423500
0.604477 0.989454 0.434500
0.604477 0.989454 0.445500
0.615477 0.978454 0.434500
0.615477 0.978454 0.445500
0.626477 0.978454 0.412500
0.626477 0.978454 0.423500
0.637477 0.978454 0.423500
0.626477 0.978454 0.434500
0.626477 0.978454 0.445500
0.637477 0.978454 0.434500
0.637477 0.978454 0.445500
0.648477 0.956454 0.368500
0.648477 0.967454 0.379500
0.659477 0.956454 0.368500
0.659477 0.956454 0.379500
0.648477 0.967454 0.390500
0.659477 0.956454 0.390500
0.681477 0.945454 0.368500
0.681477 0.945454 0.379500
0.670477 0.956454 0.368500
0.670477 0.956454 0.379500
0.670477 0.956454 0.390500
0.681477 0.956454 0.390500
0.648477 0.967454 0.412500
0.648477 0.967454 0.423500
0.659477 0.967454 0.412500
0.659477 0.967454 0.423500
0.648477 0.967454 0.434500
0.659477 0.967454 0.434500
0.659477 0.967454 0.445500
0.670477 0.956454 0.412500
0.670477 0.967454 0.423500
0.681477 0.956454 0.412500
0.681477 0.956454 0.423500
0.670477 0.967454 0.434500
0.670477 0.967454 0.445500
0.681477 0.956454 0.434500
0.681477 0.956454 0.445500
0.648477 0.978454 0.445500
0.604477 0.989454 0.456500
0.604477 0.989454 0.467500
0.615477 0.989454 0.456500
0.615477 0.989454 0.467500
0.604477 0.989454 0.489500
0.615477 0.989454 0.489500
0.626477 0.978454 0.456500
0.626477 0.978454 0.467500
0.637477 0.978454 0.456500
0.637477 0.978454 0.467500
0.626477 0.978454 0.489500
0.637477 0.978454 0.489500
0.604477 0.989454 0.500500
0.604477 0.989454 0.511500
0.615477 0.989454 0.500500
0.615477 0.989454 0.511500
0.604477 0.989454 0.522500
0.604477 0.989454 0.533500
0.615477 0.989454 0.522500
0.615477 0.989454 0.533500
0.626477 0.978454 0.500500
0.626477 0.978454 0.511500
0.637477 0.978454 0.500500
0.637477 0.978454 0.511500
0.626477 0.978454 0.522500
0.626477 0.978454 0.533500
0.637477 0.978454 0.522500
0.637477 0.978454 0.533500
0.659477 0.967454 0.456500
0.659477 0.967454 0.467500
0.659477 0.967454 0.489500
0.670477 0.967454 0.456500
0.670477 0.967454 0.467500
0.670477 0.967454 0.489500
0.659477 0.967454 0.500500
0.659477 0.967454 0.511500
0.659477 0.967454 0.522500
0.659477 0.967454 0.533500
0.670477 0.967454 0.500500
0.670477 0.967454 0.511500
0.670477 0.967454 0.522500
0.670477 0.967454 0.533500
0.648477 0.978454 0.456500
0.648477 0.978454 0.467500
0.648477 0.978454 0.489500
0.648477 0.978454 0.500500
0.648477 0.978454 0.511500
0.648477 0.978454 0.522500
0.648477 0.978454 0.533500
0.692477 0.835454 0.192500
0.703477 0.835454 0.192500
0.714477 0.824454 0.192500
0.714477 0.835454 0.192500
0.714477 0.835454 0.203500
0.725477 0.824454 0.192500
0.725477 0.824454 0.203500
0.725477 0.835454 0.203500
0.758477 0.791454 0.192500
0.769477 0.780454 0.192500
0.769477 0.791454 0.192500
0.769477 0.791454 0.203500
0.736477 0.802454 0.192500
0.736477 0.813454 0.192500
0.747477 0.802454 0.192500
0.747477 0.813454 0.203500
0.736477 0.824454 0.203500
0.736477 0.835454 0.203500
0.747477 0.824454 0.203500
0.736477 0.835454 0.214500
0.747477 0.835454 0.214500
0.747477 0.835454 0.225500
0.758477 0.802454 0.203500
0.758477 0.813454 0.203500
0.769477 0.802454 0.203500
0.769477 0.813454 0.214500
0.758477 0.824454 0.214500
0.758477 0.835454 0.225500
0.769477 0.824454 0.225500
0.769477 0.824454 0.236500
0.769477 0.835454 0.236500
0.813477 0.725454 0.192500
0.802477 0.747454 0.192500
0.813477 0.736454 0.192500
0.813477 0.736454 0.203500
0.813477 0.747454 0.203500
0.835477 0.692454 0.192500
0.835477 0.703454 0.192500
0.846477 0.681454 0.192500
0.857477 0.670454 0.192500
0.857477 0.670454 0.203500
0.857477 0.681454 0.203500
0.846477 0.692454 0.203500
0.846477 0.703454 0.203500
0.857477 0.692454 0.203500
0.857477 0.703454 0.203500
0.857477 0.703454 0.214500
0.824477 0.714454 0.192500
0.835477 0.714454 0.203500
0.835477 0.725454 0.203500
0.824477 0.736454 0.203500
0.824477 0.747454 0.203500
0.835477 0.736454 0.203500
0.835477 0.736454 0.214500
0.835477 0.747454 0.214500
0.846477 0.714454 0.203500
0.846477 0.725454 0.214500
0.857477 0.714454 0.214500
0.857477 0.714454 0.225500
0.857477 0.725454 0.225500
0.846477 0.736454 0.214500
0.846477 0.736454 0.225500
0.846477 0.747454 0.225500
0.857477 0.725454 0.236500
0.846477 0.747454 0.236500
0.857477 0.736454 0.236500
0.857477 0.747454 0.247500
0.780477 0.769454 0.192500
0.791477 0.758454 0.192500
0.791477 0.769454 0.192500
0.791477 0.769454 0.203500
0.780477 0.780454 0.203500
0.780477 0.791454 0.203500
0.791477 0.780454 0.203500
0.791477 0.791454 0.214500
0.802477 0.758454 0.203500
0.802477 0.769454 0.203500
0.813477 0.758454 0.203500
0.813477 0.769454 0.214500
0.802477 0.780454 0.203500
0.802477 0.780454 0.214500
0.802477 0.791454 0.225500
0.813477 0.780454 0.225500
0.813477 0.791454 0.236500
0.813477 0.791454 0.247500
0.780477 0.802454 0.203500
0.780477 0.802454 0.214500
0.780477 0.813454 0.225500
0.791477 0.802454 0.214500
0.791477 0.802454 0.225500
0.791477 0.813454 0.236500
0.780477 0.824454 0.236500
0.780477 0.824454 0.247500
0.780477 0.835454 0.247500
0.791477 0.824454 0.247500
0.780477 0.835454 0.258500
0.791477 0.835454 0.258500
0.791477 0.835454 0.269500
0.802477 0.802454 0.236500
0.802477 0.813454 0.247500
0.813477 0.802454 0.247500
0.802477 0.813454 0.258500
0.813477 0.813454 0.258500
0.813477 0.813454 0.269500
0.802477 0.824454 0.258500
0.802477 0.824454 0.269500
0.813477 0.824454 0.269500
0.824477 0.758454 0.214500
0.824477 0.758454 0.225500
0.824477 0.769454 0.225500
0.835477 0.758454 0.225500
0.835477 0.769454 0.236500
0.835477 0.769454 0.247500
0.824477 0.780454 0.236500
0.824477 0.791454 0.247500
0.835477 0.780454 0.247500
0.824477 0.791454 0.258500
0.835477 0.780454 0.258500
0.835477 0.791454 0.269500
0.846477 0.758454 0.236500
0.846477 0.758454 0.247500
0.846477 0.769454 0.258500
0.857477 0.758454 0.258500
0.857477 0.758454 0.269500
0.857477 0.769454 0.269500
0.846477 0.780454 0.269500
0.846477 0.791454 0.269500
0.824477 0.802454 0.258500
0.824477 0.802454 0.269500
0.802477 0.835454 0.291500
0.813477 0.824454 0.291500
0.813477 0.824454 0.302500
0.813477 0.835454 0.302500
0.813477 0.835454 0.313500
0.857477 0.769454 0.291500
0.846477 0.791454 0.291500
0.857477 0.780454 0.291500
0.846477 0.791454 0.302500
0.857477 0.780454 0.302500
0.857477 0.791454 0.313500
0.824477 0.813454 0.291500
0.835477 0.802454 0.291500
0.835477 0.813454 0.291500
0.835477 0.813454 0.302500
0.835477 0.813454 0.313500
0.824477 0.824454 0.302500
0.824477 0.835454 0.313500
0.835477 0.824454 0.313500
0.846477 0.802454 0.302500
0.846477 0.802454 0.313500
0.857477 0.802454 0.313500
0.824477 0.835454 0.324500
0.824477 0.835454 0.335500
0.835477 0.824454 0.324500
0.835477 0.835454 0.335500
0.835477 0.835454 0.346500
0.846477 0.813454 0.324500
0.857477 0.802454 0.324500
0.857477 0.802454 0.335500
0.857477 0.813454 0.335500
0.857477 0.813454 0.346500
0.857477 0.813454 0.357500
0.846477 0.824454 0.335500
0.846477 0.824454 0.346500
0.846477 0.824454 0.357500
0.846477 0.835454 0.357500
0.846477 0.835454 0.368500
0.846477 0.835454 0.379500
0.857477 0.824454 0.368500
0.857477 0.835454 0.379500
0.857477 0.835454 0.390500
0.857477 0.835454 0.412500
0.857477 0.835454 0.423500
0.857477 0.835454 0.434500
0.692477 0.846454 0.203500
0.692477 0.857454 0.203500
0.703477 0.846454 0.203500
0.703477 0.857454 0.203500
0.703477 0.857454 0.214500
0.692477 0.868454 0.214500
0.692477 0.868454 0.225500
0.692477 0.879454 0.225500
0.703477 0.868454 0.225500
0.714477 0.846454 0.203500
0.714477 0.857454 0.214500
0.714477 0.857454 0.225500
0.725477 0.846454 0.214500
0.725477 0.857454 0.225500
0.692477 0.879454 0.236500
0.703477 0.879454 0.236500
0.703477 0.879454 0.247500
0.725477 0.857454 0.236500
0.714477 0.868454 0.236500
0.714477 0.879454 0.247500
0.725477 0.868454 0.247500
0.714477 0.879454 0.258500
0.725477 0.879454 0.258500
0.725477 0.879454 0.269500
0.692477 0.890454 0.247500
0.692477 0.890454 0.258500
0.692477 0.901454 0.269500
0.703477 0.890454 0.258500
0.703477 0.890454 0.269500
0.703477 0.901454 0.269500
0.714477 0.890454 0.269500
0.736477 0.846454 0.225500
0.747477 0.846454 0.225500
0.736477 0.857454 0.236500
0.736477 0.857454 0.247500
0.747477 0.846454 0.236500
0.747477 0.857454 0.247500
0.736477 0.868454 0.247500
0.736477 0.868454 0.258500
0.736477 0.879454 0.269500
0.747477 0.868454 0.258500
0.747477 0.868454 0.269500
0.758477 0.846454 0.236500
0.758477 0.846454 0.247500
0.769477 0.846454 0.247500
0.758477 0.857454 0.258500
0.769477 0.846454 0.258500
0.769477 0.857454 0.269500
0.758477 0.868454 0.269500
0.703477 0.901454 0.291500
0.692477 0.912454 0.291500
0.692477 0.912454 0.302500
0.692477 0.923454 0.313500
0.703477 0.912454 0.302500
0.703477 0.912454 0.313500
0.714477 0.901454 0.291500
0.725477 0.890454 0.291500
0.714477 0.901454 0.302500
0.725477 0.901454 0.302500
0.725477 0.901454 0.313500
0.714477 0.912454 0.313500
0.692477 0.923454 0.324500
0.703477 0.923454 0.324500
0.703477 0.923454 0.335500
0.725477 0.901454 0.324500
0.714477 0.912454 0.324500
0.714477 0.923454 0.335500
0.725477 0.912454 0.335500
0.714477 0.923454 0.346500
0.725477 0.923454 0.346500
0.725477 0.923454 0.357500
0.736477 0.879454 0.291500
0.747477 0.879454 0.291500
0.769477 0.857454 0.291500
0.758477 0.868454 0.291500
0.758477 0.879454 0.302500
0.758477 0.879454 0.313500
0.769477 0.868454 0.302500
0.769477 0.879454 0.313500
0.769477 0.879454 0.324500
0.769477 0.879454 0.335500
0.736477 0.890454 0.291500
0.736477 0.890454 0.302500
0.736477 0.901454 0.313500
0.747477 0.890454 0.302500
0.747477 0.890454 0.313500
0.736477 0.901454 0.324500
0.736477 0.901454 0.335500
0.747477 0.890454 0.324500
0.747477 0.901454 0.335500
0.736477 0.912454 0.335500
0.736477 0.912454 0.346500
0.736477 0.912454 0.357500
0.747477 0.912454 0.346500
0.747477 0.912454 0.357500
0.758477 0.890454 0.324500
0.758477 0.890454 0.335500
0.758477 0.901454 0.346500
0.758477 0.901454 0.357500
0.769477 0.890454 0.346500
0.769477 0.901454 0.357500
0.692477 0.934454 0.335500
0.692477 0.934454 0.346500
0.692477 0.934454 0.357500
0.703477 0.934454 0.346500
0.703477 0.934454 0.357500
0.714477 0.934454 0.357500
0.780477 0.846454 0.269500
0.780477 0.857454 0.291500
0.791477 0.846454 0.291500
0.780477 0.857454 0.302500
0.791477 0.846454 0.302500
0.791477 0.857454 0.313500
0.780477 0.868454 0.313500
0.802477 0.846454 0.302500
0.802477 0.846454 0.313500
0.780477 0.879454 0.324500
0.780477 0.879454 0.335500
0.791477 0.868454 0.324500
0.791477 0.868454 0.335500
0.780477 0.879454 0.346500
0.791477 0.868454 0.346500
0.791477 0.879454 0.357500
0.802477 0.846454 0.324500
0.802477 0.857454 0.324500
0.802477 0.857454 0.335500
0.813477 0.846454 0.324500
0.813477 0.857454 0.335500
0.813477 0.857454 0.346500
0.813477 0.857454 0.357500
0.802477 0.868454 0.346500
0.802477 0.868454 0.357500
0.780477 0.890454 0.357500
0.824477 0.846454 0.335500
0.824477 0.846454 0.346500
0.824477 0.857454 0.357500
0.835477 0.846454 0.346500
0.835477 0.846454 0.357500
0.725477 0.923454 0.368500
0.736477 0.923454 0.368500
0.736477 0.923454 0.379500
0.747477 0.912454 0.368500
0.747477 0.912454 0.379500
0.736477 0.923454 0.390500
0.747477 0.923454 0.390500
0.769477 0.901454 0.368500
0.769477 0.901454 0.379500
0.769477 0.901454 0.390500
0.758477 0.912454 0.368500
0.758477 0.912454 0.379500
0.758477 0.912454 0.390500
0.736477 0.923454 0.412500
0.747477 0.923454 0.412500
0.758477 0.912454 0.412500
0.758477 0.923454 0.423500
0.769477 0.912454 0.412500
0.769477 0.912454 0.423500
0.758477 0.923454 0.434500
0.758477 0.923454 0.445500
0.769477 0.923454 0.434500
0.769477 0.923454 0.445500
0.758477 0.923454 0.456500
0.758477 0.923454 0.467500
0.769477 0.923454 0.456500
0.769477 0.923454 0.467500
0.758477 0.923454 0.489500
0.769477 0.923454 0.489500
0.769477 0.923454 0.500500
0.769477 0.923454 0.511500
0.758477 0.923454 0.522500
0.758477 0.923454 0.533500
0.769477 0.923454 0.522500
0.769477 0.923454 0.533500
0.692477 0.945454 0.368500
0.692477 0.945454 0.379500
0.703477 0.934454 0.368500
0.703477 0.945454 0.379500
0.692477 0.945454 0.390500
0.703477 0.945454 0.390500
0.714477 0.934454 0.368500
0.714477 0.934454 0.379500
0.725477 0.934454 0.379500
0.714477 0.934454 0.390500
0.725477 0.934454 0.390500
0.692477 0.945454 0.412500
0.703477 0.945454 0.412500
0.703477 0.945454 0.423500
0.692477 0.956454 0.423500
0.692477 0.956454 0.434500
0.703477 0.956454 0.445500
0.714477 0.934454 0.412500
0.714477 0.945454 0.423500
0.725477 0.934454 0.412500
0.714477 0.945454 0.434500
0.714477 0.945454 0.445500
0.725477 0.945454 0.434500
0.725477 0.945454 0.445500
0.736477 0.934454 0.423500
0.747477 0.934454 0.423500
0.736477 0.934454 0.434500
0.736477 0.934454 0.445500
0.747477 0.934454 0.434500
0.747477 0.934454 0.445500
0.692477 0.956454 0.456500
0.692477 0.967454 0.467500
0.703477 0.956454 0.456500
0.703477 0.956454 0.467500
0.692477 0.967454 0.489500
0.703477 0.956454 0.489500
0.725477 0.945454 0.456500
0.725477 0.945454 0.467500
0.725477 0.945454 0.489500
0.714477 0.956454 0.456500
0.714477 0.956454 0.467500
0.714477 0.956454 0.489500
0.692477 0.967454 0.500500
0.692477 0.967454 0.511500
0.703477 0.956454 0.500500
0.703477 0.956454 0.511500
0.692477 0.967454 0.522500
0.692477 0.967454 0.533500
0.703477 0.956454 0.522500
0.703477 0.956454 0.533500
0.725477 0.945454 0.500500
0.725477 0.945454 0.511500
0.725477 0.945454 0.522500
0.725477 0.945454 0.533500
0.714477 0.956454 0.500500
0.714477 0.956454 0.511500
0.714477 0.956454 0.522500
0.714477 0.956454 0.533500
0.736477 0.945454 0.456500
0.736477 0.945454 0.467500
0.747477 0.934454 0.456500
0.747477 0.934454 0.467500
0.736477 0.945454 0.489500
0.747477 0.934454 0.489500
0.736477 0.945454 0.500500
0.736477 0.945454 0.511500
0.747477 0.934454 0.500500
0.747477 0.934454 0.511500
0.736477 0.945454 0.522500
0.736477 0.945454 0.533500
0.747477 0.934454 0.522500
0.747477 0.934454 0.533500
0.758477 0.934454 0.500500
0.758477 0.934454 0.511500
0.802477 0.879454 0.368500
0.802477 0.879454 0.379500
0.813477 0.868454 0.368500
0.813477 0.879454 0.379500
0.802477 0.879454 0.390500
0.813477 0.879454 0.390500
0.813477 0.879454 0.412500
0.813477 0.879454 0.423500
0.813477 0.879454 0.434500
0.813477 0.879454 0.445500
0.780477 0.890454 0.368500
0.780477 0.901454 0.379500
0.791477 0.890454 0.368500
0.791477 0.890454 0.379500
0.780477 0.901454 0.390500
0.791477 0.890454 0.390500
0.780477 0.901454 0.412500
0.780477 0.901454 0.423500
0.791477 0.890454 0.412500
0.791477 0.890454 0.423500
0.791477 0.901454 0.434500
0.791477 0.901454 0.445500
0.780477 0.912454 0.434500
0.780477 0.912454 0.445500
0.802477 0.890454 0.412500
0.802477 0.890454 0.423500
0.802477 0.890454 0.434500
0.802477 0.890454 0.445500
0.802477 0.901454 0.445500
0.824477 0.857454 0.368500
0.824477 0.857454 0.379500
0.835477 0.846454 0.368500
0.835477 0.846454 0.379500
0.835477 0.846454 0.390500
0.835477 0.857454 0.390500
0.824477 0.868454 0.379500
0.824477 0.868454 0.390500
0.846477 0.846454 0.390500
0.835477 0.857454 0.412500
0.824477 0.868454 0.412500
0.824477 0.868454 0.423500
0.835477 0.868454 0.423500
0.824477 0.868454 0.434500
0.824477 0.879454 0.445500
0.835477 0.868454 0.434500
0.835477 0.868454 0.445500
0.846477 0.846454 0.412500
0.846477 0.857454 0.412500
0.846477 0.857454 0.423500
0.857477 0.846454 0.423500
0.846477 0.857454 0.434500
0.846477 0.857454 0.445500
0.857477 0.846454 0.434500
0.857477 0.846454 0.445500
0.813477 0.879454 0.456500
0.813477 0.879454 0.467500
0.813477 0.879454 0.522500
0.813477 0.879454 0.533500
0.791477 0.901454 0.456500
0.780477 0.912454 0.456500
0.780477 0.912454 0.467500
0.791477 0.912454 0.467500
0.780477 0.912454 0.489500
0.791477 0.912454 0.489500
0.802477 0.901454 0.456500
0.802477 0.901454 0.467500
0.813477 0.890454 0.456500
0.813477 0.890454 0.467500
0.802477 0.901454 0.489500
0.813477 0.890454 0.489500
0.780477 0.912454 0.500500
0.780477 0.912454 0.511500
0.791477 0.912454 0.500500
0.791477 0.912454 0.511500
0.780477 0.912454 0.522500
0.780477 0.912454 0.533500
0.791477 0.912454 0.522500
0.791477 0.912454 0.533500
0.802477 0.901454 0.500500
0.802477 0.901454 0.511500
0.813477 0.890454 0.500500
0.813477 0.890454 0.511500
0.802477 0.901454 0.522500
0.802477 0.901454 0.533500
0.813477 0.890454 0.522500
0.813477 0.890454 0.533500
0.824477 0.879454 0.456500
0.824477 0.879454 0.467500
0.835477 0.868454 0.456500
0.835477 0.868454 0.467500
0.824477 0.879454 0.489500
0.835477 0.868454 0.489500
0.846477 0.857454 0.456500
0.846477 0.857454 0.467500
0.857477 0.846454 0.456500
0.857477 0.846454 0.467500
0.846477 0.857454 0.489500
0.857477 0.846454 0.489500
0.824477 0.879454 0.500500
0.824477 0.879454 0.511500
0.835477 0.868454 0.500500
0.835477 0.868454 0.511500
0.824477 0.879454 0.522500
0.824477 0.879454 0.533500
0.835477 0.868454 0.522500
0.835477 0.868454 0.533500
0.846477 0.857454 0.500500
0.846477 0.857454 0.511500
0.857477 0.846454 0.500500
0.857477 0.846454 0.511500
0.846477 0.857454 0.522500
0.846477 0.857454 0.533500
0.857477 0.846454 0.522500
0.857477 0.846454 0.533500
0.516477 0.813454 0.885500
0.527477 0.813454 0.885500
0.516477 0.824454 0.885500
0.516477 0.835454 0.874500
0.527477 0.824454 0.885500
0.527477 0.835454 0.874500
0.538477 0.813454 0.885500
0.549477 0.813454 0.885500
0.538477 0.835454 0.863500
0.549477 0.835454 0.863500
0.538477 0.824454 0.885500
0.538477 0.835454 0.874500
0.549477 0.824454 0.874500
0.549477 0.824454 0.885500
0.560477 0.802454 0.885500
0.560477 0.813454 0.885500
0.571477 0.802454 0.885500
0.571477 0.813454 0.885500
0.560477 0.835454 0.863500
0.571477 0.835454 0.863500
0.560477 0.824454 0.874500
0.571477 0.824454 0.874500
0.582477 0.802454 0.885500
0.582477 0.813454 0.885500
0.593477 0.802454 0.885500
0.593477 0.813454 0.885500
0.582477 0.835454 0.863500
0.593477 0.824454 0.863500
0.593477 0.835454 0.852500
0.582477 0.824454 0.874500
0.593477 0.824454 0.874500
0.604477 0.791454 0.885500
0.615477 0.791454 0.885500
0.626477 0.791454 0.885500
0.637477 0.780454 0.885500
0.637477 0.791454 0.885500
0.626477 0.835454 0.841500
0.637477 0.835454 0.841500
0.604477 0.802454 0.885500
0.604477 0.813454 0.874500
0.615477 0.802454 0.885500
0.615477 0.813454 0.874500
0.604477 0.824454 0.863500
0.604477 0.835454 0.852500
0.615477 0.824454 0.863500
0.615477 0.835454 0.852500
0.626477 0.813454 0.863500
0.637477 0.813454 0.863500
0.626477 0.802454 0.885500
0.626477 0.813454 0.874500
0.637477 0.802454 0.874500
0.626477 0.824454 0.852500
0.637477 0.824454 0.852500
0.659477 0.769454 0.885500
0.648477 0.780454 0.885500
0.648477 0.791454 0.885500
0.659477 0.780454 0.885500
0.659477 0.791454 0.874500
0.670477 0.758454 0.885500
0.670477 0.769454 0.885500
0.681477 0.758454 0.885500
0.681477 0.769454 0.885500
0.670477 0.791454 0.863500
0.681477 0.791454 0.863500
0.670477 0.780454 0.885500
0.670477 0.791454 0.874500
0.681477 0.780454 0.874500
0.648477 0.824454 0.841500
0.648477 0.835454 0.841500
0.659477 0.824454 0.841500
0.659477 0.835454 0.841500
0.681477 0.813454 0.841500
0.670477 0.824454 0.841500
0.670477 0.835454 0.830500
0.681477 0.824454 0.830500
0.681477 0.824454 0.841500
0.681477 0.835454 0.830500
0.648477 0.802454 0.863500
0.648477 0.813454 0.863500
0.659477 0.802454 0.863500
0.659477 0.813454 0.852500
0.648477 0.802454 0.874500
0.648477 0.824454 0.852500
0.670477 0.802454 0.852500
0.670477 0.802454 0.863500
0.681477 0.802454 0.852500
0.516477 0.989454 0.577500
0.527477 0.989454 0.577500
0.516477 1.000454 0.544500
0.516477 1.000454 0.555500
0.527477 1.000454 0.544500
0.527477 1.000454 0.555500
0.538477 0.989454 0.555500
0.549477 0.989454 0.555500
0.538477 0.989454 0.577500
0.549477 0.989454 0.577500
0.538477 1.000454 0.544500
0.549477 1.000454 0.544500
0.516477 0.989454 0.588500
0.516477 0.989454 0.599500
0.527477 0.989454 0.588500
0.527477 0.989454 0.599500
0.516477 0.989454 0.610500
0.516477 0.989454 0.621500
0.527477 0.978454 0.621500
0.527477 0.989454 0.610500
0.538477 0.989454 0.588500
0.538477 0.989454 0.599500
0.549477 0.989454 0.588500
0.549477 0.989454 0.599500
0.538477 0.978454 0.621500
0.538477 0.989454 0.610500
0.549477 0.978454 0.621500
0.549477 0.989454 0.610500
0.560477 0.989454 0.544500
0.560477 0.989454 0.555500
0.571477 0.989454 0.544500
0.571477 0.989454 0.555500
0.560477 0.989454 0.577500
0.571477 0.989454 0.577500
0.593477 0.989454 0.544500
0.593477 0.989454 0.555500
0.593477 0.989454 0.577500
0.560477 0.989454 0.588500
0.560477 0.989454 0.599500
0.571477 0.989454 0.588500
0.571477 0.989454 0.599500
0.560477 0.978454 0.610500
0.560477 0.978454 0.621500
0.571477 0.978454 0.610500
0.571477 0.978454 0.621500
0.582477 0.978454 0.599500
0.582477 0.989454 0.588500
0.582477 0.978454 0.610500
0.582477 0.978454 0.621500
0.593477 0.978454 0.621500
0.527477 0.967454 0.665500
0.538477 0.967454 0.665500
0.549477 0.967454 0.665500
0.516477 0.967454 0.676500
0.516477 0.967454 0.687500
0.527477 0.967454 0.676500
0.527477 0.967454 0.687500
0.516477 0.956454 0.698500
0.516477 0.956454 0.709500
0.527477 0.956454 0.698500
0.527477 0.956454 0.709500
0.538477 0.967454 0.676500
0.538477 0.967454 0.687500
0.549477 0.967454 0.676500
0.549477 0.967454 0.687500
0.538477 0.956454 0.698500
0.538477 0.956454 0.709500
0.549477 0.956454 0.698500
0.549477 0.956454 0.709500
0.516477 0.978454 0.632500
0.516477 0.978454 0.643500
0.527477 0.978454 0.632500
0.527477 0.978454 0.643500
0.516477 0.978454 0.665500
0.538477 0.978454 0.632500
0.538477 0.978454 0.643500
0.549477 0.978454 0.632500
0.549477 0.978454 0.643500
0.571477 0.967454 0.643500
0.560477 0.967454 0.665500
0.571477 0.967454 0.665500
0.582477 0.967454 0.643500
0.593477 0.967454 0.632500
0.593477 0.967454 0.643500
0.582477 0.967454 0.665500
0.593477 0.967454 0.665500
0.560477 0.945454 0.709500
0.571477 0.945454 0.709500
0.560477 0.956454 0.687500
0.560477 0.967454 0.676500
0.571477 0.956454 0.687500
0.571477 0.967454 0.676500
0.560477 0.956454 0.698500
0.571477 0.956454 0.698500
0.582477 0.945454 0.709500
0.593477 0.945454 0.698500
0.593477 0.945454 0.709500
0.582477 0.956454 0.676500
0.582477 0.956454 0.687500
0.593477 0.956454 0.676500
0.593477 0.956454 0.687500
0.582477 0.956454 0.698500
0.560477 0.978454 0.632500
0.560477 0.978454 0.643500
0.571477 0.978454 0.632500
0.582477 0.978454 0.632500
0.659477 0.923454 0.709500
0.681477 0.923454 0.687500
0.670477 0.923454 0.698500
0.670477 0.923454 0.709500
0.681477 0.912454 0.709500
0.681477 0.923454 0.698500
0.615477 0.967454 0.621500
0.637477 0.967454 0.599500
0.626477 0.967454 0.610500
0.626477 0.967454 0.621500
0.637477 0.967454 0.610500
0.637477 0.967454 0.621500
0.604477 0.989454 0.544500
0.604477 0.989454 0.555500
0.615477 0.978454 0.555500
0.615477 0.989454 0.544500
0.604477 0.989454 0.577500
0.615477 0.978454 0.577500
0.626477 0.978454 0.544500
0.626477 0.978454 0.555500
0.637477 0.978454 0.544500
0.637477 0.978454 0.555500
0.626477 0.978454 0.577500
0.637477 0.978454 0.577500
0.604477 0.978454 0.588500
0.604477 0.978454 0.599500
0.615477 0.978454 0.588500
0.615477 0.978454 0.599500
0.604477 0.978454 0.610500
0.615477 0.978454 0.610500
0.626477 0.978454 0.588500
0.626477 0.978454 0.599500
0.637477 0.978454 0.588500
0.648477 0.967454 0.555500
0.659477 0.967454 0.544500
0.659477 0.967454 0.555500
0.648477 0.967454 0.577500
0.659477 0.967454 0.577500
0.670477 0.967454 0.544500
0.670477 0.967454 0.555500
0.681477 0.956454 0.544500
0.681477 0.956454 0.555500
0.670477 0.967454 0.577500
0.681477 0.956454 0.577500
0.648477 0.967454 0.588500
0.648477 0.967454 0.599500
0.659477 0.967454 0.588500
0.659477 0.967454 0.599500
0.648477 0.956454 0.621500
0.648477 0.967454 0.610500
0.659477 0.956454 0.610500
0.659477 0.956454 0.621500
0.681477 0.945454 0.621500
0.670477 0.956454 0.588500
0.670477 0.956454 0.599500
0.681477 0.956454 0.588500
0.681477 0.956454 0.599500
0.670477 0.956454 0.610500
0.670477 0.956454 0.621500
0.681477 0.956454 0.610500
0.648477 0.978454 0.544500
0.604477 0.967454 0.643500
0.615477 0.967454 0.632500
0.604477 0.956454 0.665500
0.615477 0.956454 0.665500
0.626477 0.956454 0.643500
0.626477 0.967454 0.632500
0.637477 0.956454 0.643500
0.637477 0.967454 0.632500
0.626477 0.956454 0.665500
0.615477 0.945454 0.687500
0.604477 0.945454 0.698500
0.604477 0.945454 0.709500
0.615477 0.934454 0.709500
0.615477 0.945454 0.698500
0.604477 0.956454 0.676500
0.604477 0.956454 0.687500
0.615477 0.956454 0.676500
0.626477 0.945454 0.676500
0.626477 0.945454 0.687500
0.637477 0.945454 0.676500
0.637477 0.945454 0.687500
0.626477 0.934454 0.709500
0.626477 0.945454 0.698500
0.637477 0.934454 0.698500
0.637477 0.934454 0.709500
0.659477 0.945454 0.665500
0.648477 0.956454 0.632500
0.648477 0.956454 0.643500
0.659477 0.956454 0.632500
0.659477 0.956454 0.643500
0.648477 0.956454 0.665500
0.670477 0.945454 0.632500
0.670477 0.945454 0.643500
0.681477 0.945454 0.632500
0.681477 0.945454 0.643500
0.670477 0.945454 0.665500
0.681477 0.934454 0.665500
0.648477 0.934454 0.687500
0.648477 0.945454 0.676500
0.659477 0.934454 0.676500
0.659477 0.934454 0.687500
0.648477 0.934454 0.698500
0.648477 0.934454 0.709500
0.659477 0.934454 0.698500
0.670477 0.934454 0.687500
0.681477 0.934454 0.676500
0.549477 0.923454 0.753500
0.516477 0.901454 0.797500
0.527477 0.901454 0.797500
0.516477 0.912454 0.775500
0.516477 0.923454 0.764500
0.527477 0.912454 0.775500
0.527477 0.923454 0.764500
0.516477 0.912454 0.786500
0.527477 0.912454 0.786500
0.538477 0.901454 0.797500
0.549477 0.901454 0.786500
0.549477 0.901454 0.797500
0.538477 0.912454 0.775500
0.538477 0.923454 0.764500
0.549477 0.912454 0.775500
0.549477 0.923454 0.764500
0.538477 0.912454 0.786500
0.560477 0.923454 0.753500
0.571477 0.923454 0.753500
0.582477 0.923454 0.753500
0.593477 0.923454 0.742500
0.593477 0.923454 0.753500
0.560477 0.901454 0.786500
0.560477 0.901454 0.797500
0.571477 0.901454 0.786500
0.571477 0.901454 0.797500
0.560477 0.912454 0.775500
0.560477 0.923454 0.764500
0.571477 0.912454 0.764500
0.571477 0.912454 0.775500
0.593477 0.901454 0.775500
0.582477 0.890454 0.797500
0.582477 0.901454 0.786500
0.593477 0.890454 0.797500
0.593477 0.901454 0.786500
0.582477 0.912454 0.764500
0.582477 0.912454 0.775500
0.593477 0.912454 0.764500
0.516477 0.857454 0.841500
0.527477 0.857454 0.841500
0.516477 0.868454 0.841500
0.516477 0.879454 0.830500
0.527477 0.868454 0.841500
0.527477 0.879454 0.830500
0.538477 0.857454 0.841500
0.549477 0.857454 0.841500
0.538477 0.879454 0.819500
0.549477 0.879454 0.819500
0.538477 0.868454 0.841500
0.538477 0.879454 0.830500
0.549477 0.868454 0.841500
0.549477 0.879454 0.830500
0.516477 0.846454 0.852500
0.516477 0.846454 0.863500
0.527477 0.846454 0.852500
0.527477 0.846454 0.863500
0.538477 0.846454 0.852500
0.538477 0.846454 0.863500
0.549477 0.846454 0.852500
0.516477 0.890454 0.808500
0.516477 0.890454 0.819500
0.527477 0.890454 0.808500
0.527477 0.890454 0.819500
0.538477 0.890454 0.808500
0.549477 0.890454 0.808500
0.560477 0.857454 0.841500
0.571477 0.857454 0.841500
0.560477 0.879454 0.819500
0.571477 0.879454 0.819500
0.560477 0.868454 0.841500
0.560477 0.879454 0.830500
0.571477 0.868454 0.830500
0.571477 0.868454 0.841500
0.582477 0.846454 0.841500
0.582477 0.857454 0.841500
0.593477 0.846454 0.841500
0.593477 0.857454 0.841500
0.582477 0.879454 0.819500
0.593477 0.879454 0.808500
0.593477 0.879454 0.819500
0.582477 0.868454 0.830500
0.593477 0.868454 0.830500
0.560477 0.846454 0.852500
0.571477 0.846454 0.852500
0.582477 0.846454 0.852500
0.560477 0.890454 0.808500
0.571477 0.890454 0.808500
0.582477 0.890454 0.808500
0.516477 0.945454 0.720500
0.516477 0.945454 0.731500
0.527477 0.945454 0.720500
0.527477 0.945454 0.731500
0.516477 0.934454 0.742500
0.516477 0.934454 0.753500
0.527477 0.934454 0.742500
0.527477 0.934454 0.753500
0.538477 0.945454 0.720500
0.538477 0.945454 0.731500
0.549477 0.945454 0.720500
0.549477 0.945454 0.731500
0.538477 0.934454 0.742500
0.538477 0.934454 0.753500
0.549477 0.934454 0.742500
0.560477 0.934454 0.731500
0.560477 0.945454 0.720500
0.571477 0.934454 0.731500
0.571477 0.945454 0.720500
0.560477 0.934454 0.742500
0.571477 0.934454 0.742500
0.582477 0.934454 0.731500
0.582477 0.945454 0.720500
0.593477 0.934454 0.720500
0.593477 0.934454 0.731500
0.582477 0.934454 0.742500
0.626477 0.879454 0.797500
0.637477 0.879454 0.797500
0.615477 0.923454 0.731500
0.604477 0.912454 0.753500
0.604477 0.923454 0.742500
0.615477 0.912454 0.753500
0.615477 0.923454 0.742500
0.626477 0.923454 0.731500
0.637477 0.923454 0.720500
0.637477 0.923454 0.731500
0.626477 0.912454 0.753500
0.626477 0.923454 0.742500
0.637477 0.912454 0.742500
0.637477 0.912454 0.753500
0.604477 0.901454 0.775500
0.615477 0.901454 0.775500
0.604477 0.890454 0.797500
0.604477 0.901454 0.786500
0.615477 0.890454 0.786500
0.615477 0.890454 0.797500
0.604477 0.912454 0.764500
0.615477 0.912454 0.764500
0.626477 0.901454 0.764500
0.626477 0.901454 0.775500
0.637477 0.890454 0.775500
0.637477 0.901454 0.764500
0.626477 0.890454 0.786500
0.637477 0.890454 0.786500
0.648477 0.868454 0.797500
0.648477 0.879454 0.786500
0.659477 0.868454 0.797500
0.659477 0.879454 0.786500
0.681477 0.857454 0.797500
0.670477 0.879454 0.775500
0.681477 0.868454 0.775500
0.681477 0.879454 0.764500
0.681477 0.879454 0.775500
0.670477 0.868454 0.786500
0.670477 0.868454 0.797500
0.681477 0.868454 0.786500
0.648477 0.901454 0.753500
0.659477 0.901454 0.742500
0.659477 0.901454 0.753500
0.648477 0.923454 0.720500
0.648477 0.923454 0.731500
0.659477 0.912454 0.731500
0.659477 0.923454 0.720500
0.648477 0.912454 0.742500
0.681477 0.901454 0.731500
0.670477 0.890454 0.753500
0.670477 0.901454 0.742500
0.681477 0.890454 0.753500
0.681477 0.901454 0.742500
0.670477 0.912454 0.720500
0.670477 0.912454 0.731500
0.681477 0.912454 0.720500
0.648477 0.890454 0.775500
0.648477 0.901454 0.764500
0.659477 0.890454 0.764500
0.659477 0.890454 0.775500
0.670477 0.890454 0.764500
0.604477 0.846454 0.841500
0.604477 0.857454 0.841500
0.615477 0.846454 0.841500
0.615477 0.857454 0.830500
0.615477 0.857454 0.841500
0.604477 0.868454 0.819500
0.604477 0.879454 0.808500
0.615477 0.868454 0.819500
0.615477 0.879454 0.808500
0.604477 0.868454 0.830500
0.637477 0.857454 0.819500
0.626477 0.846454 0.841500
0.626477 0.857454 0.830500
0.637477 0.846454 0.830500
0.637477 0.846454 0.841500
0.637477 0.857454 0.830500
0.626477 0.868454 0.808500
0.626477 0.868454 0.819500
0.637477 0.868454 0.808500
0.648477 0.857454 0.819500
0.659477 0.846454 0.819500
0.659477 0.857454 0.808500
0.659477 0.857454 0.819500
0.648477 0.846454 0.830500
0.659477 0.846454 0.830500
0.648477 0.868454 0.808500
0.670477 0.846454 0.819500
0.670477 0.857454 0.808500
0.681477 0.846454 0.808500
0.681477 0.846454 0.819500
0.604477 0.934454 0.720500
0.604477 0.934454 0.731500
0.615477 0.934454 0.720500
0.626477 0.934454 0.720500
0.857477 0.835454 0.577500
0.857477 0.835454 0.588500
0.857477 0.835454 0.599500
0.846477 0.835454 0.621500
0.857477 0.824454 0.621500
0.857477 0.835454 0.610500
0.857477 0.835454 0.621500
0.802477 0.835454 0.709500
0.813477 0.824454 0.709500
0.813477 0.835454 0.698500
0.857477 0.769454 0.709500
0.846477 0.791454 0.698500
0.846477 0.791454 0.709500
0.857477 0.780454 0.709500
0.857477 0.791454 0.698500
0.835477 0.835454 0.643500
0.824477 0.835454 0.665500
0.835477 0.835454 0.665500
0.857477 0.813454 0.632500
0.857477 0.813454 0.643500
0.857477 0.802454 0.665500
0.857477 0.813454 0.665500
0.846477 0.824454 0.643500
0.846477 0.835454 0.632500
0.857477 0.824454 0.632500
0.846477 0.824454 0.665500
0.835477 0.813454 0.687500
0.824477 0.813454 0.709500
0.835477 0.802454 0.709500
0.835477 0.813454 0.698500
0.835477 0.813454 0.709500
0.824477 0.835454 0.676500
0.824477 0.835454 0.687500
0.835477 0.824454 0.676500
0.835477 0.824454 0.687500
0.824477 0.824454 0.698500
0.824477 0.835454 0.698500
0.846477 0.802454 0.687500
0.846477 0.813454 0.676500
0.857477 0.802454 0.676500
0.857477 0.802454 0.687500
0.846477 0.802454 0.698500
0.846477 0.824454 0.676500
0.692477 0.747454 0.885500
0.703477 0.736454 0.885500
0.703477 0.747454 0.885500
0.714477 0.725454 0.885500
0.725477 0.714454 0.885500
0.714477 0.736454 0.885500
0.714477 0.747454 0.874500
0.714477 0.747454 0.885500
0.725477 0.736454 0.885500
0.725477 0.747454 0.874500
0.736477 0.703454 0.885500
0.747477 0.692454 0.885500
0.747477 0.703454 0.885500
0.758477 0.681454 0.885500
0.769477 0.670454 0.885500
0.769477 0.681454 0.885500
0.769477 0.703454 0.863500
0.758477 0.692454 0.885500
0.758477 0.703454 0.874500
0.758477 0.703454 0.885500
0.769477 0.692454 0.874500
0.769477 0.703454 0.874500
0.758477 0.747454 0.841500
0.769477 0.736454 0.841500
0.769477 0.747454 0.841500
0.736477 0.725454 0.885500
0.747477 0.714454 0.885500
0.747477 0.725454 0.874500
0.736477 0.747454 0.863500
0.747477 0.736454 0.863500
0.747477 0.747454 0.852500
0.736477 0.736454 0.874500
0.758477 0.725454 0.863500
0.769477 0.714454 0.863500
0.769477 0.725454 0.852500
0.758477 0.714454 0.874500
0.758477 0.736454 0.852500
0.714477 0.835454 0.797500
0.725477 0.835454 0.786500
0.725477 0.835454 0.797500
0.769477 0.791454 0.797500
0.769477 0.835454 0.753500
0.747477 0.813454 0.797500
0.736477 0.835454 0.775500
0.747477 0.835454 0.775500
0.736477 0.824454 0.797500
0.736477 0.835454 0.786500
0.747477 0.824454 0.786500
0.769477 0.813454 0.775500
0.758477 0.813454 0.786500
0.758477 0.813454 0.797500
0.769477 0.802454 0.797500
0.769477 0.813454 0.786500
0.758477 0.824454 0.775500
0.758477 0.835454 0.764500
0.769477 0.824454 0.764500
0.769477 0.824454 0.775500
0.758477 0.824454 0.786500
0.703477 0.791454 0.841500
0.714477 0.791454 0.841500
0.725477 0.780454 0.841500
0.725477 0.791454 0.841500
0.703477 0.769454 0.863500
0.692477 0.758454 0.885500
0.692477 0.769454 0.874500
0.692477 0.769454 0.885500
0.703477 0.758454 0.874500
0.703477 0.758454 0.885500
0.703477 0.769454 0.874500
0.692477 0.780454 0.863500
0.692477 0.791454 0.852500
0.703477 0.780454 0.863500
0.703477 0.791454 0.852500
0.714477 0.758454 0.863500
0.714477 0.769454 0.863500
0.725477 0.758454 0.863500
0.725477 0.769454 0.852500
0.714477 0.758454 0.874500
0.714477 0.780454 0.852500
0.692477 0.802454 0.841500
0.692477 0.813454 0.841500
0.703477 0.802454 0.841500
0.692477 0.835454 0.819500
0.703477 0.824454 0.819500
0.703477 0.835454 0.808500
0.703477 0.835454 0.819500
0.692477 0.824454 0.830500
0.703477 0.824454 0.830500
0.725477 0.813454 0.819500
0.714477 0.802454 0.841500
0.714477 0.813454 0.830500
0.725477 0.802454 0.830500
0.714477 0.824454 0.808500
0.714477 0.824454 0.819500
0.714477 0.835454 0.808500
0.725477 0.824454 0.808500
0.692477 0.802454 0.852500
0.736477 0.769454 0.841500
0.747477 0.758454 0.841500
0.747477 0.769454 0.841500
0.736477 0.780454 0.841500
0.736477 0.791454 0.830500
0.747477 0.780454 0.830500
