ply
format ascii 1.0
element vertex 1772
property float x
property float y
property float z
end_header
0.571596 0.006063 0.447089
0.569605 0.003909 0.459498
0.570646 0.007330 0.474123
0.568784 0.007427 0.486862
0.572495 -0.000535 0.498335
0.574273 0.003386 0.512731
0.568549 0.006733 0.524082
0.567323 0.010176 0.531821
0.568791 0.005869 0.547604
0.570234 0.008557 0.561705
0.568577 0.008895 0.573960
0.566662 0.012592 0.583607
0.569726 0.016358 0.599288
0.568872 0.018401 0.612414
0.568530 0.020382 0.625457
0.568303 0.024215 0.635737
0.566655 0.026573 0.649132
0.565132 0.030485 0.659265
0.566061 0.036076 0.673048
0.566584 0.039598 0.685331
0.564103 0.044233 0.698001
0.561387 0.052171 0.707627
0.560378 0.057932 0.716811
0.561436 0.061934 0.736699
0.560433 0.067753 0.742700
0.563502 0.074620 0.752293
0.557449 0.081967 0.767615
0.561384 0.087163 0.777553
0.559095 0.092999 0.782732
0.556159 0.099058 0.794210
0.558399 0.109115 0.805081
0.556186 0.118223 0.816928
0.552475 0.126163 0.827814
0.553320 0.129254 0.834293
0.550360 0.138204 0.847237
0.550840 0.152613 0.855221
0.549410 0.155944 0.858972
0.547100 0.166812 0.871634
0.545477 0.177775 0.880667
0.544817 0.189084 0.890656
0.542253 0.199208 0.898872
0.540087 0.208057 0.907769
0.537035 0.219304 0.913332
0.535211 0.229106 0.924173
0.534120 0.239619 0.924732
0.534723 0.248500 0.932916
0.531754 0.262846 0.939454
0.533090 0.275276 0.947558
0.528612 0.285506 0.952234
0.530454 0.298350 0.959402
0.525687 0.308126 0.961516
0.526527 0.322693 0.965046
0.524591 0.335090 0.970910
0.523405 0.344885 0.974155
0.521439 0.360029 0.978068
0.517534 0.372783 0.978823
0.515716 0.379364 0.984416
0.517864 0.394014 0.983883
0.511760 0.406153 0.989215
0.513458 0.419547 0.990021
0.512676 0.428144 0.994437
0.504067 0.444001 0.995770
0.505822 0.454203 0.999432
0.507099 0.470333 0.999826
0.499560 0.479472 0.999265
0.501443 0.493639 0.998354
0.498562 0.504039 0.001974
0.505363 0.488983 -0.001613
0.504467 0.473938 -0.000522
0.502515 0.457104 0.005627
0.503960 0.448387 0.001642
0.503476 0.436509 0.006112
0.505828 0.422102 0.008737
0.512031 0.413811 0.010196
0.512166 0.399344 0.010987
0.517122 0.385399 0.015239
0.515194 0.374722 0.015475
0.516211 0.365279 0.021976
0.517790 0.351899 0.027925
0.522035 0.336096 0.031266
0.519200 0.325134 0.030512
0.518583 0.318117 0.038245
0.525076 0.303271 0.045103
0.527459 0.288187 0.045878
0.529825 0.278199 0.057819
0.526680 0.267944 0.061283
0.530912 0.257833 0.065796
0.530395 0.243405 0.070928
0.532041 0.233833 0.076177
0.533594 0.221682 0.085271
0.531934 0.215735 0.093416
0.533017 0.200332 0.100292
0.534113 0.195025 0.113863
0.537997 0.186477 0.116936
0.530886 0.171375 0.127580
0.540685 0.162185 0.129481
0.538810 0.152208 0.140706
0.538977 0.146515 0.149173
0.540702 0.134959 0.156706
0.545318 0.130284 0.169278
0.544503 0.120484 0.177567
0.545900 0.114180 0.186530
0.547658 0.103045 0.200520
0.546303 0.097126 0.209623
0.548350 0.090909 0.221794
0.546900 0.082892 0.233412
0.548184 0.074094 0.242371
0.549792 0.068512 0.250049
0.550344 0.059217 0.262356
0.551076 0.058791 0.274740
0.553645 0.053830 0.287327
0.552830 0.048589 0.298643
0.551093 0.037246 0.310917
0.555572 0.035659 0.319618
0.555473 0.032447 0.331879
0.555118 0.025676 0.344766
0.555093 0.023857 0.357035
0.557977 0.022185 0.372077
0.549983 0.017077 0.381455
0.560741 0.012313 0.393775
0.555925 0.011430 0.407210
0.558005 0.008408 0.419741
0.552625 0.006845 0.432620
0.558750 0.007321 0.442811
0.560677 0.006931 0.458911
0.555582 0.006637 0.471270
0.559434 0.004081 0.483449
0.557763 0.003295 0.496395
0.555931 0.006185 0.511681
0.557912 0.002706 0.519256
0.556209 0.004398 0.530675
0.555732 0.005829 0.551944
0.556935 0.009114 0.561516
0.559537 0.007992 0.572668
0.559949 0.013081 0.583266
0.553873 0.014723 0.593219
0.554274 0.018841 0.610277
0.554961 0.020302 0.622473
0.555462 0.021303 0.634377
0.556570 0.022445 0.649798
0.553884 0.026931 0.661829
0.554118 0.034262 0.671177
0.556041 0.036553 0.684893
0.553581 0.043072 0.695665
0.556099 0.049475 0.704796
0.554657 0.054263 0.718657
0.551622 0.060329 0.731068
0.551624 0.066355 0.742455
0.549162 0.071604 0.755681
0.550471 0.079540 0.765555
0.548678 0.085892 0.772083
0.549095 0.091194 0.784915
0.544107 0.101173 0.799556
0.545337 0.109483 0.807167
0.544314 0.119003 0.816268
0.544791 0.125280 0.827779
0.546350 0.132514 0.836274
0.540467 0.137859 0.844734
0.537316 0.149309 0.854731
0.537634 0.162075 0.863525
0.541202 0.167147 0.871144
0.536852 0.175989 0.882585
0.537660 0.190949 0.890929
0.533462 0.200317 0.898756
0.534215 0.204420 0.903740
0.533665 0.219637 0.911832
0.531552 0.227418 0.922261
0.528996 0.240368 0.927163
0.528335 0.249918 0.932085
0.527135 0.263254 0.939085
0.523369 0.275772 0.947089
0.525701 0.287152 0.950808
0.519922 0.297073 0.953425
0.519303 0.308749 0.960305
0.521567 0.316200 0.964362
0.518995 0.331313 0.970895
0.513968 0.342323 0.977959
0.518376 0.352253 0.979863
0.512348 0.367473 0.979586
0.516266 0.382956 0.985154
0.510487 0.396395 0.987728
0.512690 0.401455 0.990624
0.509100 0.417316 0.993505
0.505382 0.432332 0.995680
0.503301 0.442457 0.998720
0.502416 0.458178 0.997217
0.505751 0.466542 0.998788
0.502862 0.484820 0.997198
0.502877 0.492973 1.002387
0.497075 0.500593 -0.000141
0.504335 0.485437 -0.000429
0.501731 0.473371 0.000073
0.502767 0.458571 -0.003549
0.505365 0.451260 0.003736
0.505555 0.431646 0.002629
0.502088 0.424994 0.006105
0.507565 0.408716 0.012974
0.512625 0.398268 0.011103
0.511187 0.386580 0.012366
0.509605 0.373434 0.015335
0.511602 0.361498 0.015895
0.513924 0.347045 0.026405
0.513880 0.336921 0.025589
0.515897 0.321562 0.029812
0.516483 0.314272 0.038655
0.517674 0.297204 0.041786
0.517113 0.290976 0.043756
0.519338 0.280464 0.053024
0.521317 0.265907 0.056419
0.522156 0.251881 0.061272
0.519934 0.243723 0.070649
0.520501 0.234841 0.082036
0.522225 0.221553 0.084491
0.523917 0.214163 0.093896
0.527037 0.204020 0.100511
0.526042 0.194022 0.107720
0.528302 0.177731 0.117234
0.533371 0.171990 0.121093
0.528702 0.163708 0.130977
0.531643 0.154638 0.141203
0.529681 0.145544 0.150688
0.531762 0.136691 0.160009
0.529925 0.124068 0.166345
0.534031 0.116147 0.174979
0.536234 0.114041 0.188461
0.533738 0.099496 0.199111
0.538749 0.094597 0.211188
0.537563 0.088627 0.218422
0.539446 0.078583 0.232435
0.536543 0.073829 0.240803
0.537940 0.066540 0.251551
0.538265 0.062206 0.265878
0.542014 0.056426 0.276822
0.538814 0.046797 0.282419
0.540208 0.041968 0.297392
0.541401 0.041747 0.307565
0.542607 0.035461 0.319125
0.543716 0.035124 0.331654
0.545429 0.029112 0.345518
0.543344 0.021602 0.359089
0.539708 0.022035 0.372051
0.545091 0.017263 0.380041
0.544618 0.015540 0.398321
0.545715 0.007653 0.408807
0.546821 0.005674 0.423896
0.543649 0.007004 0.435034
0.545032 0.002542 0.444151
0.542376 0.004509 0.459491
0.542848 0.003340 0.469209
0.544473 0.000262 0.486287
0.545837 -0.000793 0.499156
0.542949 0.002946 0.507550
0.547417 0.005658 0.522357
0.544202 0.001708 0.533830
0.544492 0.004655 0.546598
0.543694 0.007435 0.558199
0.543521 0.004708 0.572258
0.543076 0.006988 0.587251
0.544052 0.011893 0.598808
0.547167 0.009865 0.609834
0.544591 0.018960 0.624272
0.543942 0.020424 0.637996
0.539669 0.026323 0.646298
0.541552 0.026714 0.662734
0.541224 0.031973 0.672468
0.540441 0.037088 0.686980
0.541238 0.046351 0.699694
0.541763 0.046882 0.705833
0.539380 0.053402 0.718909
0.539286 0.056923 0.729119
0.539171 0.063657 0.746783
0.535589 0.072189 0.754727
0.537061 0.081879 0.765947
0.537828 0.085669 0.774909
0.541743 0.091531 0.785310
0.537127 0.097844 0.797557
0.533645 0.106863 0.808797
0.532923 0.114889 0.815717
0.531615 0.125604 0.825772
0.532368 0.131829 0.837762
0.531391 0.139350 0.843582
0.531779 0.149464 0.855024
0.530638 0.158891 0.862157
0.526714 0.167539 0.874102
0.527027 0.176953 0.883150
0.530685 0.187570 0.885054
0.528554 0.196337 0.893705
0.529086 0.206184 0.903120
0.524575 0.215047 0.911953
0.524763 0.228421 0.919537
0.522749 0.235716 0.924606
0.523191 0.253935 0.931859
0.518040 0.259107 0.940551
0.521213 0.273945 0.945436
0.519708 0.285536 0.950915
0.519329 0.292244 0.959030
0.519530 0.305538 0.958490
0.517169 0.321430 0.963900
0.516900 0.331389 0.971989
0.514474 0.343674 0.975535
0.514431 0.358059 0.982693
0.515252 0.362589 0.979904
0.510740 0.379490 0.988086
0.511954 0.391504 0.992108
0.506012 0.406026 0.989957
0.509887 0.419868 0.993053
0.506682 0.430448 0.994735
0.503212 0.444087 0.995135
0.503171 0.455758 1.000168
0.506794 0.469153 1.000850
0.497222 0.478852 0.996946
0.501676 0.493314 1.001074
0.495344 0.498002 0.001632
0.500395 0.485067 0.001158
0.500530 0.474112 -0.000015
0.499855 0.458634 -0.002961
0.499653 0.453795 0.002039
0.503045 0.435565 0.001044
0.504353 0.425897 0.005414
0.507174 0.411515 0.009238
0.508687 0.398910 0.008669
0.506992 0.388703 0.013903
0.510237 0.373915 0.020367
0.506724 0.363760 0.014781
0.508692 0.352202 0.021602
0.512093 0.336931 0.026067
0.510322 0.322470 0.031271
0.511837 0.313894 0.040434
0.511760 0.297787 0.037360
0.514902 0.292614 0.044750
0.506903 0.273808 0.053842
0.508404 0.267684 0.060190
0.516757 0.257004 0.064559
0.519267 0.246436 0.067713
0.516403 0.234169 0.078468
0.515030 0.227754 0.085203
0.516220 0.209667 0.094049
0.520881 0.198111 0.096685
0.521418 0.186274 0.110393
0.518799 0.182926 0.119147
0.521495 0.170506 0.124063
0.520782 0.162251 0.133065
0.524571 0.153068 0.139955
0.523915 0.144021 0.150266
0.521474 0.133364 0.160473
0.526797 0.127162 0.168626
0.526151 0.118794 0.178433
0.526853 0.110561 0.187242
0.524544 0.099584 0.197113
0.520616 0.096334 0.207482
0.525822 0.085269 0.218531
0.524487 0.081107 0.231007
0.525621 0.075590 0.243952
0.530532 0.065784 0.252507
0.526651 0.062713 0.264030
0.527878 0.050813 0.273050
0.525169 0.050285 0.289238
0.527196 0.043611 0.297353
0.529703 0.038411 0.310160
0.527163 0.032747 0.322985
0.527704 0.025567 0.334091
0.531592 0.027648 0.345160
0.528915 0.021949 0.359175
0.529665 0.014935 0.369894
0.530445 0.015091 0.381324
0.530970 0.011580 0.393816
0.536182 0.013641 0.407689
0.530276 0.008810 0.421775
0.535679 0.006208 0.433277
0.533030 0.002091 0.445247
0.531816 0.003609 0.458545
0.530674 0.003599 0.473233
0.532863 -0.001012 0.482931
0.531866 0.001302 0.496234
0.527643 -0.000855 0.508388
0.531703 -0.001325 0.523904
0.529322 0.003433 0.533149
0.529964 0.004592 0.545564
0.531974 0.005319 0.561775
0.527836 0.007733 0.571445
0.532361 0.008380 0.588476
0.530249 0.009936 0.598886
0.529857 0.017556 0.609365
0.527775 0.016261 0.626196
0.530293 0.018646 0.633743
0.529403 0.024156 0.650365
0.529018 0.024628 0.662274
0.532777 0.032811 0.673390
0.531123 0.038869 0.681857
0.527951 0.039902 0.695215
0.530690 0.049630 0.711549
0.527986 0.054182 0.720346
0.528201 0.059108 0.729632
0.529485 0.064237 0.740934
0.529731 0.069602 0.753912
0.529015 0.078492 0.764374
0.523736 0.084458 0.776020
0.525596 0.092818 0.788126
0.525366 0.099821 0.797906
0.525577 0.105944 0.806311
0.524639 0.113738 0.819575
0.528263 0.120792 0.825919
0.524730 0.128119 0.837449
0.521648 0.138162 0.844870
0.522296 0.150279 0.853094
0.520501 0.158395 0.861732
0.520056 0.168988 0.874572
0.520429 0.176668 0.881816
0.520619 0.188001 0.890080
0.520247 0.198539 0.897553
0.519715 0.210044 0.902626
0.514341 0.214825 0.912389
0.516702 0.229238 0.918928
0.521900 0.237696 0.929044
0.517021 0.251903 0.932808
0.513759 0.258849 0.938422
0.513588 0.276346 0.944889
0.514640 0.285712 0.954433
0.512509 0.291996 0.954369
0.514096 0.307364 0.962099
0.512141 0.319936 0.965480
0.507900 0.331556 0.970189
0.508125 0.339493 0.977722
0.508385 0.354588 0.978277
0.509037 0.367080 0.984150
0.507468 0.383427 0.983668
0.504595 0.392293 0.988170
0.504375 0.407596 0.989301
0.502534 0.415410 0.995493
0.502486 0.429916 0.996900
0.502777 0.442235 0.995302
0.503856 0.456492 0.997555
0.500725 0.471768 1.000402
0.501209 0.477577 0.999353
0.499756 0.494684 0.999568
0.500234 0.499907 -0.001366
0.502066 0.484400 -0.002292
0.500249 0.474619 0.001748
0.503203 0.463924 -0.001048
0.502130 0.448893 0.002248
0.499939 0.433218 0.005200
0.504029 0.419504 0.006727
0.503151 0.411044 0.005953
0.502607 0.394530 0.008657
0.505457 0.383226 0.011184
0.504980 0.371413 0.015030
0.505955 0.360723 0.022472
0.507231 0.347052 0.024742
0.501904 0.339274 0.026610
0.506550 0.325030 0.031593
0.504749 0.308802 0.034215
0.510858 0.299360 0.043313
0.508618 0.289990 0.044359
0.511156 0.277053 0.053723
0.508154 0.264273 0.056997
0.508739 0.253276 0.063544
0.511491 0.242955 0.067785
0.505638 0.233390 0.079795
0.512597 0.224858 0.081348
0.509290 0.213283 0.091187
0.511631 0.202185 0.096359
0.514246 0.193542 0.109746
0.513473 0.178630 0.113550
0.514578 0.167457 0.123126
0.514960 0.161530 0.133359
0.515099 0.150939 0.138344
0.513371 0.143194 0.148883
0.514357 0.136150 0.157277
0.514153 0.126666 0.169250
0.512739 0.120718 0.177612
0.515426 0.108972 0.186971
0.516409 0.099267 0.199915
0.516457 0.091534 0.205506
0.514309 0.087396 0.216261
0.517466 0.081950 0.231053
0.516320 0.070105 0.241171
0.513735 0.067982 0.251068
0.520715 0.058768 0.264561
0.520399 0.050986 0.272570
0.519463 0.048245 0.286087
0.516154 0.044835 0.300461
0.516050 0.038592 0.308585
0.518902 0.032381 0.323407
0.519224 0.028017 0.334998
0.518468 0.026206 0.346949
0.518432 0.020929 0.358759
0.518324 0.016485 0.368756
0.513878 0.014852 0.379921
0.513762 0.014514 0.396453
0.520505 0.008347 0.409157
0.516949 0.008335 0.422114
0.518756 0.005272 0.435374
0.516872 0.003072 0.446757
0.515880 0.004937 0.458424
0.517789 0.002121 0.470962
0.515058 0.001565 0.482715
0.520279 -0.002057 0.494693
0.517485 -0.000266 0.509531
0.514924 0.000191 0.522818
0.519359 0.000026 0.537579
0.521262 0.003229 0.550366
0.517045 0.002670 0.564152
0.518314 0.006688 0.573358
0.519260 0.005210 0.588164
0.519602 0.014846 0.597165
0.520149 0.013712 0.610374
0.515920 0.016025 0.623422
0.518132 0.018341 0.638445
0.517749 0.021444 0.648045
0.518596 0.028557 0.661879
0.521335 0.031362 0.672536
0.517939 0.034665 0.684220
0.520648 0.039547 0.695775
0.518411 0.046032 0.708026
0.517695 0.050441 0.719126
0.515433 0.056738 0.731385
0.519446 0.063325 0.741273
0.516585 0.066183 0.750340
0.522214 0.076375 0.768260
0.514427 0.083694 0.774433
0.513737 0.091681 0.788131
0.512388 0.099272 0.792793
0.514617 0.105693 0.808005
0.514191 0.112238 0.815546
0.512100 0.123250 0.827840
0.513415 0.130999 0.840595
0.510916 0.137500 0.846292
0.512381 0.147365 0.853354
0.514300 0.158044 0.864604
0.511593 0.169982 0.875104
0.514112 0.179066 0.885212
0.509685 0.187461 0.890093
0.510187 0.197086 0.897821
0.511126 0.206794 0.906896
0.508274 0.216976 0.913770
0.509969 0.225512 0.917442
0.508931 0.238085 0.925996
0.507456 0.246938 0.931936
0.513960 0.258483 0.936100
0.510715 0.270440 0.947492
0.508275 0.286647 0.950865
0.509113 0.298167 0.959989
0.510585 0.305496 0.961352
0.507446 0.315314 0.963310
0.507856 0.326045 0.970242
0.505752 0.343701 0.973143
0.507746 0.355266 0.978032
0.507908 0.367991 0.980932
0.506679 0.379180 0.981518
0.503676 0.391204 0.990544
0.503183 0.401178 0.989500
0.502239 0.416281 0.994067
0.503954 0.429256 0.995722
0.502555 0.438728 0.998697
0.504863 0.454551 0.998804
0.505261 0.468130 0.998787
0.505090 0.477087 0.997355
0.500297 0.493582 1.003768
0.499933 0.503264 0.003361
0.499069 0.492268 0.000712
0.501705 0.476002 0.002226
0.500828 0.463217 0.000376
0.501302 0.450729 0.003458
0.501143 0.434517 0.000064
0.499847 0.422109 0.005834
0.504853 0.410516 0.009781
0.503707 0.398655 0.012633
0.495834 0.387282 0.012066
0.504662 0.372394 0.016097
0.500002 0.360464 0.021919
0.500219 0.348056 0.025522
0.500734 0.334682 0.026250
0.502433 0.327942 0.034784
0.503448 0.309331 0.036244
0.500190 0.301603 0.038841
0.502454 0.290360 0.046262
0.502219 0.275506 0.052978
0.497453 0.264560 0.057877
0.503461 0.256306 0.065298
0.507295 0.244351 0.070644
0.504341 0.230276 0.079102
0.504371 0.224187 0.083409
0.501555 0.211266 0.094429
0.504999 0.200653 0.101406
0.503590 0.184095 0.105235
0.502917 0.181544 0.117114
0.502384 0.172754 0.123978
0.508233 0.162229 0.132805
0.506584 0.154396 0.142956
0.504745 0.143246 0.148980
0.504946 0.128696 0.159836
0.506052 0.125403 0.169591
0.502238 0.117532 0.179702
0.503629 0.111229 0.188003
0.505866 0.101917 0.199824
0.501721 0.095896 0.212059
0.508881 0.085033 0.220768
0.506963 0.079403 0.231660
0.506376 0.074946 0.239991
0.506896 0.066233 0.248627
0.505833 0.061991 0.265178
0.503300 0.055582 0.274734
0.507317 0.051253 0.284697
0.506449 0.042870 0.297753
0.505395 0.039410 0.312795
0.506600 0.032672 0.322509
0.508276 0.023894 0.334953
0.502217 0.021506 0.345722
0.505531 0.021769 0.356278
0.508679 0.019801 0.372695
0.509492 0.015804 0.382618
0.507066 0.011046 0.393778
0.504539 0.007192 0.408003
0.505516 0.010332 0.421933
0.505342 0.002902 0.430062
0.505882 -0.000789 0.446579
0.504746 -0.000986 0.454957
0.504395 0.001127 0.471133
0.505289 0.000768 0.482067
0.505135 -0.001243 0.496586
0.506167 -0.000392 0.508955
0.508142 0.002639 0.521361
0.505902 0.001958 0.538348
0.507815 0.005034 0.545822
0.507001 0.004783 0.562633
0.504215 0.002512 0.569663
0.510214 0.005016 0.586062
0.505401 0.008723 0.599034
0.508071 0.011265 0.612732
0.505886 0.011575 0.622447
0.504722 0.017244 0.636005
0.501888 0.021077 0.648739
0.503728 0.026581 0.660289
0.504406 0.031538 0.674214
0.505358 0.034353 0.686621
0.505320 0.039155 0.697516
0.508070 0.048803 0.711451
0.505514 0.053195 0.721230
0.502728 0.055403 0.730497
0.506242 0.063072 0.740614
0.502254 0.069728 0.752745
0.507798 0.073710 0.764678
0.505314 0.081617 0.773331
0.502491 0.088532 0.785088
0.507865 0.099054 0.796905
0.505305 0.108374 0.807558
0.506154 0.112042 0.820946
0.505950 0.119861 0.825024
0.505344 0.128280 0.836314
0.506577 0.139087 0.847009
0.502023 0.148181 0.853633
0.503351 0.156831 0.863565
0.502205 0.167582 0.873829
0.501376 0.173484 0.881818
0.500612 0.186332 0.889018
0.501924 0.194820 0.893428
0.502644 0.209251 0.907936
0.502138 0.216784 0.913710
0.503616 0.228313 0.921148
0.503672 0.240765 0.924694
0.504184 0.245720 0.929570
0.506360 0.264063 0.940419
0.500869 0.271838 0.947824
0.502876 0.284656 0.951675
0.504356 0.294048 0.957660
0.502340 0.307635 0.961367
0.499868 0.319118 0.966377
0.500889 0.332384 0.970736
0.501876 0.340497 0.976819
0.502606 0.353145 0.978072
0.504085 0.369329 0.982571
0.503957 0.381398 0.988285
0.503550 0.391825 0.989196
0.501346 0.404202 0.987503
0.501917 0.418528 0.994125
0.500425 0.430866 0.994366
0.504217 0.442877 0.997482
0.502587 0.454010 0.998332
0.501325 0.468089 0.998253
0.497451 0.485678 1.002030
0.499758 0.494366 1.002685
0.500544 0.499451 -0.003822
0.498695 0.489569 -0.002175
0.496889 0.475556 -0.001316
0.498136 0.464962 0.001574
0.500649 0.447154 0.005009
0.498298 0.435583 0.005689
0.495598 0.421771 0.005541
0.498379 0.409954 0.007205
0.498527 0.398713 0.012156
0.499975 0.383112 0.009282
0.502870 0.370294 0.016730
0.496176 0.358109 0.017643
0.498475 0.350217 0.021508
0.495618 0.339397 0.028991
0.496625 0.324562 0.033319
0.495200 0.314983 0.034617
0.499910 0.299863 0.045171
0.494059 0.289888 0.048115
0.496860 0.277947 0.052274
0.496209 0.266453 0.055513
0.498140 0.256265 0.063968
0.498222 0.246782 0.070809
0.494302 0.234085 0.077494
0.492093 0.224828 0.088151
0.495747 0.213554 0.090002
0.499369 0.198543 0.101229
0.495675 0.190518 0.106394
0.495484 0.182358 0.117933
0.495707 0.174051 0.124731
0.498115 0.161184 0.132381
0.496112 0.154261 0.138509
0.498061 0.144106 0.151503
0.495566 0.135486 0.162859
0.496165 0.122148 0.166582
0.494140 0.118370 0.177262
0.489327 0.111087 0.186675
0.493481 0.100385 0.198978
0.492709 0.098403 0.213701
0.493108 0.089198 0.219300
0.493144 0.078085 0.231038
0.488135 0.070617 0.240544
0.495020 0.065734 0.251681
0.496896 0.058528 0.265844
0.497729 0.052850 0.276103
0.493327 0.046046 0.286654
0.492060 0.045651 0.298078
0.492406 0.037012 0.308074
0.493398 0.031007 0.320959
0.495930 0.027108 0.336766
0.493834 0.024908 0.343874
0.496603 0.022777 0.354751
0.492631 0.016441 0.369785
0.492890 0.014570 0.382801
0.492419 0.010833 0.395380
0.492815 0.011089 0.404985
0.492797 0.004117 0.419755
0.492567 0.004447 0.434742
0.492241 0.004616 0.448173
0.494991 0.001211 0.455808
0.490514 0.002821 0.472070
0.492585 0.001003 0.480729
0.489556 0.001230 0.495952
0.489699 0.000634 0.506074
0.489507 0.001002 0.519640
0.492375 0.001382 0.537238
0.492346 0.003757 0.548217
0.493543 0.002963 0.556154
0.493690 0.006378 0.572652
0.491123 0.008658 0.584750
0.491526 0.008085 0.602431
0.493918 0.011929 0.611699
0.487766 0.015603 0.624189
0.493623 0.015860 0.634977
0.495133 0.024898 0.647769
0.492899 0.025069 0.664780
0.491378 0.032466 0.672061
0.492518 0.037852 0.683351
0.495995 0.036826 0.695452
0.490106 0.046895 0.706073
0.496550 0.049333 0.722022
0.496678 0.055572 0.731877
0.496318 0.059958 0.744784
0.496102 0.073035 0.756447
0.494662 0.074390 0.764730
0.496789 0.083980 0.771860
0.495655 0.091837 0.787852
0.496131 0.096064 0.796881
0.494370 0.107111 0.808491
0.495104 0.112809 0.816380
0.494831 0.120014 0.824663
0.493196 0.129692 0.837975
0.496263 0.140777 0.843913
0.494676 0.149462 0.850797
0.492970 0.162299 0.864016
0.493690 0.168245 0.874278
0.495825 0.177885 0.881977
0.494400 0.187091 0.891445
0.496141 0.194011 0.898513
0.494433 0.207615 0.904561
0.497129 0.215460 0.914043
0.496549 0.225269 0.919410
0.495336 0.237716 0.926351
0.492383 0.246268 0.932592
0.494814 0.261550 0.938991
0.498405 0.271224 0.945181
0.495541 0.284692 0.953164
0.496521 0.290276 0.953330
0.497741 0.306845 0.962926
0.498040 0.317569 0.964788
0.497740 0.330329 0.971200
0.499664 0.342140 0.975734
0.495959 0.354558 0.977072
0.498435 0.366024 0.982507
0.499401 0.380823 0.987904
0.498157 0.391524 0.988050
0.499981 0.403656 0.989689
0.496654 0.415404 0.993259
0.496622 0.429980 0.995559
0.500232 0.446673 0.996797
0.500809 0.457974 0.997731
0.495536 0.467772 0.999291
0.501556 0.481261 0.997552
0.502658 0.496781 1.003253
0.498155 0.502356 -0.001529
0.499439 0.488252 -0.000495
0.500436 0.477254 0.004060
0.499086 0.462097 -0.001069
0.499333 0.448139 0.006823
0.495257 0.437871 0.004920
0.494291 0.422143 0.006274
0.492247 0.411805 0.006889
0.494093 0.394715 0.010722
0.495638 0.387958 0.013751
0.496585 0.372867 0.018249
0.493987 0.363183 0.017888
0.495668 0.346391 0.025950
0.492650 0.331944 0.030262
0.494289 0.324861 0.031277
0.492832 0.313800 0.034754
0.492428 0.298788 0.045856
0.491325 0.288286 0.044760
0.489177 0.274571 0.054789
0.486437 0.263686 0.058726
0.492115 0.256582 0.067652
0.488602 0.243855 0.072958
0.490083 0.231133 0.078018
0.490841 0.221584 0.083182
0.488393 0.213409 0.093379
0.487818 0.202798 0.102095
0.486802 0.190380 0.105822
0.490110 0.176247 0.113305
0.487305 0.172146 0.122542
0.484028 0.159882 0.128770
0.488831 0.154841 0.144665
0.481980 0.143824 0.151771
0.483801 0.135671 0.155872
0.483844 0.126180 0.170496
0.486429 0.119209 0.178322
0.489120 0.109804 0.187751
0.485149 0.103434 0.202192
0.484667 0.098345 0.208768
0.482788 0.085548 0.217218
0.484684 0.079141 0.227820
0.480445 0.071104 0.241000
0.483134 0.064101 0.251502
0.483143 0.060179 0.265662
0.485598 0.050191 0.277020
0.485290 0.050367 0.284302
0.482735 0.043939 0.297625
0.479485 0.039922 0.309261
0.482094 0.033167 0.321009
0.479754 0.028152 0.332010
0.480091 0.020963 0.345792
0.484511 0.022454 0.360189
0.482537 0.018802 0.369344
0.483852 0.014387 0.382420
0.484085 0.011601 0.392341
0.482777 0.011722 0.405669
0.480570 0.003297 0.419563
0.479965 0.003313 0.432328
0.479869 0.003678 0.443438
0.477485 0.001027 0.454047
0.481256 0.005750 0.472743
0.479969 0.000615 0.483286
0.480567 -0.000720 0.497008
0.480007 -0.000569 0.508174
0.479264 -0.002277 0.524814
0.479336 0.001040 0.536982
0.479366 -0.003632 0.549183
0.481455 0.000484 0.560824
0.484914 0.004771 0.574686
0.479994 0.009504 0.585929
0.481550 0.010188 0.600632
0.481255 0.012424 0.611443
0.480567 0.015129 0.623214
0.478505 0.018779 0.634366
0.482890 0.022264 0.648980
0.482149 0.029368 0.664637
0.478399 0.034244 0.672517
0.482234 0.036834 0.688026
0.483124 0.041147 0.695155
0.482193 0.045880 0.707494
0.484928 0.051618 0.721977
0.483490 0.055825 0.728110
0.484896 0.064798 0.742180
0.485296 0.070330 0.750058
0.483417 0.076060 0.770298
0.485810 0.082849 0.777252
0.483155 0.091347 0.785218
0.484131 0.098311 0.797170
0.484632 0.106034 0.810362
0.485259 0.113693 0.815734
0.481925 0.121518 0.824496
0.484632 0.128397 0.833461
0.484135 0.139659 0.846325
0.488038 0.148738 0.854228
0.483104 0.156425 0.867586
0.485331 0.168805 0.872731
0.489632 0.178773 0.883149
0.489993 0.183574 0.888871
0.488823 0.196301 0.897342
0.488938 0.203902 0.908393
0.492417 0.216985 0.912650
0.492000 0.228615 0.919444
0.490976 0.242429 0.925789
0.490487 0.246343 0.935431
0.490206 0.258338 0.937171
0.493389 0.268821 0.948403
0.494397 0.283478 0.956089
0.493432 0.292324 0.958655
0.491528 0.305532 0.965442
0.492721 0.313207 0.965414
0.491433 0.330880 0.973179
0.493975 0.340913 0.973585
0.496240 0.354635 0.980499
0.494756 0.368076 0.986161
0.497360 0.376997 0.983845
0.493761 0.393620 0.988411
0.497066 0.406693 0.988007
0.498908 0.417461 0.988859
0.496199 0.427256 0.997226
0.500631 0.444983 0.993426
0.497954 0.458257 0.997381
0.498264 0.470603 0.997554
0.501419 0.481327 1.000887
0.499478 0.497597 1.000826
0.500171 0.502864 0.002909
0.500358 0.488038 -0.000868
0.497400 0.475236 0.000476
0.494468 0.462107 -0.001561
0.498723 0.447266 0.003314
0.496829 0.436137 0.004216
0.492853 0.421830 0.003845
0.494985 0.412537 0.008097
0.494973 0.398775 0.011437
0.492387 0.385410 0.013853
0.491472 0.371748 0.015191
0.491558 0.363522 0.019461
0.491294 0.348861 0.023248
0.492517 0.332196 0.029765
0.491778 0.327006 0.032374
0.484218 0.312312 0.037594
0.487651 0.303139 0.044414
0.483954 0.287860 0.049578
0.481242 0.278225 0.056435
0.484737 0.269718 0.060320
0.481865 0.254836 0.064592
0.483261 0.246491 0.070040
0.479786 0.236140 0.076421
0.479541 0.223606 0.082322
0.481901 0.210587 0.090071
0.478247 0.202680 0.099964
0.478679 0.196435 0.108240
0.480188 0.180959 0.113934
0.480947 0.171151 0.125951
0.478490 0.161796 0.127662
0.480173 0.155820 0.141877
0.475191 0.144772 0.147350
0.478796 0.136120 0.157951
0.474046 0.128503 0.169306
0.478067 0.117029 0.179751
0.471072 0.112484 0.187743
0.472709 0.101338 0.197168
0.472386 0.092931 0.210807
0.472045 0.085456 0.221490
0.469524 0.082362 0.230021
0.472500 0.074563 0.238410
0.475115 0.069205 0.254631
0.470939 0.057619 0.263156
0.471053 0.053397 0.269838
0.469082 0.046444 0.288370
0.470336 0.040101 0.299409
0.469318 0.035867 0.311516
0.468856 0.031894 0.322732
0.468094 0.031539 0.330854
0.468628 0.021082 0.347574
0.470184 0.023318 0.357669
0.467925 0.016398 0.372576
0.463117 0.012906 0.385425
0.470488 0.012119 0.396475
0.468554 0.011777 0.408110
0.468589 0.005060 0.419181
0.465621 0.009112 0.437110
0.466535 0.001423 0.446690
0.467134 0.000131 0.459290
0.465489 0.000621 0.473569
0.468579 0.001347 0.485103
0.466986 0.000428 0.496680
0.465027 -0.000694 0.509299
0.466608 0.001596 0.522668
0.468288 0.002685 0.538692
0.468865 0.002538 0.546072
0.469181 0.004990 0.563535
0.467915 0.007189 0.570600
0.470048 0.011492 0.587366
0.470334 0.010923 0.599032
0.465437 0.015368 0.608999
0.471312 0.012875 0.621619
0.472823 0.014731 0.634577
0.470120 0.022740 0.648737
0.468269 0.026278 0.658221
0.467999 0.037208 0.675431
0.469103 0.040294 0.688785
0.471742 0.040312 0.695160
0.471489 0.043623 0.707067
0.471036 0.051104 0.718434
0.471319 0.058712 0.733435
0.475804 0.065884 0.743857
0.471245 0.073198 0.753406
0.475076 0.075701 0.766510
0.472813 0.086966 0.777935
0.474192 0.088901 0.785354
0.471501 0.094601 0.796076
0.469843 0.108459 0.806563
0.472506 0.114320 0.815546
0.476499 0.122110 0.823246
0.479328 0.134168 0.840151
0.478287 0.139535 0.846284
0.477309 0.150042 0.852902
0.478458 0.156969 0.862828
0.477044 0.165727 0.870867
0.476886 0.177533 0.881633
0.479425 0.187716 0.889026
0.478209 0.197290 0.900253
0.485001 0.203542 0.904178
0.480936 0.218338 0.912597
0.481894 0.232071 0.925846
0.483949 0.239065 0.925261
0.482920 0.250344 0.931738
0.480901 0.261530 0.941887
0.486349 0.274551 0.945933
0.489604 0.281272 0.952334
0.483893 0.294389 0.954271
0.486994 0.305029 0.958527
0.485596 0.317007 0.965158
0.487265 0.327256 0.970826
0.488165 0.342804 0.973801
0.493386 0.353029 0.981174
0.488575 0.368906 0.984588
0.494055 0.385186 0.984713
0.494617 0.392253 0.989482
0.494533 0.404412 0.992128
0.493241 0.417177 0.992356
0.494050 0.429804 0.994154
0.494283 0.443468 0.994394
0.500518 0.456689 0.999734
0.499914 0.465845 0.998253
0.492718 0.484165 0.998515
0.500466 0.493748 0.999615
0.498218 0.502065 -0.001272
0.497692 0.488784 -0.001450
0.495447 0.474578 0.001865
0.502005 0.457324 0.002216
0.494226 0.449245 0.000383
0.496332 0.436198 0.005525
0.490070 0.422852 0.007523
0.495686 0.413123 0.007452
0.491927 0.398332 0.008650
0.486890 0.388323 0.015035
0.488220 0.373428 0.018046
0.489011 0.361771 0.020484
0.487392 0.351318 0.024554
0.485347 0.335186 0.023786
0.483985 0.326448 0.033826
0.481771 0.313365 0.035534
0.482179 0.299817 0.041827
0.482464 0.291462 0.045716
0.478432 0.277894 0.048442
0.480616 0.264663 0.060894
0.481376 0.256372 0.063658
0.477024 0.245093 0.072617
0.475817 0.229391 0.078613
0.474988 0.222893 0.083985
0.474994 0.214152 0.088328
0.473663 0.201768 0.100610
0.473727 0.191704 0.106025
0.470534 0.183312 0.114081
0.471770 0.174372 0.121552
0.467650 0.162810 0.131640
0.469569 0.154464 0.141508
0.467308 0.142321 0.146159
0.467938 0.134758 0.157331
0.465668 0.128802 0.172441
0.468257 0.121366 0.176297
0.465696 0.108980 0.189316
0.465389 0.101744 0.199115
0.462961 0.095742 0.211106
0.464871 0.086866 0.217400
0.466649 0.082230 0.232969
0.460489 0.073298 0.244946
0.460956 0.066971 0.251646
0.458985 0.060713 0.263471
0.460639 0.053011 0.275063
0.460578 0.051177 0.287751
0.459524 0.041426 0.302302
0.460277 0.038243 0.313829
0.456849 0.036775 0.321195
0.457181 0.029927 0.333218
0.455933 0.030402 0.347012
0.455537 0.023416 0.357914
0.456371 0.018913 0.370948
0.456001 0.015037 0.377439
0.458348 0.012915 0.397747
0.455133 0.007560 0.409232
0.454890 0.009377 0.418138
0.452382 0.008709 0.433643
0.455212 0.006561 0.445578
0.454581 0.006270 0.457332
0.456546 0.000259 0.471946
0.453418 0.002524 0.485504
0.456058 0.001874 0.497176
0.454674 0.003097 0.510011
0.457769 0.006283 0.523078
0.450458 0.002224 0.534126
0.453515 0.005460 0.548253
0.455370 0.002267 0.561165
0.458089 0.008372 0.572156
0.458303 0.009711 0.583923
0.454074 0.009749 0.599384
0.456340 0.011855 0.612601
0.459315 0.019911 0.619887
0.455723 0.019278 0.635398
0.454767 0.021990 0.652717
0.460028 0.027715 0.660042
0.457113 0.034953 0.672012
0.457588 0.036351 0.680950
0.457302 0.040729 0.695138
0.458484 0.048755 0.714688
0.458507 0.050805 0.720571
0.459485 0.058120 0.730830
0.460559 0.064195 0.741245
0.460327 0.069330 0.755133
0.463150 0.076725 0.767054
0.463482 0.083063 0.776093
0.463202 0.087839 0.785579
0.464401 0.099826 0.797634
0.463724 0.108539 0.803972
0.463682 0.116722 0.814155
0.466146 0.120672 0.830729
0.468303 0.132110 0.837281
0.469698 0.140143 0.846837
0.466842 0.147885 0.853386
0.468054 0.162565 0.863080
0.472820 0.163491 0.872455
0.472173 0.175123 0.880405
0.472116 0.187403 0.888587
0.477018 0.196951 0.896880
0.473224 0.209280 0.907725
0.474289 0.221909 0.913902
0.476767 0.223708 0.918779
0.473961 0.237678 0.923245
0.476914 0.252991 0.933425
0.475355 0.263275 0.937614
0.480937 0.272393 0.944461
0.479990 0.286925 0.950104
0.480700 0.297799 0.956992
0.483610 0.312938 0.963365
0.482057 0.318728 0.966004
0.484149 0.331258 0.971028
0.487491 0.343344 0.975716
0.486073 0.356849 0.982862
0.485962 0.369805 0.981319
0.489829 0.380290 0.985405
0.492869 0.391686 0.987810
0.494086 0.408245 0.989156
0.492061 0.418456 0.994314
0.492322 0.427208 0.996491
0.494842 0.443428 0.996771
0.494198 0.456499 0.998010
0.499317 0.469269 1.000102
0.497206 0.481088 1.000794
0.495465 0.495762 0.998059
0.497651 0.501922 -0.002283
0.498634 0.490852 -0.008931
0.499521 0.475125 -0.001406
0.493523 0.463579 0.001970
0.495716 0.448130 0.000864
0.494376 0.437976 0.003352
0.492842 0.422279 0.004665
0.492552 0.413179 0.007628
0.485624 0.397112 0.012196
0.486219 0.388369 0.013492
0.483844 0.375834 0.016491
0.480111 0.362250 0.019371
0.483044 0.347135 0.026521
0.480887 0.336122 0.031213
0.483104 0.326734 0.031250
0.477137 0.311057 0.033625
0.477617 0.302331 0.043595
0.470924 0.290169 0.048575
0.474352 0.277678 0.051498
0.472216 0.271136 0.058937
0.471415 0.253682 0.064681
0.470167 0.243977 0.070206
0.469384 0.229345 0.076634
0.470288 0.222923 0.084563
0.466057 0.211209 0.093565
0.465574 0.202964 0.097698
0.466367 0.189569 0.107410
0.463108 0.183953 0.116072
0.460990 0.172265 0.123767
0.463395 0.166413 0.130174
0.455780 0.155211 0.140694
0.458328 0.141550 0.148799
0.456857 0.131605 0.157746
0.458783 0.127855 0.171383
0.454793 0.115939 0.176799
0.454476 0.114481 0.189285
0.456730 0.102646 0.199067
0.451790 0.096822 0.207062
0.452748 0.087523 0.220722
0.456746 0.080670 0.232325
0.450471 0.075831 0.242051
0.450056 0.069850 0.252783
0.451921 0.061961 0.264663
0.449774 0.059645 0.272064
0.449612 0.048695 0.285774
0.444906 0.047893 0.298831
0.445716 0.042659 0.312418
0.446467 0.035044 0.322086
0.445798 0.028827 0.334021
0.444843 0.029067 0.346596
0.450633 0.024822 0.358912
0.445545 0.020409 0.370072
0.444956 0.016561 0.380053
0.440586 0.010283 0.397605
0.443580 0.010884 0.411450
0.442837 0.009468 0.419365
0.439789 0.008852 0.434071
0.441939 0.008692 0.441804
0.438463 0.005166 0.457270
0.439681 0.005197 0.474915
0.442981 0.002292 0.485667
0.444322 0.009358 0.495542
0.444185 0.001702 0.506926
0.441184 0.001752 0.521008
0.439232 0.003506 0.534352
0.447475 0.007286 0.545938
0.440856 0.008544 0.558978
0.441636 0.011380 0.576453
0.444508 0.010013 0.584108
0.440982 0.012267 0.599542
0.441785 0.014688 0.610019
0.439840 0.018104 0.625381
0.440032 0.022069 0.636658
0.446613 0.025211 0.649382
0.441503 0.028306 0.658901
0.444942 0.035117 0.674810
0.447992 0.035769 0.684816
0.445427 0.044293 0.699920
0.447980 0.049475 0.706353
0.449027 0.052722 0.716348
0.448387 0.059379 0.731306
0.448875 0.067537 0.740845
0.452972 0.073302 0.756665
0.452849 0.082552 0.763939
0.450276 0.084302 0.774608
0.453156 0.091974 0.787049
0.454940 0.097927 0.799084
0.454988 0.107989 0.806601
0.454319 0.114378 0.817400
0.461088 0.126943 0.827388
0.457469 0.133511 0.836197
0.458441 0.144198 0.843995
0.457972 0.149398 0.856552
0.458415 0.153762 0.862737
0.461307 0.169944 0.873435
0.458937 0.178193 0.878218
0.463732 0.191187 0.889710
0.461351 0.198138 0.898586
0.467066 0.209066 0.902013
0.465677 0.217955 0.913108
0.465536 0.226389 0.918178
0.472093 0.242841 0.925161
0.468990 0.253144 0.931954
0.472437 0.260744 0.940448
0.471757 0.275353 0.944447
0.475906 0.286798 0.952423
0.473602 0.296332 0.953068
0.475959 0.306055 0.963395
0.478079 0.319254 0.964484
0.479172 0.334190 0.969600
0.477770 0.343525 0.972250
0.478837 0.356578 0.977288
0.486030 0.367487 0.980168
0.488005 0.383851 0.984410
0.487856 0.391010 0.986828
0.490468 0.406441 0.994321
0.493577 0.419313 0.994972
0.495030 0.430567 0.996579
0.490783 0.443636 0.997764
0.497036 0.456694 0.994562
0.495566 0.469105 0.998360
0.499947 0.479478 0.999111
0.501619 0.491854 1.002609
0.502492 0.496620 -0.000458
0.495935 0.489638 0.001620
0.495825 0.474756 -0.001662
0.493006 0.459116 0.003016
0.490952 0.447512 0.000497
0.491060 0.435242 0.005744
0.486024 0.423378 0.010812
0.489420 0.412350 0.006836
0.485658 0.398859 0.009159
0.484546 0.390867 0.013495
0.485008 0.374945 0.014222
0.479909 0.364070 0.019600
0.480435 0.354409 0.025358
0.479230 0.336418 0.031125
0.476702 0.326024 0.030903
0.472475 0.317766 0.036225
0.471252 0.299571 0.039292
0.471178 0.291043 0.043424
0.468659 0.279468 0.055157
0.464588 0.264828 0.057725
0.467411 0.258451 0.062956
0.469406 0.242627 0.072667
0.465206 0.233395 0.079050
0.462340 0.221088 0.082765
0.460426 0.209719 0.092261
0.461353 0.204180 0.096987
0.458097 0.192027 0.107452
0.455403 0.183210 0.116716
0.453046 0.170046 0.126060
0.452929 0.159938 0.133645
0.451507 0.151031 0.142047
0.451398 0.145630 0.150280
0.448244 0.137627 0.159106
0.442692 0.126131 0.167280
0.442697 0.119577 0.179555
0.445193 0.115046 0.191094
0.443739 0.106083 0.198779
0.440116 0.097675 0.204301
0.444165 0.089697 0.219358
0.444517 0.084127 0.229214
0.442412 0.076247 0.239040
0.441279 0.071641 0.251314
0.440074 0.060550 0.262825
0.438278 0.058420 0.275798
0.433618 0.052639 0.290663
0.434812 0.044647 0.297634
0.435455 0.043079 0.309683
0.435295 0.035901 0.322165
0.433398 0.030760 0.332026
0.428884 0.030004 0.347387
0.434032 0.023773 0.355031
0.435657 0.022824 0.369131
0.431897 0.014998 0.385084
0.430197 0.014200 0.397179
0.431038 0.014806 0.407717
0.426143 0.009711 0.421632
0.430288 0.012007 0.434979
0.429182 0.004728 0.445498
0.430589 0.002537 0.460358
0.428661 0.007408 0.469613
0.429328 0.004359 0.484324
0.429242 0.003037 0.493732
0.429109 0.004390 0.506771
0.429805 0.008203 0.522599
0.430811 0.007957 0.533467
0.430007 0.006623 0.548215
0.430963 0.007076 0.559436
0.431427 0.009291 0.572276
0.429068 0.015931 0.588316
0.429770 0.011957 0.594929
0.428873 0.017814 0.609985
0.428870 0.019587 0.624761
0.431745 0.026093 0.637721
0.434311 0.025580 0.650849
0.433882 0.030191 0.656232
0.434246 0.033463 0.674285
0.434311 0.043119 0.685919
0.436053 0.047486 0.695513
0.438243 0.050016 0.710563
0.432881 0.055950 0.723568
0.438340 0.064824 0.730709
0.433234 0.064804 0.742809
0.439811 0.072567 0.753403
0.441213 0.079563 0.762675
0.441492 0.087622 0.776190
0.441962 0.089929 0.787496
0.446586 0.102208 0.797186
0.444261 0.109148 0.810163
0.445097 0.119296 0.817883
0.446314 0.123864 0.826957
0.448708 0.133593 0.837143
0.450624 0.148130 0.848099
0.451331 0.147964 0.856473
0.453431 0.162125 0.861773
0.453890 0.171015 0.874800
0.449973 0.180019 0.880392
0.452016 0.187789 0.888105
0.457955 0.199485 0.897803
0.456527 0.205689 0.904915
0.463731 0.218980 0.913977
0.460585 0.230832 0.919459
0.464978 0.237384 0.924345
0.463941 0.251308 0.935114
0.468848 0.262782 0.938946
0.465856 0.273224 0.946515
0.469419 0.285059 0.951569
0.471903 0.297892 0.958003
0.473464 0.311008 0.962109
0.473569 0.318828 0.965693
0.479067 0.331863 0.969951
0.475926 0.344614 0.973228
0.477975 0.356408 0.979137
0.480292 0.370803 0.982201
0.482442 0.386058 0.990374
0.485111 0.391349 0.988649
0.487958 0.411203 0.991347
0.489333 0.416691 0.993715
0.489311 0.431447 0.994131
0.493381 0.443910 0.998338
0.492143 0.457133 0.996477
0.495986 0.467051 0.997550
0.499234 0.479828 1.000018
0.497341 0.494365 0.999302
0.499414 0.497155 0.000169
0.499078 0.490337 -0.000335
0.496306 0.471008 -0.000189
0.489236 0.463876 0.003250
0.489772 0.449175 -0.000181
0.489003 0.436288 0.005369
0.485782 0.425263 0.006529
0.482220 0.410245 0.006441
0.481316 0.400770 0.012263
0.478156 0.390434 0.011168
0.479015 0.375331 0.017496
0.474246 0.359937 0.019907
0.469173 0.352030 0.025356
0.470133 0.338782 0.029037
0.473687 0.326430 0.034554
0.471229 0.314263 0.036480
0.470015 0.302288 0.041446
0.465769 0.298085 0.050202
0.462664 0.279993 0.051849
0.459697 0.268963 0.056403
0.457175 0.258416 0.066202
0.455351 0.247116 0.068964
0.451817 0.236872 0.077600
0.451935 0.228809 0.087307
0.454630 0.215391 0.089644
0.447656 0.203232 0.099685
0.448886 0.197732 0.106596
0.446211 0.182064 0.112840
0.442576 0.175457 0.120978
0.437998 0.164810 0.136304
0.444399 0.160521 0.139041
0.438371 0.145848 0.150178
0.440777 0.139177 0.159896
0.437672 0.129048 0.170816
0.433594 0.123722 0.178065
0.434663 0.113971 0.188462
0.432405 0.105767 0.198717
0.429759 0.098838 0.206211
0.430984 0.088264 0.219256
0.433494 0.085752 0.231541
0.426239 0.076304 0.238724
0.426982 0.073980 0.252225
0.428101 0.060777 0.262799
0.429166 0.060692 0.275887
0.427113 0.051024 0.285803
0.426474 0.049826 0.301643
0.422585 0.047462 0.309235
0.422810 0.034573 0.322930
0.422611 0.034065 0.333532
0.418563 0.032020 0.344220
0.421368 0.031259 0.354909
0.417788 0.026268 0.369249
0.416303 0.021666 0.381483
0.418417 0.016245 0.397211
0.417371 0.015297 0.408422
0.418014 0.013086 0.417201
0.416978 0.011092 0.428537
0.416314 0.012674 0.446795
0.415061 0.010000 0.458020
0.413743 0.007769 0.468745
0.420225 0.010228 0.480979
0.416963 0.011245 0.497212
0.415551 0.006948 0.509498
0.418783 0.006947 0.522950
0.413694 0.010266 0.533162
0.416838 0.010957 0.547590
0.417769 0.008694 0.563684
0.418140 0.014047 0.573361
0.418874 0.011426 0.584619
0.418707 0.015081 0.599342
0.418565 0.017693 0.610944
0.419105 0.022880 0.622231
0.420059 0.021205 0.633098
0.418806 0.027128 0.648666
0.420440 0.033621 0.663826
0.417780 0.036478 0.668983
0.422178 0.041302 0.684732
0.423021 0.046591 0.696702
0.424289 0.050069 0.710383
0.422445 0.057873 0.720879
0.428703 0.067397 0.732223
0.428183 0.067745 0.745167
0.426026 0.077330 0.752565
0.430384 0.087048 0.766321
0.430948 0.088227 0.773916
0.429206 0.095383 0.786211
0.430423 0.101939 0.797552
0.435290 0.110867 0.808386
0.434123 0.125538 0.819027
0.436411 0.126539 0.826674
0.439712 0.136289 0.834123
0.441019 0.145549 0.846324
0.440804 0.153807 0.854407
0.443447 0.163883 0.862898
0.445091 0.169546 0.867326
0.449729 0.180470 0.881947
0.451753 0.191289 0.886566
0.447877 0.199687 0.894439
0.450257 0.209271 0.904367
0.449920 0.221129 0.911695
0.450892 0.227787 0.920885
0.456804 0.239006 0.926874
0.456326 0.257217 0.931345
0.461019 0.263413 0.939504
0.460984 0.274431 0.945066
0.463956 0.284961 0.951894
0.463123 0.298062 0.955615
0.466987 0.308410 0.961589
0.472989 0.319655 0.968896
0.471833 0.333859 0.967519
0.472916 0.347842 0.976630
0.475522 0.356881 0.976877
0.475020 0.368246 0.978526
0.480180 0.380414 0.983689
0.479284 0.391204 0.988273
0.487348 0.405692 0.995234
0.486362 0.419481 0.992096
0.489871 0.430278 1.000688
0.491163 0.440522 0.999277
0.494223 0.455301 0.994329
0.496633 0.465545 0.999873
0.497986 0.481065 0.996620
0.500685 0.492480 0.996169
0.501391 0.497605 -0.000399
0.499645 0.486162 -0.000903
0.496639 0.472196 -0.001016
0.492721 0.463078 0.000309
0.489683 0.449262 0.003062
0.493075 0.438491 0.002808
0.487829 0.425167 0.007343
0.486311 0.414343 0.009344
0.483082 0.400871 0.009364
0.476583 0.389115 0.017412
0.474072 0.375472 0.018190
0.472429 0.360110 0.019079
0.470001 0.353556 0.025489
0.467465 0.340171 0.027108
0.466385 0.326400 0.031353
0.463554 0.316416 0.035562
0.458146 0.304133 0.038262
0.460552 0.292320 0.049378
0.460653 0.282557 0.053761
0.454983 0.269990 0.058744
0.453159 0.259778 0.064957
0.448214 0.246759 0.073887
0.446233 0.235174 0.074712
0.448177 0.228833 0.085176
0.448532 0.217619 0.092734
0.440243 0.206815 0.097708
0.440873 0.196638 0.105501
0.441041 0.187605 0.111650
0.439075 0.176016 0.126654
0.433152 0.166708 0.128693
0.431480 0.157841 0.136728
0.427059 0.148108 0.150319
0.429922 0.139456 0.158827
0.432326 0.134922 0.172500
0.426272 0.122981 0.179193
0.426210 0.115758 0.185422
0.423746 0.110319 0.198800
0.419398 0.103134 0.214071
0.421405 0.094836 0.219548
0.416313 0.085425 0.231248
0.419938 0.082407 0.239286
0.415774 0.072772 0.249803
0.411826 0.067012 0.264618
0.417394 0.063578 0.273219
0.409552 0.057354 0.286382
0.412945 0.050963 0.296730
0.414936 0.047569 0.308602
0.410678 0.041533 0.318295
0.410982 0.034556 0.334254
0.405210 0.033487 0.348632
0.407671 0.033089 0.358891
0.405095 0.028686 0.365898
0.409905 0.025174 0.380249
0.406680 0.019861 0.394867
0.403975 0.016416 0.405112
0.405020 0.018146 0.420933
0.409189 0.015438 0.434772
0.404001 0.016377 0.445876
0.405345 0.009740 0.457954
0.402881 0.010871 0.469630
0.404290 0.008025 0.487574
0.406204 0.007537 0.500556
0.403294 0.004753 0.509804
0.405033 0.010277 0.523566
0.406969 0.009056 0.534468
0.404030 0.013505 0.548558
0.402492 0.012720 0.561154
0.403415 0.017447 0.573089
0.404483 0.020455 0.585834
0.408347 0.019538 0.601288
0.407980 0.024267 0.612015
0.406410 0.026665 0.622345
0.412135 0.028774 0.638490
0.409213 0.034636 0.646030
0.407814 0.035266 0.662468
0.410105 0.039710 0.669909
0.410994 0.044686 0.684711
0.413127 0.050477 0.696332
0.413946 0.055029 0.710851
0.413619 0.057503 0.719582
0.414603 0.063017 0.729856
0.415035 0.070699 0.743375
0.419790 0.075506 0.752012
0.415955 0.083480 0.759152
0.418977 0.092384 0.776337
0.426419 0.102963 0.785057
0.422978 0.104891 0.795005
0.421581 0.111826 0.807268
0.425511 0.123226 0.818160
0.429096 0.128192 0.827356
0.430030 0.135764 0.834392
0.429883 0.146925 0.848486
0.432333 0.155283 0.854755
0.435680 0.165044 0.865440
0.436265 0.173148 0.872738
0.438351 0.182973 0.880504
0.440007 0.192409 0.891257
0.443058 0.203193 0.898795
0.442394 0.212589 0.902829
0.444439 0.218935 0.912804
0.448526 0.231388 0.917161
0.447604 0.243012 0.924674
0.450555 0.254829 0.932580
0.454411 0.261912 0.938190
0.457605 0.274576 0.947800
0.456963 0.285724 0.949705
0.462204 0.296879 0.956580
0.464024 0.311458 0.960137
0.462190 0.323083 0.966032
0.463638 0.334539 0.968698
0.472842 0.344468 0.973522
0.471480 0.358025 0.976204
0.471346 0.372977 0.984162
0.477278 0.381982 0.988959
0.480627 0.394156 0.989772
0.481426 0.407619 0.987179
0.485045 0.417721 0.995960
0.483786 0.431521 0.995133
0.486045 0.442506 0.993079
0.494843 0.456864 0.994908
0.496631 0.468057 0.996508
0.499563 0.480481 1.002881
0.497361 0.492070 1.002447
0.497695 0.499076 -0.004222
0.494985 0.486233 0.001396
0.493651 0.476929 0.003886
0.490024 0.460885 0.001036
0.484972 0.451738 0.002753
0.486452 0.439264 0.003940
0.483609 0.424648 0.004432
0.477784 0.413952 0.008480
0.477668 0.401386 0.011368
0.474541 0.387473 0.012900
0.473866 0.376630 0.016668
0.470863 0.370549 0.019105
0.466814 0.351917 0.023568
0.464759 0.336450 0.030098
0.464155 0.331858 0.028833
0.459247 0.315041 0.035355
0.454544 0.305878 0.044338
0.456451 0.296042 0.048167
0.452295 0.284851 0.053801
0.448323 0.274948 0.058522
0.446099 0.262283 0.064089
0.442472 0.250777 0.072695
0.440998 0.241426 0.076902
0.440505 0.227081 0.084598
0.437656 0.216009 0.096023
0.435844 0.208961 0.098157
0.432607 0.192428 0.108835
0.427953 0.189221 0.115262
0.430050 0.178423 0.122655
0.427421 0.170618 0.131184
0.424668 0.160211 0.141533
0.421913 0.152536 0.150426
0.421324 0.142462 0.156878
0.418021 0.130975 0.169299
0.416216 0.122440 0.178044
0.418152 0.118280 0.189896
0.411469 0.107189 0.196927
0.410111 0.104212 0.206801
0.409560 0.099278 0.214952
0.406648 0.090281 0.228087
0.408382 0.082472 0.245423
0.405248 0.076250 0.252215
0.404128 0.069419 0.261967
0.402244 0.061996 0.275525
0.401062 0.061764 0.284553
0.404602 0.051641 0.301034
0.400800 0.047549 0.311817
0.404177 0.046621 0.321656
0.396043 0.039288 0.334239
0.396469 0.038071 0.346640
0.396002 0.029695 0.355390
0.394195 0.028317 0.370765
0.389173 0.025523 0.383025
0.396418 0.021398 0.393525
0.399280 0.019354 0.411744
0.393890 0.016322 0.418562
0.391561 0.016097 0.431125
0.394005 0.012889 0.448627
0.389965 0.013708 0.458580
0.386887 0.009589 0.477249
0.391565 0.012323 0.481812
0.393723 0.008184 0.497562
0.391127 0.010669 0.510368
0.388422 0.010560 0.522844
0.390101 0.011822 0.535882
0.394437 0.014740 0.547292
0.393925 0.015265 0.560014
0.388925 0.017524 0.574760
0.395023 0.020102 0.588036
0.391519 0.022411 0.601732
0.393507 0.025541 0.614835
0.394197 0.028225 0.620155
0.398889 0.029133 0.635589
0.396689 0.033963 0.647592
0.392485 0.038628 0.660311
0.397126 0.041735 0.674386
0.401204 0.045974 0.688358
0.398516 0.054083 0.697912
0.398828 0.058805 0.707838
0.399922 0.062476 0.718640
0.407116 0.065777 0.730740
0.407435 0.074474 0.741648
0.406466 0.080788 0.754986
0.405536 0.087481 0.768066
0.409699 0.092462 0.776660
0.409185 0.101753 0.786835
0.413508 0.110886 0.796059
0.413783 0.113684 0.805609
0.416600 0.121234 0.819217
0.416064 0.130120 0.830746
0.420688 0.140292 0.839028
0.421850 0.148496 0.843939
0.423171 0.156163 0.855143
0.427076 0.166988 0.865281
0.430238 0.175984 0.874237
0.432802 0.187088 0.881932
0.430375 0.194742 0.888587
0.433601 0.202027 0.896254
0.435720 0.218027 0.903392
0.434887 0.226819 0.910815
0.439737 0.234151 0.917303
0.442994 0.245013 0.924885
0.444336 0.256079 0.931537
0.445787 0.263739 0.938309
0.447512 0.276253 0.943933
0.455427 0.289390 0.949324
0.452883 0.301691 0.952683
