ply
format ascii 1.0
element vertex 1773
property float x
property float y
property float z
end_header
0.080077 0.714654 0.332500
0.083877 0.722254 0.332500
0.091477 0.733654 0.332500
0.099077 0.729854 0.309700
0.095277 0.733654 0.321100
0.080077 0.726054 0.343900
0.087677 0.737454 0.343900
0.083877 0.737454 0.359100
0.023077 0.631054 0.431300
0.019277 0.631054 0.446500
0.019277 0.631054 0.457900
0.026877 0.642454 0.431300
0.023077 0.642454 0.446500
0.023077 0.642454 0.457900
0.019277 0.631054 0.473100
0.019277 0.631054 0.484500
0.023077 0.642454 0.473100
0.019277 0.642454 0.484500
0.030677 0.653854 0.431300
0.026877 0.653854 0.446500
0.026877 0.653854 0.457900
0.030677 0.665254 0.446500
0.030677 0.665254 0.457900
0.034477 0.665254 0.431300
0.038277 0.676654 0.431300
0.034477 0.676654 0.446500
0.034477 0.676654 0.457900
0.026877 0.653854 0.473100
0.023077 0.653854 0.484500
0.030677 0.665254 0.473100
0.030677 0.665254 0.484500
0.019277 0.631054 0.511100
0.019277 0.642454 0.495900
0.019277 0.642454 0.511100
0.019277 0.631054 0.522500
0.019277 0.631054 0.533900
0.019277 0.631054 0.549100
0.023077 0.642454 0.522500
0.023077 0.642454 0.533900
0.023077 0.642454 0.549100
0.023077 0.653854 0.495900
0.023077 0.653854 0.511100
0.026877 0.665254 0.495900
0.030677 0.665254 0.511100
0.026877 0.653854 0.522500
0.026877 0.653854 0.533900
0.026877 0.653854 0.549100
0.030677 0.665254 0.522500
0.030677 0.665254 0.533900
0.030677 0.665254 0.549100
0.034477 0.676654 0.549100
0.042077 0.688054 0.431300
0.038277 0.691854 0.457900
0.042077 0.688054 0.446500
0.045877 0.699454 0.431300
0.045877 0.703254 0.446500
0.045877 0.703254 0.457900
0.034477 0.680454 0.473100
0.038277 0.691854 0.473100
0.034477 0.680454 0.484500
0.038277 0.691854 0.484500
0.042077 0.703254 0.473100
0.042077 0.703254 0.484500
0.053477 0.710854 0.431300
0.057277 0.722254 0.431300
0.049677 0.714654 0.446500
0.049677 0.714654 0.457900
0.057277 0.726054 0.446500
0.057277 0.726054 0.457900
0.061077 0.737454 0.446500
0.061077 0.737454 0.457900
0.064877 0.733654 0.431300
0.049677 0.714654 0.473100
0.049677 0.714654 0.484500
0.053477 0.726054 0.473100
0.061077 0.737454 0.473100
0.053477 0.726054 0.484500
0.061077 0.737454 0.484500
0.034477 0.680454 0.495900
0.038277 0.691854 0.495900
0.034477 0.680454 0.511100
0.038277 0.691854 0.511100
0.042077 0.703254 0.495900
0.042077 0.703254 0.511100
0.034477 0.680454 0.522500
0.034477 0.680454 0.533900
0.038277 0.691854 0.522500
0.038277 0.691854 0.533900
0.038277 0.691854 0.549100
0.042077 0.703254 0.522500
0.045877 0.703254 0.533900
0.045877 0.703254 0.549100
0.049677 0.714654 0.495900
0.049677 0.714654 0.511100
0.053477 0.726054 0.495900
0.061077 0.737454 0.495900
0.053477 0.726054 0.511100
0.061077 0.737454 0.511100
0.049677 0.714654 0.522500
0.049677 0.714654 0.533900
0.049677 0.714654 0.549100
0.053477 0.726054 0.522500
0.053477 0.726054 0.533900
0.061077 0.737454 0.522500
0.061077 0.737454 0.533900
0.057277 0.726054 0.549100
0.061077 0.737454 0.549100
0.125677 0.741254 0.275500
0.129477 0.752654 0.275500
0.137077 0.748854 0.264100
0.137077 0.760254 0.275500
0.118077 0.745054 0.286900
0.114277 0.748854 0.298300
0.121877 0.756454 0.298300
0.125677 0.752654 0.286900
0.133277 0.764054 0.286900
0.129477 0.767854 0.298300
0.137077 0.775454 0.298300
0.213077 0.741254 0.169100
0.205477 0.745054 0.176700
0.213077 0.752654 0.176700
0.220677 0.748854 0.169100
0.224477 0.741254 0.157700
0.224477 0.756454 0.169100
0.220677 0.760254 0.176700
0.228277 0.767854 0.176700
0.239677 0.745054 0.150100
0.251077 0.745054 0.142500
0.247277 0.748854 0.150100
0.258677 0.748854 0.142500
0.251077 0.756454 0.150100
0.258677 0.764054 0.150100
0.232077 0.748854 0.157700
0.232077 0.764054 0.169100
0.239677 0.756454 0.157700
0.239677 0.767854 0.169100
0.247277 0.764054 0.157700
0.251077 0.767854 0.157700
0.232077 0.775454 0.176700
0.239677 0.783054 0.176700
0.247277 0.775454 0.169100
0.258677 0.775454 0.157700
0.254877 0.783054 0.169100
0.247277 0.786854 0.176700
0.254877 0.794454 0.176700
0.144677 0.741254 0.241300
0.152277 0.748854 0.241300
0.159877 0.745054 0.229900
0.163677 0.741254 0.218500
0.163677 0.752654 0.229900
0.159877 0.756454 0.241300
0.167477 0.767854 0.241300
0.182677 0.741254 0.199500
0.175077 0.745054 0.207100
0.182677 0.752654 0.207100
0.190277 0.748854 0.199500
0.194077 0.745054 0.188100
0.194077 0.756454 0.199500
0.190277 0.760254 0.207100
0.194077 0.767854 0.207100
0.171277 0.748854 0.218500
0.175077 0.756454 0.218500
0.171277 0.764054 0.229900
0.182677 0.767854 0.218500
0.178877 0.771654 0.229900
0.171277 0.775454 0.241300
0.178877 0.783054 0.241300
0.190277 0.775454 0.218500
0.186477 0.779254 0.229900
0.197877 0.783054 0.218500
0.194077 0.786854 0.229900
0.186477 0.790654 0.241300
0.194077 0.798254 0.241300
0.140877 0.745054 0.252700
0.148477 0.752654 0.252700
0.152277 0.764054 0.252700
0.140877 0.756454 0.264100
0.144677 0.767854 0.275500
0.148477 0.767854 0.264100
0.152277 0.779254 0.275500
0.159877 0.771654 0.252700
0.167477 0.779254 0.252700
0.156077 0.775454 0.264100
0.163677 0.783054 0.264100
0.159877 0.786854 0.275500
0.167477 0.794454 0.275500
0.140877 0.771654 0.286900
0.148477 0.783054 0.286900
0.144677 0.786854 0.298300
0.148477 0.794454 0.298300
0.156077 0.790654 0.286900
0.163677 0.798254 0.286900
0.175077 0.786854 0.252700
0.182677 0.794454 0.252700
0.171277 0.790654 0.264100
0.156077 0.802054 0.298300
0.167477 0.813454 0.298300
0.175077 0.805854 0.275500
0.178877 0.802054 0.264100
0.182677 0.813454 0.275500
0.190277 0.805854 0.252700
0.197877 0.813454 0.252700
0.186477 0.809654 0.264100
0.190277 0.821054 0.275500
0.194077 0.817254 0.264100
0.197877 0.828654 0.275500
0.171277 0.809654 0.286900
0.178877 0.817254 0.286900
0.175077 0.821054 0.298300
0.182677 0.828654 0.298300
0.186477 0.824854 0.286900
0.194077 0.832454 0.286900
0.190277 0.836254 0.298300
0.197877 0.843854 0.298300
0.201677 0.752654 0.188100
0.201677 0.764054 0.199500
0.209277 0.760254 0.188100
0.213077 0.767854 0.188100
0.209277 0.771654 0.199500
0.201677 0.779254 0.207100
0.209277 0.783054 0.207100
0.220677 0.775454 0.188100
0.216877 0.779254 0.199500
0.228277 0.779254 0.188100
0.224477 0.786854 0.199500
0.216877 0.790654 0.207100
0.224477 0.798254 0.207100
0.205477 0.790654 0.218500
0.201677 0.794454 0.229900
0.213077 0.798254 0.218500
0.235877 0.786854 0.188100
0.232077 0.794454 0.199500
0.243477 0.794454 0.188100
0.209277 0.802054 0.229900
0.201677 0.805854 0.241300
0.209277 0.813454 0.241300
0.220677 0.805854 0.218500
0.216877 0.809654 0.229900
0.228277 0.813454 0.218500
0.224477 0.817254 0.229900
0.220677 0.821054 0.241300
0.228277 0.828654 0.241300
0.239677 0.802054 0.199500
0.232077 0.805854 0.207100
0.239677 0.813454 0.207100
0.251077 0.802054 0.188100
0.247277 0.805854 0.199500
0.258677 0.805854 0.188100
0.254877 0.813454 0.199500
0.247277 0.821054 0.207100
0.258677 0.824854 0.207100
0.235877 0.817254 0.218500
0.232077 0.824854 0.229900
0.243477 0.824854 0.218500
0.239677 0.832454 0.229900
0.235877 0.836254 0.241300
0.243477 0.843854 0.241300
0.251077 0.832454 0.218500
0.247277 0.836254 0.229900
0.258677 0.843854 0.229900
0.254877 0.847654 0.241300
0.205477 0.821054 0.252700
0.213077 0.828654 0.252700
0.201677 0.824854 0.264100
0.205477 0.836254 0.275500
0.209277 0.832454 0.264100
0.224477 0.836254 0.252700
0.220677 0.840054 0.264100
0.216877 0.843854 0.275500
0.228277 0.847654 0.264100
0.224477 0.851454 0.275500
0.201677 0.840054 0.286900
0.213077 0.847654 0.286900
0.209277 0.851454 0.298300
0.220677 0.855254 0.286900
0.216877 0.859054 0.298300
0.232077 0.840054 0.252700
0.239677 0.847654 0.252700
0.235877 0.851454 0.264100
0.232077 0.859054 0.275500
0.251077 0.855254 0.252700
0.247277 0.859054 0.264100
0.228277 0.862854 0.286900
0.228277 0.866654 0.298300
0.243477 0.862854 0.275500
0.258677 0.862854 0.252700
0.251077 0.870454 0.275500
0.254877 0.866654 0.264100
0.239677 0.870454 0.286900
0.235877 0.874254 0.298300
0.247277 0.874254 0.286900
0.258677 0.881854 0.286900
0.247277 0.881854 0.298300
0.254877 0.885654 0.298300
0.076277 0.741254 0.393300
0.072477 0.745054 0.408500
0.072477 0.745054 0.419900
0.076277 0.756454 0.419900
0.099077 0.741254 0.321100
0.106677 0.741254 0.309700
0.106677 0.752654 0.321100
0.095277 0.745054 0.332500
0.102877 0.756454 0.332500
0.091477 0.748854 0.359100
0.095277 0.745054 0.343900
0.099077 0.756454 0.343900
0.106677 0.767854 0.343900
0.095277 0.760254 0.359100
0.102877 0.767854 0.359100
0.110477 0.748854 0.309700
0.114277 0.764054 0.321100
0.118077 0.760254 0.309700
0.110477 0.764054 0.332500
0.125677 0.767854 0.309700
0.121877 0.771654 0.321100
0.118077 0.775454 0.332500
0.129477 0.783054 0.321100
0.133277 0.779254 0.309700
0.125677 0.783054 0.332500
0.137077 0.786854 0.309700
0.133277 0.790654 0.321100
0.133277 0.794454 0.332500
0.114277 0.779254 0.343900
0.110477 0.779254 0.359100
0.121877 0.786854 0.343900
0.118077 0.790654 0.359100
0.129477 0.798254 0.343900
0.125677 0.798254 0.359100
0.080077 0.741254 0.370500
0.080077 0.741254 0.381900
0.083877 0.752654 0.381900
0.087677 0.748854 0.370500
0.083877 0.752654 0.393300
0.091477 0.764054 0.381900
0.087677 0.764054 0.393300
0.095277 0.760254 0.370500
0.080077 0.756454 0.408500
0.087677 0.764054 0.408500
0.083877 0.767854 0.419900
0.099077 0.771654 0.370500
0.099077 0.771654 0.381900
0.106677 0.783054 0.370500
0.106677 0.783054 0.381900
0.095277 0.775454 0.393300
0.102877 0.786854 0.393300
0.091477 0.779254 0.419900
0.095277 0.775454 0.408500
0.099077 0.786854 0.408500
0.106677 0.798254 0.408500
0.099077 0.786854 0.419900
0.106677 0.798254 0.419900
0.114277 0.790654 0.370500
0.114277 0.794454 0.381900
0.110477 0.794454 0.393300
0.137077 0.805854 0.343900
0.133277 0.809654 0.359100
0.121877 0.802054 0.370500
0.121877 0.802054 0.381900
0.118077 0.805854 0.393300
0.129477 0.809654 0.370500
0.129477 0.813454 0.381900
0.125677 0.813454 0.393300
0.137077 0.821054 0.370500
0.137077 0.821054 0.381900
0.133277 0.824854 0.393300
0.114277 0.805854 0.408500
0.114277 0.809654 0.419900
0.121877 0.817254 0.419900
0.125677 0.817254 0.408500
0.133277 0.824854 0.408500
0.129477 0.828654 0.419900
0.068677 0.745054 0.431300
0.068677 0.748854 0.446500
0.068677 0.748854 0.457900
0.076277 0.756454 0.431300
0.076277 0.756454 0.446500
0.072477 0.760254 0.457900
0.068677 0.748854 0.473100
0.064877 0.748854 0.484500
0.072477 0.760254 0.473100
0.072477 0.760254 0.484500
0.064877 0.748854 0.495900
0.064877 0.748854 0.511100
0.072477 0.760254 0.495900
0.072477 0.760254 0.511100
0.064877 0.748854 0.522500
0.068677 0.748854 0.533900
0.068677 0.748854 0.549100
0.072477 0.760254 0.522500
0.072477 0.760254 0.533900
0.076277 0.760254 0.549100
0.083877 0.767854 0.431300
0.080077 0.767854 0.446500
0.080077 0.767854 0.457900
0.091477 0.779254 0.431300
0.087677 0.779254 0.446500
0.087677 0.779254 0.457900
0.099077 0.790654 0.431300
0.106677 0.798254 0.431300
0.095277 0.790654 0.446500
0.095277 0.790654 0.457900
0.080077 0.771654 0.473100
0.087677 0.779254 0.473100
0.080077 0.771654 0.484500
0.087677 0.779254 0.484500
0.095277 0.790654 0.473100
0.095277 0.790654 0.484500
0.080077 0.767854 0.549100
0.080077 0.771654 0.495900
0.087677 0.783054 0.495900
0.080077 0.771654 0.511100
0.087677 0.779254 0.511100
0.095277 0.790654 0.495900
0.095277 0.790654 0.511100
0.080077 0.771654 0.522500
0.080077 0.771654 0.533900
0.087677 0.779254 0.522500
0.087677 0.779254 0.533900
0.087677 0.779254 0.549100
0.095277 0.790654 0.522500
0.095277 0.790654 0.533900
0.095277 0.790654 0.549100
0.102877 0.802054 0.446500
0.102877 0.802054 0.457900
0.102877 0.802054 0.473100
0.102877 0.802054 0.484500
0.114277 0.809654 0.431300
0.110477 0.809654 0.446500
0.110477 0.809654 0.457900
0.121877 0.817254 0.431300
0.118077 0.821054 0.446500
0.118077 0.821054 0.457900
0.129477 0.828654 0.431300
0.129477 0.828654 0.446500
0.110477 0.813454 0.473100
0.110477 0.813454 0.484500
0.118077 0.821054 0.473100
0.118077 0.821054 0.484500
0.137077 0.840054 0.431300
0.125677 0.832454 0.457900
0.137077 0.840054 0.446500
0.137077 0.840054 0.457900
0.125677 0.832454 0.473100
0.133277 0.840054 0.473100
0.125677 0.832454 0.484500
0.133277 0.840054 0.484500
0.102877 0.802054 0.495900
0.102877 0.802054 0.511100
0.102877 0.802054 0.522500
0.102877 0.802054 0.533900
0.102877 0.802054 0.549100
0.110477 0.813454 0.495900
0.110477 0.813454 0.511100
0.118077 0.821054 0.495900
0.118077 0.821054 0.511100
0.110477 0.813454 0.522500
0.110477 0.809654 0.533900
0.110477 0.809654 0.549100
0.118077 0.821054 0.522500
0.118077 0.821054 0.533900
0.118077 0.821054 0.549100
0.129477 0.828654 0.549100
0.125677 0.832454 0.495900
0.133277 0.840054 0.495900
0.125677 0.832454 0.511100
0.133277 0.840054 0.511100
0.125677 0.832454 0.522500
0.125677 0.832454 0.533900
0.133277 0.840054 0.522500
0.137077 0.840054 0.533900
0.137077 0.840054 0.549100
0.144677 0.798254 0.309700
0.140877 0.802054 0.321100
0.152277 0.805854 0.309700
0.152277 0.809654 0.321100
0.140877 0.802054 0.332500
0.148477 0.813454 0.332500
0.159877 0.817254 0.321100
0.163677 0.817254 0.309700
0.167477 0.828654 0.321100
0.156077 0.821054 0.332500
0.163677 0.828654 0.332500
0.144677 0.817254 0.343900
0.152277 0.824854 0.343900
0.140877 0.817254 0.359100
0.148477 0.828654 0.359100
0.159877 0.832454 0.343900
0.159877 0.836254 0.359100
0.167477 0.843854 0.359100
0.171277 0.824854 0.309700
0.175077 0.836254 0.321100
0.178877 0.832454 0.309700
0.182677 0.843854 0.321100
0.171277 0.840054 0.332500
0.182677 0.847654 0.332500
0.186477 0.840054 0.309700
0.197877 0.847654 0.309700
0.194077 0.851454 0.321100
0.190277 0.855254 0.332500
0.171277 0.843854 0.343900
0.178877 0.851454 0.343900
0.175077 0.851454 0.359100
0.186477 0.859054 0.343900
0.148477 0.828654 0.370500
0.144677 0.832454 0.381900
0.152277 0.840054 0.381900
0.140877 0.832454 0.393300
0.152277 0.843854 0.393300
0.156077 0.840054 0.370500
0.163677 0.847654 0.370500
0.163677 0.847654 0.381900
0.159877 0.851454 0.393300
0.140877 0.836254 0.408500
0.148477 0.843854 0.408500
0.140877 0.836254 0.419900
0.148477 0.847654 0.419900
0.159877 0.851454 0.408500
0.156077 0.855254 0.419900
0.175077 0.855254 0.370500
0.171277 0.859054 0.381900
0.171277 0.859054 0.393300
0.205477 0.855254 0.309700
0.201677 0.859054 0.321100
0.148477 0.847654 0.431300
0.144677 0.847654 0.446500
0.144677 0.847654 0.457900
0.152277 0.859054 0.457900
0.156077 0.855254 0.431300
0.156077 0.859054 0.446500
0.144677 0.851454 0.473100
0.152277 0.859054 0.473100
0.144677 0.851454 0.484500
0.152277 0.859054 0.484500
0.144677 0.851454 0.495900
0.152277 0.859054 0.495900
0.144677 0.851454 0.511100
0.152277 0.859054 0.511100
0.144677 0.851454 0.522500
0.144677 0.851454 0.533900
0.152277 0.859054 0.522500
0.152277 0.859054 0.533900
0.144677 0.847654 0.549100
0.152277 0.859054 0.549100
0.197877 0.862854 0.332500
0.197877 0.866654 0.343900
0.186477 0.862854 0.359100
0.194077 0.870454 0.359100
0.167477 0.862854 0.408500
0.167477 0.862854 0.419900
0.182677 0.862854 0.370500
0.178877 0.866654 0.381900
0.178877 0.866654 0.393300
0.190277 0.870454 0.370500
0.190277 0.874254 0.381900
0.186477 0.878054 0.393300
0.197877 0.885654 0.393300
0.178877 0.870454 0.408500
0.175077 0.870454 0.419900
0.186477 0.878054 0.408500
0.197877 0.885654 0.408500
0.186477 0.881854 0.419900
0.194077 0.889454 0.419900
0.213077 0.862854 0.309700
0.213077 0.866654 0.321100
0.209277 0.870454 0.332500
0.220677 0.874254 0.321100
0.224477 0.870454 0.309700
0.216877 0.878054 0.332500
0.228277 0.885654 0.332500
0.205477 0.874254 0.343900
0.205477 0.878054 0.359100
0.213077 0.885654 0.359100
0.216877 0.881854 0.343900
0.224477 0.889454 0.343900
0.224477 0.893254 0.359100
0.232077 0.878054 0.309700
0.232077 0.881854 0.321100
0.243477 0.885654 0.309700
0.239677 0.889454 0.321100
0.254877 0.889454 0.309700
0.239677 0.893254 0.332500
0.251077 0.893254 0.321100
0.247277 0.897054 0.332500
0.258677 0.904654 0.332500
0.235877 0.897054 0.343900
0.232077 0.897054 0.359100
0.243477 0.904654 0.359100
0.247277 0.900854 0.343900
0.254877 0.908454 0.343900
0.254877 0.912254 0.359100
0.201677 0.878054 0.370500
0.201677 0.881854 0.381900
0.213077 0.885654 0.370500
0.209277 0.889454 0.381900
0.209277 0.893254 0.393300
0.220677 0.893254 0.370500
0.220677 0.897054 0.381900
0.228277 0.904654 0.381900
0.216877 0.900854 0.393300
0.228277 0.904654 0.393300
0.205477 0.893254 0.408500
0.205477 0.897054 0.419900
0.216877 0.900854 0.408500
0.216877 0.904654 0.419900
0.228277 0.908454 0.408500
0.224477 0.912254 0.419900
0.232077 0.900854 0.370500
0.243477 0.908454 0.370500
0.239677 0.912254 0.381900
0.239677 0.912254 0.393300
0.251077 0.916054 0.370500
0.251077 0.916054 0.381900
0.251077 0.919854 0.393300
0.235877 0.916054 0.408500
0.235877 0.916054 0.419900
0.247277 0.923654 0.408500
0.258677 0.927454 0.408500
0.247277 0.923654 0.419900
0.258677 0.931254 0.419900
0.163677 0.866654 0.431300
0.163677 0.866654 0.446500
0.163677 0.866654 0.457900
0.163677 0.866654 0.473100
0.163677 0.866654 0.484500
0.175077 0.874254 0.431300
0.175077 0.874254 0.446500
0.171277 0.874254 0.457900
0.182677 0.881854 0.431300
0.182677 0.881854 0.446500
0.182677 0.885654 0.457900
0.194077 0.889454 0.431300
0.194077 0.889454 0.446500
0.171277 0.878054 0.473100
0.182677 0.885654 0.473100
0.171277 0.878054 0.484500
0.182677 0.885654 0.484500
0.194077 0.893254 0.457900
0.190277 0.893254 0.473100
0.190277 0.893254 0.484500
0.163677 0.866654 0.495900
0.163677 0.866654 0.511100
0.163677 0.866654 0.522500
0.163677 0.866654 0.533900
0.163677 0.866654 0.549100
0.171277 0.878054 0.495900
0.182677 0.885654 0.495900
0.171277 0.878054 0.511100
0.182677 0.885654 0.511100
0.171277 0.874254 0.533900
0.171277 0.874254 0.549100
0.171277 0.878054 0.522500
0.182677 0.885654 0.522500
0.182677 0.885654 0.533900
0.182677 0.881854 0.549100
0.190277 0.893254 0.495900
0.190277 0.893254 0.511100
0.190277 0.893254 0.522500
0.190277 0.893254 0.533900
0.194077 0.893254 0.549100
0.205477 0.897054 0.431300
0.213077 0.904654 0.431300
0.201677 0.897054 0.446500
0.201677 0.900854 0.457900
0.213077 0.904654 0.446500
0.213077 0.908454 0.457900
0.224477 0.912254 0.431300
0.224477 0.912254 0.446500
0.224477 0.916054 0.457900
0.201677 0.900854 0.473100
0.201677 0.900854 0.484500
0.213077 0.908454 0.473100
0.213077 0.908454 0.484500
0.224477 0.916054 0.473100
0.220677 0.916054 0.484500
0.235877 0.919854 0.431300
0.235877 0.919854 0.446500
0.235877 0.919854 0.457900
0.201677 0.900854 0.495900
0.201677 0.900854 0.511100
0.213077 0.908454 0.495900
0.213077 0.908454 0.511100
0.220677 0.916054 0.495900
0.220677 0.916054 0.511100
0.201677 0.900854 0.522500
0.201677 0.900854 0.533900
0.201677 0.900854 0.549100
0.213077 0.908454 0.522500
0.213077 0.908454 0.533900
0.213077 0.908454 0.549100
0.224477 0.916054 0.522500
0.224477 0.916054 0.533900
0.224477 0.912254 0.549100
0.232077 0.919854 0.533900
0.235877 0.919854 0.549100
0.243477 0.927454 0.457900
0.247277 0.927454 0.431300
0.258677 0.931254 0.431300
0.247277 0.927454 0.446500
0.254877 0.935054 0.446500
0.254877 0.935054 0.457900
0.232077 0.923654 0.473100
0.243477 0.927454 0.473100
0.232077 0.923654 0.484500
0.243477 0.927454 0.484500
0.254877 0.935054 0.473100
0.254877 0.935054 0.484500
0.232077 0.923654 0.495900
0.243477 0.931254 0.495900
0.232077 0.923654 0.511100
0.243477 0.931254 0.511100
0.254877 0.935054 0.495900
0.254877 0.935054 0.511100
0.232077 0.923654 0.522500
0.243477 0.927454 0.522500
0.243477 0.927454 0.533900
0.243477 0.927454 0.549100
0.254877 0.935054 0.522500
0.254877 0.935054 0.533900
0.254877 0.935054 0.549100
0.262477 0.596854 0.070300
0.266277 0.604454 0.070300
0.270077 0.608254 0.070300
0.270077 0.615854 0.070300
0.262477 0.619654 0.077900
0.266277 0.627254 0.077900
0.266277 0.631054 0.077900
0.273877 0.623454 0.070300
0.270077 0.638654 0.077900
0.273877 0.646254 0.077900
0.262477 0.646254 0.085500
0.277677 0.627254 0.070300
0.281477 0.634854 0.070300
0.285277 0.638654 0.070300
0.289077 0.642454 0.070300
0.266277 0.650054 0.085500
0.262477 0.661454 0.093100
0.270077 0.657654 0.085500
0.273877 0.661454 0.085500
0.266277 0.669054 0.093100
0.270077 0.672854 0.093100
0.277677 0.650054 0.077900
0.281477 0.657654 0.077900
0.285277 0.661454 0.077900
0.277677 0.669054 0.085500
0.281477 0.672854 0.085500
0.292877 0.650054 0.070300
0.296677 0.653854 0.070300
0.300477 0.661454 0.070300
0.292877 0.665254 0.077900
0.296677 0.672854 0.077900
0.304277 0.665254 0.070300
0.300477 0.676654 0.077900
0.308077 0.669054 0.070300
0.311877 0.676654 0.070300
0.273877 0.680454 0.093100
0.277677 0.684254 0.093100
0.289077 0.680454 0.085500
0.285277 0.691854 0.093100
0.289077 0.695654 0.093100
0.262477 0.680454 0.100700
0.266277 0.688054 0.100700
0.270077 0.691854 0.100700
0.262477 0.699454 0.108300
0.270077 0.707054 0.108300
0.277677 0.699454 0.100700
0.281477 0.703254 0.100700
0.273877 0.710854 0.108300
0.262477 0.710854 0.115900
0.266277 0.718454 0.115900
0.273877 0.722254 0.115900
0.266277 0.729854 0.123500
0.270077 0.737454 0.123500
0.277677 0.718454 0.108300
0.285277 0.710854 0.100700
0.285277 0.722254 0.108300
0.289077 0.726054 0.108300
0.277677 0.729854 0.115900
0.285277 0.733654 0.115900
0.304277 0.684254 0.077900
0.292877 0.684254 0.085500
0.296677 0.688054 0.085500
0.292877 0.703254 0.093100
0.300477 0.695654 0.085500
0.300477 0.707054 0.093100
0.308077 0.688054 0.077900
0.315677 0.680454 0.070300
0.315677 0.691854 0.077900
0.319477 0.695654 0.077900
0.308077 0.699454 0.085500
0.311877 0.703254 0.085500
0.304277 0.710854 0.093100
0.311877 0.718454 0.093100
0.315677 0.710854 0.085500
0.315677 0.722254 0.093100
0.292877 0.714654 0.100700
0.296677 0.718454 0.100700
0.296677 0.733654 0.108300
0.304277 0.726054 0.100700
0.304277 0.737454 0.108300
0.308077 0.729854 0.100700
0.315677 0.733654 0.100700
0.323277 0.684254 0.070300
0.327077 0.688054 0.070300
0.330877 0.691854 0.070300
0.323277 0.703254 0.077900
0.334677 0.699454 0.070300
0.330877 0.707054 0.077900
0.342277 0.703254 0.070300
0.346077 0.707054 0.070300
0.334677 0.710854 0.077900
0.323277 0.714654 0.085500
0.327077 0.718454 0.085500
0.334677 0.722254 0.085500
0.323277 0.726054 0.093100
0.327077 0.729854 0.093100
0.334677 0.737454 0.093100
0.338477 0.714654 0.077900
0.346077 0.718454 0.077900
0.349877 0.722254 0.077900
0.338477 0.726054 0.085500
0.346077 0.729854 0.085500
0.349877 0.733654 0.085500
0.353677 0.710854 0.070300
0.357477 0.714654 0.070300
0.361277 0.718454 0.070300
0.357477 0.726054 0.077900
0.361277 0.729854 0.077900
0.357477 0.737454 0.085500
0.368877 0.718454 0.070300
0.372677 0.722254 0.070300
0.368877 0.733654 0.077900
0.380277 0.726054 0.070300
0.376477 0.737454 0.077900
0.387877 0.729854 0.070300
0.391677 0.733654 0.070300
0.399277 0.733654 0.070300
0.403077 0.737454 0.070300
0.277677 0.741254 0.123500
0.289077 0.741254 0.115900
0.285277 0.748854 0.123500
0.289077 0.752654 0.123500
0.296677 0.745054 0.115900
0.304277 0.752654 0.115900
0.296677 0.760254 0.123500
0.304277 0.764054 0.123500
0.308077 0.745054 0.108300
0.319477 0.741254 0.100700
0.315677 0.748854 0.108300
0.308077 0.756454 0.115900
0.311877 0.767854 0.123500
0.315677 0.760254 0.115900
0.315677 0.775454 0.123500
0.266277 0.745054 0.131100
0.270077 0.748854 0.131100
0.266277 0.756454 0.142500
0.266277 0.767854 0.150100
0.270077 0.764054 0.142500
0.277677 0.756454 0.131100
0.285277 0.760254 0.131100
0.289077 0.767854 0.131100
0.277677 0.767854 0.142500
0.273877 0.775454 0.150100
0.277677 0.779254 0.150100
0.285277 0.775454 0.142500
0.285277 0.786854 0.150100
0.266277 0.783054 0.157700
0.262477 0.786854 0.169100
0.273877 0.786854 0.157700
0.270077 0.794454 0.169100
0.281477 0.794454 0.157700
0.289077 0.798254 0.157700
0.296677 0.771654 0.131100
0.304277 0.775454 0.131100
0.292877 0.779254 0.142500
0.300477 0.783054 0.142500
0.292877 0.790654 0.150100
0.300477 0.798254 0.150100
0.311877 0.783054 0.131100
0.319477 0.786854 0.131100
0.308077 0.790654 0.142500
0.315677 0.794454 0.142500
0.262477 0.802054 0.176700
0.270077 0.805854 0.176700
0.277677 0.802054 0.169100
0.285277 0.805854 0.169100
0.277677 0.813454 0.176700
0.289077 0.817254 0.176700
0.308077 0.802054 0.150100
0.315677 0.805854 0.150100
0.296677 0.805854 0.157700
0.292877 0.809654 0.169100
0.304277 0.809654 0.157700
0.300477 0.817254 0.169100
0.296677 0.824854 0.176700
0.304277 0.828654 0.176700
0.311877 0.813454 0.157700
0.308077 0.821054 0.169100
0.319477 0.817254 0.157700
0.315677 0.824854 0.169100
0.311877 0.832454 0.176700
0.319477 0.840054 0.176700
0.338477 0.741254 0.093100
0.346077 0.745054 0.093100
0.327077 0.745054 0.100700
0.323277 0.752654 0.108300
0.334677 0.748854 0.100700
0.327077 0.756454 0.108300
0.334677 0.760254 0.108300
0.323277 0.764054 0.115900
0.338477 0.752654 0.100700
0.342277 0.764054 0.108300
0.346077 0.756454 0.100700
0.349877 0.767854 0.108300
0.323277 0.779254 0.123500
0.330877 0.771654 0.115900
0.334677 0.775454 0.115900
0.330877 0.783054 0.123500
0.342277 0.779254 0.115900
0.349877 0.783054 0.115900
0.338477 0.786854 0.123500
0.346077 0.790654 0.123500
0.353677 0.748854 0.093100
0.357477 0.752654 0.093100
0.365077 0.741254 0.085500
0.365077 0.756454 0.093100
0.380277 0.741254 0.077900
0.368877 0.745054 0.085500
0.376477 0.748854 0.085500
0.372677 0.760254 0.093100
0.376477 0.760254 0.093100
0.353677 0.760254 0.100700
0.361277 0.764054 0.100700
0.368877 0.767854 0.100700
0.353677 0.771654 0.108300
0.361277 0.775454 0.108300
0.357477 0.786854 0.115900
0.353677 0.794454 0.123500
0.365077 0.790654 0.115900
0.361277 0.798254 0.123500
0.372677 0.771654 0.100700
0.368877 0.779254 0.108300
0.380277 0.775454 0.100700
0.376477 0.783054 0.108300
0.372677 0.794454 0.115900
0.380277 0.794454 0.115900
0.327077 0.790654 0.131100
0.334677 0.794454 0.131100
0.323277 0.798254 0.142500
0.342277 0.798254 0.131100
0.368877 0.802054 0.123500
0.376477 0.805854 0.123500
0.323277 0.809654 0.150100
0.330877 0.802054 0.142500
0.334677 0.817254 0.150100
0.349877 0.802054 0.131100
0.338477 0.805854 0.142500
0.346077 0.813454 0.142500
0.342277 0.821054 0.150100
0.349877 0.824854 0.150100
0.330877 0.824854 0.157700
0.338477 0.828654 0.157700
0.323277 0.832454 0.169100
0.334677 0.836254 0.169100
0.330877 0.843854 0.176700
0.342277 0.840054 0.169100
0.346077 0.832454 0.157700
0.349877 0.843854 0.169100
0.338477 0.847654 0.176700
0.346077 0.851454 0.176700
0.357477 0.805854 0.131100
0.365077 0.809654 0.131100
0.353677 0.817254 0.142500
0.357477 0.828654 0.150100
0.361277 0.817254 0.142500
0.372677 0.813454 0.131100
0.380277 0.817254 0.131100
0.368877 0.821054 0.142500
0.376477 0.824854 0.142500
0.365077 0.832454 0.150100
0.376477 0.832454 0.150100
0.353677 0.836254 0.157700
0.361277 0.840054 0.157700
0.361277 0.847654 0.169100
0.357477 0.855254 0.176700
0.365077 0.859054 0.176700
0.372677 0.843854 0.157700
0.368877 0.851454 0.169100
0.380277 0.847654 0.157700
0.376477 0.855254 0.169100
0.266277 0.813454 0.188100
0.262477 0.821054 0.199500
0.273877 0.821054 0.188100
0.270077 0.824854 0.199500
0.281477 0.824854 0.188100
0.266277 0.832454 0.207100
0.273877 0.836254 0.207100
0.277677 0.832454 0.199500
0.285277 0.836254 0.199500
0.281477 0.843854 0.207100
0.262477 0.836254 0.218500
0.270077 0.843854 0.218500
0.266277 0.851454 0.229900
0.273877 0.855254 0.229900
0.262477 0.855254 0.241300
0.277677 0.851454 0.218500
0.289077 0.855254 0.218500
0.292877 0.832454 0.188100
0.296677 0.843854 0.199500
0.300477 0.836254 0.188100
0.304277 0.847654 0.199500
0.292877 0.847654 0.207100
0.300477 0.855254 0.207100
0.308077 0.840054 0.188100
0.315677 0.843854 0.188100
0.311877 0.851454 0.199500
0.311877 0.859054 0.207100
0.296677 0.859054 0.218500
0.327077 0.851454 0.188100
0.323277 0.859054 0.199500
0.334677 0.855254 0.188100
0.346077 0.859054 0.188100
0.376477 0.862854 0.176700
0.270077 0.862854 0.241300
0.285277 0.862854 0.229900
0.281477 0.866654 0.241300
0.289077 0.874254 0.241300
0.319477 0.862854 0.207100
0.292877 0.866654 0.229900
0.304277 0.870454 0.229900
0.300477 0.878054 0.241300
0.308077 0.866654 0.218500
0.315677 0.870454 0.218500
0.311877 0.878054 0.229900
0.308077 0.881854 0.241300
0.319477 0.889454 0.241300
0.270077 0.866654 0.252700
0.266277 0.870454 0.264100
0.262477 0.878054 0.275500
0.273877 0.878054 0.264100
0.270077 0.881854 0.275500
0.277677 0.874254 0.252700
0.289077 0.878054 0.252700
0.281477 0.889454 0.275500
0.285277 0.885654 0.264100
0.270077 0.889454 0.286900
0.266277 0.893254 0.298300
0.277677 0.893254 0.286900
0.289077 0.900854 0.286900
0.277677 0.897054 0.298300
0.285277 0.904654 0.298300
0.296677 0.885654 0.252700
0.292877 0.889454 0.264100
0.308077 0.889454 0.252700
0.292877 0.893254 0.275500
0.304277 0.893254 0.264100
0.300477 0.900854 0.275500
0.315677 0.893254 0.252700
0.311877 0.904654 0.275500
0.315677 0.900854 0.264100
0.300477 0.904654 0.286900
0.296677 0.908454 0.298300
0.308077 0.908454 0.286900
0.319477 0.916054 0.286900
0.308077 0.916054 0.298300
0.319477 0.919854 0.298300
0.330877 0.862854 0.199500
0.327077 0.870454 0.207100
0.342277 0.866654 0.199500
0.349877 0.870454 0.199500
0.338477 0.874254 0.207100
0.346077 0.878054 0.207100
0.327077 0.874254 0.218500
0.323277 0.881854 0.229900
0.334677 0.878054 0.218500
0.330877 0.885654 0.229900
0.342277 0.889454 0.229900
0.346077 0.881854 0.218500
0.330877 0.893254 0.241300
0.338477 0.897054 0.241300
0.349877 0.900854 0.241300
0.353677 0.862854 0.188100
0.361277 0.866654 0.188100
0.361277 0.874254 0.199500
0.357477 0.881854 0.207100
0.372677 0.870454 0.188100
0.380277 0.874254 0.188100
0.368877 0.878054 0.199500
0.380277 0.881854 0.199500
0.368877 0.885654 0.207100
0.376477 0.885654 0.207100
0.353677 0.885654 0.218500
0.365077 0.889454 0.218500
0.353677 0.893254 0.229900
0.361277 0.897054 0.229900
0.361277 0.904654 0.241300
0.372677 0.900854 0.229900
0.376477 0.893254 0.218500
0.372677 0.908454 0.241300
0.380277 0.912254 0.241300
0.327077 0.897054 0.252700
0.323277 0.904654 0.264100
0.323277 0.908454 0.275500
0.334677 0.908454 0.264100
0.334677 0.912254 0.275500
0.338477 0.900854 0.252700
0.346077 0.908454 0.252700
0.342277 0.919854 0.275500
0.346077 0.912254 0.264100
0.330877 0.919854 0.286900
0.357477 0.912254 0.252700
0.357477 0.916054 0.264100
0.368877 0.912254 0.252700
0.380277 0.916054 0.252700
0.368877 0.919854 0.264100
0.327077 0.923654 0.298300
0.342277 0.923654 0.286900
0.338477 0.927454 0.298300
0.349877 0.931254 0.298300
0.353677 0.923654 0.275500
0.365077 0.923654 0.275500
0.376477 0.923654 0.264100
0.376477 0.927454 0.275500
0.353677 0.927454 0.286900
0.365077 0.931254 0.286900
0.361277 0.935054 0.298300
0.376477 0.935054 0.286900
0.372677 0.938854 0.298300
0.387877 0.741254 0.077900
0.395477 0.745054 0.077900
0.384077 0.752654 0.085500
0.387877 0.756454 0.085500
0.384077 0.764054 0.093100
0.395477 0.756454 0.085500
0.391677 0.767854 0.093100
0.399277 0.748854 0.077900
0.410677 0.741254 0.070300
0.406877 0.748854 0.077900
0.403077 0.760254 0.085500
0.410677 0.764054 0.085500
0.399277 0.771654 0.093100
0.406877 0.771654 0.093100
0.387877 0.775454 0.100700
0.395477 0.779254 0.100700
0.384077 0.786854 0.108300
0.391677 0.790654 0.108300
0.387877 0.798254 0.115900
0.403077 0.783054 0.100700
0.399277 0.790654 0.108300
0.410677 0.786854 0.100700
0.406877 0.794454 0.108300
0.414477 0.741254 0.070300
0.414477 0.752654 0.077900
0.422077 0.745054 0.070300
0.418277 0.756454 0.077900
0.425877 0.756454 0.077900
0.414477 0.764054 0.085500
0.422077 0.767854 0.085500
0.429677 0.745054 0.070300
0.433477 0.748854 0.070300
0.441077 0.748854 0.070300
0.433477 0.760254 0.077900
0.437277 0.760254 0.077900
0.429677 0.767854 0.085500
0.414477 0.775454 0.093100
0.418277 0.779254 0.093100
0.425877 0.779254 0.093100
0.433477 0.779254 0.093100
0.437277 0.771654 0.085500
0.441077 0.783054 0.093100
0.418277 0.786854 0.100700
0.414477 0.798254 0.108300
0.425877 0.790654 0.100700
0.422077 0.798254 0.108300
0.433477 0.790654 0.100700
0.441077 0.794454 0.100700
0.384077 0.809654 0.123500
0.395477 0.802054 0.115900
0.391677 0.809654 0.123500
0.403077 0.805854 0.115900
0.399277 0.813454 0.123500
0.410677 0.805854 0.115900
0.410677 0.817254 0.123500
0.418277 0.809654 0.115900
0.425877 0.809654 0.115900
0.418277 0.817254 0.123500
0.425877 0.821054 0.123500
0.429677 0.802054 0.108300
0.437277 0.802054 0.108300
0.433477 0.813454 0.115900
0.433477 0.821054 0.123500
0.441077 0.824854 0.123500
0.387877 0.821054 0.131100
0.387877 0.828654 0.142500
0.399277 0.821054 0.131100
0.406877 0.824854 0.131100
0.384077 0.836254 0.150100
0.395477 0.832454 0.142500
0.391677 0.840054 0.150100
0.403077 0.832454 0.142500
0.399277 0.843854 0.150100
0.410677 0.836254 0.142500
0.410677 0.843854 0.150100
0.387877 0.847654 0.157700
0.387877 0.855254 0.169100
0.395477 0.859054 0.169100
0.399277 0.851454 0.157700
0.406877 0.855254 0.157700
0.414477 0.828654 0.131100
0.422077 0.828654 0.131100
0.422077 0.840054 0.142500
0.418277 0.847654 0.150100
0.425877 0.847654 0.150100
0.429677 0.832454 0.131100
0.441077 0.832454 0.131100
0.429677 0.840054 0.142500
0.437277 0.843854 0.142500
0.437277 0.851454 0.150100
0.418277 0.855254 0.157700
0.425877 0.859054 0.157700
0.433477 0.859054 0.157700
0.448677 0.752654 0.070300
0.456277 0.752654 0.070300
0.444877 0.760254 0.077900
0.452477 0.764054 0.077900
0.460077 0.752654 0.070300
0.467677 0.752654 0.070300
0.460077 0.764054 0.077900
0.467677 0.764054 0.077900
0.471477 0.767854 0.077900
0.444877 0.771654 0.085500
0.448677 0.783054 0.093100
0.452477 0.775454 0.085500
0.456277 0.775454 0.085500
0.456277 0.786854 0.093100
0.463877 0.775454 0.085500
0.471477 0.775454 0.085500
0.463877 0.786854 0.093100
0.471477 0.786854 0.093100
0.448677 0.794454 0.100700
0.456277 0.794454 0.100700
0.463877 0.798254 0.100700
0.471477 0.798254 0.100700
0.475277 0.756454 0.070300
0.479077 0.756454 0.070300
0.479077 0.767854 0.077900
0.486677 0.756454 0.070300
0.486677 0.767854 0.077900
0.494277 0.756454 0.070300
0.494277 0.767854 0.077900
0.498077 0.756454 0.070300
0.498077 0.767854 0.077900
0.479077 0.775454 0.085500
0.486677 0.779254 0.085500
0.479077 0.786854 0.093100
0.486677 0.786854 0.093100
0.494277 0.779254 0.085500
0.498077 0.779254 0.085500
0.494277 0.786854 0.093100
0.498077 0.786854 0.093100
0.479077 0.798254 0.100700
0.486677 0.798254 0.100700
0.494277 0.798254 0.100700
0.498077 0.798254 0.100700
0.444877 0.805854 0.108300
0.452477 0.805854 0.108300
0.444877 0.813454 0.115900
0.448677 0.824854 0.123500
0.452477 0.817254 0.115900
0.460077 0.805854 0.108300
0.467677 0.805854 0.108300
0.460077 0.817254 0.115900
0.460077 0.824854 0.123500
0.467677 0.817254 0.115900
0.467677 0.828654 0.123500
0.475277 0.809654 0.108300
0.482877 0.809654 0.108300
0.475277 0.817254 0.115900
0.475277 0.828654 0.123500
0.482877 0.817254 0.115900
0.482877 0.828654 0.123500
0.494277 0.809654 0.108300
0.498077 0.809654 0.108300
0.490477 0.817254 0.115900
0.490477 0.828654 0.123500
0.498077 0.821054 0.115900
0.498077 0.828654 0.123500
0.448677 0.836254 0.131100
0.456277 0.836254 0.131100
0.448677 0.843854 0.142500
0.456277 0.843854 0.142500
0.444877 0.851454 0.150100
0.456277 0.855254 0.150100
0.463877 0.836254 0.131100
0.463877 0.847654 0.142500
0.463877 0.855254 0.150100
0.471477 0.855254 0.150100
0.475277 0.836254 0.131100
0.482877 0.836254 0.131100
0.475277 0.847654 0.142500
0.482877 0.847654 0.142500
0.482877 0.855254 0.150100
0.490477 0.840054 0.131100
0.498077 0.840054 0.131100
0.490477 0.847654 0.142500
0.490477 0.855254 0.150100
0.498077 0.847654 0.142500
0.498077 0.855254 0.150100
0.384077 0.866654 0.176700
0.395477 0.866654 0.176700
0.406877 0.862854 0.169100
0.403077 0.870454 0.176700
0.414477 0.862854 0.169100
0.425877 0.866654 0.169100
0.414477 0.874254 0.176700
0.422077 0.874254 0.176700
0.433477 0.866654 0.169100
0.433477 0.878054 0.176700
0.441077 0.878054 0.176700
0.444877 0.862854 0.157700
0.444877 0.870454 0.169100
0.452477 0.862854 0.157700
0.452477 0.870454 0.169100
0.452477 0.878054 0.176700
0.463877 0.862854 0.157700
0.463877 0.874254 0.169100
0.471477 0.866654 0.157700
0.471477 0.874254 0.169100
0.460077 0.881854 0.176700
0.471477 0.881854 0.176700
0.482877 0.866654 0.157700
0.482877 0.874254 0.169100
0.479077 0.881854 0.176700
0.490477 0.866654 0.157700
0.490477 0.874254 0.169100
0.498077 0.866654 0.157700
0.498077 0.874254 0.169100
0.490477 0.881854 0.176700
0.498077 0.881854 0.176700
0.391677 0.874254 0.188100
0.387877 0.881854 0.199500
0.387877 0.889454 0.207100
0.403077 0.878054 0.188100
0.399277 0.885654 0.199500
0.410677 0.881854 0.188100
0.410677 0.889454 0.199500
0.395477 0.893254 0.207100
0.406877 0.897054 0.207100
0.384077 0.897054 0.218500
0.384077 0.904654 0.229900
0.395477 0.900854 0.218500
0.395477 0.908454 0.229900
0.391677 0.912254 0.241300
0.406877 0.904654 0.218500
0.403077 0.908454 0.229900
0.403077 0.916054 0.241300
0.418277 0.889454 0.199500
0.422077 0.881854 0.188100
0.429677 0.885654 0.188100
0.441077 0.885654 0.188100
0.418277 0.897054 0.207100
0.429677 0.893254 0.199500
0.441077 0.893254 0.199500
0.429677 0.900854 0.207100
0.437277 0.900854 0.207100
0.414477 0.904654 0.218500
0.414477 0.912254 0.229900
0.425877 0.908454 0.218500
0.425877 0.912254 0.229900
0.414477 0.919854 0.241300
0.425877 0.919854 0.241300
0.437277 0.908454 0.218500
0.437277 0.916054 0.229900
0.391677 0.919854 0.252700
0.433477 0.923654 0.241300
0.387877 0.927454 0.264100
0.387877 0.931254 0.275500
0.403077 0.923654 0.252700
0.410677 0.923654 0.252700
0.399277 0.927454 0.264100
0.399277 0.935054 0.275500
0.410677 0.931254 0.264100
0.410677 0.938854 0.275500
0.384077 0.938854 0.286900
0.395477 0.938854 0.286900
0.384077 0.942654 0.298300
0.395477 0.946454 0.298300
0.406877 0.942654 0.286900
0.406877 0.946454 0.298300
0.422077 0.927454 0.252700
0.422077 0.935054 0.264100
0.422077 0.938854 0.275500
0.433477 0.927454 0.252700
0.433477 0.935054 0.264100
0.433477 0.942654 0.275500
0.418277 0.946454 0.286900
0.418277 0.950254 0.298300
0.429677 0.946454 0.286900
0.441077 0.946454 0.286900
0.429677 0.950254 0.298300
0.441077 0.954054 0.298300
0.448677 0.889454 0.188100
0.460077 0.889454 0.188100
0.471477 0.889454 0.188100
0.448677 0.897054 0.199500
0.448677 0.904654 0.207100
0.460077 0.897054 0.199500
0.471477 0.897054 0.199500
0.460077 0.904654 0.207100
0.467677 0.904654 0.207100
0.448677 0.912254 0.218500
0.444877 0.916054 0.229900
0.456277 0.912254 0.218500
0.456277 0.919854 0.229900
0.467677 0.912254 0.218500
0.467677 0.919854 0.229900
0.479077 0.889454 0.188100
0.490477 0.889454 0.188100
0.498077 0.889454 0.188100
0.479077 0.897054 0.199500
0.479077 0.904654 0.207100
0.490477 0.897054 0.199500
0.498077 0.897054 0.199500
0.490477 0.904654 0.207100
0.498077 0.904654 0.207100
0.479077 0.912254 0.218500
0.479077 0.919854 0.229900
0.490477 0.912254 0.218500
0.490477 0.919854 0.229900
0.498077 0.912254 0.218500
0.498077 0.919854 0.229900
0.444877 0.923654 0.241300
0.456277 0.923654 0.241300
0.467677 0.927454 0.241300
0.479077 0.927454 0.241300
0.490477 0.927454 0.241300
0.498077 0.927454 0.241300
0.444877 0.931254 0.252700
0.456277 0.931254 0.252700
0.444877 0.935054 0.264100
0.444877 0.942654 0.275500
0.456277 0.938854 0.264100
0.456277 0.942654 0.275500
0.467677 0.931254 0.252700
0.467677 0.938854 0.264100
0.467677 0.946454 0.275500
0.452477 0.950254 0.286900
0.467677 0.950254 0.286900
0.452477 0.954054 0.298300
0.463877 0.954054 0.298300
0.479077 0.935054 0.252700
0.479077 0.938854 0.264100
0.479077 0.946454 0.275500
0.490477 0.935054 0.252700
0.498077 0.935054 0.252700
0.490477 0.938854 0.264100
0.490477 0.946454 0.275500
0.498077 0.938854 0.264100
0.498077 0.946454 0.275500
0.479077 0.950254 0.286900
0.490477 0.950254 0.286900
0.498077 0.950254 0.286900
0.475277 0.957854 0.298300
0.490477 0.957854 0.298300
0.498077 0.957854 0.298300
0.262477 0.897054 0.309700
0.262477 0.900854 0.321100
0.273877 0.904654 0.309700
0.270077 0.908454 0.321100
0.270077 0.912254 0.332500
0.281477 0.912254 0.321100
0.285277 0.908454 0.309700
0.281477 0.916054 0.332500
0.266277 0.916054 0.343900
0.266277 0.916054 0.359100
0.277677 0.919854 0.343900
0.292877 0.912254 0.309700
0.292877 0.919854 0.321100
0.304277 0.919854 0.309700
0.262477 0.919854 0.370500
0.289077 0.923654 0.332500
0.289077 0.927454 0.343900
0.277677 0.923654 0.359100
0.285277 0.931254 0.359100
0.304277 0.923654 0.321100
0.300477 0.927454 0.332500
0.315677 0.923654 0.309700
0.315677 0.927454 0.321100
0.311877 0.931254 0.332500
0.300477 0.931254 0.343900
0.296677 0.935054 0.359100
0.311877 0.935054 0.343900
0.308077 0.938854 0.359100
0.319477 0.942654 0.359100
0.262477 0.923654 0.381900
0.273877 0.927454 0.370500
0.273877 0.931254 0.381900
0.262477 0.927454 0.393300
0.270077 0.931254 0.393300
0.285277 0.931254 0.370500
0.285277 0.935054 0.381900
0.281477 0.938854 0.393300
0.270077 0.935054 0.408500
0.270077 0.935054 0.419900
0.281477 0.938854 0.408500
0.281477 0.942654 0.419900
0.296677 0.938854 0.370500
0.296677 0.942654 0.381900
0.292877 0.942654 0.393300
0.304277 0.950254 0.393300
0.308077 0.942654 0.370500
0.308077 0.946454 0.381900
0.319477 0.946454 0.370500
0.319477 0.950254 0.381900
0.292877 0.946454 0.408500
0.304277 0.950254 0.408500
0.292877 0.946454 0.419900
0.315677 0.954054 0.393300
0.304277 0.954054 0.419900
0.315677 0.954054 0.408500
0.315677 0.957854 0.419900
0.327077 0.927454 0.309700
0.327077 0.931254 0.321100
0.334677 0.938854 0.321100
0.323277 0.938854 0.332500
0.334677 0.942654 0.332500
0.338477 0.931254 0.309700
0.349877 0.938854 0.309700
0.346077 0.942654 0.321100
0.346077 0.946454 0.332500
0.323277 0.942654 0.343900
0.334677 0.946454 0.343900
0.330877 0.950254 0.359100
0.346077 0.950254 0.343900
0.342277 0.954054 0.359100
0.357477 0.946454 0.321100
0.361277 0.938854 0.309700
0.357477 0.950254 0.332500
0.372677 0.942654 0.309700
0.368877 0.950254 0.321100
0.380277 0.950254 0.321100
0.368877 0.954054 0.332500
0.380277 0.957854 0.332500
0.357477 0.954054 0.343900
0.353677 0.957854 0.359100
0.368877 0.957854 0.343900
0.380277 0.961654 0.343900
0.368877 0.961654 0.359100
0.380277 0.965454 0.359100
0.330877 0.954054 0.370500
0.330877 0.954054 0.381900
0.327077 0.957854 0.393300
0.342277 0.957854 0.370500
0.342277 0.957854 0.381900
0.342277 0.961654 0.393300
0.327077 0.961654 0.408500
0.327077 0.961654 0.419900
0.338477 0.965454 0.408500
0.338477 0.965454 0.419900
0.349877 0.969254 0.408500
0.349877 0.969254 0.419900
0.353677 0.961654 0.370500
0.353677 0.961654 0.381900
0.365077 0.965454 0.370500
0.365077 0.965454 0.381900
0.353677 0.965454 0.393300
0.365077 0.969254 0.393300
0.376477 0.965454 0.370500
0.376477 0.969254 0.381900
0.376477 0.973054 0.393300
0.365077 0.973054 0.408500
0.361277 0.973054 0.419900
0.376477 0.976854 0.408500
0.376477 0.976854 0.419900
0.270077 0.938854 0.431300
0.266277 0.938854 0.446500
0.266277 0.938854 0.457900
0.281477 0.942654 0.431300
0.277677 0.946454 0.446500
0.277677 0.946454 0.457900
0.289077 0.950254 0.446500
0.289077 0.950254 0.457900
0.266277 0.942654 0.473100
0.266277 0.942654 0.484500
0.277677 0.946454 0.473100
0.277677 0.946454 0.484500
0.289077 0.954054 0.473100
0.289077 0.954054 0.484500
0.292877 0.950254 0.431300
0.304277 0.954054 0.431300
0.300477 0.957854 0.446500
0.300477 0.957854 0.457900
0.315677 0.957854 0.431300
0.311877 0.961654 0.457900
0.315677 0.961654 0.446500
0.300477 0.957854 0.473100
0.300477 0.957854 0.484500
0.311877 0.961654 0.473100
0.311877 0.961654 0.484500
0.266277 0.942654 0.495900
0.266277 0.942654 0.511100
0.277677 0.946454 0.495900
0.277677 0.946454 0.511100
0.266277 0.942654 0.522500
0.266277 0.942654 0.533900
0.266277 0.938854 0.549100
0.277677 0.946454 0.522500
0.277677 0.946454 0.533900
0.277677 0.946454 0.549100
0.289077 0.950254 0.549100
0.289077 0.954054 0.495900
0.289077 0.954054 0.511100
0.289077 0.954054 0.522500
0.289077 0.954054 0.533900
0.300477 0.957854 0.495900
0.300477 0.957854 0.511100
0.311877 0.965454 0.495900
0.311877 0.961654 0.511100
0.300477 0.957854 0.522500
0.300477 0.957854 0.533900
0.300477 0.957854 0.549100
0.311877 0.961654 0.522500
0.311877 0.961654 0.533900
0.315677 0.961654 0.549100
0.327077 0.965454 0.431300
0.327077 0.965454 0.446500
0.327077 0.965454 0.457900
0.338477 0.969254 0.431300
0.349877 0.973054 0.431300
0.338477 0.969254 0.446500
0.338477 0.969254 0.457900
0.349877 0.973054 0.446500
0.349877 0.976854 0.457900
0.323277 0.969254 0.473100
0.323277 0.969254 0.484500
0.338477 0.973054 0.473100
0.349877 0.976854 0.473100
0.338477 0.973054 0.484500
0.349877 0.976854 0.484500
0.361277 0.976854 0.431300
0.361277 0.976854 0.446500
0.361277 0.976854 0.457900
0.376477 0.980654 0.431300
0.372677 0.980654 0.446500
0.372677 0.980654 0.457900
0.361277 0.980654 0.473100
0.361277 0.980654 0.484500
0.323277 0.969254 0.495900
0.323277 0.969254 0.511100
0.338477 0.973054 0.495900
0.349877 0.976854 0.495900
0.338477 0.973054 0.511100
0.349877 0.976854 0.511100
0.327077 0.965454 0.533900
0.327077 0.965454 0.549100
0.323277 0.969254 0.522500
0.338477 0.973054 0.522500
0.338477 0.973054 0.533900
0.349877 0.976854 0.522500
0.349877 0.976854 0.533900
0.338477 0.969254 0.549100
0.349877 0.973054 0.549100
0.361277 0.980654 0.495900
0.361277 0.980654 0.511100
0.361277 0.980654 0.522500
0.361277 0.980654 0.533900
0.361277 0.976854 0.549100
0.372677 0.980654 0.533900
0.372677 0.980654 0.549100
0.384077 0.946454 0.309700
0.395477 0.950254 0.309700
0.395477 0.954054 0.321100
0.391677 0.957854 0.332500
0.406877 0.954054 0.309700
0.406877 0.957854 0.321100
0.403077 0.961654 0.332500
0.391677 0.961654 0.343900
0.391677 0.965454 0.359100
0.403077 0.965454 0.343900
0.403077 0.969254 0.359100
0.418277 0.954054 0.309700
0.418277 0.957854 0.321100
0.418277 0.965454 0.332500
0.429677 0.957854 0.309700
0.429677 0.961654 0.321100
0.441077 0.957854 0.309700
0.441077 0.961654 0.321100
0.429677 0.965454 0.332500
0.441077 0.969254 0.332500
0.414477 0.969254 0.343900
0.425877 0.969254 0.343900
0.414477 0.973054 0.359100
0.425877 0.973054 0.359100
0.441077 0.973054 0.343900
0.441077 0.976854 0.359100
0.387877 0.973054 0.381900
0.391677 0.969254 0.370500
0.387877 0.976854 0.393300
0.403077 0.973054 0.370500
0.403077 0.976854 0.381900
0.399277 0.976854 0.393300
0.387877 0.976854 0.408500
0.387877 0.980654 0.419900
0.399277 0.980654 0.408500
0.414477 0.976854 0.370500
0.414477 0.976854 0.381900
0.425877 0.976854 0.370500
0.425877 0.980654 0.381900
0.414477 0.980654 0.393300
0.437277 0.980654 0.370500
0.437277 0.980654 0.381900
0.452477 0.961654 0.309700
0.452477 0.965454 0.321100
0.452477 0.969254 0.332500
0.463877 0.961654 0.309700
0.463877 0.965454 0.321100
0.463877 0.969254 0.332500
0.452477 0.973054 0.343900
0.452477 0.976854 0.359100
0.463877 0.973054 0.343900
0.463877 0.976854 0.359100
0.475277 0.961654 0.309700
0.475277 0.965454 0.321100
0.475277 0.969254 0.332500
0.486677 0.973054 0.332500
0.490477 0.961654 0.309700
0.490477 0.965454 0.321100
0.498077 0.961654 0.309700
0.498077 0.965454 0.321100
0.498077 0.973054 0.332500
0.475277 0.973054 0.343900
0.486677 0.976854 0.343900
0.475277 0.976854 0.359100
0.486677 0.980654 0.359100
0.498077 0.976854 0.343900
0.498077 0.980654 0.359100
0.452477 0.980654 0.370500
0.463877 0.980654 0.370500
0.475277 0.980654 0.370500
0.387877 0.980654 0.431300
0.372677 0.984454 0.473100
0.372677 0.984454 0.484500
0.372677 0.984454 0.495900
0.372677 0.984454 0.511100
0.372677 0.984454 0.522500
0.399277 0.984454 0.419900
0.410677 0.984454 0.419900
0.425877 0.984454 0.393300
0.437277 0.984454 0.393300
0.414477 0.984454 0.408500
0.425877 0.984454 0.408500
0.425877 0.988254 0.419900
0.437277 0.988254 0.408500
0.437277 0.988254 0.419900
0.452477 0.984454 0.381900
0.448677 0.984454 0.393300
0.463877 0.984454 0.381900
0.463877 0.988254 0.393300
0.448677 0.988254 0.408500
0.448677 0.992054 0.419900
0.463877 0.988254 0.408500
0.463877 0.992054 0.419900
0.475277 0.984454 0.381900
0.486677 0.984454 0.370500
0.486677 0.984454 0.381900
0.475277 0.988254 0.393300
0.486677 0.988254 0.393300
0.498077 0.984454 0.370500
0.498077 0.984454 0.381900
0.498077 0.988254 0.393300
0.475277 0.992054 0.408500
0.486677 0.992054 0.408500
0.475277 0.992054 0.419900
0.486677 0.992054 0.419900
