ply
format ascii 1.0
element vertex 1773
property float x
property float y
property float z
end_header
0.275227 0.942204 0.427750
0.275227 0.942204 0.442250
0.260727 0.927704 0.456750
0.260727 0.942204 0.456750
0.260727 0.942204 0.471250
0.275227 0.942204 0.456750
0.275227 0.942204 0.471250
0.057727 0.724704 0.485750
0.057727 0.724704 0.500250
0.057727 0.739204 0.485750
0.057727 0.739204 0.500250
0.057727 0.724704 0.514750
0.057727 0.724704 0.529250
0.057727 0.739204 0.514750
0.057727 0.739204 0.529250
0.072227 0.753704 0.485750
0.072227 0.753704 0.500250
0.072227 0.753704 0.514750
0.072227 0.753704 0.529250
0.086727 0.768204 0.485750
0.086727 0.768204 0.500250
0.086727 0.768204 0.514750
0.086727 0.768204 0.529250
0.057727 0.724704 0.543750
0.057727 0.724704 0.558250
0.057727 0.739204 0.543750
0.057727 0.739204 0.558250
0.057727 0.724704 0.572750
0.057727 0.724704 0.587250
0.057727 0.739204 0.572750
0.072227 0.739204 0.572750
0.072227 0.739204 0.587250
0.072227 0.753704 0.543750
0.072227 0.753704 0.558250
0.072227 0.753704 0.572750
0.072227 0.753704 0.587250
0.086727 0.768204 0.543750
0.086727 0.768204 0.558250
0.086727 0.768204 0.572750
0.086727 0.768204 0.587250
0.086727 0.782704 0.485750
0.086727 0.782704 0.500250
0.086727 0.797204 0.500250
0.101227 0.797204 0.485750
0.101227 0.797204 0.500250
0.086727 0.782704 0.514750
0.086727 0.782704 0.529250
0.101227 0.797204 0.514750
0.101227 0.797204 0.529250
0.086727 0.782704 0.543750
0.086727 0.782704 0.558250
0.101227 0.782704 0.558250
0.101227 0.797204 0.543750
0.101227 0.797204 0.558250
0.086727 0.782704 0.572750
0.086727 0.782704 0.587250
0.101227 0.782704 0.572750
0.101227 0.782704 0.587250
0.101227 0.797204 0.572750
0.101227 0.797204 0.587250
0.115727 0.811704 0.485750
0.115727 0.811704 0.500250
0.115727 0.826204 0.485750
0.115727 0.826204 0.500250
0.130227 0.826204 0.485750
0.130227 0.826204 0.500250
0.115727 0.811704 0.514750
0.115727 0.811704 0.529250
0.115727 0.826204 0.514750
0.115727 0.826204 0.529250
0.130227 0.826204 0.514750
0.130227 0.826204 0.529250
0.115727 0.811704 0.543750
0.115727 0.811704 0.558250
0.115727 0.826204 0.543750
0.115727 0.826204 0.558250
0.130227 0.826204 0.543750
0.130227 0.826204 0.558250
0.115727 0.811704 0.572750
0.115727 0.811704 0.587250
0.130227 0.811704 0.587250
0.130227 0.826204 0.572750
0.130227 0.826204 0.587250
0.057727 0.724704 0.601750
0.072227 0.724704 0.616250
0.072227 0.739204 0.601750
0.072227 0.739204 0.616250
0.072227 0.724704 0.630750
0.086727 0.724704 0.645250
0.086727 0.739204 0.630750
0.086727 0.739204 0.645250
0.086727 0.753704 0.601750
0.086727 0.753704 0.616250
0.086727 0.768204 0.601750
0.086727 0.768204 0.616250
0.101227 0.768204 0.616250
0.086727 0.753704 0.630750
0.086727 0.753704 0.645250
0.086727 0.768204 0.630750
0.101227 0.753704 0.630750
0.101227 0.753704 0.645250
0.101227 0.768204 0.630750
0.101227 0.768204 0.645250
0.086727 0.724704 0.659750
0.086727 0.724704 0.674250
0.086727 0.739204 0.659750
0.086727 0.739204 0.674250
0.101227 0.739204 0.659750
0.101227 0.739204 0.674250
0.086727 0.724704 0.688750
0.101227 0.724704 0.688750
0.101227 0.724704 0.703250
0.101227 0.739204 0.688750
0.101227 0.739204 0.703250
0.101227 0.753704 0.659750
0.101227 0.753704 0.674250
0.101227 0.782704 0.601750
0.101227 0.782704 0.616250
0.101227 0.782704 0.630750
0.115727 0.739204 0.703250
0.115727 0.768204 0.659750
0.115727 0.768204 0.674250
0.115727 0.753704 0.688750
0.115727 0.753704 0.703250
0.115727 0.768204 0.688750
0.130227 0.753704 0.703250
0.130227 0.768204 0.703250
0.144727 0.768204 0.703250
0.115727 0.797204 0.601750
0.115727 0.797204 0.616250
0.115727 0.782704 0.630750
0.115727 0.782704 0.645250
0.115727 0.797204 0.630750
0.130227 0.797204 0.630750
0.130227 0.797204 0.645250
0.115727 0.811704 0.601750
0.130227 0.811704 0.601750
0.130227 0.811704 0.616250
0.130227 0.826204 0.601750
0.130227 0.826204 0.616250
0.130227 0.811704 0.630750
0.130227 0.811704 0.645250
0.144727 0.826204 0.616250
0.144727 0.811704 0.645250
0.144727 0.826204 0.630750
0.144727 0.826204 0.645250
0.115727 0.782704 0.659750
0.130227 0.782704 0.674250
0.130227 0.797204 0.659750
0.130227 0.797204 0.674250
0.130227 0.782704 0.688750
0.130227 0.782704 0.703250
0.130227 0.797204 0.688750
0.144727 0.797204 0.674250
0.144727 0.782704 0.703250
0.144727 0.797204 0.688750
0.144727 0.797204 0.703250
0.159227 0.797204 0.703250
0.144727 0.811704 0.659750
0.144727 0.811704 0.674250
0.159227 0.826204 0.659750
0.159227 0.826204 0.674250
0.159227 0.811704 0.688750
0.159227 0.811704 0.703250
0.130227 0.840704 0.485750
0.130227 0.840704 0.500250
0.130227 0.840704 0.514750
0.130227 0.840704 0.529250
0.144727 0.855204 0.485750
0.144727 0.855204 0.500250
0.159227 0.855204 0.485750
0.159227 0.855204 0.500250
0.144727 0.855204 0.514750
0.144727 0.855204 0.529250
0.159227 0.855204 0.514750
0.159227 0.855204 0.529250
0.159227 0.869704 0.485750
0.159227 0.869704 0.500250
0.159227 0.869704 0.514750
0.159227 0.869704 0.529250
0.130227 0.840704 0.543750
0.130227 0.840704 0.558250
0.144727 0.840704 0.558250
0.144727 0.855204 0.543750
0.159227 0.855204 0.543750
0.159227 0.855204 0.558250
0.144727 0.840704 0.572750
0.144727 0.840704 0.587250
0.159227 0.855204 0.572750
0.159227 0.855204 0.587250
0.159227 0.869704 0.543750
0.159227 0.869704 0.558250
0.159227 0.869704 0.572750
0.144727 0.840704 0.601750
0.159227 0.840704 0.616250
0.159227 0.855204 0.601750
0.159227 0.855204 0.616250
0.159227 0.840704 0.630750
0.159227 0.840704 0.645250
0.159227 0.855204 0.630750
0.173727 0.811704 0.703250
0.173727 0.826204 0.688750
0.173727 0.826204 0.703250
0.188227 0.826204 0.703250
0.173727 0.869704 0.485750
0.173727 0.869704 0.500250
0.188227 0.884204 0.485750
0.188227 0.884204 0.500250
0.173727 0.869704 0.514750
0.173727 0.869704 0.529250
0.188227 0.884204 0.514750
0.188227 0.884204 0.529250
0.173727 0.869704 0.543750
0.173727 0.869704 0.558250
0.188227 0.884204 0.543750
0.188227 0.884204 0.558250
0.173727 0.869704 0.572750
0.173727 0.869704 0.587250
0.188227 0.884204 0.572750
0.188227 0.884204 0.587250
0.202727 0.884204 0.587250
0.188227 0.898704 0.485750
0.188227 0.898704 0.500250
0.188227 0.898704 0.514750
0.188227 0.898704 0.529250
0.202727 0.898704 0.485750
0.202727 0.898704 0.500250
0.217227 0.913204 0.485750
0.217227 0.913204 0.500250
0.202727 0.898704 0.514750
0.202727 0.898704 0.529250
0.217227 0.913204 0.514750
0.217227 0.913204 0.529250
0.202727 0.898704 0.543750
0.202727 0.898704 0.558250
0.217227 0.898704 0.558250
0.217227 0.913204 0.543750
0.217227 0.913204 0.558250
0.202727 0.898704 0.572750
0.202727 0.898704 0.587250
0.217227 0.898704 0.572750
0.217227 0.898704 0.587250
0.231727 0.927704 0.485750
0.231727 0.927704 0.500250
0.246227 0.927704 0.485750
0.246227 0.927704 0.500250
0.231727 0.927704 0.514750
0.231727 0.927704 0.529250
0.246227 0.927704 0.514750
0.246227 0.927704 0.529250
0.260727 0.942204 0.485750
0.260727 0.942204 0.500250
0.275227 0.942204 0.485750
0.275227 0.942204 0.500250
0.260727 0.927704 0.529250
0.260727 0.942204 0.514750
0.260727 0.942204 0.529250
0.275227 0.942204 0.514750
0.275227 0.942204 0.529250
0.231727 0.913204 0.558250
0.231727 0.913204 0.572750
0.231727 0.913204 0.587250
0.231727 0.927704 0.543750
0.246227 0.927704 0.543750
0.246227 0.927704 0.558250
0.246227 0.927704 0.572750
0.246227 0.927704 0.587250
0.260727 0.927704 0.543750
0.260727 0.927704 0.558250
0.260727 0.942204 0.543750
0.275227 0.942204 0.543750
0.275227 0.942204 0.558250
0.260727 0.927704 0.572750
0.260727 0.927704 0.587250
0.275227 0.942204 0.572750
0.275227 0.942204 0.587250
0.173727 0.855204 0.601750
0.173727 0.855204 0.616250
0.173727 0.840704 0.645250
0.173727 0.855204 0.630750
0.173727 0.855204 0.645250
0.188227 0.855204 0.645250
0.173727 0.869704 0.601750
0.173727 0.869704 0.616250
0.188227 0.869704 0.616250
0.188227 0.884204 0.601750
0.188227 0.869704 0.630750
0.202727 0.884204 0.601750
0.202727 0.884204 0.616250
0.202727 0.869704 0.645250
0.202727 0.884204 0.630750
0.217227 0.884204 0.630750
0.217227 0.884204 0.645250
0.173727 0.840704 0.659750
0.173727 0.840704 0.674250
0.173727 0.855204 0.659750
0.188227 0.840704 0.674250
0.188227 0.855204 0.659750
0.188227 0.855204 0.674250
0.173727 0.840704 0.688750
0.188227 0.840704 0.688750
0.188227 0.840704 0.703250
0.188227 0.855204 0.688750
0.202727 0.855204 0.674250
0.202727 0.840704 0.703250
0.202727 0.855204 0.688750
0.202727 0.855204 0.703250
0.217227 0.855204 0.703250
0.202727 0.869704 0.659750
0.217227 0.869704 0.674250
0.217227 0.884204 0.659750
0.217227 0.869704 0.688750
0.202727 0.898704 0.601750
0.217227 0.898704 0.601750
0.217227 0.898704 0.616250
0.217227 0.898704 0.630750
0.231727 0.884204 0.645250
0.231727 0.884204 0.659750
0.231727 0.884204 0.674250
0.246227 0.884204 0.674250
0.231727 0.869704 0.703250
0.231727 0.884204 0.688750
0.246227 0.884204 0.688750
0.246227 0.884204 0.703250
0.260727 0.884204 0.703250
0.231727 0.898704 0.616250
0.231727 0.913204 0.601750
0.246227 0.913204 0.616250
0.231727 0.898704 0.630750
0.231727 0.898704 0.645250
0.246227 0.898704 0.645250
0.246227 0.913204 0.630750
0.246227 0.927704 0.601750
0.260727 0.913204 0.630750
0.260727 0.913204 0.645250
0.260727 0.927704 0.601750
0.260727 0.927704 0.616250
0.275227 0.927704 0.601750
0.275227 0.927704 0.616250
0.275227 0.942204 0.601750
0.260727 0.927704 0.630750
0.275227 0.927704 0.630750
0.275227 0.927704 0.645250
0.231727 0.898704 0.659750
0.246227 0.898704 0.659750
0.246227 0.898704 0.674250
0.246227 0.898704 0.688750
0.260727 0.898704 0.674250
0.260727 0.913204 0.659750
0.275227 0.913204 0.659750
0.275227 0.913204 0.674250
0.260727 0.898704 0.688750
0.260727 0.898704 0.703250
0.275227 0.898704 0.688750
0.275227 0.898704 0.703250
0.289727 0.884204 0.253750
0.289727 0.884204 0.268250
0.304227 0.884204 0.253750
0.289727 0.898704 0.268250
0.304227 0.898704 0.268250
0.289727 0.898704 0.282750
0.289727 0.898704 0.297250
0.289727 0.913204 0.297250
0.304227 0.898704 0.282750
0.304227 0.913204 0.282750
0.304227 0.913204 0.297250
0.318727 0.898704 0.253750
0.318727 0.898704 0.268250
0.318727 0.913204 0.268250
0.333227 0.898704 0.253750
0.333227 0.913204 0.268250
0.318727 0.913204 0.282750
0.318727 0.913204 0.297250
0.333227 0.913204 0.282750
0.333227 0.927704 0.297250
0.289727 0.913204 0.311750
0.289727 0.913204 0.326250
0.304227 0.913204 0.311750
0.289727 0.927704 0.326250
0.304227 0.927704 0.326250
0.289727 0.927704 0.340750
0.289727 0.927704 0.355250
0.304227 0.927704 0.340750
0.304227 0.927704 0.355250
0.304227 0.942204 0.340750
0.304227 0.942204 0.355250
0.318727 0.927704 0.311750
0.318727 0.927704 0.326250
0.318727 0.942204 0.326250
0.333227 0.927704 0.311750
0.333227 0.942204 0.326250
0.318727 0.942204 0.340750
0.318727 0.942204 0.355250
0.333227 0.942204 0.340750
0.333227 0.942204 0.355250
0.347727 0.913204 0.253750
0.347727 0.913204 0.268250
0.362227 0.913204 0.253750
0.362227 0.913204 0.268250
0.347727 0.927704 0.268250
0.362227 0.927704 0.268250
0.347727 0.927704 0.282750
0.347727 0.927704 0.297250
0.362227 0.927704 0.282750
0.362227 0.942204 0.297250
0.376727 0.913204 0.253750
0.391227 0.913204 0.253750
0.376727 0.927704 0.268250
0.391227 0.927704 0.268250
0.376727 0.927704 0.282750
0.376727 0.942204 0.297250
0.391227 0.942204 0.282750
0.391227 0.942204 0.297250
0.347727 0.942204 0.311750
0.347727 0.942204 0.326250
0.362227 0.942204 0.311750
0.362227 0.942204 0.326250
0.376727 0.942204 0.311750
0.376727 0.942204 0.326250
0.289727 0.927704 0.369750
0.289727 0.942204 0.369750
0.289727 0.942204 0.384250
0.304227 0.942204 0.369750
0.304227 0.942204 0.384250
0.289727 0.942204 0.398750
0.289727 0.942204 0.413250
0.304227 0.942204 0.398750
0.318727 0.942204 0.369750
0.289727 0.942204 0.427750
0.405727 0.927704 0.253750
0.405727 0.927704 0.268250
0.405727 0.942204 0.268250
0.420227 0.927704 0.253750
0.420227 0.927704 0.268250
0.420227 0.942204 0.268250
0.405727 0.942204 0.282750
0.405727 0.942204 0.297250
0.420227 0.942204 0.282750
0.434727 0.927704 0.253750
0.434727 0.942204 0.268250
0.449227 0.927704 0.253750
0.449227 0.942204 0.268250
0.434727 0.942204 0.282750
0.449227 0.942204 0.282750
0.463727 0.927704 0.253750
0.463727 0.942204 0.268250
0.478227 0.927704 0.253750
0.478227 0.942204 0.268250
0.492727 0.927704 0.253750
0.492727 0.942204 0.268250
0.507227 0.927704 0.253750
0.507227 0.942204 0.268250
0.289727 0.942204 0.572750
0.289727 0.942204 0.587250
0.289727 0.942204 0.601750
0.289727 0.942204 0.616250
0.304227 0.942204 0.616250
0.289727 0.927704 0.630750
0.289727 0.927704 0.645250
0.289727 0.942204 0.630750
0.304227 0.927704 0.645250
0.304227 0.942204 0.630750
0.304227 0.942204 0.645250
0.318727 0.942204 0.630750
0.318727 0.942204 0.645250
0.333227 0.942204 0.645250
0.289727 0.913204 0.674250
0.289727 0.898704 0.703250
0.289727 0.913204 0.688750
0.289727 0.913204 0.703250
0.304227 0.913204 0.703250
0.289727 0.927704 0.659750
0.304227 0.927704 0.659750
0.304227 0.927704 0.674250
0.304227 0.927704 0.688750
0.318727 0.913204 0.703250
0.318727 0.927704 0.659750
0.318727 0.927704 0.674250
0.318727 0.942204 0.659750
0.318727 0.942204 0.674250
0.333227 0.942204 0.659750
0.333227 0.942204 0.674250
0.318727 0.927704 0.688750
0.318727 0.927704 0.703250
0.333227 0.927704 0.688750
0.333227 0.927704 0.703250
0.333227 0.942204 0.688750
0.347727 0.942204 0.659750
0.347727 0.942204 0.674250
0.362227 0.942204 0.674250
0.347727 0.927704 0.703250
0.347727 0.942204 0.688750
0.362227 0.927704 0.703250
0.362227 0.942204 0.688750
0.362227 0.942204 0.703250
0.376727 0.942204 0.688750
0.376727 0.942204 0.703250
0.391227 0.942204 0.703250
0.405727 0.942204 0.703250
0.420227 0.942204 0.703250
0.434727 0.942204 0.703250
0.362227 0.956704 0.326250
0.347727 0.956704 0.340750
0.347727 0.956704 0.355250
0.362227 0.956704 0.340750
0.362227 0.956704 0.355250
0.376727 0.956704 0.326250
0.391227 0.956704 0.311750
0.391227 0.956704 0.326250
0.376727 0.956704 0.340750
0.376727 0.956704 0.355250
0.391227 0.956704 0.340750
0.391227 0.971204 0.355250
0.304227 0.956704 0.413250
0.318727 0.956704 0.384250
0.333227 0.956704 0.369750
0.333227 0.956704 0.384250
0.318727 0.956704 0.398750
0.318727 0.956704 0.413250
0.333227 0.956704 0.398750
0.333227 0.956704 0.413250
0.333227 0.971204 0.413250
0.289727 0.956704 0.442250
0.304227 0.956704 0.427750
0.304227 0.956704 0.442250
0.289727 0.956704 0.456750
0.289727 0.956704 0.471250
0.304227 0.956704 0.456750
0.304227 0.956704 0.471250
0.318727 0.956704 0.427750
0.318727 0.956704 0.442250
0.318727 0.971204 0.442250
0.333227 0.971204 0.427750
0.333227 0.971204 0.442250
0.318727 0.956704 0.456750
0.318727 0.956704 0.471250
0.318727 0.971204 0.456750
0.318727 0.971204 0.471250
0.333227 0.971204 0.456750
0.333227 0.971204 0.471250
0.347727 0.956704 0.369750
0.347727 0.956704 0.384250
0.362227 0.956704 0.369750
0.362227 0.971204 0.384250
0.347727 0.956704 0.398750
0.347727 0.971204 0.398750
0.347727 0.971204 0.413250
0.362227 0.971204 0.398750
0.362227 0.971204 0.413250
0.376727 0.971204 0.369750
0.376727 0.971204 0.384250
0.391227 0.971204 0.369750
0.391227 0.971204 0.384250
0.376727 0.971204 0.398750
0.376727 0.971204 0.413250
0.391227 0.971204 0.398750
0.391227 0.985704 0.413250
0.347727 0.971204 0.427750
0.347727 0.971204 0.442250
0.362227 0.971204 0.427750
0.362227 0.971204 0.442250
0.347727 0.971204 0.456750
0.347727 0.971204 0.471250
0.362227 0.985704 0.456750
0.362227 0.985704 0.471250
0.376727 0.985704 0.427750
0.376727 0.985704 0.442250
0.391227 0.985704 0.427750
0.391227 0.985704 0.442250
0.376727 0.985704 0.456750
0.376727 0.985704 0.471250
0.391227 0.985704 0.456750
0.391227 0.985704 0.471250
0.420227 0.956704 0.297250
0.434727 0.956704 0.297250
0.449227 0.956704 0.282750
0.449227 0.956704 0.297250
0.405727 0.956704 0.311750
0.405727 0.956704 0.326250
0.420227 0.956704 0.311750
0.420227 0.956704 0.326250
0.405727 0.971204 0.340750
0.405727 0.971204 0.355250
0.420227 0.971204 0.340750
0.420227 0.971204 0.355250
0.434727 0.956704 0.311750
0.434727 0.956704 0.326250
0.434727 0.971204 0.326250
0.449227 0.956704 0.311750
0.449227 0.971204 0.326250
0.434727 0.971204 0.340750
0.434727 0.971204 0.355250
0.449227 0.971204 0.340750
0.449227 0.971204 0.355250
0.463727 0.956704 0.282750
0.463727 0.956704 0.297250
0.478227 0.956704 0.282750
0.478227 0.956704 0.297250
0.492727 0.956704 0.282750
0.492727 0.956704 0.297250
0.507227 0.956704 0.282750
0.507227 0.956704 0.297250
0.463727 0.956704 0.311750
0.463727 0.971204 0.326250
0.478227 0.956704 0.311750
0.478227 0.971204 0.326250
0.463727 0.971204 0.340750
0.463727 0.971204 0.355250
0.478227 0.971204 0.340750
0.478227 0.985704 0.355250
0.492727 0.956704 0.311750
0.492727 0.971204 0.326250
0.507227 0.956704 0.311750
0.507227 0.971204 0.326250
0.492727 0.971204 0.340750
0.507227 0.971204 0.340750
0.492727 0.985704 0.355250
0.507227 0.985704 0.355250
0.405727 0.971204 0.369750
0.405727 0.971204 0.384250
0.420227 0.971204 0.369750
0.420227 0.971204 0.384250
0.420227 0.985704 0.384250
0.405727 0.985704 0.398750
0.405727 0.985704 0.413250
0.420227 0.985704 0.398750
0.420227 0.985704 0.413250
0.434727 0.985704 0.369750
0.434727 0.985704 0.384250
0.449227 0.985704 0.369750
0.449227 0.985704 0.384250
0.434727 0.985704 0.398750
0.434727 0.985704 0.413250
0.449227 0.985704 0.398750
0.449227 0.985704 0.413250
0.405727 0.985704 0.427750
0.405727 0.985704 0.442250
0.420227 0.985704 0.427750
0.420227 0.985704 0.442250
0.405727 0.985704 0.456750
0.405727 0.985704 0.471250
0.420227 0.985704 0.456750
0.420227 1.000204 0.471250
0.434727 0.985704 0.427750
0.434727 1.000204 0.442250
0.449227 0.985704 0.427750
0.449227 1.000204 0.442250
0.434727 1.000204 0.456750
0.434727 1.000204 0.471250
0.449227 1.000204 0.456750
0.449227 1.000204 0.471250
0.463727 0.985704 0.369750
0.463727 0.985704 0.384250
0.478227 0.985704 0.369750
0.478227 0.985704 0.384250
0.463727 0.985704 0.398750
0.463727 0.985704 0.413250
0.478227 0.985704 0.398750
0.478227 0.985704 0.413250
0.492727 0.985704 0.369750
0.492727 0.985704 0.384250
0.507227 0.985704 0.369750
0.507227 0.985704 0.384250
0.492727 0.985704 0.398750
0.492727 0.985704 0.413250
0.492727 1.000204 0.413250
0.507227 0.985704 0.398750
0.507227 0.985704 0.413250
0.507227 1.000204 0.413250
0.463727 1.000204 0.427750
0.463727 1.000204 0.442250
0.478227 1.000204 0.427750
0.478227 1.000204 0.442250
0.463727 1.000204 0.456750
0.463727 1.000204 0.471250
0.478227 1.000204 0.456750
0.478227 1.000204 0.471250
0.492727 1.000204 0.427750
0.492727 1.000204 0.442250
0.507227 1.000204 0.427750
0.507227 1.000204 0.442250
0.492727 1.000204 0.456750
0.492727 1.000204 0.471250
0.507227 1.000204 0.456750
0.507227 1.000204 0.471250
0.289727 0.956704 0.485750
0.289727 0.956704 0.500250
0.304227 0.956704 0.485750
0.304227 0.956704 0.500250
0.289727 0.956704 0.514750
0.289727 0.956704 0.529250
0.304227 0.956704 0.514750
0.304227 0.956704 0.529250
0.318727 0.956704 0.485750
0.318727 0.956704 0.500250
0.318727 0.971204 0.485750
0.318727 0.971204 0.500250
0.333227 0.971204 0.485750
0.333227 0.971204 0.500250
0.318727 0.956704 0.514750
0.318727 0.956704 0.529250
0.318727 0.971204 0.514750
0.318727 0.971204 0.529250
0.333227 0.971204 0.514750
0.333227 0.971204 0.529250
0.289727 0.956704 0.543750
0.289727 0.956704 0.558250
0.304227 0.956704 0.543750
0.304227 0.956704 0.558250
0.304227 0.956704 0.572750
0.304227 0.956704 0.587250
0.318727 0.956704 0.543750
0.318727 0.956704 0.558250
0.318727 0.971204 0.543750
0.333227 0.971204 0.543750
0.333227 0.971204 0.558250
0.318727 0.956704 0.572750
0.318727 0.956704 0.587250
0.333227 0.956704 0.572750
0.333227 0.956704 0.587250
0.333227 0.971204 0.572750
0.333227 0.971204 0.587250
0.347727 0.971204 0.485750
0.347727 0.971204 0.500250
0.347727 0.971204 0.514750
0.347727 0.971204 0.529250
0.362227 0.985704 0.485750
0.362227 0.985704 0.500250
0.362227 0.985704 0.514750
0.362227 0.985704 0.529250
0.376727 0.985704 0.485750
0.376727 0.985704 0.500250
0.391227 0.985704 0.485750
0.391227 0.985704 0.500250
0.376727 0.985704 0.514750
0.376727 0.985704 0.529250
0.391227 0.985704 0.514750
0.391227 0.985704 0.529250
0.347727 0.971204 0.543750
0.347727 0.971204 0.558250
0.362227 0.971204 0.543750
0.362227 0.971204 0.558250
0.347727 0.971204 0.572750
0.347727 0.971204 0.587250
0.362227 0.971204 0.572750
0.362227 0.971204 0.587250
0.376727 0.971204 0.587250
0.376727 0.985704 0.543750
0.376727 0.985704 0.558250
0.391227 0.985704 0.543750
0.391227 0.985704 0.558250
0.376727 0.985704 0.572750
0.391227 0.985704 0.572750
0.391227 0.985704 0.587250
0.304227 0.956704 0.601750
0.318727 0.956704 0.601750
0.318727 0.956704 0.616250
0.333227 0.956704 0.601750
0.333227 0.956704 0.616250
0.333227 0.956704 0.630750
0.347727 0.956704 0.616250
0.347727 0.971204 0.601750
0.347727 0.971204 0.616250
0.362227 0.971204 0.601750
0.362227 0.971204 0.616250
0.347727 0.956704 0.630750
0.347727 0.956704 0.645250
0.362227 0.956704 0.630750
0.362227 0.956704 0.645250
0.362227 0.971204 0.630750
0.376727 0.971204 0.601750
0.376727 0.971204 0.616250
0.391227 0.971204 0.601750
0.391227 0.971204 0.616250
0.376727 0.956704 0.645250
0.376727 0.971204 0.630750
0.391227 0.971204 0.630750
0.391227 0.971204 0.645250
0.362227 0.956704 0.659750
0.376727 0.956704 0.659750
0.376727 0.956704 0.674250
0.391227 0.956704 0.659750
0.391227 0.956704 0.674250
0.376727 0.956704 0.688750
0.391227 0.956704 0.688750
0.405727 0.985704 0.485750
0.405727 0.985704 0.500250
0.420227 1.000204 0.485750
0.420227 1.000204 0.500250
0.405727 0.985704 0.514750
0.405727 0.985704 0.529250
0.420227 0.985704 0.529250
0.420227 1.000204 0.514750
0.420227 1.000204 0.529250
0.434727 1.000204 0.485750
0.434727 1.000204 0.500250
0.449227 1.000204 0.485750
0.449227 1.000204 0.500250
0.434727 1.000204 0.514750
0.434727 1.000204 0.529250
0.449227 1.000204 0.514750
0.449227 1.000204 0.529250
0.405727 0.985704 0.543750
0.405727 0.985704 0.558250
0.420227 0.985704 0.543750
0.420227 0.985704 0.558250
0.405727 0.985704 0.572750
0.405727 0.985704 0.587250
0.420227 0.985704 0.572750
0.420227 0.985704 0.587250
0.434727 0.985704 0.558250
0.434727 1.000204 0.543750
0.449227 1.000204 0.543750
0.449227 1.000204 0.558250
0.434727 0.985704 0.572750
0.434727 0.985704 0.587250
0.449227 0.985704 0.572750
0.449227 0.985704 0.587250
0.463727 1.000204 0.485750
0.463727 1.000204 0.500250
0.478227 1.000204 0.485750
0.478227 1.000204 0.500250
0.463727 1.000204 0.514750
0.463727 1.000204 0.529250
0.478227 1.000204 0.514750
0.478227 1.000204 0.529250
0.492727 1.000204 0.485750
0.492727 1.000204 0.500250
0.507227 1.000204 0.485750
0.507227 1.000204 0.500250
0.492727 1.000204 0.514750
0.492727 1.000204 0.529250
0.507227 1.000204 0.514750
0.507227 1.000204 0.529250
0.463727 1.000204 0.543750
0.463727 1.000204 0.558250
0.478227 1.000204 0.543750
0.478227 1.000204 0.558250
0.463727 0.985704 0.587250
0.463727 1.000204 0.572750
0.478227 0.985704 0.587250
0.478227 1.000204 0.572750
0.492727 1.000204 0.543750
0.492727 1.000204 0.558250
0.507227 1.000204 0.543750
0.507227 1.000204 0.558250
0.492727 0.985704 0.587250
0.492727 1.000204 0.572750
0.507227 0.985704 0.587250
0.507227 1.000204 0.572750
0.405727 0.971204 0.616250
0.405727 0.971204 0.630750
0.405727 0.971204 0.645250
0.420227 0.971204 0.630750
0.420227 0.971204 0.645250
0.405727 0.985704 0.601750
0.420227 0.985704 0.601750
0.420227 0.985704 0.616250
0.420227 0.985704 0.630750
0.434727 0.971204 0.630750
0.434727 0.971204 0.645250
0.449227 0.971204 0.645250
0.434727 0.985704 0.601750
0.434727 0.985704 0.616250
0.449227 0.985704 0.601750
0.449227 0.985704 0.616250
0.434727 0.985704 0.630750
0.449227 0.985704 0.630750
0.405727 0.956704 0.659750
0.405727 0.956704 0.674250
0.420227 0.956704 0.674250
0.420227 0.971204 0.659750
0.405727 0.956704 0.688750
0.405727 0.956704 0.703250
0.420227 0.956704 0.688750
0.420227 0.956704 0.703250
0.434727 0.956704 0.674250
0.434727 0.971204 0.659750
0.434727 0.971204 0.674250
0.449227 0.971204 0.659750
0.449227 0.971204 0.674250
0.434727 0.956704 0.688750
0.434727 0.956704 0.703250
0.449227 0.956704 0.688750
0.449227 0.956704 0.703250
0.463727 0.971204 0.645250
0.478227 0.971204 0.645250
0.463727 0.985704 0.601750
0.463727 0.985704 0.616250
0.478227 0.985704 0.601750
0.478227 0.985704 0.616250
0.463727 0.985704 0.630750
0.478227 0.985704 0.630750
0.492727 0.971204 0.645250
0.507227 0.971204 0.645250
0.492727 0.985704 0.601750
0.492727 0.985704 0.616250
0.507227 0.985704 0.601750
0.507227 0.985704 0.616250
0.492727 0.985704 0.630750
0.507227 0.985704 0.630750
0.463727 0.971204 0.659750
0.463727 0.971204 0.674250
0.478227 0.971204 0.659750
0.478227 0.971204 0.674250
0.463727 0.956704 0.688750
0.463727 0.956704 0.703250
0.478227 0.956704 0.688750
0.478227 0.956704 0.703250
0.492727 0.971204 0.659750
0.492727 0.971204 0.674250
0.507227 0.971204 0.659750
0.507227 0.971204 0.674250
0.492727 0.956704 0.703250
0.492727 0.971204 0.688750
0.507227 0.956704 0.703250
0.507227 0.971204 0.688750
0.115727 0.724704 0.717750
0.115727 0.724704 0.732250
0.115727 0.739204 0.717750
0.130227 0.739204 0.732250
0.130227 0.724704 0.746750
0.130227 0.739204 0.746750
0.130227 0.753704 0.717750
0.130227 0.753704 0.732250
0.130227 0.768204 0.717750
0.144727 0.724704 0.761250
0.144727 0.739204 0.746750
0.144727 0.739204 0.761250
0.144727 0.753704 0.732250
0.144727 0.768204 0.717750
0.144727 0.768204 0.732250
0.144727 0.753704 0.746750
0.144727 0.768204 0.746750
0.159227 0.753704 0.746750
0.159227 0.753704 0.761250
0.159227 0.768204 0.746750
0.144727 0.724704 0.775750
0.159227 0.724704 0.790250
0.159227 0.739204 0.775750
0.144727 0.782704 0.717750
0.159227 0.782704 0.717750
0.159227 0.782704 0.732250
0.159227 0.797204 0.717750
0.159227 0.782704 0.746750
0.173727 0.768204 0.761250
0.173727 0.724704 0.790250
0.173727 0.739204 0.790250
0.173727 0.724704 0.804750
0.173727 0.724704 0.819250
0.188227 0.724704 0.819250
0.188227 0.739204 0.804750
0.188227 0.739204 0.819250
0.173727 0.753704 0.775750
0.173727 0.753704 0.790250
0.173727 0.768204 0.775750
0.188227 0.753704 0.790250
0.188227 0.768204 0.790250
0.202727 0.739204 0.819250
0.202727 0.768204 0.790250
0.202727 0.753704 0.804750
0.202727 0.753704 0.819250
0.202727 0.768204 0.804750
0.217227 0.753704 0.819250
0.217227 0.768204 0.804750
0.217227 0.768204 0.819250
0.173727 0.797204 0.732250
0.173727 0.782704 0.746750
0.173727 0.797204 0.746750
0.188227 0.782704 0.761250
0.188227 0.797204 0.746750
0.173727 0.811704 0.717750
0.188227 0.811704 0.732250
0.188227 0.826204 0.717750
0.188227 0.811704 0.746750
0.202727 0.797204 0.761250
0.202727 0.826204 0.717750
0.202727 0.826204 0.732250
0.202727 0.811704 0.746750
0.202727 0.811704 0.761250
0.202727 0.826204 0.746750
0.217227 0.811704 0.761250
0.217227 0.826204 0.746750
0.217227 0.826204 0.761250
0.188227 0.782704 0.775750
0.202727 0.782704 0.790250
0.202727 0.797204 0.775750
0.217227 0.782704 0.790250
0.217227 0.797204 0.775750
0.217227 0.797204 0.790250
0.217227 0.782704 0.804750
0.217227 0.811704 0.775750
0.231727 0.826204 0.746750
0.231727 0.826204 0.761250
0.231727 0.797204 0.790250
0.231727 0.782704 0.804750
0.231727 0.782704 0.819250
0.231727 0.797204 0.804750
0.246227 0.797204 0.804750
0.246227 0.797204 0.819250
0.231727 0.811704 0.775750
0.231727 0.811704 0.790250
0.231727 0.826204 0.775750
0.246227 0.811704 0.790250
0.246227 0.826204 0.775750
0.246227 0.826204 0.790250
0.260727 0.797204 0.819250
0.260727 0.826204 0.790250
0.275227 0.826204 0.790250
0.260727 0.811704 0.804750
0.275227 0.811704 0.819250
0.275227 0.826204 0.804750
0.188227 0.724704 0.833750
0.202727 0.724704 0.833750
0.202727 0.739204 0.833750
0.217227 0.724704 0.833750
0.217227 0.724704 0.848250
0.217227 0.739204 0.833750
0.217227 0.739204 0.848250
0.217227 0.753704 0.833750
0.231727 0.724704 0.848250
0.231727 0.739204 0.848250
0.246227 0.739204 0.848250
0.231727 0.724704 0.862750
0.246227 0.724704 0.862750
0.246227 0.724704 0.877250
0.246227 0.739204 0.862750
0.231727 0.753704 0.833750
0.231727 0.753704 0.848250
0.231727 0.768204 0.833750
0.246227 0.753704 0.848250
0.246227 0.768204 0.833750
0.260727 0.724704 0.877250
0.260727 0.739204 0.862750
0.260727 0.739204 0.877250
0.275227 0.724704 0.877250
0.275227 0.739204 0.877250
0.260727 0.753704 0.848250
0.260727 0.768204 0.848250
0.275227 0.768204 0.848250
0.260727 0.753704 0.862750
0.275227 0.753704 0.862750
0.275227 0.753704 0.877250
0.275227 0.768204 0.862750
0.275227 0.724704 0.891750
0.246227 0.782704 0.833750
0.260727 0.782704 0.833750
0.260727 0.797204 0.833750
0.275227 0.782704 0.848250
0.275227 0.797204 0.833750
0.275227 0.811704 0.833750
0.202727 0.840704 0.717750
0.202727 0.840704 0.732250
0.217227 0.840704 0.717750
0.217227 0.840704 0.732250
0.217227 0.855204 0.717750
0.217227 0.840704 0.746750
0.231727 0.855204 0.717750
0.231727 0.855204 0.732250
0.246227 0.855204 0.732250
0.231727 0.840704 0.746750
0.231727 0.840704 0.761250
0.231727 0.855204 0.746750
0.246227 0.840704 0.746750
0.246227 0.840704 0.761250
0.246227 0.855204 0.746750
0.246227 0.869704 0.717750
0.260727 0.840704 0.761250
0.260727 0.855204 0.746750
0.260727 0.855204 0.761250
0.275227 0.855204 0.761250
0.260727 0.869704 0.732250
0.260727 0.884204 0.717750
0.275227 0.884204 0.717750
0.275227 0.884204 0.732250
0.260727 0.869704 0.746750
0.275227 0.869704 0.746750
0.246227 0.840704 0.775750
0.260727 0.840704 0.775750
0.260727 0.840704 0.790250
0.275227 0.840704 0.775750
0.275227 0.840704 0.790250
0.275227 0.855204 0.775750
0.289727 0.826204 0.819250
0.304227 0.826204 0.819250
0.289727 0.739204 0.877250
0.289727 0.753704 0.877250
0.289727 0.768204 0.862750
0.289727 0.768204 0.877250
0.304227 0.753704 0.877250
0.304227 0.768204 0.877250
0.318727 0.768204 0.877250
0.333227 0.768204 0.877250
0.289727 0.724704 0.891750
0.289727 0.739204 0.891750
0.304227 0.724704 0.891750
0.304227 0.724704 0.906250
0.304227 0.739204 0.891750
0.304227 0.753704 0.891750
0.318727 0.724704 0.906250
0.318727 0.739204 0.891750
0.318727 0.739204 0.906250
0.333227 0.724704 0.906250
0.333227 0.739204 0.906250
0.333227 0.724704 0.920750
0.318727 0.753704 0.891750
0.318727 0.768204 0.891750
0.333227 0.753704 0.891750
0.333227 0.768204 0.891750
0.289727 0.782704 0.848250
0.289727 0.797204 0.833750
0.289727 0.797204 0.848250
0.304227 0.797204 0.848250
0.304227 0.782704 0.862750
0.289727 0.811704 0.833750
0.304227 0.811704 0.833750
0.304227 0.811704 0.848250
0.304227 0.826204 0.833750
0.318727 0.797204 0.848250
0.318727 0.782704 0.877250
0.318727 0.797204 0.862750
0.333227 0.782704 0.877250
0.333227 0.797204 0.862750
0.333227 0.797204 0.877250
0.318727 0.811704 0.848250
0.318727 0.826204 0.833750
0.333227 0.811704 0.848250
0.333227 0.826204 0.833750
0.333227 0.826204 0.848250
0.347727 0.739204 0.906250
0.362227 0.739204 0.906250
0.347727 0.724704 0.920750
0.362227 0.724704 0.920750
0.362227 0.739204 0.920750
0.347727 0.753704 0.906250
0.347727 0.768204 0.891750
0.362227 0.753704 0.906250
0.362227 0.768204 0.891750
0.376727 0.724704 0.920750
0.376727 0.724704 0.935250
0.376727 0.739204 0.920750
0.391227 0.724704 0.935250
0.391227 0.739204 0.920750
0.376727 0.753704 0.906250
0.376727 0.768204 0.906250
0.391227 0.753704 0.906250
0.391227 0.768204 0.906250
0.391227 0.753704 0.920750
0.347727 0.782704 0.877250
0.347727 0.797204 0.877250
0.362227 0.797204 0.877250
0.347727 0.811704 0.848250
0.347727 0.826204 0.848250
0.362227 0.826204 0.848250
0.347727 0.811704 0.862750
0.362227 0.811704 0.862750
0.362227 0.811704 0.877250
0.376727 0.797204 0.877250
0.391227 0.797204 0.877250
0.376727 0.826204 0.848250
0.391227 0.826204 0.848250
0.376727 0.811704 0.862750
0.376727 0.811704 0.877250
0.376727 0.826204 0.862750
0.391227 0.811704 0.877250
0.391227 0.826204 0.862750
0.347727 0.782704 0.891750
0.362227 0.782704 0.891750
0.376727 0.782704 0.891750
0.376727 0.797204 0.891750
0.391227 0.782704 0.891750
0.391227 0.797204 0.891750
0.289727 0.884204 0.732250
0.289727 0.869704 0.746750
0.289727 0.869704 0.761250
0.289727 0.884204 0.746750
0.304227 0.869704 0.761250
0.304227 0.884204 0.746750
0.318727 0.884204 0.746750
0.318727 0.884204 0.761250
0.333227 0.884204 0.761250
0.289727 0.840704 0.790250
0.289727 0.855204 0.775750
0.289727 0.855204 0.790250
0.304227 0.855204 0.790250
0.289727 0.840704 0.804750
0.304227 0.840704 0.804750
0.304227 0.840704 0.819250
0.289727 0.869704 0.775750
0.304227 0.869704 0.775750
0.318727 0.855204 0.790250
0.318727 0.840704 0.819250
0.318727 0.855204 0.804750
0.333227 0.840704 0.819250
0.333227 0.855204 0.804750
0.333227 0.855204 0.819250
0.318727 0.869704 0.775750
0.318727 0.869704 0.790250
0.318727 0.884204 0.775750
0.333227 0.869704 0.790250
0.333227 0.884204 0.775750
0.289727 0.898704 0.717750
0.289727 0.898704 0.732250
0.304227 0.898704 0.717750
0.304227 0.898704 0.732250
0.304227 0.913204 0.717750
0.304227 0.898704 0.746750
0.318727 0.898704 0.732250
0.318727 0.913204 0.717750
0.318727 0.913204 0.732250
0.333227 0.913204 0.717750
0.333227 0.913204 0.732250
0.318727 0.898704 0.746750
0.333227 0.898704 0.746750
0.347727 0.855204 0.804750
0.347727 0.855204 0.819250
0.362227 0.855204 0.819250
0.347727 0.869704 0.790250
0.347727 0.884204 0.775750
0.347727 0.884204 0.790250
0.362227 0.869704 0.790250
0.362227 0.884204 0.790250
0.347727 0.869704 0.804750
0.362227 0.869704 0.804750
0.376727 0.884204 0.790250
0.391227 0.884204 0.790250
0.376727 0.869704 0.804750
0.376727 0.869704 0.819250
0.391227 0.869704 0.819250
0.391227 0.884204 0.804750
0.347727 0.913204 0.732250
0.362227 0.913204 0.732250
0.347727 0.898704 0.746750
0.347727 0.898704 0.761250
0.347727 0.913204 0.746750
0.362227 0.898704 0.761250
0.362227 0.913204 0.746750
0.347727 0.927704 0.717750
0.362227 0.927704 0.717750
0.362227 0.927704 0.732250
0.376727 0.898704 0.761250
0.376727 0.913204 0.746750
0.376727 0.913204 0.761250
0.391227 0.913204 0.746750
0.391227 0.913204 0.761250
0.376727 0.927704 0.717750
0.376727 0.927704 0.732250
0.391227 0.927704 0.717750
0.391227 0.927704 0.732250
0.391227 0.942204 0.717750
0.391227 0.927704 0.746750
0.362227 0.898704 0.775750
0.376727 0.898704 0.775750
0.391227 0.898704 0.775750
0.391227 0.898704 0.790250
0.318727 0.840704 0.833750
0.333227 0.840704 0.833750
0.347727 0.840704 0.833750
0.362227 0.840704 0.833750
0.362227 0.840704 0.848250
0.362227 0.855204 0.833750
0.376727 0.840704 0.833750
0.376727 0.840704 0.848250
0.376727 0.855204 0.833750
0.391227 0.840704 0.848250
0.391227 0.855204 0.833750
0.391227 0.869704 0.833750
0.405727 0.724704 0.935250
0.405727 0.739204 0.920750
0.405727 0.739204 0.935250
0.420227 0.724704 0.935250
0.420227 0.739204 0.935250
0.405727 0.768204 0.906250
0.420227 0.768204 0.906250
0.405727 0.753704 0.920750
0.420227 0.753704 0.920750
0.420227 0.768204 0.920750
0.434727 0.724704 0.935250
0.434727 0.739204 0.935250
0.449227 0.739204 0.935250
0.434727 0.768204 0.906250
0.434727 0.753704 0.920750
0.434727 0.768204 0.920750
0.449227 0.753704 0.920750
0.449227 0.753704 0.935250
0.449227 0.768204 0.920750
0.405727 0.811704 0.877250
0.405727 0.826204 0.862750
0.405727 0.826204 0.877250
0.420227 0.811704 0.877250
0.420227 0.826204 0.862750
0.420227 0.826204 0.877250
0.434727 0.811704 0.877250
0.434727 0.826204 0.877250
0.449227 0.811704 0.877250
0.449227 0.826204 0.877250
0.405727 0.782704 0.891750
0.405727 0.782704 0.906250
0.405727 0.797204 0.891750
0.420227 0.782704 0.906250
0.420227 0.797204 0.891750
0.434727 0.782704 0.906250
0.434727 0.797204 0.891750
0.449227 0.782704 0.906250
0.449227 0.797204 0.891750
0.449227 0.797204 0.906250
0.434727 0.811704 0.891750
0.449227 0.811704 0.891750
0.463727 0.739204 0.935250
0.478227 0.739204 0.935250
0.463727 0.753704 0.920750
0.463727 0.753704 0.935250
0.463727 0.768204 0.920750
0.478227 0.753704 0.920750
0.478227 0.753704 0.935250
0.478227 0.768204 0.920750
0.492727 0.739204 0.935250
0.507227 0.739204 0.935250
0.492727 0.753704 0.935250
0.492727 0.768204 0.920750
0.507227 0.753704 0.935250
0.507227 0.768204 0.920750
0.463727 0.826204 0.877250
0.478227 0.826204 0.877250
0.492727 0.826204 0.877250
0.507227 0.826204 0.877250
0.463727 0.782704 0.906250
0.463727 0.797204 0.891750
0.463727 0.797204 0.906250
0.478227 0.782704 0.906250
0.478227 0.797204 0.891750
0.478227 0.797204 0.906250
0.463727 0.811704 0.891750
0.478227 0.811704 0.891750
0.492727 0.782704 0.906250
0.492727 0.797204 0.891750
0.492727 0.797204 0.906250
0.507227 0.782704 0.906250
0.507227 0.797204 0.891750
0.507227 0.797204 0.906250
0.492727 0.811704 0.891750
0.507227 0.811704 0.891750
0.405727 0.869704 0.819250
0.405727 0.884204 0.804750
0.420227 0.884204 0.804750
0.420227 0.884204 0.819250
0.434727 0.884204 0.804750
0.434727 0.884204 0.819250
0.449227 0.884204 0.819250
0.405727 0.913204 0.746750
0.405727 0.913204 0.761250
0.420227 0.913204 0.761250
0.405727 0.927704 0.732250
0.405727 0.942204 0.717750
0.420227 0.942204 0.717750
0.420227 0.942204 0.732250
0.405727 0.927704 0.746750
0.420227 0.927704 0.746750
0.434727 0.913204 0.761250
0.434727 0.942204 0.717750
0.434727 0.942204 0.732250
0.449227 0.942204 0.717750
0.449227 0.942204 0.732250
0.434727 0.927704 0.746750
0.449227 0.927704 0.746750
0.449227 0.927704 0.761250
0.405727 0.898704 0.790250
0.405727 0.913204 0.775750
0.420227 0.898704 0.790250
0.420227 0.913204 0.775750
0.434727 0.898704 0.790250
0.434727 0.913204 0.775750
0.449227 0.898704 0.790250
0.449227 0.913204 0.775750
0.449227 0.913204 0.790250
0.449227 0.898704 0.804750
0.463727 0.884204 0.819250
0.478227 0.884204 0.819250
0.492727 0.884204 0.819250
0.507227 0.884204 0.819250
0.463727 0.942204 0.717750
0.463727 0.942204 0.732250
0.478227 0.942204 0.717750
0.478227 0.942204 0.732250
0.463727 0.927704 0.746750
0.463727 0.927704 0.761250
0.463727 0.942204 0.746750
0.478227 0.927704 0.746750
0.478227 0.927704 0.761250
0.478227 0.942204 0.746750
0.492727 0.942204 0.717750
0.492727 0.942204 0.732250
0.507227 0.942204 0.717750
0.507227 0.942204 0.732250
0.492727 0.927704 0.746750
0.492727 0.927704 0.761250
0.492727 0.942204 0.746750
0.507227 0.927704 0.746750
0.507227 0.927704 0.761250
0.507227 0.942204 0.746750
0.463727 0.898704 0.790250
0.463727 0.913204 0.775750
0.463727 0.913204 0.790250
0.478227 0.898704 0.790250
0.478227 0.913204 0.775750
0.478227 0.913204 0.790250
0.463727 0.898704 0.804750
0.478227 0.898704 0.804750
0.492727 0.898704 0.790250
0.492727 0.913204 0.775750
0.492727 0.913204 0.790250
0.507227 0.898704 0.790250
0.507227 0.913204 0.775750
0.507227 0.913204 0.790250
0.492727 0.898704 0.804750
0.507227 0.898704 0.804750
0.405727 0.840704 0.848250
0.405727 0.855204 0.833750
0.405727 0.855204 0.848250
0.420227 0.840704 0.848250
0.420227 0.855204 0.833750
0.420227 0.855204 0.848250
0.420227 0.840704 0.862750
0.405727 0.869704 0.833750
0.420227 0.869704 0.833750
0.434727 0.840704 0.848250
0.434727 0.855204 0.848250
0.449227 0.855204 0.848250
0.434727 0.840704 0.862750
0.449227 0.840704 0.862750
0.434727 0.869704 0.833750
0.449227 0.869704 0.833750
0.463727 0.855204 0.848250
0.478227 0.855204 0.848250
0.463727 0.840704 0.862750
0.478227 0.840704 0.862750
0.463727 0.869704 0.833750
0.478227 0.869704 0.833750
0.478227 0.884204 0.833750
0.492727 0.855204 0.848250
0.507227 0.855204 0.848250
0.492727 0.840704 0.862750
0.492727 0.840704 0.877250
0.507227 0.840704 0.862750
0.492727 0.869704 0.833750
0.492727 0.884204 0.833750
0.507227 0.869704 0.833750
0.507227 0.884204 0.833750
0.434727 0.724704 0.949750
0.449227 0.724704 0.949750
0.463727 0.724704 0.949750
0.478227 0.724704 0.949750
0.492727 0.724704 0.949750
0.507227 0.724704 0.949750
0.521727 0.072204 0.224750
0.521727 0.072204 0.239250
0.536227 0.072204 0.239250
0.550727 0.072204 0.239250
0.565227 0.072204 0.239250
0.521727 0.130204 0.152250
0.536227 0.130204 0.152250
0.521727 0.115704 0.181250
0.521727 0.130204 0.166750
0.536227 0.115704 0.181250
0.536227 0.130204 0.166750
0.550727 0.115704 0.181250
0.550727 0.130204 0.166750
0.565227 0.115704 0.181250
0.565227 0.130204 0.166750
0.521727 0.086704 0.210250
0.521727 0.101204 0.195750
0.521727 0.101204 0.210250
0.536227 0.101204 0.195750
0.536227 0.101204 0.210250
0.521727 0.086704 0.224750
0.536227 0.086704 0.224750
0.550727 0.101204 0.195750
0.550727 0.101204 0.210250
0.565227 0.101204 0.195750
0.565227 0.101204 0.210250
0.550727 0.086704 0.224750
0.565227 0.086704 0.224750
0.579727 0.115704 0.181250
0.579727 0.130204 0.166750
0.579727 0.130204 0.181250
0.594227 0.115704 0.181250
0.594227 0.130204 0.166750
0.594227 0.130204 0.181250
0.608727 0.130204 0.181250
0.623227 0.130204 0.181250
0.579727 0.101204 0.195750
0.579727 0.101204 0.210250
0.594227 0.101204 0.210250
0.579727 0.086704 0.224750
0.579727 0.086704 0.239250
0.594227 0.086704 0.224750
0.594227 0.086704 0.239250
0.594227 0.101204 0.224750
0.579727 0.115704 0.195750
0.594227 0.115704 0.195750
0.608727 0.101204 0.210250
0.608727 0.086704 0.239250
0.608727 0.101204 0.224750
0.623227 0.086704 0.239250
0.623227 0.101204 0.224750
0.608727 0.115704 0.195750
0.623227 0.115704 0.195750
0.623227 0.115704 0.210250
0.521727 0.173704 0.123250
0.521727 0.188204 0.108750
0.536227 0.173704 0.123250
0.536227 0.188204 0.108750
0.550727 0.173704 0.123250
0.550727 0.188204 0.108750
0.565227 0.173704 0.123250
0.565227 0.188204 0.108750
0.521727 0.246204 0.065250
0.536227 0.246204 0.065250
0.550727 0.246204 0.065250
0.565227 0.246204 0.065250
0.521727 0.202704 0.094250
0.521727 0.217204 0.079750
0.521727 0.217204 0.094250
0.536227 0.202704 0.094250
0.536227 0.217204 0.079750
0.536227 0.217204 0.094250
0.521727 0.231704 0.079750
0.536227 0.231704 0.079750
0.550727 0.202704 0.094250
0.550727 0.217204 0.094250
0.565227 0.202704 0.094250
0.565227 0.217204 0.094250
0.565227 0.202704 0.108750
0.550727 0.231704 0.079750
0.565227 0.231704 0.079750
0.565227 0.246204 0.079750
0.579727 0.173704 0.123250
0.579727 0.188204 0.108750
0.594227 0.188204 0.108750
0.594227 0.188204 0.123250
0.608727 0.188204 0.123250
0.623227 0.188204 0.123250
0.579727 0.217204 0.094250
0.594227 0.217204 0.094250
0.579727 0.202704 0.108750
0.594227 0.202704 0.108750
0.579727 0.231704 0.079750
0.579727 0.246204 0.079750
0.594227 0.231704 0.079750
0.594227 0.231704 0.094250
0.594227 0.246204 0.079750
0.608727 0.217204 0.094250
0.608727 0.202704 0.108750
0.608727 0.217204 0.108750
0.623227 0.202704 0.108750
0.623227 0.202704 0.123250
0.623227 0.217204 0.108750
0.608727 0.231704 0.094250
0.608727 0.246204 0.079750
0.623227 0.231704 0.094250
0.623227 0.246204 0.079750
0.623227 0.246204 0.094250
0.521727 0.144704 0.152250
0.521727 0.159204 0.137750
0.536227 0.144704 0.152250
0.536227 0.159204 0.137750
0.550727 0.144704 0.152250
0.550727 0.159204 0.137750
0.565227 0.144704 0.152250
0.565227 0.159204 0.137750
0.565227 0.173704 0.137750
0.579727 0.144704 0.152250
0.579727 0.159204 0.137750
0.579727 0.159204 0.152250
0.594227 0.144704 0.152250
0.594227 0.159204 0.137750
0.594227 0.159204 0.152250
0.594227 0.144704 0.166750
0.579727 0.173704 0.137750
0.594227 0.173704 0.137750
0.608727 0.144704 0.152250
0.608727 0.159204 0.152250
0.623227 0.159204 0.152250
0.608727 0.144704 0.166750
0.623227 0.144704 0.166750
0.623227 0.144704 0.181250
0.608727 0.173704 0.137750
0.608727 0.188204 0.137750
0.623227 0.173704 0.137750
0.623227 0.173704 0.152250
0.623227 0.188204 0.137750
0.637727 0.130204 0.181250
0.637727 0.101204 0.224750
0.637727 0.101204 0.239250
0.652227 0.101204 0.224750
0.652227 0.101204 0.239250
0.637727 0.115704 0.210250
0.637727 0.130204 0.195750
0.652227 0.115704 0.210250
0.652227 0.130204 0.195750
0.652227 0.130204 0.210250
0.637727 0.115704 0.224750
0.652227 0.115704 0.224750
0.666727 0.101204 0.239250
0.666727 0.130204 0.195750
0.666727 0.130204 0.210250
0.681227 0.130204 0.210250
0.666727 0.115704 0.224750
0.681227 0.115704 0.224750
0.681227 0.115704 0.239250
0.681227 0.130204 0.224750
0.695727 0.115704 0.239250
0.695727 0.130204 0.224750
0.710227 0.130204 0.224750
0.710227 0.130204 0.239250
0.724727 0.130204 0.239250
0.637727 0.202704 0.108750
0.637727 0.202704 0.123250
0.637727 0.217204 0.108750
0.652227 0.202704 0.123250
0.652227 0.217204 0.108750
0.652227 0.217204 0.123250
0.637727 0.231704 0.094250
0.637727 0.246204 0.094250
0.652227 0.246204 0.094250
0.637727 0.231704 0.108750
0.652227 0.231704 0.108750
0.666727 0.217204 0.108750
0.666727 0.217204 0.123250
0.681227 0.217204 0.123250
0.666727 0.246204 0.094250
0.666727 0.231704 0.108750
0.666727 0.246204 0.108750
0.681227 0.231704 0.108750
0.681227 0.231704 0.123250
0.681227 0.246204 0.108750
0.695727 0.231704 0.123250
0.695727 0.246204 0.108750
0.710227 0.246204 0.123250
0.637727 0.159204 0.152250
0.652227 0.159204 0.152250
0.637727 0.144704 0.166750
0.637727 0.144704 0.181250
0.637727 0.159204 0.166750
0.652227 0.144704 0.181250
0.652227 0.159204 0.166750
0.637727 0.173704 0.137750
0.637727 0.173704 0.152250
0.637727 0.188204 0.137750
0.652227 0.173704 0.152250
0.652227 0.188204 0.137750
0.666727 0.144704 0.181250
0.666727 0.159204 0.166750
0.666727 0.159204 0.181250
0.681227 0.159204 0.181250
0.666727 0.173704 0.152250
0.666727 0.188204 0.137750
0.666727 0.188204 0.152250
0.681227 0.173704 0.152250
0.681227 0.188204 0.152250
0.666727 0.173704 0.166750
0.681227 0.173704 0.166750
0.666727 0.144704 0.195750
0.681227 0.144704 0.195750
0.681227 0.144704 0.210250
0.652227 0.202704 0.137750
0.666727 0.202704 0.137750
0.681227 0.202704 0.137750
0.681227 0.202704 0.152250
0.681227 0.217204 0.137750
0.695727 0.159204 0.181250
0.695727 0.188204 0.152250
0.695727 0.173704 0.166750
0.695727 0.173704 0.181250
0.710227 0.173704 0.181250
0.710227 0.188204 0.166750
0.710227 0.188204 0.181250
0.724727 0.173704 0.181250
0.724727 0.188204 0.181250
0.739227 0.188204 0.181250
0.695727 0.144704 0.195750
0.695727 0.144704 0.210250
0.695727 0.159204 0.195750
0.710227 0.144704 0.210250
0.710227 0.159204 0.195750
0.710227 0.159204 0.210250
0.710227 0.144704 0.224750
0.724727 0.159204 0.210250
0.724727 0.144704 0.224750
0.724727 0.159204 0.224750
0.739227 0.144704 0.239250
0.739227 0.159204 0.224750
0.724727 0.173704 0.195750
0.739227 0.173704 0.195750
0.739227 0.173704 0.210250
0.739227 0.188204 0.195750
0.695727 0.202704 0.137750
0.695727 0.202704 0.152250
0.695727 0.217204 0.137750
0.710227 0.202704 0.152250
0.710227 0.217204 0.137750
0.710227 0.217204 0.152250
0.695727 0.231704 0.137750
0.710227 0.231704 0.137750
0.724727 0.202704 0.152250
0.724727 0.217204 0.152250
0.739227 0.217204 0.152250
0.724727 0.202704 0.166750
0.739227 0.202704 0.166750
0.739227 0.202704 0.181250
0.739227 0.217204 0.166750
0.724727 0.231704 0.137750
0.724727 0.231704 0.152250
0.724727 0.246204 0.137750
0.739227 0.231704 0.152250
0.739227 0.246204 0.137750
0.739227 0.246204 0.152250
0.753727 0.159204 0.224750
0.753727 0.159204 0.239250
0.753727 0.173704 0.210250
0.753727 0.188204 0.195750
0.753727 0.188204 0.210250
0.768227 0.188204 0.210250
0.753727 0.173704 0.224750
0.768227 0.173704 0.224750
0.768227 0.173704 0.239250
0.768227 0.188204 0.224750
0.782727 0.173704 0.239250
0.782727 0.188204 0.224750
0.782727 0.188204 0.239250
0.797227 0.188204 0.239250
0.753727 0.202704 0.181250
0.753727 0.217204 0.166750
0.753727 0.217204 0.181250
0.768227 0.217204 0.181250
0.753727 0.231704 0.152250
0.753727 0.246204 0.152250
0.768227 0.246204 0.152250
0.753727 0.231704 0.166750
0.768227 0.231704 0.166750
0.768227 0.231704 0.181250
0.768227 0.246204 0.166750
0.782727 0.231704 0.181250
0.782727 0.246204 0.166750
0.782727 0.246204 0.181250
0.797227 0.246204 0.181250
0.753727 0.202704 0.195750
0.768227 0.202704 0.195750
0.768227 0.202704 0.210250
0.782727 0.202704 0.210250
0.782727 0.217204 0.195750
0.782727 0.217204 0.210250
0.797227 0.217204 0.210250
0.782727 0.202704 0.224750
0.797227 0.202704 0.224750
0.797227 0.202704 0.239250
0.797227 0.217204 0.224750
0.797227 0.231704 0.195750
0.797227 0.231704 0.210250
0.797227 0.246204 0.195750
0.811727 0.202704 0.239250
0.811727 0.217204 0.224750
0.811727 0.217204 0.239250
0.826227 0.217204 0.239250
0.811727 0.231704 0.210250
0.811727 0.246204 0.195750
0.811727 0.246204 0.210250
0.826227 0.246204 0.210250
0.811727 0.231704 0.224750
0.826227 0.231704 0.224750
0.826227 0.231704 0.239250
0.826227 0.246204 0.224750
0.840727 0.231704 0.239250
