ply
format ascii 1.0
element vertex 1772
property float x
property float y
property float z
end_header
0.235552 0.200434 0.189795
0.237701 0.196127 0.196033
0.235703 0.189974 0.212086
0.230139 0.179900 0.210864
0.215801 0.171826 0.231350
0.216312 0.181063 0.255903
0.217904 0.179659 0.247261
0.206086 0.164780 0.265088
0.204308 0.155999 0.274451
0.201911 0.146576 0.284480
0.214107 0.152372 0.296522
0.193611 0.149372 0.299575
0.186213 0.146095 0.313425
0.186669 0.138559 0.333973
0.198152 0.146554 0.345830
0.190762 0.132074 0.364383
0.180044 0.141987 0.364852
0.199788 0.132234 0.394289
0.176207 0.124503 0.398283
0.187914 0.129360 0.415876
0.182646 0.116577 0.421912
0.176751 0.122333 0.441131
0.172702 0.123967 0.457420
0.179215 0.119909 0.451117
0.175651 0.105665 0.468218
0.172143 0.114166 0.479800
0.174100 0.132595 0.502156
0.177894 0.111434 0.516695
0.156421 0.104267 0.516668
0.180553 0.124325 0.533665
0.176787 0.118444 0.544909
0.179477 0.114641 0.565557
0.172779 0.124023 0.564500
0.167533 0.123733 0.580460
0.182835 0.130135 0.604419
0.174390 0.134013 0.609132
0.200341 0.132043 0.633127
0.192514 0.131009 0.630112
0.190121 0.131976 0.648117
0.194490 0.146586 0.655067
0.204488 0.138150 0.671194
0.197460 0.153146 0.687000
0.201400 0.147173 0.698511
0.197303 0.146970 0.714038
0.213763 0.157660 0.718097
0.203811 0.157965 0.740688
0.221556 0.162314 0.745474
0.218397 0.184023 0.753133
0.213203 0.171415 0.761122
0.227149 0.197626 0.782903
0.228618 0.182852 0.786458
0.240913 0.192032 0.805438
0.245193 0.196073 0.804264
0.248284 0.203300 0.845449
0.259001 0.218810 0.839770
0.266216 0.212235 0.822250
0.270274 0.225550 0.845393
0.273436 0.240775 0.855958
0.279187 0.225605 0.869164
0.297543 0.238793 0.866801
0.288891 0.248096 0.888058
0.297245 0.271762 0.885915
0.305956 0.268419 0.893885
0.303854 0.282267 0.905005
0.333110 0.282523 0.913625
0.323549 0.304757 0.922693
0.326432 0.308617 0.913234
0.326325 0.302257 0.919515
0.332979 0.317209 0.944028
0.343323 0.318659 0.938565
0.360132 0.327993 0.967469
0.380355 0.339442 0.966812
0.373737 0.348259 0.963748
0.379458 0.362152 0.959090
0.392314 0.376745 0.955929
0.389902 0.379204 0.979904
0.416295 0.391910 0.980093
0.416066 0.398525 0.982273
0.421387 0.396475 0.992127
0.436326 0.402767 0.982641
0.428550 0.424829 0.983340
0.449220 0.443757 1.006142
0.453494 0.452166 1.004442
0.462089 0.465746 0.975571
0.474376 0.472175 0.986097
0.477297 0.484025 0.991300
0.492709 0.492396 0.993028
0.487864 0.498339 0.995089
0.506852 0.495402 0.004473
0.490176 0.495260 -0.001809
0.480325 0.494265 0.000966
0.472619 0.477309 -0.005687
0.473840 0.445228 -0.002158
0.444746 0.444801 0.009704
0.465409 0.454949 0.003623
0.429633 0.437911 0.018424
0.438038 0.425748 -0.001384
0.424694 0.415621 0.010179
0.431221 0.413120 0.015828
0.410719 0.406735 0.027514
0.386045 0.388544 0.026749
0.390937 0.379586 0.035114
0.369111 0.364763 0.035956
0.376975 0.370964 0.046003
0.362345 0.348664 0.034417
0.357146 0.341943 0.047605
0.366004 0.338907 0.053741
0.341676 0.310865 0.041050
0.322954 0.317445 0.062379
0.330781 0.326881 0.057523
0.314474 0.298567 0.081011
0.305960 0.294370 0.085156
0.322937 0.285596 0.083325
0.313596 0.272268 0.092019
0.300188 0.302291 0.110335
0.300811 0.266363 0.106467
0.266234 0.250828 0.123064
0.280443 0.242726 0.132846
0.258030 0.241864 0.152456
0.257808 0.223433 0.136859
0.248642 0.231120 0.147712
0.252487 0.234650 0.168585
0.238000 0.213745 0.179488
0.237717 0.206795 0.193145
0.233060 0.205312 0.199106
0.230413 0.205926 0.193978
0.217628 0.191232 0.214156
0.224203 0.190133 0.233116
0.214641 0.171665 0.233877
0.215222 0.191468 0.238361
0.203913 0.166979 0.256951
0.201965 0.175947 0.276527
0.194254 0.163209 0.290662
0.198077 0.142339 0.294746
0.179927 0.149925 0.299720
0.183945 0.142338 0.320855
0.196156 0.148427 0.336538
0.189321 0.171648 0.338947
0.181904 0.158039 0.346921
0.174302 0.132943 0.366886
0.167447 0.127285 0.383257
0.184871 0.131698 0.418968
0.160921 0.147288 0.413809
0.160712 0.148286 0.422802
0.164870 0.140213 0.418502
0.171401 0.134059 0.436224
0.159003 0.120312 0.459810
0.171999 0.115916 0.465847
0.156056 0.115261 0.477746
0.162416 0.131216 0.494086
0.161020 0.129263 0.507574
0.174870 0.124847 0.528521
0.158291 0.136244 0.543868
0.161406 0.130786 0.539618
0.183719 0.127037 0.557281
0.167040 0.126417 0.581768
0.178154 0.149923 0.568213
0.174041 0.149604 0.613046
0.173672 0.137859 0.615433
0.172599 0.137699 0.619209
0.185476 0.140118 0.648751
0.172406 0.152158 0.624305
0.172268 0.141550 0.661586
0.190116 0.161348 0.674033
0.207880 0.152135 0.685629
0.181563 0.146594 0.694300
0.192033 0.162695 0.707114
0.197648 0.155070 0.728940
0.196656 0.179868 0.729914
0.217314 0.177076 0.742755
0.209486 0.180272 0.758477
0.214658 0.184882 0.767095
0.222749 0.187694 0.766028
0.210295 0.196536 0.786649
0.235548 0.185138 0.796353
0.230503 0.196982 0.813303
0.236480 0.215553 0.816840
0.252179 0.215687 0.837923
0.258271 0.223579 0.844198
0.267920 0.234367 0.838244
0.249344 0.234283 0.864315
0.279793 0.239308 0.860802
0.286090 0.262590 0.884562
0.273026 0.274968 0.881186
0.292036 0.273888 0.886853
0.300961 0.264795 0.871462
0.302034 0.288868 0.919685
0.306569 0.306210 0.913801
0.314066 0.304498 0.917198
0.297589 0.313846 0.924947
0.333557 0.312808 0.939042
0.324838 0.314966 0.940678
0.357818 0.336795 0.949897
0.358491 0.343251 0.953949
0.361873 0.353888 0.947680
0.378615 0.354174 0.953807
0.385769 0.376665 0.958937
0.378745 0.360646 0.969979
0.397877 0.371904 0.967060
0.403025 0.377065 0.991704
0.413130 0.402318 0.981855
0.421365 0.388849 0.989802
0.429256 0.429580 0.976171
0.427121 0.416841 0.981348
0.445738 0.443787 0.992076
0.443970 0.442336 1.001818
0.450006 0.463904 0.993214
0.482830 0.467169 0.992102
0.488129 0.474071 1.002037
0.478958 0.494326 1.006041
0.511690 0.497552 1.020807
0.497958 0.512597 0.021127
0.484715 0.502140 -0.007003
0.492341 0.487048 -0.000120
0.466974 0.471335 -0.012237
0.474236 0.449181 0.010351
0.461638 0.447224 0.010553
0.438828 0.430904 0.023405
0.437548 0.432123 0.009033
0.414596 0.431069 0.016263
0.403694 0.413294 0.015470
0.411672 0.400399 0.012701
0.404418 0.407651 0.019039
0.396885 0.371988 0.018692
0.380395 0.372721 0.033919
0.381365 0.370989 0.041756
0.366665 0.358430 0.035339
0.368932 0.365475 0.049300
0.350689 0.351836 0.051123
0.341618 0.327167 0.043095
0.347921 0.325157 0.066973
0.340694 0.323544 0.069531
0.319799 0.325360 0.076821
0.309713 0.302530 0.076021
0.298832 0.290794 0.080669
0.306916 0.307298 0.095012
0.300275 0.285589 0.088913
0.293512 0.271813 0.106106
0.272882 0.267666 0.105152
0.279034 0.248669 0.133791
0.260796 0.257680 0.129123
0.254347 0.236583 0.144576
0.252657 0.241951 0.149867
0.258096 0.234142 0.143229
0.233340 0.202234 0.151369
0.231667 0.219072 0.169819
0.217825 0.211511 0.190781
0.228381 0.213503 0.207872
0.226752 0.215638 0.202509
0.208467 0.199586 0.222391
0.206035 0.198465 0.231046
0.210323 0.197390 0.257547
0.207361 0.195607 0.260289
0.206239 0.173385 0.246799
0.198463 0.178409 0.278049
0.207475 0.176642 0.272797
0.189284 0.158701 0.285353
0.195904 0.179053 0.314682
0.170005 0.164146 0.319293
0.183582 0.165916 0.340367
0.193636 0.146518 0.348581
0.169632 0.159666 0.371440
0.168072 0.162333 0.367312
0.165549 0.139901 0.375765
0.159580 0.146867 0.409591
0.165807 0.139391 0.391740
0.156504 0.144434 0.408080
0.152783 0.147374 0.424044
0.157547 0.138488 0.446690
0.170397 0.122009 0.459187
0.167438 0.129604 0.474639
0.140772 0.136899 0.475107
0.154511 0.142556 0.506692
0.171137 0.141127 0.512645
0.126481 0.138114 0.509083
0.147326 0.126462 0.533249
0.166028 0.144264 0.547193
0.157736 0.147295 0.565774
0.169697 0.138216 0.582985
0.178349 0.145672 0.590328
0.156090 0.137826 0.597111
0.171422 0.146325 0.610723
0.166308 0.145156 0.621658
0.171573 0.160080 0.636122
0.180755 0.140517 0.646233
0.191044 0.165786 0.658788
0.188424 0.172720 0.671844
0.183046 0.176084 0.683446
0.175584 0.172138 0.697743
0.186396 0.177590 0.710895
0.184040 0.179125 0.713510
0.186058 0.182189 0.740614
0.198833 0.181579 0.742298
0.206364 0.188720 0.751136
0.216183 0.192503 0.761510
0.223973 0.187795 0.767683
0.216509 0.197565 0.799837
0.212666 0.218528 0.796566
0.238691 0.205699 0.805990
0.224024 0.221990 0.837350
0.229432 0.218977 0.834772
0.232679 0.221259 0.826522
0.256615 0.226362 0.862330
0.261237 0.240736 0.846071
0.277472 0.253378 0.869429
0.273573 0.266757 0.863688
0.271974 0.248989 0.881547
0.271003 0.275497 0.894770
0.303411 0.271774 0.906202
0.286135 0.288335 0.908120
0.310866 0.300651 0.908188
0.310316 0.291318 0.924348
0.306390 0.306700 0.935138
0.320234 0.308299 0.918548
0.329781 0.319867 0.944965
0.352713 0.334580 0.954411
0.344040 0.342586 0.943770
0.368179 0.353903 0.954455
0.366129 0.361853 0.965339
0.361339 0.375325 0.986392
0.377340 0.376067 0.964330
0.391934 0.394289 0.980104
0.403496 0.396230 0.973143
0.420985 0.407831 0.978325
0.412384 0.409629 0.979535
0.409779 0.418682 0.994565
0.443006 0.438514 1.000827
0.453078 0.466935 1.006646
0.452916 0.453677 0.991215
0.473913 0.453400 0.998743
0.469806 0.481665 0.997445
0.484102 0.469399 1.001696
0.475796 0.475681 0.993831
0.505316 0.493294 1.013182
0.508234 0.498252 0.016782
0.483569 0.495711 0.007814
0.481273 0.483206 0.001699
0.473503 0.456759 0.013238
0.469934 0.471045 0.000159
0.461858 0.440902 -0.013966
0.444316 0.436175 0.019930
0.429298 0.433586 0.022270
0.431343 0.430544 0.015651
0.398436 0.414442 0.009058
0.412702 0.408069 0.007486
0.386876 0.397775 0.016459
0.380022 0.392999 0.032242
0.371941 0.373438 0.019267
0.379960 0.370332 0.034311
0.363409 0.373260 0.048282
0.362411 0.360641 0.034029
0.354131 0.350462 0.041893
0.349415 0.354914 0.048699
0.329432 0.344612 0.060372
0.326482 0.340953 0.064963
0.312919 0.313351 0.071434
0.323348 0.321713 0.069146
0.312921 0.308370 0.085236
0.299602 0.303647 0.081319
0.277414 0.292747 0.124865
0.277530 0.283917 0.104147
0.282057 0.266873 0.121835
0.272124 0.265635 0.137328
0.260020 0.255373 0.135708
0.259335 0.260663 0.149853
0.258992 0.249551 0.145726
0.233025 0.239351 0.171569
0.247414 0.238202 0.174725
0.236537 0.237641 0.167042
0.220462 0.212186 0.187434
0.216739 0.221587 0.182008
0.225592 0.207746 0.188826
0.215761 0.201130 0.227859
0.202631 0.199528 0.220503
0.196347 0.184736 0.222300
0.194385 0.202914 0.260489
0.188686 0.189052 0.247019
0.186303 0.182126 0.268501
0.179062 0.167328 0.278292
0.175981 0.175176 0.310420
0.172236 0.183528 0.318748
0.162648 0.163976 0.324846
0.192885 0.162581 0.340388
0.167510 0.153150 0.349559
0.152223 0.165949 0.372518
0.149799 0.141895 0.359733
0.167676 0.147419 0.381481
0.143619 0.153392 0.389087
0.152191 0.159971 0.408136
0.145330 0.158250 0.417182
0.160041 0.145854 0.438029
0.146823 0.152415 0.436471
0.143846 0.145619 0.449990
0.156050 0.160459 0.469118
0.129790 0.148414 0.487595
0.145900 0.148169 0.493676
0.151855 0.158744 0.510760
0.143456 0.150363 0.515856
0.136613 0.159301 0.539213
0.136623 0.149239 0.535608
0.149696 0.140067 0.553776
0.157083 0.164392 0.579042
0.158239 0.130209 0.578008
0.144703 0.143800 0.589287
0.161292 0.159600 0.608863
0.153688 0.149769 0.625294
0.155425 0.157602 0.634262
0.159379 0.156265 0.660013
0.174273 0.170289 0.654971
0.165732 0.171379 0.695415
0.176942 0.168430 0.675268
0.176278 0.165661 0.698595
0.180001 0.173251 0.702324
0.184519 0.189700 0.732511
0.184709 0.187950 0.723749
0.181078 0.194457 0.742689
0.205881 0.183103 0.759449
0.194422 0.199567 0.760161
0.199273 0.212932 0.770469
0.233486 0.218346 0.771829
0.213883 0.216478 0.786100
0.219755 0.210864 0.801233
0.233805 0.219960 0.816371
0.230080 0.230438 0.824734
0.238213 0.240529 0.839793
0.252698 0.237508 0.857521
0.260932 0.248865 0.851321
0.262762 0.261366 0.852461
0.261716 0.262515 0.874788
0.254918 0.263202 0.880428
0.284005 0.286501 0.887129
0.288179 0.299264 0.898415
0.287941 0.294094 0.914579
0.307149 0.303296 0.900373
0.306057 0.299818 0.934884
0.325936 0.334487 0.917928
0.323910 0.322671 0.944716
0.313064 0.322552 0.925600
0.333080 0.328314 0.954582
0.338927 0.353863 0.952286
0.358476 0.354589 0.960449
0.374461 0.364816 0.984391
0.371342 0.375648 0.958065
0.383358 0.383889 0.974470
0.383081 0.402447 0.963258
0.396901 0.382902 0.975057
0.418006 0.404147 0.988314
0.421377 0.408229 0.995665
0.418079 0.425538 1.003713
0.446939 0.433488 1.011505
0.446720 0.436640 0.988144
0.455127 0.452965 1.008734
0.466074 0.464865 0.975830
0.472262 0.458701 0.992302
0.470875 0.484864 1.002486
0.472415 0.489886 1.006277
0.503760 0.498070 1.001862
0.494830 0.502467 -0.007315
0.481664 0.495952 0.011644
0.481287 0.483599 0.000898
0.478344 0.474452 0.019373
0.464382 0.457119 -0.007299
0.449858 0.452823 0.009201
0.437571 0.452610 0.014766
0.442509 0.448692 -0.000531
0.431507 0.429006 0.014222
0.410204 0.431766 0.010778
0.405352 0.406882 0.009421
0.394189 0.401124 0.006857
0.392692 0.390126 0.024923
0.381118 0.373220 0.022129
0.361121 0.374364 0.039073
0.357065 0.363666 0.041398
0.352603 0.359501 0.044826
0.337734 0.350395 0.037554
0.335372 0.357374 0.049306
0.334644 0.328507 0.066789
0.320592 0.324917 0.063318
0.311570 0.312341 0.078611
0.297742 0.318205 0.080078
0.292679 0.303153 0.083835
0.288732 0.302269 0.085665
0.280770 0.295771 0.106110
0.276338 0.287734 0.115073
0.267536 0.268502 0.115912
0.263908 0.282463 0.119218
0.254465 0.268407 0.126818
0.254973 0.268749 0.138704
0.250972 0.251453 0.170669
0.227720 0.246895 0.161184
0.230200 0.246122 0.162434
0.235703 0.249043 0.171319
0.217209 0.243816 0.198312
0.209898 0.234506 0.208948
0.207292 0.226007 0.211171
0.188331 0.206205 0.217065
0.195780 0.197499 0.238746
0.194720 0.199042 0.244637
0.183867 0.199203 0.257068
0.179377 0.205501 0.262301
0.171514 0.193026 0.276319
0.176570 0.177074 0.287316
0.171093 0.185144 0.292663
0.174859 0.185658 0.316757
0.164341 0.170599 0.320405
0.159297 0.155944 0.319117
0.155942 0.179501 0.346609
0.159490 0.175760 0.363015
0.160735 0.168111 0.369668
0.171830 0.148287 0.383844
0.143360 0.166337 0.390732
0.145478 0.173166 0.424441
0.138495 0.157665 0.422344
0.147036 0.164302 0.433592
0.139619 0.164674 0.454722
0.134450 0.154821 0.465125
0.143544 0.150744 0.465498
0.135123 0.159196 0.484795
0.142297 0.153960 0.504946
0.142110 0.159115 0.508146
0.154156 0.172962 0.530540
0.134874 0.151623 0.527305
0.148892 0.154774 0.557911
0.151249 0.147281 0.560839
0.152172 0.151387 0.583691
0.144902 0.163744 0.582393
0.151760 0.158270 0.599033
0.141076 0.152584 0.602725
0.145662 0.156869 0.634847
0.152653 0.161456 0.647220
0.169883 0.170499 0.646139
0.156648 0.180132 0.648735
0.166437 0.180361 0.665961
0.152230 0.172084 0.676723
0.171409 0.193013 0.701275
0.166135 0.187788 0.720016
0.187855 0.197965 0.729638
0.183114 0.184843 0.721753
0.178212 0.192683 0.746757
0.178980 0.215190 0.761567
0.184894 0.211378 0.761949
0.203756 0.209519 0.774997
0.214308 0.215764 0.810908
0.219041 0.219167 0.802000
0.209261 0.230634 0.815524
0.210762 0.229694 0.802025
0.226347 0.238257 0.831067
0.219143 0.253652 0.845562
0.231598 0.249216 0.851464
0.257954 0.246821 0.843317
0.235133 0.265726 0.862221
0.264173 0.279473 0.873422
0.269079 0.273270 0.897379
0.265434 0.289887 0.885407
0.284864 0.290538 0.905247
0.277072 0.299443 0.909763
0.295998 0.302521 0.928393
0.297005 0.309296 0.913284
0.316634 0.331063 0.913992
0.319129 0.323787 0.953692
0.340583 0.324139 0.936001
0.320964 0.333072 0.951853
0.337837 0.348542 0.942641
0.349504 0.353546 0.961103
0.350699 0.344902 0.953281
0.360070 0.368815 0.966710
0.377212 0.395889 0.976059
0.387285 0.381224 0.971923
0.389454 0.411121 0.973029
0.406136 0.413221 0.986388
0.399460 0.418165 0.985861
0.417108 0.426493 0.991832
0.412423 0.437372 0.978590
0.443238 0.437956 0.985134
0.441302 0.445316 1.011578
0.456098 0.460629 1.004505
0.456826 0.460821 0.995704
0.468844 0.475383 0.981460
0.489034 0.475768 1.001191
0.497104 0.489668 1.011109
0.502164 0.519309 0.014011
0.488718 0.485625 -0.004284
0.478684 0.501657 -0.005571
0.471374 0.467175 0.000388
0.457639 0.471973 0.004415
0.447156 0.462193 0.006946
0.451842 0.439446 -0.011358
0.442313 0.446334 0.004956
0.424211 0.449729 0.013651
0.418713 0.426868 0.017353
0.398997 0.413608 0.005989
0.390319 0.404596 0.014403
0.394178 0.397182 0.028668
0.385823 0.389780 0.032180
0.357639 0.388916 0.049926
0.359380 0.365728 0.042474
0.351145 0.363288 0.038518
0.347835 0.355688 0.048386
0.344568 0.357635 0.049351
0.313093 0.330453 0.061527
0.308440 0.329681 0.068263
0.307285 0.303189 0.082343
0.319486 0.334517 0.079601
0.282870 0.315064 0.089346
0.277621 0.310365 0.096432
0.279190 0.292962 0.083341
0.279499 0.280549 0.108455
0.246016 0.287071 0.116868
0.246487 0.291193 0.121853
0.243388 0.268744 0.134239
0.238004 0.269930 0.121116
0.237514 0.259656 0.168328
0.233219 0.249775 0.147246
0.229149 0.255277 0.164315
0.215535 0.237046 0.172206
0.213841 0.239452 0.172535
0.185695 0.243986 0.197561
0.210500 0.224127 0.198407
0.192968 0.214480 0.212282
0.195794 0.218890 0.226988
0.192094 0.205481 0.234984
0.177307 0.214903 0.242588
0.173364 0.190160 0.253123
0.176351 0.188063 0.264916
0.172653 0.174686 0.286641
0.160103 0.197806 0.305612
0.149852 0.194136 0.322784
0.143458 0.190017 0.316352
0.148173 0.179486 0.332657
0.164082 0.179542 0.338011
0.139991 0.162787 0.359614
0.154321 0.183245 0.375827
0.151404 0.162719 0.386365
0.128350 0.170759 0.388824
0.130839 0.179976 0.408578
0.134365 0.161364 0.420666
0.125937 0.167050 0.438120
0.145452 0.166191 0.450061
0.140230 0.176879 0.447403
0.124558 0.157991 0.461581
0.133220 0.167496 0.491760
0.140115 0.163609 0.500155
0.137944 0.158880 0.509227
0.124191 0.171964 0.532432
0.129319 0.162489 0.534753
0.140601 0.175794 0.533813
0.127477 0.158844 0.556006
0.134288 0.160815 0.580360
0.131149 0.185737 0.580870
0.122459 0.166571 0.598593
0.133996 0.172132 0.600069
0.139024 0.176959 0.635626
0.140567 0.168559 0.636462
0.150176 0.178260 0.664639
0.159354 0.166108 0.664770
0.143421 0.198856 0.670075
0.158984 0.187312 0.675786
0.151819 0.200775 0.693278
0.176661 0.191583 0.694732
0.159662 0.204999 0.730613
0.174082 0.208028 0.729467
0.177893 0.199328 0.733415
0.174963 0.210163 0.754212
0.191509 0.213391 0.759356
0.192239 0.204182 0.785851
0.191233 0.233193 0.783830
0.212116 0.238013 0.794736
0.204981 0.238451 0.814657
0.217122 0.236720 0.821830
0.215463 0.245520 0.815278
0.214164 0.246949 0.839429
0.229290 0.260819 0.849176
0.237967 0.262605 0.861624
0.267099 0.255846 0.876405
0.244548 0.268660 0.863440
0.254385 0.280520 0.870699
0.275397 0.277632 0.885175
0.261522 0.297239 0.901540
0.281567 0.317642 0.899548
0.290181 0.317575 0.913203
0.295407 0.323825 0.911943
0.306747 0.327096 0.925326
0.314284 0.330157 0.929240
0.311134 0.329740 0.937982
0.331811 0.344427 0.945565
0.338558 0.359502 0.960663
0.339623 0.354759 0.955747
0.351380 0.375582 0.962421
0.360869 0.372437 0.954820
0.384896 0.374687 0.973096
0.385819 0.385822 0.970623
0.378366 0.405647 0.961231
0.407321 0.397259 0.986684
0.398206 0.419036 0.998118
0.416664 0.429093 0.989724
0.443735 0.438441 0.983664
0.436798 0.448165 0.998486
0.450917 0.449066 0.994325
0.451374 0.460528 1.005916
0.468634 0.452433 0.988030
0.483758 0.479102 1.010191
0.480133 0.478283 1.007493
0.505844 0.496276 1.007251
0.491900 0.499187 -0.001604
0.489053 0.484266 0.001892
0.487742 0.471825 -0.006362
0.461131 0.473287 0.006421
0.469289 0.456612 -0.007356
0.468038 0.459907 0.006415
0.443176 0.460405 0.003926
0.415093 0.446577 0.007029
0.415038 0.445222 0.012364
0.425618 0.420850 0.020824
0.419306 0.417669 0.007526
0.408278 0.408106 0.027708
0.383409 0.406164 0.018736
0.378348 0.384171 0.021182
0.380629 0.387965 0.038924
0.352142 0.377237 0.031273
0.350465 0.370635 0.044668
0.333003 0.367021 0.047417
0.321319 0.343730 0.051881
0.297930 0.354141 0.056659
0.312692 0.343434 0.072539
0.309434 0.349227 0.057737
0.303132 0.326423 0.090652
0.286423 0.315444 0.098713
0.280908 0.311086 0.078096
0.287398 0.313652 0.098050
0.275120 0.300218 0.121190
0.260019 0.293727 0.114780
0.251284 0.281952 0.123225
0.244688 0.270796 0.143144
0.239792 0.271148 0.138208
0.223653 0.270768 0.144013
0.229801 0.260700 0.175136
0.213785 0.258888 0.172684
0.219281 0.253091 0.177428
0.196935 0.224147 0.192653
0.197055 0.235923 0.199864
0.186017 0.245678 0.208104
0.186779 0.236136 0.212555
0.190607 0.226215 0.232905
0.181318 0.231359 0.225406
0.178907 0.223938 0.249993
0.153972 0.202377 0.266058
0.162501 0.198771 0.276623
0.159460 0.204443 0.288750
0.156097 0.211541 0.313584
0.147118 0.200914 0.296943
0.153175 0.184888 0.331751
0.148342 0.192685 0.343071
0.134221 0.187301 0.346810
0.145973 0.173492 0.351656
0.145335 0.187323 0.369015
0.127341 0.170911 0.370594
0.122471 0.196166 0.381284
0.132352 0.176285 0.412681
0.125269 0.172210 0.420410
0.111180 0.175193 0.438403
0.124433 0.166650 0.439055
0.119083 0.166861 0.458007
0.125195 0.150923 0.477301
0.116350 0.177390 0.471859
0.127183 0.179833 0.487345
0.119297 0.177578 0.510991
0.124210 0.178503 0.528426
0.122617 0.180098 0.529705
0.115960 0.185270 0.551738
0.139487 0.183422 0.560993
0.130524 0.169237 0.577196
0.115777 0.167427 0.590639
0.134109 0.171802 0.595383
0.125688 0.184052 0.605779
0.129247 0.179668 0.630735
0.148455 0.187714 0.646960
0.136092 0.177188 0.656128
0.131481 0.177663 0.645639
0.148220 0.200139 0.671350
0.157021 0.196816 0.686549
0.152902 0.210778 0.686592
0.141990 0.200528 0.709338
0.169102 0.213032 0.721903
0.183296 0.208980 0.717058
0.161568 0.211372 0.736629
0.168700 0.196802 0.750789
0.190379 0.232674 0.760549
0.179279 0.229026 0.772978
0.197415 0.243591 0.800373
0.190307 0.228095 0.803147
0.205433 0.228377 0.793640
0.206002 0.241249 0.830342
0.203963 0.249467 0.837440
0.222725 0.260149 0.832794
0.225103 0.266702 0.852615
0.238302 0.274443 0.858464
0.228873 0.279490 0.861661
0.254836 0.273088 0.875975
0.261635 0.290386 0.889271
0.260972 0.285238 0.876566
0.264523 0.292895 0.901881
0.275817 0.309584 0.903339
0.282461 0.330617 0.908851
0.288458 0.318958 0.915015
0.311290 0.337124 0.914036
0.298571 0.322620 0.933762
0.306674 0.337232 0.942056
0.334020 0.359046 0.941734
0.337843 0.360498 0.960618
0.347985 0.378451 0.967040
0.363037 0.392488 0.967168
0.357752 0.396352 0.953884
0.365471 0.392993 0.978715
0.374596 0.385576 0.981761
0.385611 0.411071 0.973213
0.403513 0.417213 0.980222
0.412478 0.436330 0.968014
0.414018 0.441738 0.989441
0.433112 0.441157 0.991996
0.434123 0.443547 0.982780
0.435184 0.447497 1.006295
0.450094 0.449655 0.990298
0.457298 0.468002 0.993103
0.484338 0.491779 1.001167
0.494777 0.487708 0.995256
0.507122 0.509323 1.000094
0.492376 0.513496 0.000059
0.482973 0.497121 -0.003824
0.474279 0.483433 -0.004582
0.469301 0.477306 0.005402
0.460315 0.465969 0.012131
0.446858 0.460848 0.015306
0.443780 0.448728 0.009198
0.436296 0.446434 0.014946
0.416391 0.444157 0.014384
0.423864 0.429552 -0.001526
0.393790 0.411763 0.018977
0.383732 0.424475 0.020602
0.367339 0.412339 0.012269
0.389263 0.398876 0.031365
0.364514 0.378651 0.045512
0.341906 0.385233 0.034945
0.357825 0.394494 0.052024
0.331381 0.364552 0.045133
0.319735 0.366061 0.051168
0.316688 0.345647 0.056540
0.315118 0.341740 0.052564
0.300369 0.340437 0.078247
0.284387 0.331218 0.069435
0.286744 0.316239 0.081525
0.297002 0.306073 0.089446
0.269630 0.309422 0.087736
0.261710 0.299495 0.111477
0.265881 0.296576 0.097988
0.247154 0.284579 0.110680
0.227857 0.282532 0.133260
0.215653 0.283321 0.135682
0.214440 0.251871 0.148383
0.219788 0.263321 0.157730
0.203145 0.265085 0.160960
0.203997 0.254794 0.175067
0.183452 0.261734 0.176635
0.195354 0.257311 0.197705
0.177995 0.256541 0.205353
0.181734 0.250517 0.215207
0.173264 0.235290 0.218791
0.178059 0.221757 0.249846
0.157802 0.218141 0.246178
0.152643 0.217233 0.274751
0.156275 0.213652 0.277899
0.165169 0.214106 0.297543
0.146076 0.207183 0.298164
0.131906 0.201898 0.309423
0.143096 0.197741 0.321425
0.127535 0.210720 0.323336
0.128582 0.198188 0.357908
0.128471 0.184347 0.352703
0.143076 0.195677 0.370646
0.112100 0.203379 0.393832
0.120407 0.172443 0.399868
0.117639 0.176620 0.401248
0.117913 0.186534 0.421440
0.118521 0.200537 0.421375
0.124858 0.175681 0.450617
0.141945 0.184162 0.448356
0.115468 0.189433 0.459641
0.120295 0.169049 0.483219
0.112167 0.171841 0.485481
0.117151 0.179057 0.495695
0.114485 0.188272 0.517291
0.121872 0.187000 0.535061
0.118434 0.192259 0.549988
0.124399 0.188264 0.566839
0.104437 0.178090 0.574843
0.118480 0.187593 0.583702
0.114276 0.195980 0.594732
0.118027 0.202831 0.611726
0.123388 0.193908 0.639631
0.138389 0.182048 0.637121
0.114733 0.188470 0.643759
0.119335 0.199203 0.657830
0.134346 0.206609 0.671166
0.143661 0.206116 0.681619
0.140314 0.208995 0.706355
0.143657 0.207665 0.709007
0.164122 0.221656 0.715793
0.155511 0.214132 0.719126
0.156589 0.212047 0.744200
0.168333 0.220231 0.743737
0.163463 0.230649 0.760648
0.177793 0.243317 0.773920
0.182430 0.226662 0.791657
0.188576 0.238000 0.798237
0.195350 0.248026 0.812320
0.205480 0.251176 0.812645
0.200124 0.265125 0.841969
0.201734 0.274488 0.832902
0.203222 0.268346 0.828202
0.217533 0.259597 0.850331
0.230308 0.284108 0.859367
0.240888 0.286007 0.884237
0.259622 0.300381 0.883953
0.259620 0.301642 0.874884
0.273161 0.316144 0.908104
0.273861 0.318963 0.914567
0.285595 0.316974 0.902321
0.276680 0.331097 0.923101
0.298688 0.325926 0.932448
0.303672 0.347295 0.929690
0.308322 0.355676 0.947112
0.325648 0.348254 0.937335
0.340081 0.362886 0.951272
0.339755 0.368735 0.970689
0.346781 0.361119 0.937501
0.360061 0.390111 0.955081
0.357045 0.394194 0.976567
0.372672 0.401870 0.966483
0.397653 0.397937 0.968996
0.405087 0.413594 0.985562
0.413806 0.420716 0.986255
0.414844 0.428857 0.998296
0.434700 0.448458 0.974322
0.452695 0.448171 0.994122
0.454635 0.459021 0.991012
0.456744 0.456103 0.987561
0.455441 0.458059 0.991876
0.474493 0.486224 0.992598
0.490134 0.489231 1.000913
0.480315 0.488723 0.996098
0.492692 0.507841 0.010414
0.488115 0.500787 -0.002238
0.469186 0.488101 -0.000784
0.470480 0.478709 0.005210
0.460603 0.458275 -0.001863
0.447412 0.467793 -0.008019
0.449447 0.435392 -0.001285
0.430601 0.449614 0.012232
0.415455 0.431308 0.013195
0.404337 0.439471 0.004878
0.393406 0.423906 0.010852
0.380568 0.407548 0.016729
0.374993 0.398667 0.027082
0.353966 0.385248 0.043783
0.376835 0.402771 0.033624
0.360392 0.380135 0.036780
0.351226 0.374425 0.035195
0.325587 0.359282 0.048140
0.336174 0.354237 0.059450
0.304826 0.359817 0.059832
0.311435 0.336589 0.067895
0.287229 0.344534 0.071330
0.285286 0.339235 0.075590
0.274134 0.340244 0.081508
0.263454 0.339539 0.103925
0.264157 0.316260 0.111220
0.270473 0.320455 0.095147
0.242913 0.302765 0.125354
0.239316 0.301439 0.133180
0.232216 0.290170 0.128934
0.222064 0.278332 0.148156
0.207476 0.276091 0.154688
0.229803 0.279659 0.146288
0.209780 0.269848 0.170494
0.178110 0.253883 0.183620
0.198739 0.250013 0.194597
0.179360 0.250226 0.198002
0.194141 0.250884 0.206044
0.178655 0.239900 0.223113
0.165663 0.235136 0.235978
0.162939 0.238846 0.237594
0.165194 0.236571 0.257811
0.143774 0.228798 0.265499
0.137304 0.216324 0.261185
0.153643 0.220014 0.277131
0.156751 0.220874 0.286674
0.132621 0.208792 0.305149
0.134116 0.220869 0.317830
0.119122 0.212416 0.330769
0.119264 0.211577 0.351787
0.116474 0.216060 0.352814
0.113686 0.205855 0.375426
0.115553 0.193649 0.371684
0.107332 0.211399 0.386198
0.109040 0.205850 0.418268
0.110422 0.199423 0.427277
0.109120 0.205241 0.427176
0.111615 0.192306 0.444588
0.114614 0.191576 0.459102
0.106967 0.190917 0.477190
0.117510 0.193644 0.492043
0.088234 0.184432 0.495578
0.114159 0.191580 0.507366
0.102991 0.191888 0.516980
0.104224 0.184908 0.536955
0.118184 0.201667 0.547880
0.113386 0.214068 0.564942
0.100182 0.197005 0.580912
0.118325 0.199692 0.590709
0.115429 0.190602 0.599220
0.126483 0.187632 0.610659
0.122522 0.194225 0.623764
0.129154 0.210984 0.625682
0.127354 0.204624 0.648169
0.115720 0.219517 0.668738
0.117477 0.220698 0.671241
0.126383 0.224386 0.681998
0.143088 0.213812 0.712473
0.143026 0.233114 0.709924
0.153847 0.234208 0.720191
0.156990 0.234847 0.732115
0.144933 0.217803 0.733436
0.165475 0.254627 0.746478
0.165245 0.249368 0.766835
0.162306 0.251983 0.785161
0.174686 0.242025 0.784753
0.193459 0.268433 0.824343
0.189675 0.255883 0.808297
0.195921 0.261889 0.816423
0.207535 0.264669 0.829240
0.211037 0.261070 0.820554
0.197622 0.263390 0.847582
0.228106 0.284319 0.859164
0.227438 0.297556 0.875346
0.230710 0.301528 0.873430
0.250929 0.301392 0.873644
0.251323 0.317612 0.898145
0.249534 0.310987 0.890538
0.263480 0.309910 0.904846
0.263515 0.342351 0.912359
0.282642 0.332557 0.926532
0.287969 0.340774 0.931991
0.287504 0.331538 0.927935
0.303160 0.336393 0.935982
0.324906 0.358788 0.946785
0.330124 0.369929 0.947274
0.332669 0.373760 0.965665
0.358384 0.379966 0.972880
0.350923 0.391679 0.969912
0.346935 0.393072 0.970444
0.364660 0.414189 0.981281
0.397384 0.416009 0.969388
0.391943 0.421180 0.982081
0.418189 0.412116 0.992342
0.426278 0.423422 0.976806
0.424209 0.444246 0.977892
0.437933 0.464293 1.005189
0.444493 0.460529 0.990340
0.447056 0.460167 0.995229
0.467293 0.478202 0.989934
0.481016 0.472818 0.999909
0.478712 0.483176 0.982031
0.486785 0.490579 0.981056
0.499489 0.487757 0.005400
0.487280 0.479709 -0.012658
0.480607 0.485623 -0.004837
0.451455 0.482405 0.012016
0.452243 0.463303 0.003881
0.441529 0.456562 0.009298
0.430018 0.447694 -0.002582
0.424690 0.449409 0.007724
0.435759 0.436473 0.025600
0.403766 0.426226 0.012739
0.401130 0.420987 0.009166
0.388012 0.420626 0.028687
0.389218 0.421717 0.019397
0.361154 0.392784 0.020904
0.352162 0.380319 0.042269
0.359610 0.381420 0.029173
0.329662 0.369462 0.038871
0.334687 0.362969 0.057643
0.332952 0.371118 0.061190
0.316334 0.375856 0.053168
0.320059 0.368208 0.051722
0.298014 0.344226 0.069399
0.281562 0.338898 0.070806
0.264197 0.335939 0.083727
0.262743 0.323164 0.097011
0.266000 0.323897 0.116295
0.263527 0.319192 0.120586
0.232851 0.308756 0.105389
0.234934 0.294542 0.134766
0.218387 0.285513 0.138600
0.214556 0.283392 0.137657
0.203264 0.293558 0.145950
0.220072 0.285489 0.162635
0.207245 0.275807 0.176144
0.184841 0.281760 0.176844
0.176657 0.272201 0.177401
0.183969 0.279950 0.209651
0.180404 0.250482 0.211799
0.160811 0.250951 0.227509
0.169253 0.246396 0.216015
0.162900 0.244054 0.247195
0.136315 0.229851 0.255318
0.159103 0.252332 0.266026
0.150986 0.233527 0.265196
0.127874 0.231287 0.272324
0.140091 0.234706 0.305751
0.132600 0.236062 0.310115
0.124877 0.219196 0.331279
0.122591 0.218203 0.334927
0.127785 0.219621 0.334820
0.122734 0.213474 0.352039
0.091778 0.216599 0.367798
0.106903 0.206343 0.383613
0.118292 0.221254 0.401041
0.095105 0.216001 0.416922
0.090057 0.211699 0.423023
0.107314 0.210126 0.427123
0.090996 0.207099 0.441891
0.093550 0.201566 0.457274
0.097386 0.209353 0.482212
0.106623 0.221603 0.490514
0.102612 0.181493 0.509437
0.091684 0.210446 0.521994
0.102580 0.217972 0.528132
0.109559 0.203387 0.533452
0.091933 0.203797 0.556590
0.105401 0.210026 0.549156
0.093507 0.195430 0.560500
0.107614 0.206906 0.590979
0.107180 0.201387 0.602496
0.107437 0.213438 0.611457
0.113462 0.203644 0.616182
0.091366 0.205772 0.643035
0.111549 0.227017 0.641442
0.115518 0.226151 0.655637
0.132184 0.215287 0.661212
0.121638 0.225521 0.690815
0.135292 0.236483 0.693364
0.114949 0.230738 0.704435
0.139448 0.252288 0.726110
0.140416 0.243213 0.722873
0.165705 0.230832 0.751953
0.156190 0.243678 0.756566
0.164566 0.258753 0.769502
0.156544 0.252053 0.761511
0.159898 0.250639 0.784700
0.170840 0.272931 0.795447
0.184290 0.279526 0.811822
0.200902 0.280969 0.817639
0.192375 0.263909 0.811943
0.192143 0.274778 0.840236
0.217747 0.279121 0.855271
0.215882 0.293050 0.848828
0.211016 0.286425 0.862719
0.229749 0.281543 0.884065
0.248914 0.316391 0.872983
0.246341 0.309773 0.889953
0.248636 0.301823 0.899072
0.260494 0.326743 0.917796
0.265615 0.334133 0.912464
0.278053 0.341752 0.911226
0.288112 0.349257 0.926109
0.289241 0.355892 0.941723
0.317070 0.352106 0.943827
0.327272 0.373087 0.934416
0.321938 0.371994 0.954945
0.321715 0.384185 0.954848
0.332026 0.394308 0.965355
0.341289 0.392978 0.970401
0.363349 0.396310 0.978422
0.379908 0.395389 0.989991
0.391896 0.410988 0.973931
0.386903 0.422577 0.987179
0.404461 0.425569 0.969837
0.409551 0.442413 0.997584
0.434581 0.442499 0.987024
0.430882 0.450476 0.985929
0.446016 0.453221 0.984854
0.456602 0.462054 0.985950
0.468890 0.473473 0.991069
0.482961 0.490084 0.986591
0.485798 0.492240 1.008420
0.497349 0.482679 1.004245
0.511804 0.506368 0.006631
0.495357 0.506074 0.010607
0.474461 0.484763 -0.000183
0.464726 0.480761 -0.006002
0.460489 0.466059 0.008642
0.463507 0.467844 0.002317
0.441316 0.456614 -0.004039
0.414253 0.446741 -0.007598
0.424198 0.433997 0.006046
0.408867 0.433582 0.013568
0.398845 0.422160 0.026260
0.383012 0.424309 0.021288
0.392365 0.410803 0.017077
0.378169 0.408576 0.022818
0.349081 0.399756 0.032038
0.340656 0.376679 0.040901
0.330171 0.387294 0.043918
0.325209 0.375594 0.057641
0.319738 0.366393 0.066561
0.299015 0.374265 0.056618
0.292759 0.361488 0.060624
0.294671 0.355053 0.064953
0.285198 0.345383 0.070654
0.278769 0.338754 0.091706
0.276650 0.336956 0.083886
0.263455 0.333454 0.092701
0.247571 0.325568 0.116143
0.234386 0.323984 0.120365
0.233816 0.301780 0.127814
0.233987 0.308338 0.137602
0.220982 0.319199 0.155841
0.210666 0.285916 0.150893
0.203193 0.304034 0.175055
0.192334 0.283100 0.157952
0.193072 0.268020 0.187857
0.197120 0.293317 0.192459
0.160916 0.286370 0.199453
0.168105 0.281811 0.224471
0.152390 0.268971 0.220961
0.175136 0.258295 0.233162
0.155912 0.256807 0.236127
0.137381 0.245191 0.244776
0.138692 0.258695 0.248884
0.126387 0.257293 0.268413
0.127111 0.245142 0.296521
0.118248 0.234175 0.314001
0.130734 0.253546 0.303190
0.115872 0.240610 0.325690
0.122213 0.233401 0.337170
0.104802 0.220095 0.336160
0.097014 0.233714 0.367761
0.109926 0.235244 0.361702
0.106234 0.211484 0.378423
0.093236 0.213915 0.385884
0.102564 0.217336 0.403029
0.102034 0.217842 0.431683
0.100713 0.215151 0.437135
0.098282 0.216832 0.433308
0.088429 0.202857 0.463628
0.081637 0.216705 0.472118
0.094741 0.219563 0.495762
0.082476 0.214363 0.497202
0.077392 0.218753 0.507615
0.087965 0.218727 0.518351
0.101215 0.208847 0.527511
0.097375 0.232718 0.562091
0.085297 0.215796 0.547862
0.094432 0.217178 0.579394
0.091232 0.215460 0.599688
0.113023 0.213654 0.591245
0.109069 0.212036 0.597649
0.104644 0.217923 0.627154
0.118260 0.227358 0.641735
0.125890 0.223049 0.647021
0.105399 0.223046 0.668853
0.118797 0.239877 0.686171
0.114623 0.235076 0.688313
0.123071 0.232431 0.696827
0.116448 0.227119 0.710144
0.123438 0.247343 0.714026
0.142414 0.257943 0.721723
0.130347 0.252849 0.731671
0.148790 0.256433 0.763212
0.157669 0.245491 0.766403
0.155379 0.257165 0.770150
0.159528 0.270299 0.784713
0.181613 0.271281 0.781178
0.159794 0.267865 0.795991
0.185358 0.265803 0.811634
0.180684 0.284449 0.813753
0.187486 0.291306 0.840002
0.207857 0.296235 0.842502
0.210001 0.309677 0.853837
0.227919 0.305411 0.865912
0.207652 0.297528 0.864987
0.244385 0.318266 0.872260
0.233135 0.318563 0.892390
0.253483 0.326939 0.905038
0.264372 0.347669 0.899247
0.264039 0.339040 0.911383
0.288199 0.338170 0.928786
0.291032 0.346636 0.929322
0.291340 0.373765 0.933071
0.304504 0.362918 0.938450
0.308034 0.362496 0.958036
0.322488 0.373840 0.955764
0.328079 0.390496 0.953579
0.338377 0.400378 0.966646
0.364025 0.397852 0.967853
0.368341 0.404510 0.971015
0.366714 0.410259 0.977431
0.382987 0.412139 0.983319
0.388711 0.424395 0.975262
0.416544 0.438199 0.985622
0.429600 0.421703 0.980493
0.422746 0.447303 0.998275
0.436455 0.455137 0.986896
0.438611 0.468316 0.990202
0.436528 0.469003 0.985689
0.473042 0.478330 0.979935
0.476341 0.490297 0.997481
0.490280 0.483766 1.006686
0.482646 0.487019 1.002274
0.495277 0.497249 0.009977
0.491590 0.491340 -0.016210
0.479099 0.490172 -0.024668
0.462506 0.469272 -0.007458
0.456386 0.466321 0.007846
0.450001 0.469249 0.008266
0.450267 0.463481 0.006220
0.436588 0.457630 0.023209
0.406755 0.440080 0.008623
0.405196 0.443183 0.023447
0.394954 0.441306 0.016306
0.379861 0.443672 0.024243
0.374520 0.415027 0.025526
0.351161 0.411844 0.029704
0.351629 0.407370 0.033187
0.357062 0.395540 0.042825
0.337773 0.395395 0.044426
0.315909 0.382167 0.047222
0.318991 0.384968 0.047217
0.302607 0.370061 0.058945
0.286329 0.362093 0.066376
0.286519 0.354704 0.061011
0.268354 0.347641 0.089177
0.261988 0.343075 0.080648
0.273323 0.355218 0.074710
0.246824 0.334485 0.088168
0.251022 0.322375 0.099124
0.232163 0.340062 0.112356
0.217420 0.322302 0.129391
0.218935 0.315239 0.141170
0.214102 0.292278 0.150500
0.202276 0.308884 0.143943
0.182923 0.304199 0.166520
0.182775 0.286502 0.168970
0.168114 0.294066 0.185207
0.184929 0.291432 0.183011
0.175264 0.277496 0.207629
0.163578 0.289749 0.208281
0.137531 0.285107 0.223039
0.159644 0.270623 0.230590
0.146372 0.279895 0.263540
0.147684 0.249609 0.266289
0.129049 0.260600 0.259889
0.122752 0.256534 0.273630
0.124274 0.257638 0.279585
0.118106 0.260370 0.283266
0.107663 0.242172 0.317675
0.110747 0.238736 0.322212
0.091841 0.241408 0.341175
0.092867 0.226532 0.339552
0.111078 0.243693 0.367682
0.096067 0.222832 0.355683
0.096709 0.238573 0.379676
0.095661 0.234165 0.411109
0.083969 0.219782 0.408895
0.090998 0.228273 0.425862
0.078845 0.246088 0.439148
0.098231 0.213592 0.449955
0.090511 0.237945 0.449776
0.078026 0.223089 0.481696
0.075194 0.215989 0.492410
0.079487 0.217351 0.493071
0.087964 0.232120 0.509279
0.078552 0.231944 0.523895
0.074769 0.229848 0.525239
0.094568 0.225486 0.557117
0.093054 0.237926 0.564886
0.089072 0.229467 0.574474
0.087055 0.227926 0.588964
0.102588 0.228805 0.604122
0.110000 0.221602 0.600862
0.087719 0.239947 0.629611
0.098487 0.224728 0.638191
0.108901 0.240030 0.639233
0.106126 0.228276 0.646215
0.110919 0.239988 0.659702
0.109099 0.251974 0.677328
0.131985 0.258904 0.690191
0.122071 0.252679 0.713306
0.138167 0.252443 0.709380
0.129960 0.265999 0.735398
0.135919 0.259624 0.727607
0.143432 0.262254 0.756226
0.144343 0.277605 0.768354
0.148593 0.279471 0.772023
0.138270 0.264051 0.787308
0.161058 0.282292 0.789873
0.168021 0.285498 0.800547
0.179519 0.283691 0.806108
0.181057 0.281892 0.813598
0.185821 0.291615 0.834108
0.189573 0.304674 0.862315
0.196804 0.298962 0.848491
0.206471 0.326095 0.864576
0.217964 0.332415 0.876999
0.238944 0.305627 0.880004
0.246483 0.354061 0.894778
0.243815 0.344046 0.900563
0.240532 0.333579 0.910793
0.268190 0.354058 0.913625
0.253858 0.348620 0.920246
0.285962 0.356474 0.941618
0.290442 0.367446 0.927978
0.286849 0.363985 0.946303
0.318658 0.366094 0.947503
0.315724 0.355084 0.949249
0.326594 0.393576 0.963835
0.352343 0.369662 0.972513
0.359156 0.385306 0.968116
0.346577 0.400526 0.978954
0.376088 0.406159 0.972279
0.383255 0.418052 0.982896
0.386966 0.425626 0.993255
0.416642 0.430174 0.985196
0.423600 0.451394 0.996202
0.412549 0.456844 0.988925
0.441383 0.467090 0.998985
0.439970 0.461725 0.984972
0.449692 0.458338 0.992465
0.460820 0.472152 0.996042
0.465139 0.488615 1.004124
0.493200 0.489146 1.004773
0.496156 0.499839 1.000050
0.502919 0.495682 -0.004574
0.489284 0.489974 -0.007466
0.473180 0.488181 0.006792
0.461308 0.488607 -0.009992
0.457764 0.472193 0.005776
0.458664 0.469216 0.011113
0.434385 0.458902 -0.005815
0.425323 0.448207 0.006488
0.409887 0.442681 -0.007763
0.402826 0.437831 0.020205
0.387793 0.430327 0.009496
0.381857 0.426059 0.017275
0.372862 0.426357 0.025256
0.369083 0.406867 0.030804
0.355018 0.406187 0.032363
0.332016 0.399081 0.037066
0.332908 0.384126 0.055416
0.309445 0.385860 0.044210
0.315351 0.380717 0.053762
0.294943 0.378588 0.064718
0.298623 0.377381 0.053527
0.286026 0.366475 0.064385
0.269950 0.375116 0.077490
0.257722 0.358461 0.089810
0.263238 0.351698 0.109802
0.246817 0.344939 0.096610
0.250981 0.337724 0.083993
0.219214 0.338313 0.103821
0.222415 0.337151 0.122216
0.211475 0.327675 0.131949
0.198657 0.316951 0.137058
0.194246 0.310480 0.140719
0.191513 0.317425 0.155058
0.174821 0.294502 0.164030
0.170011 0.304713 0.176835
0.157978 0.306804 0.191132
0.163575 0.300778 0.209722
0.158673 0.299912 0.207802
0.152441 0.284090 0.224357
0.142495 0.287389 0.217804
0.141832 0.262757 0.256238
0.122152 0.277029 0.261079
0.133780 0.278614 0.260090
0.123069 0.266580 0.284373
0.119211 0.268478 0.280897
0.109927 0.261403 0.308937
0.105479 0.255764 0.310133
0.108951 0.255823 0.323841
0.098367 0.242354 0.324195
0.089492 0.251488 0.349178
0.095681 0.231263 0.350767
0.086292 0.248720 0.367253
0.085755 0.248772 0.385410
0.081026 0.247523 0.396861
0.076567 0.228867 0.404319
0.078832 0.230764 0.419158
0.090522 0.243909 0.434444
0.065399 0.246510 0.458784
0.079234 0.241640 0.465424
0.077777 0.230491 0.484551
0.085015 0.242652 0.487409
0.065970 0.238924 0.504171
0.070876 0.236721 0.508353
0.062773 0.229731 0.533596
0.078754 0.222976 0.543880
0.069612 0.228371 0.551598
0.077713 0.234432 0.563324
0.078480 0.243571 0.573347
0.077846 0.234172 0.587107
0.082542 0.226411 0.611338
0.087794 0.247755 0.603889
0.092967 0.239907 0.618159
0.086321 0.245100 0.631312
0.095197 0.249229 0.657116
0.104924 0.237091 0.668625
0.107212 0.249649 0.679778
0.117819 0.254807 0.696138
0.117600 0.249275 0.700653
0.111523 0.268330 0.706274
0.120164 0.261264 0.713757
0.125228 0.267058 0.728275
0.124000 0.278571 0.735915
0.132422 0.286729 0.748421
0.137173 0.266980 0.777678
0.135562 0.264151 0.768819
0.151875 0.295679 0.781365
0.154008 0.294614 0.789100
0.171908 0.292795 0.803726
0.157839 0.297430 0.811867
0.171869 0.300640 0.834422
0.179630 0.295557 0.838975
0.184536 0.315646 0.839278
0.194757 0.323347 0.854940
0.196909 0.309924 0.865503
0.218962 0.313396 0.866033
0.222477 0.322520 0.877799
0.224778 0.334183 0.887568
0.249410 0.324804 0.908850
0.252195 0.328359 0.914187
0.271743 0.355628 0.919212
0.268566 0.356943 0.937967
0.279430 0.363179 0.942544
0.285690 0.372791 0.921435
0.303564 0.349541 0.920292
0.311413 0.399376 0.940603
0.310628 0.376784 0.945387
0.329721 0.387530 0.948557
0.332363 0.391467 0.947078
0.338946 0.399077 0.971838
0.346216 0.411896 0.965287
0.368505 0.414037 0.967386
0.369165 0.422049 0.970821
0.382069 0.420316 0.976051
0.401317 0.450574 0.969934
0.406380 0.446115 0.993252
0.430775 0.442409 0.991675
0.430447 0.452229 1.003709
0.437901 0.473058 1.001475
0.434290 0.477933 1.012321
0.474330 0.467371 0.995003
0.480408 0.476848 0.992527
0.487749 0.483464 0.997731
0.487363 0.485549 1.017541
0.494448 0.502714 0.006758
0.502058 0.493125 -0.001262
0.490875 0.501057 0.000726
0.474489 0.488452 0.001531
0.451367 0.481742 -0.003685
0.437038 0.469250 0.008251
0.453393 0.454702 0.010949
0.427705 0.452338 0.016587
0.415567 0.453235 0.009066
0.397375 0.438307 0.019543
0.381735 0.430356 0.022610
0.380737 0.447332 0.028911
0.374115 0.415446 0.027748
0.359309 0.423411 0.023798
0.341422 0.414879 0.025679
0.333395 0.413885 0.037246
0.324323 0.399075 0.040026
0.319490 0.392041 0.040936
0.304027 0.384470 0.047824
0.295083 0.385247 0.049010
0.291660 0.377502 0.057990
0.269171 0.363445 0.070816
0.280521 0.361101 0.074660
0.258116 0.351318 0.088684
0.247265 0.348157 0.089963
0.253641 0.334171 0.108307
0.232738 0.339635 0.118879
0.222057 0.338501 0.129228
0.228556 0.329326 0.123608
0.208129 0.325334 0.137165
0.209691 0.326216 0.135027
0.203687 0.296799 0.148960
0.182122 0.326926 0.159180
0.179805 0.318243 0.160102
0.171246 0.306849 0.170762
0.154722 0.312651 0.186063
0.152746 0.304648 0.182816
0.150956 0.303285 0.222613
0.149151 0.302217 0.214711
0.124251 0.294844 0.236411
0.128722 0.289866 0.248394
0.134900 0.280568 0.244226
0.125638 0.274647 0.275076
0.114875 0.253587 0.269039
0.101629 0.269816 0.290870
0.112594 0.291330 0.297649
0.112649 0.272603 0.294900
0.101890 0.262056 0.320656
0.086545 0.266626 0.332161
0.096185 0.253651 0.348351
0.080229 0.261786 0.348021
0.083115 0.246115 0.369897
0.076192 0.241943 0.383638
0.078345 0.263156 0.400708
0.070869 0.252829 0.402420
0.083167 0.254311 0.415807
0.070971 0.250040 0.433972
0.063302 0.235211 0.444665
0.063970 0.237089 0.461217
0.056152 0.250789 0.461417
0.056501 0.244489 0.467553
0.075221 0.246634 0.499643
0.061992 0.244600 0.524085
0.068844 0.250528 0.512003
0.064596 0.236970 0.529873
0.065706 0.253332 0.545767
0.067013 0.238031 0.568638
0.065702 0.250783 0.574615
0.077348 0.247789 0.605435
0.074526 0.264388 0.595408
0.080510 0.266691 0.618045
0.074500 0.252444 0.616173
0.096831 0.265333 0.631924
0.094134 0.254135 0.651708
0.103117 0.264374 0.654356
0.100341 0.257297 0.670513
0.093815 0.264931 0.681222
0.115656 0.279622 0.691739
0.105749 0.257881 0.709072
0.111492 0.280506 0.711018
0.128705 0.275521 0.731406
0.145081 0.291940 0.738519
0.127877 0.304589 0.754787
0.141664 0.273577 0.756636
0.143111 0.284400 0.781590
0.154061 0.296805 0.779980
0.149654 0.294699 0.807465
0.153981 0.297772 0.819003
0.160217 0.293113 0.827818
0.167247 0.310242 0.836955
0.175487 0.310962 0.829880
0.193791 0.313570 0.845116
0.187135 0.323832 0.864473
0.196469 0.315740 0.883251
0.209353 0.336092 0.871685
0.238573 0.324043 0.877135
0.235870 0.340881 0.885906
0.238271 0.340833 0.889187
0.259103 0.343468 0.898301
0.263802 0.365319 0.913369
0.269801 0.358454 0.918236
0.281519 0.365425 0.935009
0.282836 0.376626 0.935806
0.291330 0.382600 0.943852
0.312307 0.380371 0.942660
0.303672 0.387694 0.952367
0.308107 0.397305 0.945745
0.327805 0.400977 0.955516
0.354460 0.399056 0.958120
0.363327 0.432108 0.983036
0.357806 0.425650 0.980884
0.365350 0.428638 0.984617
0.379182 0.430144 0.987500
0.396939 0.453680 0.997480
0.407468 0.454800 0.992166
0.428866 0.441279 0.995800
0.441397 0.462092 1.007790
0.428460 0.467176 0.997149
0.441183 0.466809 0.987758
0.460522 0.486422 0.983233
0.481461 0.484113 0.991956
0.488913 0.499604 1.002362
0.493975 0.490988 0.993576
0.498151 0.499126 -0.006254
0.506173 0.501428 -0.005117
0.488638 0.476459 -0.001598
0.450654 0.479826 -0.017333
0.463402 0.466006 -0.003299
0.443129 0.474931 0.016690
0.434187 0.478535 0.005782
0.418987 0.457296 0.003634
0.400993 0.456702 -0.008368
0.400397 0.452602 0.021693
0.383684 0.429886 0.023496
0.378624 0.447191 0.035562
0.360522 0.424165 0.028902
0.370425 0.422231 0.034365
0.354244 0.410527 0.044187
0.327920 0.404179 0.030683
0.335879 0.404845 0.026292
0.307206 0.377701 0.033899
0.303105 0.388649 0.058651
0.295981 0.381040 0.073894
0.292739 0.381841 0.060610
0.272888 0.375700 0.071688
0.259543 0.372724 0.075588
0.252103 0.375938 0.094503
0.242985 0.353823 0.073514
0.239630 0.358563 0.100006
0.235058 0.354567 0.096118
0.228365 0.348499 0.119383
0.212191 0.339078 0.112833
0.203797 0.339657 0.138740
0.209210 0.327691 0.128278
0.199685 0.331430 0.148307
0.186662 0.323056 0.165555
0.178728 0.324444 0.163072
0.159093 0.310063 0.180887
0.146650 0.295868 0.183231
0.146355 0.308809 0.189238
0.142157 0.312960 0.201869
0.146661 0.291643 0.211002
0.134309 0.305936 0.223692
0.126064 0.290470 0.246314
0.128535 0.283727 0.249723
0.122038 0.291649 0.263336
0.113614 0.288432 0.280655
0.110842 0.276881 0.286454
0.100274 0.281918 0.314883
0.109471 0.286899 0.318441
0.096296 0.264291 0.323332
0.081649 0.273650 0.335890
0.093893 0.262171 0.329185
0.069582 0.258281 0.356548
0.090436 0.270861 0.376075
0.075207 0.261473 0.375043
0.076443 0.261270 0.395593
0.061323 0.251741 0.411434
0.059845 0.275220 0.423220
0.063603 0.261556 0.417658
0.061573 0.252448 0.437615
0.058657 0.262087 0.475342
0.067666 0.265910 0.470001
0.052594 0.258443 0.497397
0.068502 0.263582 0.500686
0.072097 0.251774 0.515258
0.036556 0.267366 0.510862
0.061059 0.264992 0.544742
0.054996 0.254639 0.537015
0.068123 0.256316 0.559857
0.071199 0.257711 0.573825
0.064660 0.258166 0.593484
0.066621 0.252403 0.615164
0.082203 0.265015 0.618289
0.070385 0.263115 0.617520
0.073630 0.272962 0.628826
0.083442 0.262375 0.641843
0.083101 0.281556 0.659025
0.090533 0.288134 0.673066
0.087595 0.263156 0.681887
0.096070 0.292228 0.694973
0.105920 0.284793 0.711660
0.106556 0.266193 0.721802
0.096737 0.282963 0.723546
0.115214 0.278096 0.754361
0.130591 0.282636 0.757603
0.131314 0.289808 0.760866
0.124599 0.306332 0.783261
