ply
format ascii 1.0
element vertex 1771
property float x
property float y
property float z
end_header
0.474184 0.349958 0.965699
0.472772 0.349576 0.964514
0.447468 0.359714 0.958669
0.496198 0.349469 0.972911
0.486169 0.378113 0.980409
0.457426 0.409879 1.008066
0.487386 0.423689 0.979814
0.473534 0.384071 0.990947
0.496872 0.423307 1.005057
0.510343 0.425109 1.008515
0.490870 0.461519 0.997079
0.515268 0.457080 1.003346
0.493920 0.444922 0.962674
0.508618 0.497533 0.981001
0.474359 0.510873 0.016573
0.485628 0.490924 -0.020525
0.497267 0.474602 0.006209
0.483023 0.447534 -0.008033
0.491030 0.440284 -0.018270
0.484566 0.417783 -0.003526
0.484359 0.456482 0.025905
0.474240 0.437761 0.008791
0.494071 0.379613 0.003602
0.471633 0.405777 0.018444
0.496479 0.382893 0.037251
0.447724 0.353720 -0.002229
0.440999 0.361644 0.030701
0.466764 0.331589 0.015915
0.452141 0.326938 0.022429
0.453411 0.302183 0.019801
0.486050 0.320004 0.042898
0.467435 0.294279 0.020593
0.464248 0.241758 0.054935
0.463625 0.290185 0.063588
0.468544 0.287901 0.045825
0.442771 0.255325 0.099678
0.439590 0.273239 0.075552
0.453154 0.224907 0.072530
0.441927 0.254762 0.103787
0.478857 0.201225 0.103724
0.448136 0.189674 0.114430
0.437971 0.178297 0.121453
0.463041 0.207206 0.147733
0.445856 0.174704 0.156737
0.432158 0.173210 0.153944
0.398324 0.169678 0.134632
0.457554 0.127894 0.161249
0.409532 0.106961 0.151299
0.426283 0.118925 0.188564
0.438699 0.116234 0.208638
0.449079 0.113214 0.205841
0.431191 0.090064 0.227041
0.421734 0.109566 0.231180
0.411334 0.071757 0.241559
0.439554 0.088266 0.205101
0.449900 0.074710 0.225869
0.405722 0.075757 0.267298
0.413453 0.051036 0.286871
0.417190 0.053817 0.304176
0.408268 0.034395 0.278315
0.436358 0.037692 0.306629
0.413738 0.039157 0.310487
0.434321 0.037252 0.318004
0.406909 0.038200 0.347025
0.449577 0.003830 0.355755
0.419774 0.011009 0.356705
0.431131 -0.001636 0.389336
0.398972 0.000658 0.418459
0.411917 0.008261 0.404352
0.449517 0.023536 0.412921
0.405566 0.002750 0.429707
0.416015 0.037901 0.451888
0.383989 0.004628 0.477646
0.410290 0.012973 0.470253
0.456219 0.032932 0.501808
0.415790 0.032943 0.499442
0.426624 -0.000478 0.511362
0.435735 -0.010585 0.523600
0.461369 0.027559 0.561622
0.416607 0.006986 0.546069
0.434785 -0.004297 0.569861
0.420207 0.019039 0.568742
0.407643 -0.001277 0.577369
0.426875 0.025935 0.586576
0.422679 0.026721 0.602550
0.429669 0.003636 0.627341
0.391861 0.031897 0.641235
0.470301 0.027452 0.629419
0.425675 0.046186 0.655786
0.437576 0.024268 0.683796
0.394525 0.055245 0.716198
0.437894 0.033648 0.678158
0.438440 0.058376 0.700412
0.430338 0.039554 0.725971
0.441187 0.089627 0.744840
0.440724 0.059666 0.741362
0.443456 0.052872 0.736367
0.444917 0.081532 0.758326
0.448299 0.115060 0.766673
0.457554 0.125367 0.778869
0.443932 0.110018 0.806305
0.430486 0.095977 0.810032
0.430222 0.106745 0.816690
0.423969 0.129031 0.834095
0.447289 0.160276 0.840051
0.428618 0.147942 0.882609
0.436660 0.124746 0.877280
0.463514 0.168592 0.868798
0.431467 0.159315 0.863847
0.476393 0.192496 0.899944
0.455821 0.209960 0.892110
0.453809 0.224252 0.889431
0.459303 0.195438 0.911753
0.462229 0.211056 0.932272
0.415409 0.219568 0.908724
0.465753 0.253916 0.910000
0.443648 0.239032 0.940561
0.450476 0.288405 0.942167
0.461597 0.253464 0.947480
0.484242 0.311520 0.961121
0.485311 0.280480 0.941583
0.443332 0.311637 0.996341
0.484806 0.321666 0.984738
0.501184 0.331423 0.974220
0.460908 0.378161 0.958399
0.471795 0.356874 0.969163
0.454523 0.377372 0.998546
0.473816 0.337404 0.956747
0.479135 0.420448 1.005454
0.480562 0.383714 1.016127
0.482386 0.451019 1.005561
0.469918 0.447775 1.002304
0.509236 0.416718 0.994349
0.523793 0.448529 1.010827
0.494709 0.436476 0.994974
0.493434 0.478340 1.025092
0.495480 0.492301 0.996824
0.494104 0.501459 -0.006885
0.504283 0.486331 -0.009063
0.448807 0.464134 0.012992
0.492113 0.454090 0.001838
0.512880 0.460313 0.019736
0.510515 0.457732 -0.001250
0.476832 0.399361 0.011141
0.501602 0.386939 0.025433
0.453042 0.409733 0.031304
0.478471 0.391140 -0.001469
0.464044 0.377508 0.014869
0.453293 0.361693 0.022703
0.451997 0.380722 0.021193
0.479882 0.345906 0.008361
0.495053 0.341878 0.054995
0.458492 0.320524 0.017857
0.458163 0.338656 0.076477
0.454592 0.300378 0.078074
0.458055 0.288435 0.029545
0.450936 0.287892 0.037287
0.473812 0.266169 0.086395
0.463343 0.240698 0.043412
0.455618 0.246250 0.062345
0.460013 0.215038 0.088569
0.436584 0.191035 0.115831
0.441718 0.206306 0.091457
0.460849 0.190634 0.085706
0.434288 0.178564 0.130512
0.426074 0.159496 0.143113
0.439840 0.177632 0.138036
0.447303 0.172441 0.148886
0.419561 0.124895 0.153104
0.428447 0.129828 0.161030
0.432909 0.098831 0.149207
0.438850 0.110553 0.187771
0.417468 0.085753 0.166465
0.429103 0.078661 0.223141
0.436799 0.113570 0.216514
0.438433 0.079165 0.239421
0.408353 0.103191 0.237721
0.420074 0.069109 0.245331
0.429443 0.103871 0.227791
0.412636 0.084435 0.279904
0.418263 0.049084 0.267472
0.410741 0.049358 0.302002
0.395520 0.020931 0.305194
0.413310 0.055162 0.325021
0.398936 0.039827 0.337415
0.429066 0.058434 0.333258
0.423057 0.031088 0.331234
0.435878 0.013420 0.357292
0.405909 0.039770 0.389335
0.390875 0.045253 0.357396
0.407532 0.036975 0.395523
0.426479 0.033027 0.393678
0.401022 0.036430 0.439627
0.391100 0.021497 0.419540
0.405571 0.007082 0.426547
0.392114 0.001415 0.460077
0.399543 -0.046037 0.461665
0.385705 0.008940 0.500056
0.415376 0.040856 0.511818
0.403192 0.045320 0.519575
0.418052 0.043753 0.527156
0.423874 -0.013123 0.531702
0.414512 0.022967 0.548046
0.423628 0.041911 0.591658
0.395003 0.003686 0.569779
0.399340 0.034055 0.568558
0.408110 0.007088 0.599774
0.409367 0.026095 0.651606
0.425617 0.021802 0.625865
0.423718 -0.003027 0.649410
0.387495 0.018845 0.658916
0.387106 0.037934 0.654357
0.413461 0.027012 0.639105
0.411190 0.062316 0.709338
0.407576 0.050709 0.707280
0.391237 0.060734 0.737596
0.405152 0.079922 0.696197
0.400244 0.068905 0.750924
0.385530 0.068335 0.743118
0.397562 0.075092 0.739503
0.420097 0.060155 0.752171
0.426392 0.083251 0.740702
0.429603 0.075250 0.780274
0.403790 0.082563 0.778054
0.427180 0.131363 0.806943
0.431065 0.101866 0.817034
0.439070 0.106157 0.832553
0.416511 0.140122 0.833990
0.429199 0.155521 0.864887
0.423765 0.160974 0.831217
0.422090 0.140259 0.891169
0.443821 0.156218 0.868482
0.451581 0.163437 0.884216
0.444989 0.200090 0.881611
0.454156 0.211007 0.893821
0.433760 0.201547 0.929134
0.433307 0.245922 0.898894
0.458378 0.215957 0.915964
0.468381 0.246870 0.896033
0.451137 0.275033 0.930495
0.432865 0.251481 0.921254
0.454409 0.306552 0.967642
0.449468 0.272935 0.945805
0.470853 0.270783 0.943442
0.450808 0.278782 0.951674
0.453119 0.306768 0.965483
0.436444 0.296759 0.966299
0.475586 0.329583 0.969968
0.466115 0.358494 0.959797
0.447266 0.350698 0.977449
0.493371 0.374942 0.988655
0.480501 0.381836 1.000068
0.498377 0.407743 1.011360
0.496028 0.407749 1.016012
0.500698 0.374452 1.025547
0.471671 0.439886 1.005769
0.490076 0.446929 1.008396
0.516853 0.486928 1.003084
0.515360 0.490288 1.003256
0.468333 0.488712 0.993460
0.534940 0.483695 0.013346
0.504750 0.491214 0.008352
0.503650 0.480132 0.015228
0.499090 0.502554 -0.025420
0.476153 0.443411 -0.003845
0.449777 0.440345 0.021432
0.509824 0.430386 0.020571
0.489992 0.432722 0.028522
0.464720 0.386331 0.015306
0.491895 0.393609 0.021285
0.460640 0.370448 0.019978
0.468870 0.397729 0.049075
0.471801 0.372804 0.047208
0.477756 0.345464 0.058599
0.460019 0.325656 0.007418
0.462932 0.335911 0.029596
0.458969 0.292207 0.072547
0.449564 0.277112 0.024239
0.470345 0.269748 0.043322
0.462968 0.286458 0.069121
0.407168 0.259916 0.069309
0.448184 0.242389 0.084568
0.468106 0.278225 0.092567
0.450535 0.258237 0.074133
0.425302 0.225892 0.075090
0.439956 0.203204 0.100953
0.441713 0.192607 0.097151
0.443042 0.189674 0.142195
0.419888 0.178116 0.105917
0.418091 0.166777 0.138993
0.437679 0.175500 0.184090
0.434471 0.162191 0.143876
0.430017 0.144515 0.144348
0.401342 0.117524 0.192151
0.428734 0.105114 0.174982
0.417283 0.104544 0.192162
0.402027 0.120476 0.224549
0.403443 0.130153 0.205466
0.415421 0.088811 0.220527
0.410868 0.090767 0.204051
0.423600 0.079809 0.244552
0.410997 0.085371 0.240280
0.436268 0.101593 0.251084
0.404728 0.043777 0.282857
0.391560 0.063416 0.278970
0.422757 0.052496 0.315257
0.393381 0.048854 0.348150
0.395330 0.035233 0.284516
0.415713 0.048289 0.349498
0.384588 0.032473 0.350884
0.385989 0.032174 0.360902
0.388812 0.018001 0.397419
0.369100 -0.032439 0.393881
0.420393 0.028642 0.380993
0.392701 0.004701 0.389918
0.384661 -0.011055 0.397224
0.388154 0.005102 0.430004
0.423676 0.016423 0.423501
0.403204 -0.006626 0.455082
0.403069 0.012596 0.439636
0.389809 0.042228 0.517780
0.373730 0.007875 0.490632
0.398723 0.007386 0.508074
0.387899 -0.025694 0.532959
0.389521 -0.002564 0.561826
0.407861 0.034334 0.560035
0.411057 -0.005238 0.569706
0.390405 -0.002376 0.546382
0.403697 0.007310 0.584189
0.387999 0.039572 0.576972
0.400204 0.055746 0.621643
0.391024 0.007432 0.639718
0.391247 0.028903 0.654037
0.388313 0.049339 0.613996
0.413434 0.012832 0.691454
0.404677 0.054465 0.666272
0.404235 0.056008 0.692593
0.422556 0.042556 0.685410
0.390022 0.087466 0.723837
0.380938 0.065284 0.748166
0.424870 0.080317 0.718511
0.416932 0.081705 0.742162
0.440799 0.077876 0.767940
0.407907 0.109197 0.760053
0.428943 0.097475 0.757751
0.392165 0.110854 0.785955
0.410903 0.108219 0.776761
0.422829 0.112008 0.822486
0.377668 0.108138 0.808727
0.404991 0.149893 0.825911
0.426298 0.133331 0.834511
0.407226 0.117131 0.813362
0.409486 0.151921 0.848008
0.412491 0.132992 0.843276
0.437552 0.154983 0.881157
0.409238 0.205117 0.891554
0.433994 0.203606 0.900332
0.433609 0.206654 0.895394
0.449391 0.213127 0.898075
0.408966 0.257864 0.916817
0.442598 0.257309 0.910957
0.441217 0.265804 0.938209
0.430221 0.260226 0.964090
0.468014 0.254354 0.919221
0.465894 0.237305 0.971897
0.459113 0.289573 0.932944
0.452838 0.308408 0.969267
0.428890 0.319681 0.942244
0.455020 0.314371 0.947884
0.463104 0.338708 0.977105
0.446885 0.364338 0.961624
0.476368 0.359905 0.951741
0.454276 0.388087 0.954833
0.461960 0.422974 0.995908
0.459521 0.373430 0.975818
0.459856 0.411224 1.005422
0.456818 0.404801 1.008657
0.470703 0.424644 0.995325
0.465567 0.444205 0.992909
0.503204 0.422570 0.993200
0.504429 0.461855 0.994598
0.492398 0.487976 1.002399
0.530251 0.471606 1.012424
0.534228 0.501154 -0.005371
0.492043 0.490624 0.009923
0.497229 0.465720 0.012950
0.501918 0.466103 -0.015951
0.482221 0.470405 0.020121
0.474937 0.445695 0.009808
0.482308 0.434512 -0.003373
0.500062 0.430942 0.003607
0.463835 0.367066 0.031767
0.471592 0.405419 0.018101
0.468535 0.380964 0.026796
0.436811 0.358938 0.037676
0.447402 0.339608 -0.002061
0.463925 0.323316 0.001332
0.452824 0.314913 0.047476
0.455468 0.303016 0.047304
0.473073 0.321174 0.058877
0.436814 0.281431 0.047443
0.431575 0.271776 0.039981
0.450815 0.273444 0.072232
0.439500 0.255376 0.054053
0.452865 0.237827 0.067868
0.426107 0.241506 0.071342
0.441328 0.228081 0.086060
0.446358 0.221950 0.074942
0.418494 0.204041 0.079426
0.430626 0.204669 0.086891
0.440771 0.227920 0.130792
0.403536 0.191398 0.133409
0.448268 0.209814 0.127451
0.444307 0.161033 0.104555
0.424312 0.143403 0.139219
0.376327 0.169626 0.161121
0.428903 0.138388 0.189462
0.408973 0.101754 0.192492
0.397036 0.119805 0.184163
0.398378 0.126593 0.199605
0.381151 0.126397 0.191658
0.399882 0.106714 0.235472
0.410395 0.084087 0.233351
0.387352 0.095083 0.238505
0.398633 0.107743 0.252767
0.394478 0.096864 0.265329
0.395576 0.055302 0.278804
0.395470 0.060135 0.294797
0.375910 0.039025 0.318051
0.391621 0.062856 0.284524
0.405372 0.044300 0.349441
0.372686 0.032074 0.311140
0.366668 0.059193 0.322933
0.407959 0.034531 0.369437
0.373328 0.012224 0.379382
0.378980 0.037053 0.385370
0.395904 0.010678 0.412113
0.374577 0.018505 0.390322
0.374307 0.028666 0.430543
0.342442 0.012708 0.446741
0.394909 0.052980 0.431858
0.386381 0.005422 0.477135
0.354991 0.023269 0.486421
0.374519 0.007340 0.532637
0.368050 0.009247 0.505417
0.334399 0.031570 0.474344
0.372639 0.013926 0.515625
0.378679 0.010284 0.517726
0.377779 0.038874 0.533026
0.391296 0.012986 0.541671
0.407016 0.027433 0.588440
0.378527 0.020670 0.619756
0.370185 0.011560 0.614232
0.404212 0.055192 0.591591
0.393287 0.058399 0.637845
0.369672 0.071310 0.627882
0.379627 0.034378 0.648589
0.387724 0.023000 0.649711
0.391980 0.023645 0.664256
0.403430 0.035153 0.677832
0.384037 0.049715 0.670900
0.389487 0.033651 0.702668
0.418547 0.079623 0.698094
0.391171 0.083764 0.746678
0.409717 0.068363 0.746557
0.399792 0.092015 0.761899
0.391157 0.096192 0.763122
0.362768 0.106036 0.765142
0.365252 0.122665 0.792913
0.416909 0.109896 0.776006
0.408494 0.151037 0.797882
0.415929 0.134869 0.794922
0.442299 0.125900 0.824376
0.414378 0.130272 0.832812
0.391711 0.117280 0.848919
0.425899 0.136796 0.865579
0.429827 0.160604 0.859361
0.382852 0.152068 0.859721
0.420027 0.190256 0.872190
0.451415 0.220303 0.884937
0.422162 0.190954 0.868886
0.415866 0.237563 0.921161
0.424395 0.240038 0.933431
0.431051 0.237339 0.932969
0.447417 0.245710 0.918647
0.438988 0.250449 0.919837
0.423000 0.259927 0.935267
0.448020 0.275531 0.932885
0.456824 0.296910 0.951648
0.449352 0.288862 0.931939
0.449972 0.313318 0.928613
0.446846 0.319271 0.966681
0.465565 0.335604 0.974598
0.487960 0.307974 0.984996
0.462229 0.362308 0.975798
0.488606 0.389129 0.973404
0.465431 0.388320 1.003000
0.457214 0.358610 0.986404
0.473881 0.461765 1.012812
0.481242 0.421904 0.983606
0.467198 0.433766 0.980669
0.465659 0.411041 0.981992
0.486758 0.462381 0.990538
0.485135 0.441126 1.008796
0.495223 0.463182 1.012316
0.510033 0.537117 1.015600
0.496658 0.491520 -0.004837
0.503405 0.528416 -0.026537
0.507471 0.453717 0.007290
0.467899 0.452465 -0.017425
0.475137 0.439224 -0.006424
0.497960 0.439757 0.016948
0.490626 0.436488 0.010852
0.491633 0.440565 0.011375
0.476337 0.391560 0.006788
0.455969 0.419078 0.018337
0.458285 0.395404 0.003180
0.468421 0.374544 0.001553
0.452228 0.362649 0.013491
0.465122 0.333248 0.024169
0.449515 0.310625 0.060217
0.451892 0.308192 0.020950
0.499158 0.297174 0.016728
0.457781 0.310237 0.060799
0.453507 0.289990 0.047521
0.451419 0.265254 0.049061
0.436144 0.258030 0.061698
0.419109 0.237050 0.045736
0.456394 0.241329 0.068959
0.421607 0.231657 0.078026
0.410552 0.250573 0.116264
0.415365 0.207251 0.112913
0.409668 0.190269 0.107751
0.396234 0.200782 0.127179
0.397175 0.187133 0.148457
0.418213 0.152538 0.128981
0.407667 0.139852 0.128531
0.405075 0.140359 0.167486
0.378554 0.171150 0.142751
0.415258 0.151674 0.164123
0.406507 0.105086 0.158704
0.422561 0.126108 0.169001
0.418995 0.167355 0.198299
0.419666 0.116675 0.229368
0.386121 0.127308 0.213947
0.385517 0.058498 0.228658
0.399933 0.112946 0.222280
0.402809 0.094680 0.228788
0.383668 0.076581 0.237480
0.367129 0.061836 0.282425
0.387443 0.093394 0.275119
0.388784 0.079762 0.271909
0.405944 0.079610 0.304884
0.366791 0.073295 0.315573
0.353958 0.068868 0.340209
0.369580 0.032654 0.342826
0.368127 0.020589 0.377609
0.377259 0.035487 0.380335
0.368707 0.050492 0.370300
0.354746 0.038009 0.404925
0.375034 0.055533 0.401929
0.388993 0.030599 0.422408
0.373340 0.042008 0.409879
0.373253 0.031543 0.440573
0.372945 -0.008333 0.460931
0.366452 0.004085 0.475705
0.351198 0.002948 0.464833
0.370279 0.053769 0.475542
0.368995 0.036987 0.513321
0.341151 -0.015717 0.514610
0.371697 0.005068 0.542057
0.379432 -0.004921 0.549073
0.365800 0.029368 0.545344
0.367084 0.039695 0.605620
0.358418 0.017479 0.570150
0.360588 0.036057 0.607316
0.365009 0.032909 0.621998
0.396756 0.039275 0.619788
0.358744 0.046321 0.634263
0.353255 0.012224 0.642109
0.383498 0.037436 0.651642
0.373551 0.044742 0.703029
0.365923 0.028553 0.679316
0.366096 0.069598 0.689422
0.333402 0.061722 0.687088
0.374080 0.086416 0.721144
0.372584 0.066912 0.701602
0.394444 0.070584 0.746970
0.422218 0.058374 0.748825
0.388311 0.078557 0.769359
0.412466 0.116550 0.770084
0.369745 0.082331 0.789680
0.377426 0.132444 0.813752
0.384231 0.113738 0.814686
0.399502 0.122274 0.839396
0.418522 0.119302 0.829465
0.397056 0.121235 0.828819
0.417555 0.163287 0.826010
0.399168 0.156605 0.845561
0.396280 0.175129 0.888467
0.420628 0.153531 0.870247
0.382276 0.165959 0.871149
0.403904 0.197313 0.876674
0.410577 0.214872 0.874095
0.424252 0.238081 0.913282
0.419927 0.214101 0.925335
0.447534 0.234267 0.948097
0.436698 0.249075 0.902745
0.418582 0.249542 0.933642
0.448495 0.248921 0.930345
0.436425 0.269962 0.931933
0.439033 0.305251 0.959795
0.461751 0.292946 0.950079
0.468240 0.306055 0.977680
0.452828 0.343978 0.978071
0.460015 0.335165 1.007520
0.472653 0.350992 0.966664
0.471316 0.382400 0.983904
0.469333 0.367912 0.974235
0.471112 0.379810 0.959996
0.476459 0.374623 0.983186
0.437832 0.384614 0.997046
0.487163 0.414070 0.965118
0.471146 0.419894 0.973701
0.487905 0.423736 0.996535
0.507553 0.457567 1.022246
0.503540 0.487890 1.006717
0.493887 0.471782 0.992991
0.514112 0.510132 1.000641
0.512584 0.489827 0.005853
0.501591 0.486390 0.000285
0.505649 0.469332 -0.019752
0.485143 0.435220 -0.013888
0.482458 0.452543 0.032818
0.466260 0.426621 0.016787
0.459859 0.427517 0.005714
0.472600 0.435288 -0.005744
0.458169 0.418999 0.033834
0.478320 0.396503 0.040667
0.448022 0.380784 -0.007178
0.469343 0.352419 0.012130
0.447835 0.360852 0.030078
0.453279 0.338819 0.031357
0.469028 0.337473 0.058326
0.475681 0.323185 0.042095
0.447131 0.335524 0.044512
0.428077 0.253971 0.059880
0.425477 0.274669 0.036107
0.419879 0.282698 0.055638
0.403801 0.257878 0.070289
0.425001 0.268159 0.083742
0.442644 0.249564 0.060227
0.422841 0.222528 0.056244
0.406970 0.233098 0.089539
0.417035 0.242797 0.096764
0.421385 0.197857 0.102568
0.374558 0.236547 0.122671
0.409548 0.190996 0.120169
0.411037 0.179184 0.132408
0.433142 0.153409 0.134202
0.403926 0.138782 0.120624
0.407258 0.141972 0.145154
0.390712 0.159539 0.145479
0.357118 0.155431 0.185128
0.376366 0.095976 0.203934
0.365735 0.100716 0.235314
0.377152 0.112662 0.197371
0.351345 0.095757 0.209495
0.364144 0.106776 0.226325
0.389749 0.068504 0.249703
0.372454 0.069610 0.227712
0.369071 0.114899 0.264835
0.366266 0.112541 0.260721
0.380496 0.064484 0.304672
0.362399 0.061099 0.282246
0.379282 0.071327 0.304878
0.372443 0.054187 0.323091
0.351353 0.063450 0.311341
0.352963 0.040345 0.348154
0.344975 0.056521 0.363537
0.340523 0.060267 0.339365
0.369987 0.046418 0.393144
0.352831 0.039787 0.378866
0.353492 0.039942 0.424391
0.367373 0.014362 0.412592
0.332897 0.007816 0.425482
0.374246 0.051906 0.457298
0.368714 0.043462 0.459998
0.370725 0.006516 0.455080
0.375980 0.033084 0.495666
0.343930 0.015493 0.492367
0.361090 0.049928 0.528274
0.360689 0.038209 0.503514
0.354093 0.016952 0.512511
0.378762 0.020617 0.553022
0.370818 0.034996 0.541771
0.330182 0.016304 0.571196
0.350572 -0.005092 0.597840
0.347501 0.025554 0.579588
0.366201 0.016057 0.591924
0.344934 0.027564 0.619395
0.382415 0.044539 0.638539
0.389712 0.066404 0.645590
0.395028 0.052676 0.657237
0.357415 0.055709 0.644405
0.346140 0.074541 0.671430
0.380433 0.046970 0.708826
0.352070 0.062430 0.711092
0.377772 0.050951 0.741701
0.406303 0.080901 0.725109
0.369692 0.084503 0.763130
0.395999 0.101460 0.750919
0.375427 0.114226 0.765791
0.402972 0.113892 0.768497
0.390644 0.107917 0.773703
0.389813 0.104120 0.792954
0.375798 0.121253 0.809571
0.413709 0.119199 0.817473
0.385147 0.161152 0.827795
0.395310 0.129462 0.854735
0.428804 0.142800 0.830608
0.397882 0.149711 0.867469
0.420210 0.153660 0.870477
0.436318 0.173734 0.883391
0.404847 0.191722 0.899015
0.435174 0.201739 0.890539
0.412477 0.192604 0.928294
0.434014 0.190755 0.904010
0.425445 0.232555 0.937294
0.428165 0.243528 0.922612
0.430526 0.232104 0.942399
0.445712 0.265004 0.928739
0.445726 0.271245 0.922792
0.432500 0.280017 0.951609
0.425506 0.289085 0.944971
0.417994 0.326850 0.941603
0.433682 0.305888 0.957674
0.460315 0.326710 0.965351
0.449819 0.369017 0.960648
0.453743 0.351801 0.990525
0.461143 0.344860 0.986098
0.422940 0.379353 0.963401
0.475068 0.381609 0.990676
0.460872 0.363071 0.982809
0.475492 0.400935 1.016120
0.478922 0.425345 1.001481
0.473101 0.457891 1.006245
0.518269 0.439658 1.014235
0.468813 0.466523 1.004016
0.498490 0.486318 1.006020
0.478528 0.471989 0.994070
0.504308 0.459452 1.004895
0.497520 0.522510 0.006156
0.477347 0.473204 -0.006048
0.501797 0.484134 0.005552
0.503380 0.428531 0.021326
0.488991 0.478001 -0.016303
0.460473 0.455418 -0.003064
0.479874 0.413435 0.020220
0.501830 0.419482 0.015771
0.438655 0.420430 0.015677
0.478655 0.383221 0.030098
0.459899 0.365365 0.019478
0.455000 0.359117 0.021445
0.462071 0.374418 0.025946
0.433300 0.327137 0.034960
0.420668 0.317235 0.041114
0.427668 0.334432 0.038607
0.424160 0.292177 0.039015
0.451828 0.279064 0.038687
0.427658 0.288870 0.050189
0.414914 0.291208 0.066387
0.430758 0.289045 0.090612
0.414381 0.254179 0.086547
0.422314 0.255699 0.097968
0.431228 0.219925 0.089461
0.412552 0.216919 0.094728
0.415962 0.233237 0.085424
0.400300 0.208277 0.114663
0.383489 0.168233 0.122044
0.407567 0.215235 0.101383
0.381684 0.182531 0.128946
0.408875 0.173214 0.099729
0.373912 0.121520 0.148626
0.384869 0.154634 0.181862
0.374148 0.173472 0.146756
0.390658 0.166477 0.189403
0.387985 0.117541 0.172673
0.367049 0.141076 0.210216
0.366141 0.106451 0.188669
0.374699 0.108297 0.246931
0.376010 0.093797 0.243343
0.364063 0.101524 0.245878
0.344358 0.073460 0.264005
0.359265 0.058530 0.251767
0.361795 0.080554 0.283035
0.346011 0.050327 0.281714
0.363121 0.076867 0.243655
0.365933 0.042406 0.287884
0.348560 0.059122 0.335296
0.357682 0.054573 0.328256
0.346184 0.049788 0.342991
0.325518 0.036653 0.371458
0.341232 0.056247 0.376961
0.348385 0.028627 0.389660
0.309886 0.036839 0.398080
0.345383 0.044769 0.419483
0.332600 0.027424 0.427571
0.338991 0.011421 0.467052
0.356926 0.004344 0.429244
0.367362 0.025399 0.466673
0.348608 0.055409 0.462610
0.330085 0.014084 0.478648
0.344256 0.021832 0.467564
0.330892 0.052817 0.489405
0.326927 0.018188 0.518947
0.320976 0.037203 0.540152
0.352522 0.012537 0.521572
0.344162 0.030009 0.562133
0.325582 0.029500 0.563412
0.336013 0.050425 0.573606
0.329820 0.024583 0.610231
0.354695 0.036058 0.610674
0.337570 0.042641 0.600083
0.349349 0.031507 0.651850
0.351368 0.059542 0.657626
0.316332 0.048930 0.675266
0.351673 0.058570 0.689970
0.350282 0.038268 0.667095
0.342518 0.053143 0.736359
0.359094 0.060698 0.719118
0.335467 0.056613 0.694586
0.369323 0.084021 0.731561
0.375036 0.065345 0.748422
0.355065 0.073761 0.774770
0.348890 0.097398 0.797136
0.374938 0.081314 0.779943
0.373467 0.109396 0.784652
0.378971 0.116065 0.817212
0.352466 0.142068 0.817302
0.363903 0.122613 0.830515
0.383000 0.140629 0.853764
0.383917 0.168172 0.820031
0.376477 0.162617 0.854225
0.370248 0.171150 0.890247
0.410953 0.195880 0.870500
0.387270 0.197746 0.899431
0.391072 0.182478 0.916484
0.408884 0.217735 0.868255
0.383239 0.218964 0.907235
0.413157 0.214102 0.904718
0.404196 0.244409 0.916713
0.418459 0.246614 0.896553
0.434594 0.255332 0.921640
0.431124 0.262995 0.948727
0.436838 0.267561 0.928386
0.417700 0.289053 0.944325
0.415567 0.278560 0.966998
0.421572 0.283855 0.966994
0.461769 0.333842 0.992108
0.420153 0.355496 0.972839
0.412102 0.365443 0.976920
0.449124 0.356770 0.995549
0.433186 0.359157 0.990498
0.465338 0.369803 0.987366
0.453903 0.385709 0.999861
0.464358 0.392416 0.994387
0.465025 0.420685 1.006757
0.457274 0.413383 0.997013
0.448256 0.439098 0.996037
0.515961 0.447393 1.016047
0.522025 0.471100 0.997615
0.489775 0.479947 1.013747
0.501701 0.471707 0.991648
0.477043 0.511377 0.998276
0.506455 0.475610 -0.007357
0.497635 0.499895 -0.048070
0.462609 0.455074 0.014326
0.501733 0.490061 0.002083
0.489228 0.467648 -0.006266
0.486612 0.445879 0.022618
0.483185 0.431697 -0.000016
0.447575 0.388553 -0.006811
0.457843 0.407884 0.039524
0.476343 0.419150 -0.005240
0.464700 0.406399 0.019090
0.427838 0.354933 -0.007077
0.445970 0.344907 0.014316
0.466389 0.342606 0.008805
0.436844 0.331460 0.043319
0.428911 0.331505 0.038273
0.418073 0.300487 0.022730
0.390576 0.279104 0.032937
0.419685 0.295987 0.065381
0.412564 0.272878 0.069716
0.427131 0.274009 0.076451
0.386450 0.246246 0.069157
0.411098 0.240587 0.088288
0.396666 0.255143 0.092355
0.400336 0.210101 0.084307
0.430999 0.229426 0.100350
0.400431 0.206201 0.107245
0.410419 0.221759 0.113175
0.372441 0.189494 0.116695
0.379410 0.173911 0.163738
0.358700 0.171155 0.129877
0.367709 0.182193 0.140106
0.355957 0.157612 0.168483
0.352893 0.129318 0.165376
0.378491 0.140142 0.159911
0.360287 0.126307 0.198964
0.350509 0.102941 0.202217
0.371530 0.125503 0.205786
0.348675 0.091258 0.225294
0.344974 0.120840 0.203080
0.348284 0.083245 0.241912
0.348476 0.068574 0.248969
0.341516 0.078436 0.279305
0.320202 0.110395 0.300596
0.349895 0.077012 0.285118
0.359472 0.076078 0.297145
0.324882 0.076745 0.336223
0.357583 0.061641 0.290897
0.351153 0.040385 0.353676
0.353368 0.041636 0.350466
0.338325 0.072627 0.380395
0.331802 0.030791 0.372253
0.344495 0.050731 0.386065
0.331672 0.026318 0.410418
0.307961 0.006707 0.376670
0.337579 0.006319 0.421215
0.341480 0.023401 0.430033
0.308795 0.046013 0.460282
0.322522 0.030723 0.468896
0.336027 0.032124 0.466818
0.334037 0.054340 0.486250
0.333980 0.054667 0.481593
0.333599 0.004965 0.500762
0.345138 0.023907 0.512846
0.316388 0.021174 0.545730
0.333921 0.037445 0.567329
0.327035 0.040523 0.557807
0.317116 0.029266 0.574136
0.326643 0.040731 0.554662
0.345886 0.056575 0.605837
0.318243 0.027830 0.625028
0.323559 0.030434 0.629888
0.331241 0.031880 0.613360
0.355412 0.052130 0.649383
0.348226 0.037962 0.678400
0.345903 0.051354 0.671324
0.349769 0.052870 0.666088
0.329260 0.047755 0.713584
0.313412 0.054534 0.731738
0.345261 0.097691 0.708397
0.348901 0.070676 0.729957
0.329261 0.076224 0.747735
0.345469 0.110626 0.744887
0.369367 0.092662 0.773402
0.400707 0.086821 0.755076
0.354484 0.124577 0.810102
0.361801 0.122383 0.805238
0.330513 0.145091 0.818788
0.369118 0.127773 0.827683
0.401102 0.133416 0.811844
0.381832 0.142347 0.850902
0.375389 0.168732 0.829537
0.381112 0.170701 0.868431
0.366519 0.177758 0.877459
0.388904 0.189693 0.880881
0.354166 0.198551 0.890736
0.365621 0.178315 0.887350
0.424211 0.216545 0.925677
0.402747 0.233710 0.893337
0.398903 0.239813 0.905573
0.402182 0.262707 0.909433
0.420704 0.266801 0.930591
0.419388 0.257931 0.938619
0.419482 0.280066 0.945520
0.445241 0.310075 0.943411
0.469501 0.318312 0.954937
0.402048 0.281856 0.961129
0.436356 0.325408 0.952743
0.412735 0.328867 0.937062
0.448749 0.324865 0.988728
0.480924 0.345152 0.981875
0.463019 0.360787 0.977302
0.459048 0.352782 0.948911
0.462338 0.393877 0.964863
0.460759 0.390307 0.969997
0.461133 0.415805 1.016779
0.483415 0.407102 1.024401
0.512306 0.402295 0.981390
0.464981 0.458471 1.009159
0.479599 0.466143 0.986920
0.478456 0.453230 0.962294
0.481212 0.468678 1.016571
0.515966 0.493195 1.014591
0.484301 0.486354 0.020718
0.467114 0.511067 0.001978
0.496577 0.447864 -0.003772
0.473148 0.449480 0.013516
0.469974 0.396666 -0.003930
0.456055 0.442383 -0.001709
0.450776 0.418354 -0.001480
0.477769 0.412823 -0.004637
0.498949 0.434497 0.017601
0.456654 0.385552 0.012032
0.461460 0.396655 0.022032
0.466242 0.358572 0.011645
0.435728 0.349173 0.049699
0.441778 0.362050 0.038808
0.423945 0.343168 0.026788
0.434467 0.311696 0.074324
0.440090 0.324937 0.023878
0.414892 0.320616 0.043672
0.413900 0.297267 0.020715
0.434371 0.256864 0.066905
0.387684 0.297094 0.082248
0.378295 0.243582 0.056524
0.411246 0.245013 0.096924
0.398033 0.243605 0.091299
0.378935 0.212997 0.086819
0.394222 0.235620 0.108730
0.364413 0.225688 0.113639
0.371347 0.195542 0.126639
0.394772 0.192319 0.114333
0.359744 0.191776 0.138863
0.363105 0.194143 0.155874
0.368313 0.161317 0.126263
0.359169 0.160153 0.148224
0.374225 0.171457 0.161642
0.362009 0.178786 0.197479
0.362688 0.132760 0.191391
0.379692 0.122717 0.224254
0.360247 0.096907 0.186387
0.364273 0.098661 0.213753
0.365578 0.099830 0.261659
0.336902 0.079185 0.267954
0.352404 0.107054 0.238760
0.329797 0.095671 0.293010
0.332070 0.091301 0.264358
0.336908 0.066498 0.267268
0.324831 0.083146 0.300213
0.354429 0.062544 0.332676
0.333038 0.079652 0.327896
0.327143 0.079682 0.310266
0.320860 0.060426 0.327305
0.323502 0.044498 0.355240
0.314455 0.060717 0.347587
0.312518 0.032595 0.406900
0.318479 0.046242 0.383824
0.331990 0.043920 0.395862
0.307263 0.017866 0.415176
0.330649 0.017956 0.443560
0.324273 0.048207 0.421581
0.321053 0.025769 0.481390
0.293673 0.033186 0.463531
0.323280 0.039401 0.471064
0.316228 0.002364 0.502064
0.311276 0.060971 0.481703
0.331675 0.026774 0.524544
0.332855 -0.009338 0.534851
0.343464 0.042035 0.538403
0.339988 0.035909 0.561729
0.302006 0.026380 0.552401
0.300610 0.031637 0.608039
0.343767 0.071368 0.578179
0.320869 0.070594 0.582273
0.303874 0.041092 0.610665
0.301105 0.082226 0.641818
0.307667 0.036127 0.637851
0.320886 0.058519 0.655086
0.350098 0.081995 0.691003
0.302672 0.093382 0.651340
0.327133 0.089832 0.702220
0.335340 0.077934 0.721155
0.359333 0.071018 0.745040
0.375117 0.048117 0.717420
0.367248 0.061744 0.740096
0.325274 0.102290 0.757686
0.353394 0.098535 0.742006
0.349804 0.102465 0.768390
0.341183 0.127179 0.767003
0.347195 0.116184 0.795466
0.371395 0.110941 0.821620
0.336868 0.144159 0.849236
0.345781 0.150819 0.833301
0.375349 0.151870 0.841150
0.355561 0.172605 0.864434
0.359040 0.157737 0.853046
0.358409 0.179108 0.869180
0.358862 0.158537 0.880545
0.373081 0.197325 0.921313
0.353074 0.240695 0.895301
0.375059 0.223536 0.898164
0.382413 0.228013 0.897474
0.409306 0.244024 0.907034
0.415491 0.242200 0.928368
0.386963 0.247063 0.962817
0.398976 0.263837 0.930133
0.419567 0.289524 0.979366
0.419349 0.297053 0.951223
0.408962 0.320464 0.949839
0.404276 0.323463 0.978849
0.433249 0.342389 0.967680
0.465962 0.344858 0.961331
0.415239 0.368462 0.957424
0.445892 0.386604 0.973661
0.414188 0.358345 0.959557
0.440448 0.373779 0.980762
0.488377 0.394541 0.996878
0.454789 0.421527 1.017628
0.482315 0.408624 1.000003
0.468056 0.446324 0.997631
0.478523 0.421402 0.988719
0.500949 0.437453 1.008319
0.494560 0.460956 0.991210
0.475959 0.467380 0.988248
0.462688 0.464366 1.003343
0.500508 0.474786 0.994434
0.499121 0.487314 0.021910
0.455326 0.449058 0.002423
0.485565 0.454501 0.032569
0.476064 0.476828 0.004182
0.491274 0.481746 0.006988
0.489547 0.467916 0.011410
0.470665 0.418916 0.021023
0.493638 0.400892 0.001650
0.478384 0.413878 0.066128
0.485408 0.384914 0.028032
0.446000 0.372475 0.037535
0.448984 0.376351 -0.001450
0.428992 0.342750 0.062115
0.422886 0.356549 0.029973
0.437088 0.342028 0.079664
0.457949 0.321687 0.061792
0.405354 0.309827 0.032191
0.460035 0.316782 0.061108
0.402121 0.286962 0.065712
0.392204 0.304439 0.043182
0.388750 0.269918 0.052178
0.402697 0.275804 0.099099
0.364491 0.263084 0.076752
0.397559 0.259687 0.083706
0.383162 0.226781 0.132631
0.374139 0.226643 0.116359
0.368723 0.250224 0.089824
0.372871 0.190468 0.135664
0.388867 0.181746 0.137060
0.361918 0.195540 0.125408
0.390824 0.152073 0.137344
0.336298 0.210098 0.185644
0.351077 0.193828 0.156712
0.394541 0.148327 0.167504
0.353084 0.173518 0.196943
0.350444 0.144676 0.170102
0.356122 0.143448 0.222427
0.354455 0.114685 0.218486
0.331752 0.100640 0.205145
0.358263 0.154280 0.241494
0.337056 0.093389 0.251006
0.326356 0.080779 0.241436
0.324796 0.094800 0.272537
0.321998 0.046576 0.272241
0.304374 0.065656 0.252706
0.333110 0.062557 0.292931
0.302093 0.059829 0.303773
0.343325 0.054427 0.311406
0.323795 0.087416 0.330582
0.328590 0.060923 0.325983
0.296765 0.095113 0.366539
0.314876 0.055722 0.359776
0.298199 0.050344 0.388652
0.307495 0.052649 0.379469
0.317100 0.044455 0.401312
0.278487 0.022772 0.425545
0.301709 0.072000 0.436512
0.307489 0.030473 0.450111
0.312796 0.060841 0.455132
0.301060 0.056790 0.477964
0.311823 0.038556 0.485664
0.308427 0.053877 0.495568
0.306408 0.068363 0.504874
0.288722 0.031442 0.499676
0.289448 0.047711 0.512678
0.347242 0.037663 0.544971
0.288538 0.073450 0.556860
0.345625 0.040690 0.562706
0.298845 0.055029 0.603301
0.347402 0.027792 0.610884
0.289509 0.041909 0.627584
0.309393 0.059512 0.628218
0.336815 0.065572 0.631649
0.303437 0.099445 0.642341
0.295331 0.070157 0.659639
0.330425 0.085479 0.668656
0.324263 0.065133 0.702538
0.342553 0.117444 0.700844
0.325023 0.093908 0.721155
0.330901 0.055325 0.739349
0.321794 0.087369 0.753160
0.359513 0.113520 0.762464
0.324723 0.113926 0.759602
0.345707 0.118821 0.759175
0.353635 0.103780 0.772216
0.347904 0.117968 0.770620
0.349405 0.130028 0.799323
0.336558 0.125940 0.790011
0.395983 0.132220 0.827825
0.367713 0.110407 0.832462
0.338232 0.153665 0.837000
0.359992 0.200630 0.846678
0.356196 0.153995 0.838753
0.371403 0.182301 0.842686
0.335197 0.198709 0.887959
0.379237 0.202948 0.880015
0.352362 0.201855 0.900907
0.390892 0.207752 0.911588
0.391467 0.221881 0.931182
0.380751 0.241609 0.906362
0.396369 0.267193 0.913142
0.415659 0.256153 0.940421
0.376789 0.274576 0.928852
0.414788 0.277931 0.949921
0.396275 0.317857 0.954085
0.398644 0.303285 0.955383
0.443785 0.297244 0.946809
0.447498 0.318809 0.940832
0.442500 0.348035 0.985790
0.436016 0.335009 0.983882
0.457597 0.347267 0.981261
0.446258 0.351627 0.973147
0.464751 0.394304 0.970710
0.472359 0.396269 0.958015
0.449493 0.370516 0.995282
0.492545 0.439463 1.002438
0.463083 0.421712 0.992290
0.477316 0.414836 0.977416
0.465201 0.432897 0.970994
0.470033 0.467431 1.002046
0.501416 0.487397 1.039079
0.476528 0.477929 1.005748
0.500197 0.510839 0.994484
0.516834 0.516047 0.029353
0.497512 0.453008 -0.015190
0.505542 0.451041 0.007516
0.492965 0.444944 -0.012668
0.495077 0.479092 0.039519
0.500917 0.453386 -0.019663
0.473656 0.440062 0.019583
0.449459 0.426979 0.039371
0.464997 0.427094 0.010050
0.484622 0.403665 0.024163
0.449464 0.395987 0.010825
0.450569 0.373432 0.004139
0.468391 0.362847 0.017470
0.431974 0.356689 0.048919
0.422238 0.344229 0.037623
0.402845 0.328718 0.013540
0.414535 0.322653 0.057807
0.380504 0.325960 0.075563
0.424230 0.320629 0.073787
0.410735 0.282094 0.062679
0.423167 0.260839 0.061824
0.409026 0.251129 0.082598
0.370275 0.273959 0.104386
0.376719 0.265112 0.089662
0.399616 0.240112 0.078752
0.408967 0.236547 0.096572
0.384655 0.224462 0.106162
0.353580 0.199280 0.089095
0.379281 0.218361 0.158164
0.355389 0.194913 0.145180
0.370849 0.159043 0.149452
0.362279 0.200480 0.161225
0.330037 0.169655 0.160965
0.348041 0.171633 0.178622
0.360634 0.154481 0.131366
0.347980 0.176084 0.172186
0.331302 0.118074 0.187843
0.301485 0.129847 0.234461
0.302287 0.090394 0.186955
0.312436 0.141927 0.233694
0.330113 0.124493 0.237316
0.333407 0.129166 0.253630
0.305317 0.097754 0.288627
0.311876 0.118261 0.226870
0.316870 0.066165 0.298835
0.310752 0.074127 0.298549
0.341261 0.073072 0.336205
0.317135 0.055727 0.335451
0.270124 0.075372 0.316267
0.325960 0.080514 0.341928
0.283165 0.098078 0.331433
0.288382 0.076168 0.394308
0.277666 0.096468 0.382546
0.283954 0.097902 0.403948
0.304595 0.044813 0.406406
0.312306 0.060559 0.433296
0.298019 -0.008886 0.421856
0.295047 0.035321 0.442479
0.305788 0.027382 0.475656
0.312061 0.042329 0.463219
0.298324 0.064411 0.480929
0.254920 0.046078 0.476468
0.301421 0.037652 0.502059
0.294520 0.063640 0.504056
0.283631 0.063146 0.540804
0.283694 0.052946 0.575597
0.298146 0.052013 0.558751
0.293221 0.036520 0.593708
0.294879 0.077702 0.595088
0.319472 0.065706 0.551522
0.291217 0.069664 0.612569
0.312595 0.057566 0.622528
0.306885 0.038881 0.625450
0.320135 0.072252 0.656962
0.304396 0.068305 0.626036
0.307324 0.092219 0.688456
0.304446 0.049841 0.680676
0.307346 0.085571 0.703691
0.295730 0.091682 0.721484
0.324695 0.071382 0.711935
0.303133 0.068920 0.710387
0.308566 0.121885 0.730392
0.345628 0.101651 0.744958
0.312940 0.114827 0.764347
0.318346 0.114475 0.773868
0.323367 0.116731 0.768649
0.330824 0.159190 0.789416
0.342324 0.150611 0.817210
0.335771 0.138435 0.821952
0.337493 0.174121 0.824028
0.319804 0.162812 0.836152
0.323636 0.148407 0.843935
0.360700 0.220711 0.865299
0.359235 0.217668 0.876499
0.354461 0.193186 0.859682
0.387480 0.195509 0.904291
0.357819 0.206667 0.903618
0.383761 0.250751 0.886820
0.394269 0.235841 0.909168
0.368217 0.254969 0.931150
0.408841 0.229435 0.899080
0.394485 0.279821 0.919626
0.377087 0.281863 0.920604
0.408777 0.264899 0.930706
0.426752 0.300053 0.930372
0.402792 0.316914 0.999074
0.430378 0.299033 0.953144
0.403833 0.339163 0.982770
0.374390 0.346972 0.988046
0.430348 0.344294 0.949394
0.458278 0.344462 0.990033
0.425821 0.384173 0.976264
0.433390 0.399629 0.984839
0.453663 0.414158 0.948950
0.423547 0.399337 0.969283
0.448102 0.377009 0.977839
0.469105 0.432756 1.015341
0.434652 0.453816 0.979014
0.475177 0.432791 1.000332
0.466462 0.447331 1.001897
0.476344 0.475902 0.994203
0.504095 0.473111 0.999309
0.510548 0.503590 1.026533
0.508759 0.469719 -0.002526
0.502433 0.472929 -0.027152
0.498194 0.473300 -0.000003
0.465626 0.463650 0.015838
0.461204 0.443884 0.001023
0.475499 0.426353 0.021106
0.455698 0.448573 0.002579
0.484770 0.411724 0.010700
0.473588 0.399487 0.014116
0.439026 0.387504 -0.018074
0.451008 0.387307 0.006725
0.426735 0.380738 0.036929
0.443236 0.353705 0.051232
0.419547 0.358059 0.025556
0.416787 0.356628 0.031310
0.399433 0.342277 0.023095
0.409901 0.315229 0.037767
0.415446 0.304971 0.058778
0.368056 0.314917 0.060662
0.365566 0.301185 0.059455
0.397398 0.270866 0.062925
0.423064 0.267289 0.064122
0.401920 0.280612 0.100695
0.382604 0.253780 0.101932
0.368626 0.268162 0.097752
0.369638 0.230333 0.108184
0.350519 0.206621 0.125855
0.343677 0.242775 0.093286
0.363374 0.200814 0.126889
0.348400 0.214550 0.138265
0.354162 0.190575 0.133027
0.329734 0.165276 0.146030
0.341792 0.148652 0.152776
0.366343 0.149855 0.162681
0.325137 0.147431 0.168491
0.334673 0.111250 0.196211
0.334248 0.129601 0.185396
0.336829 0.114770 0.245304
0.296752 0.123931 0.231082
0.322159 0.108850 0.259662
0.314870 0.124096 0.243356
0.324472 0.107171 0.248111
0.305671 0.098388 0.289147
0.332406 0.111407 0.282006
0.320920 0.108124 0.262782
0.297554 0.078386 0.288606
0.312401 0.101423 0.286028
0.295817 0.063380 0.308748
0.320121 0.048369 0.347879
0.279214 0.077525 0.347253
0.289511 0.061822 0.376088
0.287693 0.078918 0.352206
0.292240 0.069021 0.389019
0.283634 0.024641 0.398129
0.263536 0.067200 0.401001
0.313299 0.052001 0.428610
0.278929 0.052362 0.454596
0.292914 0.035900 0.455889
0.309426 0.060691 0.462273
0.281791 0.043142 0.448132
0.269786 0.041716 0.486322
0.279808 0.055411 0.480701
0.295728 0.048787 0.490390
0.271702 0.044000 0.561349
0.263865 0.048896 0.537818
0.303415 0.036889 0.521593
0.310729 0.048806 0.574787
0.289172 0.055658 0.560255
0.271109 0.047015 0.569494
0.283687 0.077527 0.584181
0.275488 0.071748 0.596239
0.300793 0.044988 0.637744
0.300193 0.050748 0.628584
0.278414 0.072394 0.650715
0.301147 0.065513 0.637281
0.324277 0.072302 0.664397
0.319723 0.057943 0.678934
0.308104 0.068713 0.693324
0.280299 0.087139 0.699406
0.299402 0.070254 0.703001
0.292530 0.096307 0.716873
0.292077 0.080395 0.739641
0.315032 0.092357 0.766527
0.323248 0.114548 0.764572
0.325172 0.116670 0.784139
0.325627 0.148231 0.768435
0.339291 0.139072 0.808865
0.328431 0.141001 0.801521
0.299589 0.153655 0.827016
0.341191 0.143130 0.818706
0.337471 0.182313 0.850785
0.352430 0.170693 0.874923
0.339262 0.192716 0.863018
0.350675 0.190074 0.845304
0.338373 0.222128 0.867942
0.389783 0.184724 0.854487
0.387523 0.234214 0.899375
0.340634 0.260727 0.899728
0.384136 0.232871 0.919662
0.361486 0.243560 0.903795
0.372377 0.237336 0.915468
0.400992 0.286235 0.897504
0.409791 0.280933 0.913452
0.401294 0.308972 0.936189
0.399407 0.298397 0.957099
0.388541 0.309791 0.954728
0.401605 0.313150 0.977060
0.420291 0.341349 0.956839
0.407286 0.317208 0.964082
0.431606 0.348441 0.958391
0.437775 0.358153 0.953761
0.447213 0.349095 0.971737
0.474184 0.392011 0.955624
0.453785 0.357995 0.968003
0.460761 0.389902 0.987993
0.453752 0.392967 1.005696
0.458658 0.406887 0.991873
0.466606 0.436595 0.984373
0.445400 0.426482 1.009819
0.491125 0.446479 1.001022
0.499438 0.442331 0.978479
0.450207 0.479768 1.014348
0.503090 0.504447 0.983352
0.512682 0.483352 -0.019300
0.485969 0.498603 0.017066
0.499743 0.468937 0.023479
0.508931 0.462319 0.007153
0.472327 0.440405 0.023131
0.452415 0.443821 0.018662
0.467867 0.451779 0.002469
0.459434 0.424737 0.000579
0.451913 0.406338 0.009099
0.441009 0.381806 0.032346
0.465354 0.393070 0.033405
0.420492 0.379720 0.003219
0.441072 0.358005 0.033587
0.405298 0.361599 0.002262
0.433638 0.343248 0.057479
0.406484 0.374624 0.023866
0.390030 0.308134 0.065792
0.421689 0.308950 0.065860
0.454532 0.303672 0.053672
0.369931 0.276146 0.064143
0.410270 0.285902 0.072345
0.348627 0.287586 0.064009
0.384399 0.285611 0.065804
0.351244 0.265747 0.054432
0.373667 0.225099 0.089365
0.372836 0.230382 0.091370
0.390408 0.236182 0.106641
0.338058 0.226374 0.148258
0.363854 0.206960 0.122839
0.328990 0.224623 0.105720
0.335768 0.177074 0.128580
0.363705 0.186844 0.121844
0.345236 0.184020 0.157971
0.338328 0.159258 0.155473
0.314301 0.151130 0.165340
0.300791 0.160334 0.197672
0.330774 0.147293 0.189774
0.325457 0.122621 0.221857
0.321040 0.126200 0.242721
0.307150 0.134839 0.250729
0.298814 0.125108 0.256109
0.319033 0.118788 0.239164
0.298933 0.127591 0.247378
0.289237 0.079906 0.294958
0.271759 0.096646 0.295371
0.304359 0.085838 0.272435
0.295546 0.093016 0.321942
0.297980 0.066240 0.318816
0.295897 0.035374 0.325467
0.291319 0.081854 0.352153
0.285345 0.081081 0.375998
0.282183 0.090293 0.354060
0.257762 0.037997 0.365954
0.270888 0.074458 0.402034
0.311445 0.072392 0.393818
0.294541 0.074700 0.415406
0.279283 0.052254 0.434166
0.271222 0.057059 0.451513
0.274864 0.075222 0.457365
0.283675 0.042833 0.480152
0.281055 0.057965 0.486515
0.243529 0.060173 0.536357
0.286302 0.031362 0.529387
0.281200 0.058509 0.540350
0.279671 0.041701 0.518971
0.255782 0.064305 0.568347
0.269235 0.019419 0.570932
0.265111 0.069906 0.555322
0.228919 0.055796 0.579135
0.297082 0.059957 0.591901
0.283516 0.048310 0.629013
0.259522 0.060382 0.609575
0.275975 0.063327 0.657273
0.291224 0.080640 0.666903
0.249843 0.097369 0.652521
0.305726 0.061885 0.645685
0.291065 0.088481 0.693450
0.296481 0.090126 0.697798
0.270134 0.089603 0.708490
0.302417 0.095930 0.706465
0.304569 0.105935 0.731649
0.292451 0.101085 0.731905
0.322431 0.101872 0.726688
0.288783 0.135751 0.751917
0.281844 0.117451 0.762425
0.314143 0.138995 0.795279
0.369105 0.129905 0.809630
0.302779 0.176507 0.793088
0.306528 0.149645 0.811498
0.339003 0.174539 0.837537
0.323111 0.193429 0.833269
0.325209 0.178945 0.845341
0.363273 0.209307 0.849641
0.335811 0.174810 0.864708
0.344812 0.182950 0.864187
0.348615 0.215952 0.881820
0.350737 0.229271 0.892119
0.381997 0.234124 0.884641
0.373482 0.243881 0.892690
0.357577 0.240851 0.894254
0.382349 0.243799 0.874718
0.387823 0.279067 0.908833
0.392093 0.285783 0.927046
0.412109 0.267391 0.949269
0.430197 0.288698 0.958043
0.410003 0.325796 0.934082
0.403766 0.336330 0.964629
0.400167 0.321390 0.954808
0.388465 0.331662 0.971549
0.423238 0.347698 0.985962
0.425207 0.373144 0.999950
0.436239 0.380943 0.969258
0.431628 0.408795 0.968646
0.460677 0.382360 0.952046
0.455532 0.408367 0.989242
0.480826 0.402959 1.013683
0.463246 0.390614 0.977650
0.473654 0.404933 1.009218
0.495287 0.436914 0.985182
0.487659 0.463073 1.027835
0.476596 0.468874 1.021528
0.510457 0.472154 0.999986
0.505452 0.501034 0.984178
0.479281 0.467467 -0.003699
0.495719 0.477958 -0.006146
0.458917 0.487327 0.013937
0.483150 0.450697 0.006945
0.492102 0.431660 -0.001897
0.437635 0.453874 0.014600
0.464324 0.429420 0.024391
0.473447 0.410343 0.021085
0.468599 0.389618 0.021717
0.447952 0.400735 0.009677
0.429034 0.388132 -0.002593
0.441126 0.380670 0.024709
0.414797 0.345789 0.046131
0.424332 0.372077 0.026004
0.429280 0.354846 0.015440
0.419336 0.305759 0.005544
0.386790 0.320947 0.039810
0.384327 0.302260 0.064197
0.373734 0.323953 0.051555
0.385462 0.292996 0.053725
0.379092 0.287732 0.079357
0.379535 0.280485 0.090380
0.379395 0.276607 0.084432
0.342311 0.230655 0.100247
0.372815 0.214458 0.089733
0.334467 0.239683 0.118215
0.348360 0.239280 0.095824
0.331550 0.225048 0.099154
0.347404 0.215751 0.120218
0.317486 0.191697 0.141899
0.332510 0.194494 0.153387
0.341745 0.215145 0.156735
0.354718 0.179968 0.141560
0.335895 0.145677 0.151476
0.302765 0.123909 0.163953
0.318668 0.121568 0.200108
0.301224 0.158187 0.196252
0.296611 0.161268 0.221445
0.300987 0.123911 0.202596
0.326525 0.110270 0.208890
0.271004 0.128161 0.246354
0.289092 0.115246 0.271382
0.296736 0.123537 0.251679
0.304245 0.105249 0.274924
0.274989 0.089806 0.249757
0.270855 0.101291 0.306056
0.275513 0.093080 0.307704
0.260614 0.061263 0.290949
0.288145 0.082694 0.322320
0.286130 0.090302 0.318745
0.267362 0.079882 0.357203
0.278663 0.079992 0.408409
0.240188 0.098202 0.367652
0.255051 0.104305 0.407979
0.277234 0.075985 0.405995
0.247688 0.073241 0.382111
0.286790 0.078922 0.414732
0.259689 0.045935 0.441875
0.251788 0.064849 0.436170
0.257716 0.061489 0.454584
0.268041 0.048238 0.511980
0.267313 0.060961 0.511799
0.262336 0.055395 0.511875
0.255027 0.056359 0.566524
0.261317 0.065666 0.550427
0.286469 0.052188 0.567176
0.283132 0.053720 0.571352
0.294177 0.065879 0.594082
0.248548 0.060763 0.590474
0.272803 0.089147 0.575156
0.296159 0.067378 0.612972
0.274710 0.052119 0.647054
0.242608 0.085401 0.640036
0.251349 0.091518 0.620412
0.262627 0.085882 0.668643
0.256891 0.093946 0.664080
0.261576 0.104095 0.704122
0.307795 0.117603 0.720049
0.285213 0.114845 0.721230
0.265945 0.125224 0.708955
0.299512 0.117539 0.727439
0.284841 0.127277 0.763834
0.313344 0.096209 0.738271
0.301543 0.135577 0.770961
0.300324 0.139035 0.763569
0.301153 0.132047 0.781373
0.306813 0.136229 0.830645
0.311984 0.173169 0.801503
0.319576 0.164685 0.807981
0.297271 0.189180 0.831486
0.338537 0.182535 0.819552
0.323996 0.162364 0.845655
0.343128 0.181172 0.845248
0.328802 0.204284 0.876459
0.333835 0.219431 0.897666
0.339344 0.234275 0.854753
0.350293 0.220397 0.892484
0.352212 0.221580 0.912477
0.332047 0.241847 0.884429
0.361388 0.275162 0.902244
0.342406 0.262328 0.926679
0.403461 0.293365 0.939937
0.379377 0.304468 0.918690
0.377986 0.282255 0.912004
0.403576 0.291505 0.938914
0.375496 0.301094 0.962946
0.411020 0.334638 0.964749
0.404109 0.337850 0.953687
0.432344 0.319252 0.966905
0.425826 0.322324 0.938360
0.426606 0.354197 0.981490
0.432818 0.394061 0.965593
0.433018 0.394123 0.996133
0.451355 0.384215 0.983925
0.438847 0.421006 0.998878
0.461278 0.427877 1.002085
0.474052 0.412282 0.977765
0.451687 0.451613 0.996242
0.467195 0.453639 0.990941
0.486801 0.454148 1.002402
0.460569 0.474607 0.971927
0.458795 0.485843 0.978365
0.510405 0.505326 1.017672
0.473254 0.550710 -0.018903
0.506433 0.448115 0.032999
0.478249 0.492369 0.004171
0.459660 0.481564 0.012694
0.499526 0.470973 0.008359
0.469678 0.464541 0.013699
0.493680 0.405568 -0.014719
0.450892 0.393613 0.024184
0.424220 0.420884 -0.006279
0.431254 0.380231 -0.013769
0.424768 0.384877 0.040835
0.408740 0.380993 0.004536
0.426414 0.361121 0.014825
0.391287 0.361440 0.029335
0.444137 0.353848 0.037815
0.366782 0.345750 0.048895
0.438569 0.317313 0.039133
0.375286 0.309121 0.071542
0.403507 0.310070 0.047070
0.371441 0.275539 0.037444
0.377000 0.295827 0.057314
0.360280 0.295671 0.053275
0.359156 0.261995 0.093699
0.336361 0.277121 0.114636
0.375830 0.250543 0.076439
0.328166 0.231841 0.100304
0.339306 0.222030 0.100068
0.355247 0.195592 0.103785
0.338691 0.217420 0.130936
0.333511 0.209028 0.121491
0.327648 0.187018 0.166528
0.331108 0.193716 0.153997
0.333654 0.162704 0.164435
0.317662 0.175178 0.151005
0.335024 0.170257 0.172046
