ply
format ascii 1.0
element vertex 1773
property float x
property float y
property float z
end_header
0.289977 0.569954 0.950000
0.289977 0.589954 0.950000
0.309977 0.569954 0.950000
0.309977 0.569954 0.970000
0.309977 0.589954 0.950000
0.289977 0.609954 0.930000
0.289977 0.629954 0.930000
0.309977 0.629954 0.930000
0.289977 0.609954 0.950000
0.309977 0.609954 0.950000
0.309977 0.629954 0.950000
0.329977 0.569954 0.970000
0.329977 0.589954 0.970000
0.349977 0.569954 0.970000
0.349977 0.589954 0.970000
0.329977 0.609954 0.950000
0.329977 0.609954 0.970000
0.329977 0.629954 0.950000
0.349977 0.609954 0.970000
0.349977 0.629954 0.950000
0.349977 0.629954 0.970000
0.209977 0.649954 0.870000
0.209977 0.649954 0.890000
0.209977 0.669954 0.870000
0.209977 0.669954 0.890000
0.229977 0.649954 0.890000
0.229977 0.669954 0.890000
0.209977 0.689954 0.850000
0.209977 0.709954 0.850000
0.229977 0.709954 0.850000
0.209977 0.689954 0.870000
0.229977 0.689954 0.870000
0.229977 0.689954 0.890000
0.229977 0.709954 0.870000
0.249977 0.649954 0.890000
0.249977 0.669954 0.890000
0.249977 0.689954 0.890000
0.249977 0.709954 0.870000
0.249977 0.709954 0.890000
0.269977 0.689954 0.890000
0.269977 0.709954 0.890000
0.249977 0.649954 0.910000
0.249977 0.669954 0.910000
0.269977 0.649954 0.910000
0.269977 0.649954 0.930000
0.269977 0.669954 0.910000
0.269977 0.689954 0.910000
0.209977 0.729954 0.830000
0.209977 0.729954 0.850000
0.209977 0.749954 0.830000
0.229977 0.729954 0.850000
0.229977 0.749954 0.830000
0.229977 0.749954 0.850000
0.229977 0.729954 0.870000
0.229977 0.769954 0.830000
0.249977 0.749954 0.850000
0.269977 0.749954 0.850000
0.249977 0.729954 0.870000
0.249977 0.749954 0.870000
0.269977 0.729954 0.870000
0.269977 0.729954 0.890000
0.269977 0.749954 0.870000
0.249977 0.769954 0.830000
0.249977 0.769954 0.850000
0.249977 0.789954 0.830000
0.269977 0.769954 0.850000
0.269977 0.789954 0.830000
0.269977 0.789954 0.850000
0.289977 0.709954 0.890000
0.289977 0.649954 0.930000
0.289977 0.669954 0.910000
0.289977 0.669954 0.930000
0.309977 0.649954 0.930000
0.309977 0.669954 0.930000
0.289977 0.689954 0.910000
0.289977 0.709954 0.910000
0.309977 0.689954 0.910000
0.309977 0.689954 0.930000
0.309977 0.709954 0.910000
0.329977 0.649954 0.930000
0.329977 0.669954 0.930000
0.329977 0.649954 0.950000
0.349977 0.649954 0.950000
0.349977 0.669954 0.950000
0.329977 0.689954 0.930000
0.329977 0.709954 0.910000
0.329977 0.709954 0.930000
0.349977 0.689954 0.930000
0.349977 0.709954 0.930000
0.289977 0.729954 0.890000
0.289977 0.749954 0.870000
0.289977 0.749954 0.890000
0.309977 0.729954 0.890000
0.309977 0.749954 0.890000
0.289977 0.769954 0.850000
0.289977 0.789954 0.850000
0.309977 0.789954 0.850000
0.289977 0.769954 0.870000
0.309977 0.769954 0.870000
0.309977 0.769954 0.890000
0.309977 0.789954 0.870000
0.329977 0.749954 0.890000
0.329977 0.769954 0.890000
0.329977 0.789954 0.870000
0.349977 0.769954 0.890000
0.349977 0.789954 0.870000
0.349977 0.789954 0.890000
0.309977 0.729954 0.910000
0.329977 0.729954 0.910000
0.329977 0.749954 0.910000
0.349977 0.729954 0.910000
0.349977 0.749954 0.910000
0.369977 0.549954 0.970000
0.369977 0.569954 0.970000
0.369977 0.589954 0.970000
0.389977 0.589954 0.970000
0.369977 0.609954 0.970000
0.369977 0.629954 0.970000
0.389977 0.609954 0.970000
0.389977 0.629954 0.970000
0.409977 0.609954 0.970000
0.409977 0.629954 0.970000
0.429977 0.629954 0.970000
0.449977 0.629954 0.970000
0.369977 0.489954 0.990000
0.369977 0.509954 0.990000
0.389977 0.489954 0.990000
0.389977 0.509954 0.990000
0.369977 0.529954 0.990000
0.369977 0.549954 0.990000
0.389977 0.529954 0.990000
0.389977 0.549954 0.990000
0.409977 0.489954 0.990000
0.409977 0.509954 0.990000
0.429977 0.489954 0.990000
0.429977 0.509954 0.990000
0.409977 0.529954 0.990000
0.409977 0.549954 0.990000
0.429977 0.529954 0.990000
0.429977 0.549954 0.990000
0.389977 0.569954 0.990000
0.389977 0.589954 0.990000
0.409977 0.569954 0.990000
0.409977 0.589954 0.990000
0.429977 0.569954 0.990000
0.429977 0.589954 0.990000
0.409977 0.609954 0.990000
0.429977 0.609954 0.990000
0.449977 0.489954 0.990000
0.449977 0.509954 0.990000
0.469977 0.489954 0.990000
0.469977 0.509954 0.990000
0.449977 0.529954 0.990000
0.449977 0.549954 0.990000
0.469977 0.529954 0.990000
0.469977 0.549954 0.990000
0.489977 0.489954 0.990000
0.489977 0.509954 0.990000
0.509977 0.489954 0.990000
0.509977 0.509954 0.990000
0.489977 0.529954 0.990000
0.489977 0.549954 0.990000
0.509977 0.529954 0.990000
0.509977 0.549954 0.990000
0.449977 0.569954 0.990000
0.449977 0.589954 0.990000
0.469977 0.569954 0.990000
0.469977 0.589954 0.990000
0.449977 0.609954 0.990000
0.449977 0.629954 0.990000
0.469977 0.609954 0.990000
0.469977 0.629954 0.990000
0.489977 0.569954 0.990000
0.489977 0.589954 0.990000
0.509977 0.569954 0.990000
0.509977 0.589954 0.990000
0.489977 0.609954 0.990000
0.489977 0.629954 0.990000
0.509977 0.609954 0.990000
0.509977 0.629954 0.990000
0.369977 0.649954 0.950000
0.369977 0.649954 0.970000
0.369977 0.669954 0.950000
0.389977 0.649954 0.970000
0.389977 0.669954 0.950000
0.389977 0.669954 0.970000
0.369977 0.689954 0.930000
0.369977 0.709954 0.930000
0.389977 0.709954 0.930000
0.369977 0.689954 0.950000
0.389977 0.689954 0.950000
0.389977 0.709954 0.950000
0.409977 0.649954 0.970000
0.409977 0.669954 0.970000
0.429977 0.649954 0.970000
0.429977 0.669954 0.970000
0.409977 0.709954 0.930000
0.409977 0.689954 0.950000
0.409977 0.709954 0.950000
0.429977 0.689954 0.950000
0.429977 0.689954 0.970000
0.429977 0.709954 0.950000
0.369977 0.769954 0.890000
0.369977 0.789954 0.890000
0.389977 0.789954 0.890000
0.409977 0.789954 0.890000
0.429977 0.789954 0.890000
0.369977 0.729954 0.910000
0.369977 0.729954 0.930000
0.369977 0.749954 0.910000
0.389977 0.729954 0.930000
0.389977 0.749954 0.910000
0.389977 0.749954 0.930000
0.369977 0.769954 0.910000
0.389977 0.769954 0.910000
0.409977 0.729954 0.930000
0.409977 0.749954 0.910000
0.409977 0.749954 0.930000
0.429977 0.729954 0.930000
0.429977 0.749954 0.930000
0.409977 0.769954 0.910000
0.409977 0.789954 0.910000
0.429977 0.769954 0.910000
0.429977 0.789954 0.910000
0.449977 0.649954 0.970000
0.449977 0.669954 0.970000
0.469977 0.649954 0.970000
0.469977 0.669954 0.970000
0.449977 0.689954 0.950000
0.449977 0.689954 0.970000
0.449977 0.709954 0.950000
0.469977 0.689954 0.970000
0.469977 0.709954 0.950000
0.489977 0.649954 0.970000
0.489977 0.669954 0.970000
0.509977 0.649954 0.970000
0.509977 0.669954 0.970000
0.489977 0.689954 0.970000
0.489977 0.709954 0.950000
0.509977 0.689954 0.970000
0.509977 0.709954 0.950000
0.449977 0.789954 0.890000
0.449977 0.729954 0.930000
0.449977 0.749954 0.930000
0.469977 0.729954 0.930000
0.469977 0.749954 0.930000
0.449977 0.729954 0.950000
0.469977 0.729954 0.950000
0.449977 0.769954 0.910000
0.449977 0.789954 0.910000
0.469977 0.769954 0.910000
0.469977 0.769954 0.930000
0.469977 0.789954 0.910000
0.489977 0.729954 0.930000
0.489977 0.749954 0.930000
0.509977 0.729954 0.930000
0.509977 0.749954 0.930000
0.489977 0.729954 0.950000
0.509977 0.729954 0.950000
0.489977 0.769954 0.910000
0.489977 0.769954 0.930000
0.489977 0.789954 0.910000
0.509977 0.769954 0.910000
0.509977 0.769954 0.930000
0.509977 0.789954 0.910000
0.269977 0.809954 0.830000
0.289977 0.809954 0.830000
0.289977 0.809954 0.850000
0.289977 0.829954 0.830000
0.309977 0.809954 0.830000
0.309977 0.809954 0.850000
0.309977 0.829954 0.830000
0.329977 0.809954 0.850000
0.329977 0.829954 0.830000
0.329977 0.829954 0.850000
0.349977 0.809954 0.850000
0.349977 0.829954 0.830000
0.349977 0.829954 0.850000
0.329977 0.809954 0.870000
0.349977 0.809954 0.870000
0.349977 0.849954 0.830000
0.369977 0.829954 0.850000
0.389977 0.829954 0.850000
0.369977 0.809954 0.870000
0.369977 0.809954 0.890000
0.369977 0.829954 0.870000
0.389977 0.809954 0.870000
0.389977 0.809954 0.890000
0.389977 0.829954 0.870000
0.369977 0.849954 0.830000
0.389977 0.849954 0.830000
0.389977 0.849954 0.850000
0.389977 0.869954 0.830000
0.409977 0.829954 0.850000
0.409977 0.809954 0.890000
0.409977 0.829954 0.870000
0.429977 0.809954 0.890000
0.429977 0.829954 0.870000
0.409977 0.849954 0.830000
0.409977 0.849954 0.850000
0.409977 0.869954 0.830000
0.429977 0.849954 0.850000
0.429977 0.869954 0.830000
0.449977 0.809954 0.890000
0.449977 0.829954 0.870000
0.449977 0.829954 0.890000
0.469977 0.809954 0.890000
0.469977 0.829954 0.870000
0.469977 0.829954 0.890000
0.449977 0.849954 0.850000
0.449977 0.869954 0.830000
0.469977 0.849954 0.850000
0.469977 0.869954 0.830000
0.469977 0.869954 0.850000
0.449977 0.849954 0.870000
0.469977 0.849954 0.870000
0.489977 0.809954 0.890000
0.489977 0.829954 0.870000
0.489977 0.829954 0.890000
0.509977 0.809954 0.890000
0.509977 0.829954 0.870000
0.509977 0.829954 0.890000
0.489977 0.849954 0.850000
0.489977 0.869954 0.830000
0.489977 0.869954 0.850000
0.509977 0.849954 0.850000
0.509977 0.869954 0.830000
0.509977 0.869954 0.850000
0.489977 0.849954 0.870000
0.509977 0.849954 0.870000
0.529977 0.109954 0.170000
0.549977 0.109954 0.170000
0.529977 0.129954 0.150000
0.529977 0.129954 0.170000
0.529977 0.149954 0.150000
0.549977 0.129954 0.150000
0.549977 0.129954 0.170000
0.549977 0.149954 0.150000
0.569977 0.129954 0.150000
0.569977 0.129954 0.170000
0.569977 0.149954 0.150000
0.589977 0.129954 0.170000
0.589977 0.149954 0.150000
0.609977 0.129954 0.170000
0.609977 0.149954 0.150000
0.609977 0.149954 0.170000
0.629977 0.129954 0.170000
0.629977 0.149954 0.150000
0.629977 0.149954 0.170000
0.649977 0.149954 0.170000
0.669977 0.149954 0.170000
0.529977 0.209954 0.090000
0.529977 0.229954 0.070000
0.529977 0.229954 0.090000
0.549977 0.209954 0.090000
0.549977 0.229954 0.070000
0.549977 0.229954 0.090000
0.569977 0.209954 0.090000
0.569977 0.229954 0.090000
0.589977 0.209954 0.090000
0.589977 0.229954 0.090000
0.529977 0.169954 0.130000
0.529977 0.189954 0.110000
0.549977 0.169954 0.130000
0.549977 0.189954 0.110000
0.569977 0.169954 0.130000
0.569977 0.189954 0.110000
0.569977 0.189954 0.130000
0.589977 0.169954 0.130000
0.589977 0.189954 0.110000
0.589977 0.189954 0.130000
0.569977 0.169954 0.150000
0.589977 0.169954 0.150000
0.589977 0.209954 0.110000
0.529977 0.269954 0.050000
0.549977 0.269954 0.050000
0.529977 0.249954 0.070000
0.549977 0.249954 0.070000
0.549977 0.269954 0.070000
0.529977 0.289954 0.050000
0.529977 0.309954 0.030000
0.529977 0.309954 0.050000
0.549977 0.289954 0.050000
0.549977 0.309954 0.030000
0.549977 0.309954 0.050000
0.569977 0.269954 0.050000
0.569977 0.249954 0.070000
0.569977 0.269954 0.070000
0.589977 0.249954 0.070000
0.589977 0.269954 0.070000
0.569977 0.289954 0.050000
0.569977 0.309954 0.050000
0.589977 0.289954 0.050000
0.589977 0.309954 0.050000
0.609977 0.209954 0.090000
0.609977 0.229954 0.090000
0.629977 0.229954 0.090000
0.649977 0.229954 0.090000
0.609977 0.169954 0.130000
0.609977 0.189954 0.110000
0.609977 0.189954 0.130000
0.629977 0.189954 0.130000
0.609977 0.169954 0.150000
0.629977 0.169954 0.150000
0.609977 0.209954 0.110000
0.629977 0.209954 0.110000
0.629977 0.229954 0.110000
0.649977 0.189954 0.130000
0.649977 0.169954 0.150000
0.649977 0.189954 0.150000
0.669977 0.169954 0.150000
0.669977 0.169954 0.170000
0.669977 0.189954 0.150000
0.649977 0.209954 0.110000
0.649977 0.209954 0.130000
0.649977 0.229954 0.110000
0.669977 0.209954 0.130000
0.669977 0.229954 0.110000
0.669977 0.229954 0.130000
0.609977 0.249954 0.070000
0.609977 0.249954 0.090000
0.609977 0.269954 0.070000
0.629977 0.249954 0.090000
0.629977 0.269954 0.070000
0.609977 0.289954 0.050000
0.609977 0.309954 0.050000
0.629977 0.309954 0.050000
0.609977 0.289954 0.070000
0.629977 0.289954 0.070000
0.649977 0.249954 0.090000
0.649977 0.269954 0.070000
0.649977 0.269954 0.090000
0.669977 0.249954 0.090000
0.669977 0.269954 0.090000
0.649977 0.309954 0.050000
0.649977 0.289954 0.070000
0.649977 0.309954 0.070000
0.669977 0.289954 0.070000
0.669977 0.289954 0.090000
0.669977 0.309954 0.070000
0.669977 0.249954 0.110000
0.529977 0.369954 0.010000
0.529977 0.389954 0.010000
0.549977 0.369954 0.010000
0.549977 0.389954 0.010000
0.569977 0.369954 0.010000
0.569977 0.389954 0.010000
0.589977 0.389954 0.010000
0.529977 0.409954 0.010000
0.529977 0.429954 0.010000
0.549977 0.409954 0.010000
0.549977 0.429954 0.010000
0.529977 0.449954 0.010000
0.529977 0.469954 0.010000
0.549977 0.449954 0.010000
0.549977 0.469954 0.010000
0.569977 0.409954 0.010000
0.569977 0.429954 0.010000
0.589977 0.409954 0.010000
0.589977 0.429954 0.010000
0.569977 0.449954 0.010000
0.569977 0.469954 0.010000
0.589977 0.449954 0.010000
0.589977 0.469954 0.010000
0.609977 0.409954 0.010000
0.609977 0.429954 0.010000
0.629977 0.429954 0.010000
0.609977 0.449954 0.010000
0.609977 0.469954 0.010000
0.629977 0.449954 0.010000
0.629977 0.469954 0.010000
0.529977 0.329954 0.030000
0.529977 0.349954 0.030000
0.549977 0.329954 0.030000
0.549977 0.349954 0.030000
0.549977 0.369954 0.030000
0.569977 0.329954 0.030000
0.569977 0.349954 0.030000
0.589977 0.329954 0.030000
0.589977 0.329954 0.050000
0.589977 0.349954 0.030000
0.569977 0.369954 0.030000
0.589977 0.369954 0.030000
0.589977 0.389954 0.030000
0.609977 0.329954 0.050000
0.609977 0.349954 0.030000
0.629977 0.329954 0.050000
0.629977 0.349954 0.030000
0.629977 0.349954 0.050000
0.609977 0.369954 0.030000
0.609977 0.389954 0.030000
0.629977 0.369954 0.030000
0.629977 0.389954 0.030000
0.649977 0.329954 0.050000
0.649977 0.349954 0.050000
0.669977 0.329954 0.050000
0.669977 0.349954 0.050000
0.669977 0.329954 0.070000
0.649977 0.369954 0.030000
0.649977 0.369954 0.050000
0.649977 0.389954 0.030000
0.669977 0.369954 0.050000
0.669977 0.389954 0.050000
0.609977 0.409954 0.030000
0.629977 0.409954 0.030000
0.629977 0.429954 0.030000
0.629977 0.449954 0.030000
0.649977 0.409954 0.030000
0.649977 0.429954 0.030000
0.669977 0.409954 0.030000
0.669977 0.409954 0.050000
0.669977 0.429954 0.030000
0.649977 0.449954 0.030000
0.649977 0.469954 0.030000
0.669977 0.449954 0.030000
0.669977 0.469954 0.030000
0.689977 0.169954 0.170000
0.689977 0.189954 0.150000
0.689977 0.189954 0.170000
0.709977 0.169954 0.170000
0.709977 0.189954 0.150000
0.709977 0.189954 0.170000
0.689977 0.209954 0.130000
0.689977 0.229954 0.110000
0.689977 0.229954 0.130000
0.709977 0.229954 0.130000
0.689977 0.209954 0.150000
0.709977 0.209954 0.150000
0.709977 0.229954 0.150000
0.729977 0.189954 0.170000
0.729977 0.209954 0.150000
0.729977 0.209954 0.170000
0.729977 0.229954 0.150000
0.749977 0.209954 0.170000
0.749977 0.229954 0.150000
0.749977 0.229954 0.170000
0.689977 0.269954 0.090000
0.689977 0.289954 0.090000
0.689977 0.309954 0.070000
0.689977 0.309954 0.090000
0.709977 0.289954 0.090000
0.709977 0.309954 0.090000
0.729977 0.289954 0.090000
0.729977 0.309954 0.090000
0.689977 0.249954 0.110000
0.709977 0.249954 0.110000
0.709977 0.249954 0.130000
0.709977 0.269954 0.110000
0.709977 0.289954 0.110000
0.729977 0.249954 0.130000
0.729977 0.269954 0.110000
0.729977 0.269954 0.130000
0.749977 0.269954 0.130000
0.729977 0.249954 0.150000
0.749977 0.249954 0.150000
0.749977 0.269954 0.150000
0.729977 0.289954 0.110000
0.729977 0.309954 0.110000
0.749977 0.289954 0.110000
0.749977 0.289954 0.130000
0.749977 0.309954 0.110000
0.769977 0.229954 0.170000
0.769977 0.249954 0.150000
0.769977 0.249954 0.170000
0.769977 0.269954 0.150000
0.789977 0.249954 0.170000
0.789977 0.269954 0.150000
0.789977 0.269954 0.170000
0.769977 0.289954 0.130000
0.769977 0.309954 0.110000
0.769977 0.309954 0.130000
0.789977 0.309954 0.130000
0.769977 0.289954 0.150000
0.789977 0.289954 0.150000
0.789977 0.309954 0.150000
0.809977 0.269954 0.170000
0.809977 0.289954 0.150000
0.809977 0.289954 0.170000
0.809977 0.309954 0.150000
0.809977 0.309954 0.170000
0.829977 0.289954 0.170000
0.829977 0.309954 0.170000
0.689977 0.349954 0.050000
0.689977 0.329954 0.070000
0.689977 0.349954 0.070000
0.709977 0.329954 0.070000
0.709977 0.329954 0.090000
0.709977 0.349954 0.070000
0.689977 0.369954 0.050000
0.689977 0.389954 0.050000
0.709977 0.389954 0.050000
0.709977 0.369954 0.070000
0.709977 0.389954 0.070000
0.729977 0.329954 0.090000
0.729977 0.349954 0.070000
0.729977 0.349954 0.090000
0.749977 0.329954 0.090000
0.749977 0.349954 0.090000
0.729977 0.369954 0.070000
0.729977 0.389954 0.070000
0.749977 0.369954 0.090000
0.749977 0.389954 0.070000
0.749977 0.389954 0.090000
0.749977 0.329954 0.110000
0.689977 0.409954 0.050000
0.689977 0.429954 0.050000
0.709977 0.409954 0.050000
0.709977 0.429954 0.050000
0.689977 0.449954 0.030000
0.689977 0.449954 0.050000
0.689977 0.469954 0.030000
0.689977 0.469954 0.050000
0.709977 0.449954 0.050000
0.709977 0.469954 0.050000
0.729977 0.429954 0.050000
0.729977 0.409954 0.070000
0.729977 0.429954 0.070000
0.749977 0.409954 0.070000
0.749977 0.429954 0.070000
0.729977 0.449954 0.050000
0.729977 0.469954 0.050000
0.729977 0.449954 0.070000
0.749977 0.449954 0.070000
0.749977 0.469954 0.070000
0.769977 0.349954 0.090000
0.769977 0.369954 0.090000
0.769977 0.389954 0.090000
0.789977 0.389954 0.090000
0.769977 0.329954 0.110000
0.769977 0.329954 0.130000
0.769977 0.349954 0.110000
0.789977 0.329954 0.130000
0.789977 0.349954 0.110000
0.789977 0.349954 0.130000
0.789977 0.329954 0.150000
0.769977 0.369954 0.110000
0.789977 0.369954 0.110000
0.789977 0.369954 0.130000
0.789977 0.389954 0.110000
0.809977 0.349954 0.130000
0.809977 0.329954 0.150000
0.809977 0.349954 0.150000
0.829977 0.329954 0.150000
0.829977 0.329954 0.170000
0.829977 0.349954 0.150000
0.809977 0.369954 0.130000
0.809977 0.389954 0.110000
0.809977 0.389954 0.130000
0.829977 0.389954 0.130000
0.809977 0.369954 0.150000
0.829977 0.369954 0.150000
0.829977 0.389954 0.150000
0.769977 0.409954 0.090000
0.769977 0.429954 0.090000
0.789977 0.409954 0.090000
0.789977 0.429954 0.090000
0.769977 0.449954 0.070000
0.769977 0.449954 0.090000
0.769977 0.469954 0.070000
0.769977 0.469954 0.090000
0.789977 0.449954 0.090000
0.789977 0.469954 0.090000
0.789977 0.409954 0.110000
0.789977 0.429954 0.110000
0.809977 0.409954 0.110000
0.809977 0.409954 0.130000
0.809977 0.429954 0.110000
0.829977 0.409954 0.130000
0.829977 0.429954 0.130000
0.829977 0.409954 0.150000
0.829977 0.429954 0.150000
0.809977 0.449954 0.110000
0.809977 0.469954 0.110000
0.829977 0.449954 0.130000
0.829977 0.469954 0.130000
0.849977 0.329954 0.170000
0.849977 0.349954 0.170000
0.849977 0.369954 0.150000
0.849977 0.369954 0.170000
0.849977 0.389954 0.150000
0.849977 0.389954 0.170000
0.869977 0.369954 0.170000
0.869977 0.389954 0.170000
0.849977 0.409954 0.150000
0.849977 0.429954 0.150000
0.869977 0.409954 0.170000
0.869977 0.429954 0.150000
0.869977 0.429954 0.170000
0.849977 0.449954 0.150000
0.849977 0.469954 0.150000
0.869977 0.449954 0.150000
0.869977 0.449954 0.170000
0.869977 0.469954 0.150000
0.869977 0.469954 0.170000
0.889977 0.469954 0.170000
0.529977 0.069954 0.250000
0.549977 0.069954 0.250000
0.569977 0.069954 0.250000
0.589977 0.069954 0.250000
0.529977 0.029954 0.310000
0.529977 0.029954 0.330000
0.549977 0.029954 0.310000
0.549977 0.029954 0.330000
0.529977 0.049954 0.270000
0.529977 0.049954 0.290000
0.529977 0.069954 0.270000
0.549977 0.049954 0.270000
0.549977 0.049954 0.290000
0.549977 0.069954 0.270000
0.549977 0.049954 0.310000
0.569977 0.029954 0.330000
0.589977 0.029954 0.330000
0.569977 0.049954 0.270000
0.569977 0.049954 0.290000
0.569977 0.069954 0.270000
0.589977 0.049954 0.290000
0.589977 0.069954 0.270000
0.569977 0.049954 0.310000
0.589977 0.049954 0.310000
0.589977 0.049954 0.330000
0.529977 0.089954 0.210000
0.529977 0.109954 0.190000
0.549977 0.089954 0.210000
0.549977 0.109954 0.190000
0.529977 0.089954 0.230000
0.549977 0.089954 0.230000
0.569977 0.089954 0.210000
0.569977 0.109954 0.190000
0.569977 0.109954 0.210000
0.589977 0.089954 0.210000
0.589977 0.109954 0.190000
0.589977 0.109954 0.210000
0.569977 0.089954 0.230000
0.589977 0.089954 0.230000
0.589977 0.089954 0.250000
0.589977 0.129954 0.190000
0.609977 0.069954 0.250000
0.609977 0.029954 0.330000
0.609977 0.049954 0.290000
0.609977 0.069954 0.270000
0.609977 0.069954 0.290000
0.629977 0.049954 0.290000
0.629977 0.069954 0.270000
0.629977 0.069954 0.290000
0.609977 0.049954 0.310000
0.609977 0.049954 0.330000
0.629977 0.049954 0.310000
0.629977 0.049954 0.330000
0.649977 0.069954 0.270000
0.649977 0.069954 0.290000
0.669977 0.069954 0.290000
0.649977 0.049954 0.330000
0.649977 0.069954 0.310000
0.649977 0.069954 0.330000
0.669977 0.069954 0.310000
0.669977 0.069954 0.330000
0.609977 0.109954 0.190000
0.609977 0.109954 0.210000
0.629977 0.109954 0.210000
0.609977 0.089954 0.230000
0.609977 0.089954 0.250000
0.629977 0.089954 0.230000
0.629977 0.089954 0.250000
0.629977 0.109954 0.230000
0.609977 0.129954 0.190000
0.629977 0.129954 0.190000
0.649977 0.109954 0.210000
0.649977 0.089954 0.250000
0.649977 0.109954 0.230000
0.649977 0.109954 0.250000
0.669977 0.089954 0.250000
0.669977 0.109954 0.230000
0.669977 0.109954 0.250000
0.649977 0.129954 0.190000
0.649977 0.129954 0.210000
0.669977 0.129954 0.190000
0.669977 0.129954 0.210000
0.669977 0.149954 0.190000
0.629977 0.089954 0.270000
0.649977 0.089954 0.270000
0.669977 0.089954 0.270000
0.669977 0.089954 0.290000
0.529977 0.009954 0.370000
0.529977 0.029954 0.350000
0.549977 0.009954 0.370000
0.549977 0.029954 0.350000
0.549977 0.029954 0.370000
0.529977 0.009954 0.390000
0.529977 0.009954 0.410000
0.549977 0.009954 0.390000
0.549977 0.009954 0.410000
0.569977 0.029954 0.350000
0.569977 0.029954 0.370000
0.589977 0.029954 0.350000
0.589977 0.029954 0.370000
0.569977 0.009954 0.390000
0.569977 0.009954 0.410000
0.589977 0.009954 0.390000
0.589977 0.009954 0.410000
0.589977 0.029954 0.390000
0.529977 0.009954 0.430000
0.529977 0.009954 0.450000
0.549977 0.009954 0.430000
0.549977 0.009954 0.450000
0.529977 0.009954 0.470000
0.529977 0.009954 0.490000
0.549977 0.009954 0.470000
0.549977 0.009954 0.490000
0.569977 0.009954 0.430000
0.569977 0.009954 0.450000
0.589977 0.009954 0.430000
0.589977 0.009954 0.450000
0.569977 0.009954 0.470000
0.569977 0.009954 0.490000
0.589977 0.009954 0.470000
0.589977 0.009954 0.490000
0.609977 0.029954 0.350000
0.609977 0.029954 0.370000
0.629977 0.029954 0.350000
0.629977 0.029954 0.370000
0.609977 0.029954 0.390000
0.609977 0.029954 0.410000
0.629977 0.029954 0.390000
0.629977 0.029954 0.410000
0.629977 0.049954 0.350000
0.649977 0.029954 0.370000
0.649977 0.029954 0.390000
0.649977 0.029954 0.410000
0.669977 0.029954 0.410000
0.649977 0.049954 0.350000
0.649977 0.049954 0.370000
0.669977 0.049954 0.350000
0.669977 0.049954 0.370000
0.669977 0.049954 0.390000
0.669977 0.049954 0.410000
0.609977 0.009954 0.430000
0.609977 0.009954 0.450000
0.609977 0.029954 0.430000
0.629977 0.009954 0.450000
0.629977 0.029954 0.430000
0.629977 0.029954 0.450000
0.609977 0.009954 0.470000
0.609977 0.009954 0.490000
0.629977 0.009954 0.470000
0.629977 0.009954 0.490000
0.649977 0.029954 0.430000
0.649977 0.029954 0.450000
0.669977 0.029954 0.430000
0.669977 0.029954 0.450000
0.649977 0.029954 0.470000
0.649977 0.029954 0.490000
0.669977 0.029954 0.470000
0.669977 0.029954 0.490000
0.669977 0.049954 0.430000
0.689977 0.069954 0.310000
0.689977 0.069954 0.330000
0.709977 0.069954 0.330000
0.689977 0.109954 0.250000
0.709977 0.109954 0.250000
0.689977 0.129954 0.210000
0.689977 0.149954 0.190000
0.689977 0.149954 0.210000
0.709977 0.149954 0.210000
0.689977 0.129954 0.230000
0.709977 0.129954 0.230000
0.709977 0.129954 0.250000
0.729977 0.149954 0.210000
0.729977 0.129954 0.250000
0.729977 0.149954 0.230000
0.729977 0.149954 0.250000
0.749977 0.149954 0.230000
0.749977 0.149954 0.250000
0.689977 0.089954 0.270000
0.689977 0.089954 0.290000
0.689977 0.109954 0.270000
0.709977 0.089954 0.290000
0.709977 0.109954 0.270000
0.709977 0.109954 0.290000
0.709977 0.089954 0.310000
0.709977 0.089954 0.330000
0.729977 0.109954 0.270000
0.729977 0.109954 0.290000
0.749977 0.109954 0.290000
0.729977 0.089954 0.310000
0.729977 0.089954 0.330000
0.729977 0.109954 0.310000
0.749977 0.089954 0.330000
0.749977 0.109954 0.310000
0.749977 0.109954 0.330000
0.729977 0.129954 0.270000
0.749977 0.129954 0.270000
0.749977 0.129954 0.290000
0.749977 0.149954 0.270000
0.769977 0.149954 0.250000
0.769977 0.109954 0.310000
0.769977 0.109954 0.330000
0.769977 0.129954 0.270000
0.769977 0.129954 0.290000
0.769977 0.149954 0.270000
0.769977 0.149954 0.290000
0.789977 0.149954 0.270000
0.789977 0.149954 0.290000
0.769977 0.129954 0.310000
0.769977 0.129954 0.330000
0.789977 0.129954 0.310000
0.789977 0.129954 0.330000
0.789977 0.149954 0.310000
0.809977 0.149954 0.290000
0.809977 0.149954 0.310000
0.809977 0.149954 0.330000
0.829977 0.149954 0.330000
0.689977 0.049954 0.350000
0.689977 0.049954 0.370000
0.689977 0.069954 0.350000
0.709977 0.069954 0.350000
0.709977 0.069954 0.370000
0.689977 0.049954 0.390000
0.689977 0.049954 0.410000
0.709977 0.049954 0.390000
0.709977 0.049954 0.410000
0.709977 0.069954 0.390000
0.729977 0.069954 0.350000
0.729977 0.069954 0.370000
0.729977 0.069954 0.390000
0.729977 0.069954 0.410000
0.749977 0.069954 0.390000
0.749977 0.069954 0.410000
0.689977 0.029954 0.450000
0.689977 0.029954 0.470000
0.689977 0.029954 0.490000
0.689977 0.049954 0.430000
0.689977 0.049954 0.450000
0.709977 0.049954 0.430000
0.709977 0.049954 0.450000
0.709977 0.049954 0.470000
0.709977 0.049954 0.490000
0.729977 0.049954 0.430000
0.729977 0.049954 0.450000
0.729977 0.069954 0.430000
0.729977 0.069954 0.450000
0.749977 0.069954 0.430000
0.749977 0.069954 0.450000
0.729977 0.049954 0.470000
0.729977 0.049954 0.490000
0.729977 0.069954 0.470000
0.729977 0.069954 0.490000
0.749977 0.069954 0.470000
0.749977 0.069954 0.490000
0.729977 0.089954 0.350000
0.749977 0.089954 0.350000
0.749977 0.089954 0.370000
0.749977 0.109954 0.350000
0.749977 0.089954 0.390000
0.749977 0.089954 0.410000
0.769977 0.069954 0.450000
0.769977 0.069954 0.470000
0.769977 0.069954 0.490000
0.769977 0.089954 0.350000
0.769977 0.089954 0.370000
0.769977 0.109954 0.350000
0.769977 0.109954 0.370000
0.789977 0.109954 0.350000
0.789977 0.109954 0.370000
0.769977 0.089954 0.390000
0.769977 0.089954 0.410000
0.789977 0.109954 0.390000
0.789977 0.109954 0.410000
0.789977 0.129954 0.350000
0.809977 0.109954 0.390000
0.809977 0.109954 0.410000
0.809977 0.129954 0.350000
0.809977 0.129954 0.370000
0.809977 0.149954 0.350000
0.829977 0.149954 0.350000
0.829977 0.149954 0.370000
0.809977 0.129954 0.390000
0.809977 0.129954 0.410000
0.829977 0.129954 0.390000
0.829977 0.129954 0.410000
0.829977 0.149954 0.390000
0.829977 0.149954 0.410000
0.769977 0.089954 0.430000
0.769977 0.089954 0.450000
0.789977 0.089954 0.430000
0.789977 0.089954 0.450000
0.789977 0.109954 0.430000
0.769977 0.089954 0.470000
0.769977 0.089954 0.490000
0.789977 0.089954 0.470000
0.789977 0.089954 0.490000
0.809977 0.109954 0.430000
0.809977 0.109954 0.450000
0.809977 0.109954 0.470000
0.809977 0.109954 0.490000
0.829977 0.109954 0.470000
0.829977 0.109954 0.490000
0.809977 0.129954 0.430000
0.829977 0.129954 0.430000
0.829977 0.129954 0.450000
0.829977 0.149954 0.430000
0.829977 0.129954 0.470000
0.829977 0.129954 0.490000
0.529977 0.009954 0.510000
0.529977 0.009954 0.530000
0.549977 0.009954 0.510000
0.549977 0.009954 0.530000
0.529977 0.009954 0.550000
0.529977 0.009954 0.570000
0.549977 0.009954 0.550000
0.549977 0.009954 0.570000
0.569977 0.009954 0.510000
0.569977 0.009954 0.530000
0.589977 0.009954 0.510000
0.589977 0.009954 0.530000
0.569977 0.009954 0.550000
0.569977 0.009954 0.570000
0.589977 0.009954 0.550000
0.589977 0.009954 0.570000
0.529977 0.009954 0.590000
0.529977 0.009954 0.610000
0.549977 0.009954 0.590000
0.549977 0.009954 0.610000
0.529977 0.009954 0.630000
0.529977 0.029954 0.650000
0.549977 0.009954 0.630000
0.549977 0.029954 0.630000
0.549977 0.029954 0.650000
0.569977 0.009954 0.590000
0.569977 0.009954 0.610000
0.589977 0.009954 0.590000
0.589977 0.009954 0.610000
0.589977 0.029954 0.610000
0.569977 0.029954 0.630000
0.569977 0.029954 0.650000
0.589977 0.029954 0.630000
0.589977 0.029954 0.650000
0.609977 0.009954 0.510000
0.609977 0.009954 0.530000
0.629977 0.009954 0.510000
0.629977 0.009954 0.530000
0.609977 0.009954 0.550000
0.609977 0.009954 0.570000
0.629977 0.029954 0.550000
0.629977 0.029954 0.570000
0.649977 0.029954 0.510000
0.649977 0.029954 0.530000
0.669977 0.029954 0.510000
0.669977 0.029954 0.530000
0.649977 0.029954 0.550000
0.649977 0.029954 0.570000
0.669977 0.029954 0.550000
0.669977 0.029954 0.570000
0.609977 0.009954 0.590000
0.609977 0.029954 0.590000
0.609977 0.029954 0.610000
0.629977 0.029954 0.590000
0.629977 0.029954 0.610000
0.609977 0.029954 0.630000
0.609977 0.029954 0.650000
0.629977 0.029954 0.630000
0.629977 0.029954 0.650000
0.629977 0.049954 0.650000
0.649977 0.029954 0.590000
0.649977 0.029954 0.610000
0.669977 0.029954 0.590000
0.649977 0.029954 0.630000
0.669977 0.049954 0.590000
0.669977 0.049954 0.610000
0.649977 0.049954 0.630000
0.649977 0.049954 0.650000
0.669977 0.049954 0.630000
0.669977 0.049954 0.650000
0.529977 0.029954 0.670000
0.529977 0.029954 0.690000
0.549977 0.029954 0.670000
0.549977 0.029954 0.690000
0.529977 0.049954 0.690000
0.549977 0.049954 0.690000
0.529977 0.049954 0.710000
0.529977 0.049954 0.730000
0.549977 0.049954 0.710000
0.549977 0.049954 0.730000
0.569977 0.029954 0.670000
0.569977 0.029954 0.690000
0.589977 0.029954 0.670000
0.569977 0.049954 0.690000
0.589977 0.049954 0.690000
0.569977 0.049954 0.710000
0.569977 0.049954 0.730000
0.569977 0.069954 0.730000
0.589977 0.049954 0.710000
0.589977 0.049954 0.730000
0.589977 0.069954 0.730000
0.529977 0.069954 0.750000
0.529977 0.069954 0.770000
0.549977 0.069954 0.750000
0.549977 0.069954 0.770000
0.569977 0.069954 0.750000
0.589977 0.069954 0.750000
0.529977 0.089954 0.770000
0.549977 0.089954 0.770000
0.529977 0.089954 0.790000
0.529977 0.109954 0.810000
0.549977 0.089954 0.790000
0.549977 0.109954 0.790000
0.549977 0.109954 0.810000
0.569977 0.089954 0.770000
0.589977 0.089954 0.770000
0.569977 0.089954 0.790000
0.569977 0.109954 0.790000
0.569977 0.109954 0.810000
0.589977 0.089954 0.790000
0.589977 0.109954 0.790000
0.589977 0.109954 0.810000
0.569977 0.129954 0.810000
0.589977 0.129954 0.810000
0.609977 0.029954 0.670000
0.609977 0.049954 0.670000
0.609977 0.049954 0.690000
0.629977 0.049954 0.670000
0.629977 0.049954 0.690000
0.629977 0.069954 0.690000
0.609977 0.049954 0.710000
0.609977 0.069954 0.730000
0.629977 0.069954 0.710000
0.629977 0.069954 0.730000
0.649977 0.049954 0.670000
0.649977 0.049954 0.690000
0.649977 0.069954 0.690000
0.669977 0.049954 0.670000
0.669977 0.069954 0.670000
0.669977 0.069954 0.690000
0.649977 0.069954 0.710000
0.649977 0.069954 0.730000
0.669977 0.069954 0.710000
0.609977 0.069954 0.750000
0.649977 0.089954 0.730000
0.669977 0.089954 0.710000
0.669977 0.089954 0.730000
0.609977 0.089954 0.750000
0.609977 0.089954 0.770000
0.629977 0.089954 0.750000
0.629977 0.089954 0.770000
0.629977 0.109954 0.770000
0.609977 0.109954 0.790000
0.609977 0.109954 0.810000
0.629977 0.109954 0.790000
0.609977 0.129954 0.810000
0.629977 0.129954 0.790000
0.629977 0.129954 0.810000
0.649977 0.089954 0.750000
0.649977 0.109954 0.770000
0.669977 0.089954 0.750000
0.669977 0.109954 0.750000
0.669977 0.109954 0.770000
0.649977 0.109954 0.790000
0.649977 0.129954 0.790000
0.649977 0.129954 0.810000
0.649977 0.149954 0.810000
0.669977 0.129954 0.790000
0.669977 0.129954 0.810000
0.669977 0.149954 0.810000
0.689977 0.029954 0.510000
0.689977 0.029954 0.530000
0.689977 0.029954 0.550000
0.689977 0.029954 0.570000
0.689977 0.049954 0.530000
0.709977 0.049954 0.510000
0.709977 0.049954 0.530000
0.689977 0.049954 0.550000
0.689977 0.049954 0.570000
0.709977 0.049954 0.550000
0.709977 0.049954 0.570000
0.729977 0.049954 0.510000
0.729977 0.049954 0.530000
0.729977 0.069954 0.510000
0.729977 0.069954 0.530000
0.749977 0.069954 0.510000
0.749977 0.069954 0.530000
0.729977 0.049954 0.550000
0.729977 0.049954 0.570000
0.729977 0.069954 0.550000
0.729977 0.069954 0.570000
0.749977 0.069954 0.550000
0.749977 0.069954 0.570000
0.689977 0.049954 0.590000
0.689977 0.049954 0.610000
0.709977 0.049954 0.590000
0.709977 0.069954 0.610000
0.689977 0.049954 0.630000
0.689977 0.049954 0.650000
0.689977 0.069954 0.630000
0.689977 0.069954 0.650000
0.709977 0.069954 0.630000
0.709977 0.069954 0.650000
0.729977 0.069954 0.590000
0.729977 0.069954 0.610000
0.749977 0.069954 0.590000
0.749977 0.069954 0.610000
0.729977 0.069954 0.630000
0.749977 0.089954 0.590000
0.749977 0.089954 0.610000
0.729977 0.089954 0.650000
0.749977 0.089954 0.630000
0.749977 0.089954 0.650000
0.769977 0.069954 0.510000
0.769977 0.069954 0.530000
0.769977 0.069954 0.550000
0.769977 0.089954 0.510000
0.769977 0.089954 0.530000
0.789977 0.089954 0.510000
0.789977 0.089954 0.530000
0.769977 0.089954 0.550000
0.769977 0.089954 0.570000
0.789977 0.089954 0.550000
0.789977 0.089954 0.570000
0.809977 0.109954 0.510000
0.809977 0.109954 0.530000
0.829977 0.109954 0.510000
0.829977 0.109954 0.530000
0.809977 0.109954 0.550000
0.809977 0.109954 0.570000
0.829977 0.129954 0.510000
0.829977 0.129954 0.530000
0.829977 0.129954 0.550000
0.829977 0.129954 0.570000
0.829977 0.149954 0.570000
0.769977 0.089954 0.590000
0.769977 0.089954 0.610000
0.789977 0.109954 0.590000
0.789977 0.109954 0.610000
0.769977 0.089954 0.630000
0.769977 0.089954 0.650000
0.769977 0.109954 0.630000
0.769977 0.109954 0.650000
0.789977 0.109954 0.630000
0.789977 0.109954 0.650000
0.789977 0.129954 0.650000
0.809977 0.109954 0.590000
0.809977 0.129954 0.590000
0.809977 0.129954 0.610000
0.829977 0.129954 0.590000
0.829977 0.129954 0.610000
0.829977 0.149954 0.590000
0.829977 0.149954 0.610000
0.809977 0.129954 0.630000
0.809977 0.129954 0.650000
0.809977 0.149954 0.650000
0.829977 0.129954 0.630000
0.829977 0.149954 0.630000
0.829977 0.149954 0.650000
0.689977 0.069954 0.670000
0.689977 0.069954 0.690000
0.709977 0.069954 0.670000
0.689977 0.089954 0.690000
0.709977 0.089954 0.670000
0.709977 0.089954 0.690000
0.689977 0.089954 0.710000
0.689977 0.089954 0.730000
0.689977 0.109954 0.730000
0.709977 0.089954 0.710000
0.709977 0.109954 0.710000
0.709977 0.109954 0.730000
0.729977 0.089954 0.670000
0.729977 0.089954 0.690000
0.729977 0.109954 0.690000
0.749977 0.089954 0.670000
0.749977 0.109954 0.670000
0.749977 0.109954 0.690000
0.729977 0.109954 0.710000
0.729977 0.109954 0.730000
0.749977 0.109954 0.710000
0.729977 0.129954 0.730000
0.749977 0.129954 0.710000
0.749977 0.129954 0.730000
0.689977 0.109954 0.750000
0.689977 0.109954 0.770000
0.709977 0.109954 0.750000
0.689977 0.129954 0.770000
0.709977 0.129954 0.750000
0.709977 0.129954 0.770000
0.709977 0.149954 0.770000
0.689977 0.129954 0.790000
0.689977 0.149954 0.790000
0.689977 0.149954 0.810000
0.709977 0.149954 0.790000
0.729977 0.129954 0.750000
0.729977 0.129954 0.770000
0.729977 0.149954 0.770000
0.749977 0.129954 0.750000
0.749977 0.149954 0.750000
0.749977 0.149954 0.770000
0.729977 0.149954 0.790000
0.769977 0.109954 0.670000
0.769977 0.109954 0.690000
0.769977 0.129954 0.670000
0.769977 0.129954 0.690000
0.789977 0.129954 0.670000
0.789977 0.129954 0.690000
0.789977 0.149954 0.690000
0.769977 0.129954 0.710000
0.769977 0.129954 0.730000
0.769977 0.149954 0.730000
0.789977 0.149954 0.710000
0.789977 0.149954 0.730000
0.809977 0.129954 0.670000
0.809977 0.149954 0.670000
0.809977 0.149954 0.690000
0.829977 0.149954 0.670000
0.769977 0.149954 0.750000
0.689977 0.169954 0.190000
0.709977 0.169954 0.190000
0.729977 0.169954 0.190000
0.729977 0.169954 0.210000
0.729977 0.189954 0.190000
0.749977 0.169954 0.210000
0.749977 0.189954 0.190000
0.749977 0.189954 0.210000
0.749977 0.169954 0.230000
0.749977 0.169954 0.250000
0.749977 0.209954 0.190000
0.769977 0.189954 0.210000
0.789977 0.189954 0.210000
0.769977 0.169954 0.230000
0.769977 0.169954 0.250000
0.789977 0.169954 0.250000
0.789977 0.189954 0.230000
0.789977 0.189954 0.250000
0.769977 0.209954 0.190000
0.769977 0.209954 0.210000
0.769977 0.229954 0.190000
0.789977 0.209954 0.190000
0.789977 0.209954 0.210000
0.789977 0.229954 0.190000
0.789977 0.209954 0.230000
0.809977 0.189954 0.250000
0.809977 0.229954 0.190000
0.809977 0.229954 0.210000
0.829977 0.229954 0.210000
0.809977 0.209954 0.230000
0.809977 0.209954 0.250000
0.809977 0.229954 0.230000
0.829977 0.209954 0.250000
0.829977 0.229954 0.230000
0.829977 0.229954 0.250000
0.789977 0.169954 0.270000
0.809977 0.169954 0.270000
0.809977 0.169954 0.290000
0.809977 0.189954 0.270000
0.829977 0.169954 0.290000
0.829977 0.189954 0.270000
0.829977 0.189954 0.290000
0.809977 0.169954 0.310000
0.829977 0.169954 0.310000
0.829977 0.169954 0.330000
0.829977 0.189954 0.310000
0.829977 0.209954 0.270000
0.789977 0.249954 0.190000
0.809977 0.249954 0.190000
0.809977 0.249954 0.210000
0.809977 0.269954 0.190000
0.829977 0.249954 0.210000
0.829977 0.269954 0.190000
0.829977 0.269954 0.210000
0.829977 0.249954 0.230000
0.829977 0.289954 0.190000
0.829977 0.309954 0.190000
0.829977 0.169954 0.350000
0.829977 0.169954 0.650000
0.689977 0.169954 0.810000
0.709977 0.169954 0.790000
0.709977 0.169954 0.810000
0.709977 0.189954 0.810000
0.749977 0.169954 0.770000
0.729977 0.169954 0.790000
0.729977 0.169954 0.810000
0.729977 0.189954 0.810000
0.749977 0.169954 0.790000
0.749977 0.189954 0.790000
0.749977 0.189954 0.810000
0.749977 0.209954 0.810000
0.789977 0.169954 0.730000
0.809977 0.169954 0.690000
0.829977 0.169954 0.670000
0.829977 0.169954 0.690000
0.829977 0.189954 0.690000
0.809977 0.169954 0.710000
0.809977 0.169954 0.730000
0.809977 0.189954 0.730000
0.829977 0.169954 0.710000
0.829977 0.189954 0.710000
0.829977 0.189954 0.730000
0.829977 0.209954 0.730000
0.769977 0.169954 0.750000
0.769977 0.169954 0.770000
0.769977 0.189954 0.770000
0.789977 0.169954 0.750000
0.789977 0.189954 0.750000
0.789977 0.189954 0.770000
0.769977 0.189954 0.790000
0.789977 0.209954 0.770000
0.769977 0.209954 0.790000
0.769977 0.209954 0.810000
0.769977 0.229954 0.810000
0.789977 0.209954 0.790000
0.789977 0.229954 0.790000
0.789977 0.229954 0.810000
0.809977 0.189954 0.750000
0.809977 0.209954 0.750000
0.809977 0.209954 0.770000
0.809977 0.229954 0.770000
0.829977 0.209954 0.750000
0.829977 0.229954 0.750000
0.829977 0.229954 0.770000
0.809977 0.229954 0.790000
0.789977 0.249954 0.810000
0.829977 0.249954 0.770000
0.809977 0.249954 0.790000
0.809977 0.249954 0.810000
0.809977 0.269954 0.810000
0.829977 0.249954 0.790000
0.829977 0.269954 0.790000
0.829977 0.269954 0.810000
0.829977 0.289954 0.810000
0.829977 0.309954 0.810000
0.849977 0.149954 0.370000
0.849977 0.149954 0.390000
0.849977 0.149954 0.410000
0.849977 0.129954 0.450000
0.849977 0.149954 0.430000
0.849977 0.149954 0.450000
0.849977 0.129954 0.470000
0.849977 0.129954 0.490000
0.849977 0.149954 0.470000
0.849977 0.149954 0.490000
0.869977 0.149954 0.470000
0.869977 0.149954 0.490000
0.849977 0.129954 0.510000
0.849977 0.129954 0.530000
0.849977 0.149954 0.510000
0.849977 0.149954 0.530000
0.869977 0.149954 0.510000
0.869977 0.149954 0.530000
0.849977 0.129954 0.550000
0.849977 0.129954 0.570000
0.849977 0.149954 0.550000
0.849977 0.149954 0.570000
0.849977 0.149954 0.590000
0.849977 0.149954 0.610000
0.849977 0.149954 0.630000
0.849977 0.229954 0.250000
0.849977 0.169954 0.330000
0.849977 0.189954 0.310000
0.849977 0.189954 0.330000
0.849977 0.209954 0.270000
0.849977 0.209954 0.290000
0.849977 0.229954 0.270000
0.849977 0.229954 0.290000
0.869977 0.209954 0.290000
0.869977 0.229954 0.290000
0.849977 0.209954 0.310000
0.869977 0.209954 0.310000
0.869977 0.209954 0.330000
0.869977 0.229954 0.310000
0.869977 0.229954 0.330000
0.889977 0.229954 0.330000
0.849977 0.269954 0.210000
0.849977 0.249954 0.230000
0.849977 0.249954 0.250000
0.849977 0.269954 0.230000
0.849977 0.269954 0.250000
0.869977 0.269954 0.250000
0.849977 0.289954 0.190000
0.849977 0.289954 0.210000
0.849977 0.309954 0.190000
0.849977 0.309954 0.210000
0.869977 0.289954 0.210000
0.869977 0.309954 0.210000
0.869977 0.289954 0.230000
0.869977 0.289954 0.250000
0.869977 0.309954 0.230000
0.869977 0.309954 0.250000
0.889977 0.289954 0.250000
0.889977 0.309954 0.250000
0.869977 0.249954 0.270000
0.869977 0.249954 0.290000
0.869977 0.269954 0.270000
0.889977 0.249954 0.290000
0.889977 0.269954 0.270000
0.889977 0.269954 0.290000
0.889977 0.249954 0.310000
0.889977 0.249954 0.330000
0.889977 0.269954 0.310000
0.909977 0.269954 0.310000
0.909977 0.269954 0.330000
0.889977 0.289954 0.270000
0.889977 0.289954 0.290000
0.889977 0.309954 0.270000
0.909977 0.289954 0.290000
0.909977 0.309954 0.270000
0.909977 0.309954 0.290000
0.909977 0.289954 0.310000
0.909977 0.289954 0.330000
0.929977 0.289954 0.330000
0.929977 0.309954 0.310000
0.929977 0.309954 0.330000
0.849977 0.169954 0.350000
0.849977 0.169954 0.370000
0.849977 0.189954 0.350000
0.869977 0.189954 0.350000
0.869977 0.189954 0.370000
0.849977 0.169954 0.390000
0.849977 0.169954 0.410000
0.869977 0.169954 0.390000
0.869977 0.169954 0.410000
0.869977 0.189954 0.390000
0.869977 0.209954 0.350000
0.889977 0.189954 0.390000
0.889977 0.189954 0.410000
0.889977 0.209954 0.350000
0.889977 0.209954 0.370000
0.889977 0.229954 0.350000
0.889977 0.229954 0.370000
0.909977 0.229954 0.370000
0.889977 0.209954 0.390000
0.889977 0.209954 0.410000
0.889977 0.229954 0.390000
0.909977 0.209954 0.410000
0.909977 0.229954 0.390000
0.909977 0.229954 0.410000
0.869977 0.169954 0.430000
0.869977 0.169954 0.450000
0.869977 0.169954 0.470000
0.869977 0.169954 0.490000
0.889977 0.189954 0.430000
0.889977 0.189954 0.450000
0.889977 0.189954 0.470000
0.889977 0.189954 0.490000
0.889977 0.209954 0.430000
0.909977 0.209954 0.430000
0.909977 0.209954 0.450000
0.909977 0.229954 0.430000
0.909977 0.229954 0.450000
0.909977 0.209954 0.470000
0.909977 0.209954 0.490000
0.909977 0.229954 0.470000
0.909977 0.229954 0.490000
0.909977 0.249954 0.350000
0.909977 0.249954 0.370000
0.909977 0.269954 0.350000
0.909977 0.249954 0.390000
0.929977 0.229954 0.430000
0.929977 0.229954 0.450000
0.929977 0.229954 0.470000
0.929977 0.229954 0.490000
0.929977 0.269954 0.350000
0.929977 0.269954 0.370000
0.929977 0.249954 0.390000
0.929977 0.249954 0.410000
0.929977 0.269954 0.390000
0.929977 0.269954 0.410000
0.929977 0.289954 0.350000
0.929977 0.289954 0.370000
0.929977 0.309954 0.350000
0.949977 0.309954 0.350000
0.949977 0.309954 0.370000
0.929977 0.289954 0.390000
0.949977 0.289954 0.390000
0.949977 0.289954 0.410000
0.949977 0.309954 0.390000
0.949977 0.309954 0.410000
0.929977 0.249954 0.430000
0.929977 0.249954 0.450000
0.929977 0.269954 0.430000
0.949977 0.269954 0.450000
0.929977 0.249954 0.470000
0.929977 0.249954 0.490000
0.949977 0.269954 0.470000
0.949977 0.269954 0.490000
0.949977 0.289954 0.430000
0.949977 0.289954 0.450000
0.949977 0.309954 0.430000
0.949977 0.309954 0.450000
0.949977 0.289954 0.470000
0.949977 0.289954 0.490000
0.949977 0.309954 0.470000
0.949977 0.309954 0.490000
0.969977 0.309954 0.430000
0.969977 0.309954 0.450000
0.969977 0.309954 0.470000
0.969977 0.309954 0.490000
0.849977 0.329954 0.190000
0.849977 0.349954 0.190000
0.869977 0.329954 0.190000
0.869977 0.329954 0.210000
0.869977 0.349954 0.190000
0.869977 0.349954 0.210000
0.869977 0.369954 0.190000
0.869977 0.389954 0.190000
0.889977 0.329954 0.210000
0.889977 0.349954 0.210000
0.889977 0.329954 0.230000
0.889977 0.329954 0.250000
0.889977 0.349954 0.230000
0.889977 0.349954 0.250000
0.909977 0.329954 0.250000
0.909977 0.349954 0.250000
0.889977 0.369954 0.210000
0.889977 0.389954 0.190000
0.889977 0.389954 0.210000
0.909977 0.389954 0.210000
0.889977 0.369954 0.230000
0.909977 0.369954 0.230000
0.909977 0.369954 0.250000
0.909977 0.389954 0.230000
0.909977 0.389954 0.250000
0.909977 0.329954 0.270000
0.909977 0.329954 0.290000
0.909977 0.349954 0.270000
0.869977 0.409954 0.190000
0.889977 0.409954 0.190000
0.889977 0.409954 0.210000
0.889977 0.429954 0.190000
0.909977 0.409954 0.210000
0.909977 0.429954 0.210000
0.909977 0.409954 0.230000
0.909977 0.409954 0.250000
0.909977 0.429954 0.230000
0.889977 0.449954 0.190000
0.889977 0.469954 0.190000
0.909977 0.449954 0.210000
0.909977 0.469954 0.210000
0.909977 0.449954 0.230000
0.909977 0.469954 0.230000
0.929977 0.389954 0.250000
0.929977 0.329954 0.290000
0.929977 0.349954 0.270000
0.929977 0.349954 0.290000
0.929977 0.329954 0.310000
0.929977 0.329954 0.330000
0.929977 0.349954 0.310000
0.949977 0.329954 0.330000
0.949977 0.349954 0.330000
0.929977 0.369954 0.270000
0.929977 0.369954 0.290000
0.929977 0.389954 0.270000
0.929977 0.389954 0.290000
0.949977 0.389954 0.290000
0.949977 0.369954 0.310000
0.949977 0.369954 0.330000
0.949977 0.389954 0.310000
0.949977 0.389954 0.330000
0.929977 0.409954 0.250000
0.929977 0.429954 0.250000
0.929977 0.449954 0.250000
0.929977 0.469954 0.250000
0.929977 0.409954 0.270000
0.929977 0.429954 0.270000
0.949977 0.409954 0.290000
0.949977 0.429954 0.270000
0.949977 0.429954 0.290000
0.949977 0.409954 0.310000
0.949977 0.409954 0.330000
0.949977 0.429954 0.310000
0.929977 0.449954 0.270000
0.929977 0.469954 0.270000
0.949977 0.449954 0.270000
0.949977 0.449954 0.290000
0.949977 0.469954 0.270000
0.949977 0.469954 0.290000
0.949977 0.449954 0.310000
0.969977 0.409954 0.330000
0.969977 0.429954 0.330000
0.969977 0.449954 0.310000
0.969977 0.449954 0.330000
0.969977 0.469954 0.310000
0.969977 0.469954 0.330000
0.949977 0.329954 0.350000
0.949977 0.329954 0.370000
0.949977 0.349954 0.350000
0.949977 0.349954 0.370000
0.949977 0.329954 0.390000
0.949977 0.369954 0.350000
0.969977 0.349954 0.370000
0.969977 0.329954 0.410000
0.969977 0.349954 0.390000
0.969977 0.349954 0.410000
0.969977 0.369954 0.350000
0.969977 0.369954 0.370000
0.969977 0.389954 0.350000
0.969977 0.389954 0.370000
0.969977 0.369954 0.390000
0.969977 0.369954 0.410000
0.969977 0.389954 0.390000
0.969977 0.389954 0.410000
0.969977 0.329954 0.430000
0.969977 0.329954 0.450000
0.969977 0.349954 0.430000
0.969977 0.349954 0.450000
0.969977 0.329954 0.470000
0.969977 0.329954 0.490000
0.969977 0.349954 0.470000
0.969977 0.349954 0.490000
0.969977 0.369954 0.430000
0.969977 0.369954 0.450000
0.989977 0.369954 0.430000
0.989977 0.369954 0.450000
0.989977 0.389954 0.430000
0.989977 0.389954 0.450000
0.989977 0.369954 0.470000
0.989977 0.369954 0.490000
0.989977 0.389954 0.470000
0.989977 0.389954 0.490000
0.969977 0.409954 0.350000
0.969977 0.409954 0.370000
0.969977 0.429954 0.350000
0.969977 0.429954 0.370000
0.969977 0.409954 0.390000
0.989977 0.409954 0.390000
0.989977 0.409954 0.410000
0.989977 0.429954 0.390000
0.989977 0.429954 0.410000
0.969977 0.449954 0.350000
0.969977 0.449954 0.370000
0.969977 0.469954 0.350000
0.989977 0.449954 0.370000
0.989977 0.469954 0.370000
0.989977 0.449954 0.390000
0.989977 0.449954 0.410000
0.989977 0.469954 0.390000
0.989977 0.469954 0.410000
0.989977 0.409954 0.430000
0.989977 0.409954 0.450000
0.989977 0.429954 0.430000
0.989977 0.429954 0.450000
0.989977 0.409954 0.470000
0.989977 0.409954 0.490000
0.989977 0.429954 0.470000
0.989977 0.429954 0.490000
0.989977 0.449954 0.430000
0.989977 0.449954 0.450000
0.989977 0.469954 0.430000
0.989977 0.469954 0.450000
0.989977 0.449954 0.470000
0.989977 0.449954 0.490000
0.989977 0.469954 0.470000
0.989977 0.469954 0.490000
0.869977 0.169954 0.510000
0.869977 0.169954 0.530000
0.869977 0.169954 0.550000
0.869977 0.169954 0.570000
0.889977 0.189954 0.510000
0.889977 0.189954 0.530000
0.889977 0.189954 0.550000
0.889977 0.189954 0.570000
0.909977 0.209954 0.510000
0.909977 0.209954 0.530000
0.909977 0.229954 0.510000
0.909977 0.229954 0.530000
0.889977 0.209954 0.570000
0.909977 0.209954 0.550000
0.909977 0.209954 0.570000
0.909977 0.229954 0.550000
0.909977 0.229954 0.570000
0.849977 0.169954 0.590000
0.849977 0.169954 0.610000
0.869977 0.169954 0.590000
0.869977 0.169954 0.610000
0.869977 0.189954 0.590000
0.869977 0.189954 0.610000
0.849977 0.169954 0.630000
0.849977 0.169954 0.650000
0.869977 0.189954 0.630000
