ply
format ascii 1.0
element vertex 1770
property float x
property float y
property float z
end_header
0.118577 0.074310 0.109396
0.107477 0.085410 0.109396
0.107477 0.096510 0.109396
0.051977 0.007710 0.209296
0.040877 0.007710 0.231496
0.051977 0.007710 0.220396
0.051977 0.007710 0.231496
0.029777 0.007710 0.275896
0.040877 0.007710 0.242596
0.040877 0.007710 0.253696
0.040877 0.007710 0.264796
0.063077 0.007710 0.198196
0.029777 0.007710 0.286996
0.029777 0.007710 0.298096
0.029777 0.007710 0.309196
0.029777 0.007710 0.320296
0.051977 0.007710 0.298096
0.040877 0.007710 0.309196
0.040877 0.007710 0.320296
0.051977 0.007710 0.309196
0.029777 0.007710 0.331396
0.029777 0.007710 0.342496
0.029777 0.007710 0.353596
0.029777 0.007710 0.364696
0.040877 0.007710 0.331396
0.040877 0.007710 0.342496
0.051977 0.018810 0.209296
0.051977 0.029910 0.198196
0.051977 0.029910 0.209296
0.040877 0.018810 0.231496
0.040877 0.029910 0.231496
0.051977 0.018810 0.220396
0.051977 0.018810 0.231496
0.051977 0.029910 0.220396
0.040877 0.052110 0.209296
0.051977 0.041010 0.198196
0.051977 0.041010 0.209296
0.051977 0.052110 0.198196
0.051977 0.052110 0.209296
0.040877 0.041010 0.220396
0.040877 0.041010 0.231496
0.040877 0.052110 0.220396
0.040877 0.052110 0.231496
0.029777 0.018810 0.275896
0.029777 0.029910 0.264796
0.029777 0.029910 0.275896
0.029777 0.041010 0.253696
0.029777 0.052110 0.242596
0.029777 0.052110 0.253696
0.029777 0.041010 0.264796
0.029777 0.041010 0.275896
0.029777 0.052110 0.264796
0.029777 0.052110 0.275896
0.040877 0.018810 0.242596
0.040877 0.018810 0.253696
0.040877 0.029910 0.242596
0.040877 0.029910 0.253696
0.040877 0.018810 0.264796
0.040877 0.041010 0.242596
0.040877 0.041010 0.253696
0.040877 0.052110 0.242596
0.029777 0.074310 0.231496
0.029777 0.085410 0.220396
0.029777 0.085410 0.231496
0.029777 0.096510 0.220396
0.029777 0.096510 0.231496
0.040877 0.063210 0.198196
0.040877 0.063210 0.209296
0.040877 0.074310 0.198196
0.040877 0.074310 0.209296
0.051977 0.063210 0.198196
0.040877 0.063210 0.220396
0.040877 0.063210 0.231496
0.040877 0.074310 0.220396
0.040877 0.085410 0.198196
0.040877 0.085410 0.209296
0.040877 0.096510 0.198196
0.040877 0.096510 0.209296
0.040877 0.085410 0.220396
0.029777 0.063210 0.242596
0.029777 0.063210 0.253696
0.029777 0.074310 0.242596
0.029777 0.074310 0.253696
0.018677 0.063210 0.275896
0.018677 0.074310 0.264796
0.018677 0.074310 0.275896
0.029777 0.063210 0.264796
0.029777 0.063210 0.275896
0.018677 0.085410 0.253696
0.018677 0.096510 0.242596
0.018677 0.096510 0.253696
0.029777 0.085410 0.242596
0.029777 0.096510 0.242596
0.018677 0.085410 0.264796
0.018677 0.085410 0.275896
0.018677 0.096510 0.264796
0.018677 0.096510 0.275896
0.063077 0.018810 0.198196
0.063077 0.029910 0.198196
0.029777 0.018810 0.286996
0.029777 0.018810 0.298096
0.029777 0.029910 0.286996
0.029777 0.029910 0.298096
0.029777 0.018810 0.309196
0.029777 0.018810 0.320296
0.029777 0.029910 0.309196
0.029777 0.029910 0.320296
0.029777 0.041010 0.286996
0.029777 0.041010 0.298096
0.029777 0.052110 0.286996
0.029777 0.052110 0.298096
0.018677 0.052110 0.309196
0.018677 0.052110 0.320296
0.029777 0.041010 0.309196
0.029777 0.041010 0.320296
0.040877 0.018810 0.320296
0.051977 0.018810 0.320296
0.029777 0.018810 0.331396
0.029777 0.018810 0.342496
0.029777 0.029910 0.331396
0.029777 0.029910 0.342496
0.029777 0.018810 0.353596
0.029777 0.018810 0.364696
0.029777 0.029910 0.353596
0.029777 0.029910 0.364696
0.018677 0.041010 0.331396
0.018677 0.041010 0.342496
0.018677 0.052110 0.331396
0.018677 0.052110 0.342496
0.029777 0.041010 0.331396
0.029777 0.041010 0.342496
0.018677 0.041010 0.353596
0.018677 0.052110 0.353596
0.018677 0.052110 0.364696
0.029777 0.041010 0.353596
0.029777 0.041010 0.364696
0.040877 0.018810 0.331396
0.040877 0.018810 0.342496
0.040877 0.018810 0.353596
0.040877 0.018810 0.364696
0.040877 0.029910 0.353596
0.040877 0.029910 0.364696
0.018677 0.063210 0.286996
0.018677 0.063210 0.298096
0.018677 0.074310 0.286996
0.018677 0.074310 0.298096
0.018677 0.063210 0.309196
0.018677 0.063210 0.320296
0.018677 0.074310 0.309196
0.018677 0.085410 0.286996
0.018677 0.085410 0.298096
0.018677 0.063210 0.331396
0.018677 0.063210 0.342496
0.018677 0.074310 0.331396
0.018677 0.074310 0.342496
0.018677 0.063210 0.353596
0.018677 0.063210 0.364696
0.018677 0.074310 0.353596
0.018677 0.074310 0.364696
0.162977 0.007710 0.275896
0.174077 0.007710 0.275896
0.185177 0.007710 0.264796
0.185177 0.007710 0.275896
0.162977 0.007710 0.286996
0.162977 0.007710 0.298096
0.151877 0.007710 0.309196
0.162977 0.007710 0.309196
0.174077 0.007710 0.286996
0.185177 0.007710 0.286996
0.162977 0.018810 0.309196
0.174077 0.018810 0.298096
0.174077 0.029910 0.298096
0.185177 0.018810 0.286996
0.185177 0.018810 0.298096
0.185177 0.029910 0.298096
0.174077 0.018810 0.309196
0.096377 0.129810 0.098296
0.096377 0.140910 0.098296
0.096377 0.152010 0.098296
0.096377 0.163110 0.098296
0.096377 0.185310 0.098296
0.051977 0.107610 0.164896
0.051977 0.118710 0.164896
0.040877 0.107610 0.175996
0.040877 0.107610 0.187096
0.040877 0.118710 0.175996
0.040877 0.118710 0.187096
0.051977 0.107610 0.175996
0.051977 0.118710 0.175996
0.051977 0.129810 0.153796
0.051977 0.129810 0.164896
0.051977 0.140910 0.153796
0.051977 0.140910 0.164896
0.040877 0.129810 0.175996
0.040877 0.129810 0.187096
0.040877 0.140910 0.175996
0.040877 0.140910 0.187096
0.051977 0.129810 0.175996
0.051977 0.152010 0.153796
0.051977 0.152010 0.164896
0.051977 0.163110 0.153796
0.051977 0.163110 0.164896
0.040877 0.152010 0.175996
0.040877 0.152010 0.187096
0.040877 0.163110 0.175996
0.040877 0.163110 0.187096
0.051977 0.152010 0.175996
0.051977 0.163110 0.175996
0.051977 0.174210 0.153796
0.051977 0.174210 0.164896
0.051977 0.185310 0.153796
0.051977 0.185310 0.164896
0.040877 0.174210 0.175996
0.040877 0.174210 0.187096
0.040877 0.185310 0.175996
0.040877 0.185310 0.187096
0.051977 0.174210 0.175996
0.063077 0.107610 0.142696
0.063077 0.118710 0.142696
0.074177 0.107610 0.131596
0.074177 0.107610 0.142696
0.074177 0.118710 0.131596
0.074177 0.118710 0.142696
0.074177 0.129810 0.120496
0.074177 0.140910 0.120496
0.063077 0.129810 0.142696
0.063077 0.140910 0.142696
0.074177 0.129810 0.131596
0.074177 0.140910 0.131596
0.085277 0.107610 0.120496
0.085277 0.118710 0.120496
0.096377 0.107610 0.109396
0.096377 0.118710 0.109396
0.085277 0.129810 0.109396
0.085277 0.129810 0.120496
0.085277 0.140910 0.109396
0.085277 0.140910 0.120496
0.096377 0.129810 0.109396
0.096377 0.140910 0.109396
0.063077 0.107610 0.153796
0.063077 0.107610 0.164896
0.063077 0.118710 0.153796
0.063077 0.129810 0.153796
0.063077 0.140910 0.153796
0.074177 0.152010 0.120496
0.074177 0.163110 0.120496
0.063077 0.152010 0.142696
0.063077 0.163110 0.142696
0.074177 0.152010 0.131596
0.074177 0.163110 0.131596
0.063077 0.174210 0.142696
0.063077 0.185310 0.142696
0.074177 0.174210 0.131596
0.074177 0.185310 0.131596
0.085277 0.152010 0.109396
0.085277 0.152010 0.120496
0.085277 0.163110 0.109396
0.085277 0.163110 0.120496
0.096377 0.152010 0.109396
0.096377 0.163110 0.109396
0.085277 0.174210 0.109396
0.085277 0.174210 0.120496
0.085277 0.185310 0.109396
0.085277 0.185310 0.120496
0.096377 0.174210 0.109396
0.096377 0.185310 0.109396
0.063077 0.152010 0.153796
0.063077 0.174210 0.153796
0.063077 0.185310 0.153796
0.096377 0.196410 0.098296
0.096377 0.207510 0.098296
0.096377 0.218610 0.098296
0.096377 0.229710 0.098296
0.096377 0.240810 0.098296
0.096377 0.251910 0.098296
0.096377 0.263010 0.098296
0.029777 0.229710 0.187096
0.040877 0.207510 0.164896
0.051977 0.196410 0.153796
0.051977 0.196410 0.164896
0.051977 0.207510 0.153796
0.051977 0.207510 0.164896
0.040877 0.196410 0.175996
0.040877 0.196410 0.187096
0.040877 0.207510 0.175996
0.040877 0.207510 0.187096
0.040877 0.218610 0.164896
0.051977 0.218610 0.153796
0.051977 0.218610 0.164896
0.051977 0.229710 0.153796
0.051977 0.229710 0.164896
0.040877 0.218610 0.175996
0.040877 0.218610 0.187096
0.040877 0.229710 0.175996
0.040877 0.229710 0.187096
0.029777 0.240810 0.187096
0.051977 0.240810 0.153796
0.051977 0.240810 0.164896
0.051977 0.251910 0.153796
0.051977 0.251910 0.164896
0.040877 0.240810 0.175996
0.040877 0.240810 0.187096
0.040877 0.251910 0.175996
0.040877 0.251910 0.187096
0.051977 0.263010 0.153796
0.051977 0.263010 0.164896
0.051977 0.274110 0.153796
0.051977 0.274110 0.164896
0.040877 0.263010 0.175996
0.040877 0.263010 0.187096
0.040877 0.274110 0.175996
0.040877 0.274110 0.187096
0.074177 0.196410 0.120496
0.063077 0.196410 0.142696
0.063077 0.207510 0.142696
0.074177 0.196410 0.131596
0.074177 0.207510 0.131596
0.074177 0.207510 0.142696
0.063077 0.218610 0.142696
0.063077 0.229710 0.142696
0.074177 0.218610 0.131596
0.074177 0.229710 0.131596
0.085277 0.196410 0.109396
0.085277 0.196410 0.120496
0.085277 0.207510 0.109396
0.085277 0.207510 0.120496
0.096377 0.196410 0.109396
0.096377 0.207510 0.109396
0.085277 0.218610 0.109396
0.085277 0.218610 0.120496
0.085277 0.229710 0.109396
0.085277 0.229710 0.120496
0.096377 0.218610 0.109396
0.096377 0.229710 0.109396
0.063077 0.196410 0.153796
0.063077 0.218610 0.153796
0.063077 0.240810 0.142696
0.063077 0.251910 0.142696
0.074177 0.240810 0.131596
0.074177 0.251910 0.131596
0.074177 0.274110 0.120496
0.063077 0.263010 0.142696
0.063077 0.274110 0.142696
0.074177 0.263010 0.131596
0.074177 0.263010 0.142696
0.074177 0.274110 0.131596
0.085277 0.240810 0.109396
0.085277 0.240810 0.120496
0.085277 0.251910 0.109396
0.085277 0.251910 0.120496
0.096377 0.240810 0.109396
0.096377 0.251910 0.109396
0.085277 0.263010 0.109396
0.085277 0.263010 0.120496
0.085277 0.274110 0.109396
0.085277 0.274110 0.120496
0.096377 0.263010 0.109396
0.096377 0.274110 0.109396
0.063077 0.240810 0.153796
0.063077 0.251910 0.153796
0.063077 0.263010 0.153796
0.063077 0.274110 0.153796
0.107477 0.107610 0.098296
0.107477 0.118710 0.098296
0.118577 0.107610 0.087196
0.118577 0.107610 0.098296
0.118577 0.118710 0.087196
0.107477 0.129810 0.087196
0.107477 0.129810 0.098296
0.107477 0.140910 0.098296
0.118577 0.129810 0.087196
0.118577 0.140910 0.087196
0.129677 0.107610 0.076096
0.129677 0.118710 0.076096
0.140777 0.107610 0.064996
0.140777 0.107610 0.076096
0.140777 0.118710 0.064996
0.140777 0.118710 0.076096
0.129677 0.107610 0.087196
0.129677 0.129810 0.076096
0.129677 0.140910 0.076096
0.140777 0.129810 0.064996
0.140777 0.140910 0.064996
0.140777 0.140910 0.076096
0.107477 0.152010 0.087196
0.107477 0.152010 0.098296
0.107477 0.163110 0.087196
0.107477 0.163110 0.098296
0.118577 0.152010 0.087196
0.118577 0.163110 0.087196
0.118577 0.174210 0.076096
0.118577 0.185310 0.076096
0.107477 0.174210 0.087196
0.107477 0.174210 0.098296
0.107477 0.185310 0.087196
0.107477 0.185310 0.098296
0.118577 0.174210 0.087196
0.118577 0.185310 0.087196
0.129677 0.152010 0.076096
0.129677 0.163110 0.076096
0.140777 0.152010 0.064996
0.140777 0.163110 0.064996
0.140777 0.163110 0.076096
0.129677 0.174210 0.076096
0.129677 0.185310 0.076096
0.140777 0.174210 0.064996
0.140777 0.185310 0.064996
0.140777 0.185310 0.076096
0.151877 0.118710 0.053896
0.162977 0.107610 0.053896
0.162977 0.118710 0.053896
0.151877 0.129810 0.053896
0.151877 0.140910 0.053896
0.162977 0.129810 0.053896
0.162977 0.140910 0.053896
0.174077 0.107610 0.053896
0.174077 0.118710 0.042796
0.174077 0.118710 0.053896
0.185177 0.107610 0.042796
0.185177 0.118710 0.042796
0.185177 0.140910 0.031696
0.174077 0.129810 0.042796
0.174077 0.129810 0.053896
0.174077 0.140910 0.042796
0.185177 0.129810 0.042796
0.185177 0.140910 0.042796
0.151877 0.107610 0.064996
0.151877 0.118710 0.064996
0.151877 0.129810 0.064996
0.151877 0.152010 0.053896
0.151877 0.163110 0.053896
0.162977 0.152010 0.053896
0.162977 0.163110 0.053896
0.151877 0.174210 0.053896
0.151877 0.185310 0.053896
0.162977 0.174210 0.053896
0.162977 0.185310 0.053896
0.185177 0.152010 0.031696
0.185177 0.163110 0.031696
0.174077 0.152010 0.042796
0.174077 0.163110 0.042796
0.185177 0.152010 0.042796
0.185177 0.163110 0.042796
0.185177 0.174210 0.031696
0.174077 0.174210 0.042796
0.174077 0.185310 0.042796
0.185177 0.174210 0.042796
0.185177 0.185310 0.042796
0.151877 0.152010 0.064996
0.151877 0.174210 0.064996
0.151877 0.185310 0.064996
0.107477 0.107610 0.109396
0.118577 0.207510 0.076096
0.107477 0.196410 0.087196
0.107477 0.196410 0.098296
0.107477 0.207510 0.087196
0.107477 0.207510 0.098296
0.118577 0.196410 0.087196
0.118577 0.207510 0.087196
0.107477 0.218610 0.098296
0.107477 0.229710 0.087196
0.107477 0.229710 0.098296
0.118577 0.218610 0.087196
0.118577 0.229710 0.087196
0.129677 0.196410 0.076096
0.129677 0.207510 0.076096
0.140777 0.196410 0.064996
0.140777 0.207510 0.064996
0.129677 0.218610 0.076096
0.129677 0.229710 0.076096
0.140777 0.218610 0.064996
0.140777 0.229710 0.064996
0.140777 0.229710 0.076096
0.107477 0.240810 0.087196
0.107477 0.240810 0.098296
0.107477 0.251910 0.098296
0.118577 0.240810 0.087196
0.118577 0.251910 0.087196
0.107477 0.263010 0.098296
0.107477 0.274110 0.098296
0.118577 0.263010 0.087196
0.118577 0.274110 0.087196
0.129677 0.240810 0.076096
0.129677 0.251910 0.076096
0.140777 0.240810 0.064996
0.140777 0.240810 0.076096
0.140777 0.251910 0.064996
0.140777 0.251910 0.076096
0.129677 0.263010 0.076096
0.129677 0.274110 0.076096
0.140777 0.263010 0.064996
0.140777 0.274110 0.064996
0.140777 0.274110 0.076096
0.151877 0.207510 0.053896
0.162977 0.196410 0.053896
0.162977 0.207510 0.053896
0.151877 0.218610 0.053896
0.151877 0.229710 0.053896
0.162977 0.218610 0.053896
0.162977 0.229710 0.053896
0.185177 0.196410 0.031696
0.185177 0.207510 0.031696
0.174077 0.207510 0.042796
0.185177 0.196410 0.042796
0.185177 0.207510 0.042796
0.185177 0.218610 0.031696
0.185177 0.229710 0.031696
0.174077 0.218610 0.042796
0.174077 0.229710 0.042796
0.185177 0.218610 0.042796
0.185177 0.229710 0.042796
0.151877 0.196410 0.064996
0.151877 0.207510 0.064996
0.151877 0.218610 0.064996
0.151877 0.229710 0.064996
0.151877 0.240810 0.053896
0.151877 0.251910 0.053896
0.162977 0.240810 0.053896
0.162977 0.251910 0.053896
0.151877 0.263010 0.053896
0.151877 0.274110 0.053896
0.162977 0.263010 0.053896
0.162977 0.274110 0.053896
0.185177 0.240810 0.031696
0.185177 0.251910 0.031696
0.174077 0.240810 0.042796
0.174077 0.251910 0.042796
0.185177 0.240810 0.042796
0.185177 0.251910 0.042796
0.185177 0.263010 0.031696
0.174077 0.263010 0.042796
0.174077 0.274110 0.042796
0.185177 0.263010 0.042796
0.185177 0.274110 0.042796
0.151877 0.240810 0.064996
0.151877 0.251910 0.064996
0.151877 0.274110 0.064996
0.029777 0.107610 0.209296
0.029777 0.118710 0.209296
0.018677 0.118710 0.231496
0.029777 0.107610 0.220396
0.029777 0.107610 0.231496
0.029777 0.118710 0.220396
0.029777 0.118710 0.231496
0.029777 0.129810 0.198196
0.029777 0.129810 0.209296
0.029777 0.140910 0.198196
0.029777 0.140910 0.209296
0.018677 0.129810 0.231496
0.018677 0.140910 0.220396
0.018677 0.140910 0.231496
0.029777 0.129810 0.220396
0.029777 0.140910 0.220396
0.040877 0.107610 0.198196
0.040877 0.107610 0.209296
0.040877 0.118710 0.198196
0.040877 0.129810 0.198196
0.040877 0.140910 0.198196
0.018677 0.107610 0.242596
0.018677 0.107610 0.253696
0.018677 0.118710 0.242596
0.018677 0.118710 0.253696
0.018677 0.107610 0.264796
0.018677 0.118710 0.264796
0.018677 0.129810 0.242596
0.018677 0.129810 0.253696
0.018677 0.140910 0.242596
0.018677 0.140910 0.253696
0.018677 0.129810 0.264796
0.018677 0.140910 0.264796
0.029777 0.152010 0.198196
0.029777 0.152010 0.209296
0.029777 0.163110 0.198196
0.029777 0.163110 0.209296
0.018677 0.152010 0.231496
0.018677 0.163110 0.220396
0.018677 0.163110 0.231496
0.029777 0.152010 0.220396
0.029777 0.163110 0.220396
0.029777 0.174210 0.198196
0.029777 0.174210 0.209296
0.029777 0.185310 0.198196
0.029777 0.185310 0.209296
0.018677 0.174210 0.231496
0.018677 0.185310 0.220396
0.018677 0.185310 0.231496
0.029777 0.174210 0.220396
0.029777 0.185310 0.220396
0.040877 0.152010 0.198196
0.018677 0.152010 0.242596
0.018677 0.152010 0.253696
0.018677 0.163110 0.242596
0.018677 0.163110 0.253696
0.018677 0.152010 0.264796
0.018677 0.174210 0.242596
0.018677 0.174210 0.253696
0.018677 0.185310 0.242596
0.018677 0.185310 0.253696
0.029777 0.196410 0.198196
0.029777 0.196410 0.209296
0.029777 0.207510 0.198196
0.029777 0.207510 0.209296
0.018677 0.196410 0.220396
0.018677 0.196410 0.231496
0.018677 0.207510 0.231496
0.029777 0.196410 0.220396
0.029777 0.207510 0.220396
0.029777 0.218610 0.198196
0.029777 0.218610 0.209296
0.029777 0.229710 0.198196
0.029777 0.229710 0.209296
0.018677 0.218610 0.220396
0.018677 0.218610 0.231496
0.018677 0.229710 0.220396
0.018677 0.229710 0.231496
0.029777 0.218610 0.220396
0.029777 0.229710 0.220396
0.018677 0.196410 0.242596
0.018677 0.196410 0.253696
0.018677 0.207510 0.242596
0.018677 0.207510 0.253696
0.018677 0.218610 0.242596
0.018677 0.218610 0.253696
0.018677 0.229710 0.242596
0.018677 0.229710 0.253696
0.029777 0.240810 0.198196
0.029777 0.240810 0.209296
0.029777 0.251910 0.198196
0.029777 0.251910 0.209296
0.018677 0.240810 0.231496
0.018677 0.251910 0.231496
0.029777 0.240810 0.220396
0.029777 0.251910 0.220396
0.029777 0.263010 0.198196
0.029777 0.263010 0.209296
0.029777 0.274110 0.198196
0.029777 0.274110 0.209296
0.018677 0.263010 0.220396
0.018677 0.263010 0.231496
0.018677 0.274110 0.220396
0.018677 0.274110 0.231496
0.029777 0.263010 0.220396
0.029777 0.274110 0.220396
0.018677 0.240810 0.242596
0.018677 0.240810 0.253696
0.018677 0.251910 0.242596
0.018677 0.251910 0.253696
0.018677 0.263010 0.242596
0.018677 0.263010 0.253696
0.018677 0.274110 0.242596
0.018677 0.274110 0.253696
0.007577 0.085410 0.375796
0.007577 0.096510 0.375796
0.007577 0.107610 0.375796
0.007577 0.107610 0.386896
0.007577 0.118710 0.375796
0.007577 0.118710 0.386896
0.007577 0.118710 0.397996
0.007577 0.118710 0.409096
0.007577 0.129810 0.375796
0.007577 0.129810 0.386896
0.007577 0.140910 0.375796
0.007577 0.140910 0.386896
0.007577 0.129810 0.397996
0.007577 0.140910 0.397996
0.007577 0.140910 0.409096
0.007577 0.152010 0.375796
0.007577 0.152010 0.386896
0.007577 0.163110 0.375796
0.007577 0.163110 0.386896
0.007577 0.152010 0.397996
0.007577 0.152010 0.409096
0.007577 0.163110 0.397996
0.007577 0.163110 0.409096
0.007577 0.174210 0.375796
0.007577 0.174210 0.386896
0.007577 0.185310 0.375796
0.007577 0.185310 0.386896
0.007577 0.174210 0.397996
0.007577 0.174210 0.409096
0.007577 0.185310 0.397996
0.007577 0.185310 0.409096
0.007577 0.185310 0.420196
0.007577 0.196410 0.375796
0.007577 0.196410 0.386896
0.007577 0.207510 0.375796
0.007577 0.207510 0.386896
0.007577 0.196410 0.397996
0.007577 0.196410 0.409096
0.007577 0.207510 0.397996
0.007577 0.207510 0.409096
0.007577 0.218610 0.375796
0.007577 0.218610 0.386896
0.007577 0.229710 0.375796
0.007577 0.229710 0.386896
0.007577 0.218610 0.397996
0.007577 0.218610 0.409096
0.007577 0.229710 0.397996
0.007577 0.229710 0.409096
0.007577 0.196410 0.420196
0.007577 0.207510 0.420196
0.007577 0.218610 0.420196
0.007577 0.229710 0.420196
0.007577 0.240810 0.375796
0.007577 0.251910 0.375796
0.007577 0.251910 0.386896
0.007577 0.240810 0.397996
0.007577 0.240810 0.409096
0.007577 0.251910 0.397996
0.007577 0.251910 0.409096
0.007577 0.263010 0.375796
0.007577 0.263010 0.386896
0.007577 0.274110 0.375796
0.007577 0.274110 0.386896
0.007577 0.263010 0.397996
0.007577 0.263010 0.409096
0.007577 0.274110 0.397996
0.007577 0.274110 0.409096
0.007577 0.240810 0.420196
0.007577 0.251910 0.420196
0.007577 0.263010 0.420196
0.007577 0.274110 0.420196
0.029777 0.018810 0.375796
0.029777 0.018810 0.386896
0.029777 0.029910 0.375796
0.029777 0.029910 0.386896
0.029777 0.029910 0.397996
0.029777 0.029910 0.409096
0.018677 0.052110 0.375796
0.029777 0.041010 0.375796
0.029777 0.041010 0.386896
0.029777 0.052110 0.375796
0.029777 0.052110 0.386896
0.029777 0.041010 0.397996
0.029777 0.041010 0.409096
0.029777 0.052110 0.397996
0.029777 0.052110 0.409096
0.040877 0.018810 0.375796
0.040877 0.018810 0.386896
0.040877 0.029910 0.375796
0.040877 0.029910 0.386896
0.040877 0.018810 0.397996
0.040877 0.018810 0.409096
0.040877 0.029910 0.397996
0.051977 0.018810 0.409096
0.029777 0.041010 0.420196
0.029777 0.052110 0.420196
0.029777 0.052110 0.431296
0.029777 0.052110 0.442396
0.040877 0.018810 0.420196
0.040877 0.018810 0.431296
0.040877 0.029910 0.420196
0.040877 0.029910 0.431296
0.051977 0.018810 0.420196
0.051977 0.018810 0.431296
0.051977 0.029910 0.420196
0.040877 0.029910 0.442396
0.051977 0.018810 0.442396
0.051977 0.018810 0.453496
0.051977 0.029910 0.442396
0.051977 0.029910 0.453496
0.040877 0.041010 0.420196
0.040877 0.041010 0.431296
0.040877 0.052110 0.431296
0.040877 0.041010 0.442396
0.040877 0.041010 0.453496
0.040877 0.052110 0.442396
0.040877 0.052110 0.453496
0.051977 0.041010 0.453496
0.018677 0.063210 0.375796
0.018677 0.063210 0.386896
0.018677 0.074310 0.375796
0.018677 0.074310 0.386896
0.018677 0.063210 0.397996
0.018677 0.074310 0.397996
0.018677 0.074310 0.409096
0.029777 0.063210 0.397996
0.029777 0.063210 0.409096
0.018677 0.085410 0.375796
0.018677 0.085410 0.386896
0.018677 0.096510 0.386896
0.018677 0.085410 0.397996
0.018677 0.085410 0.409096
0.018677 0.096510 0.397996
0.018677 0.096510 0.409096
0.029777 0.063210 0.420196
0.029777 0.063210 0.431296
0.029777 0.074310 0.420196
0.029777 0.074310 0.431296
0.029777 0.063210 0.442396
0.029777 0.063210 0.453496
0.029777 0.074310 0.442396
0.029777 0.074310 0.453496
0.018677 0.085410 0.420196
0.018677 0.085410 0.431296
0.018677 0.096510 0.420196
0.018677 0.096510 0.431296
0.029777 0.085410 0.431296
0.018677 0.096510 0.442396
0.029777 0.085410 0.442396
0.029777 0.085410 0.453496
0.029777 0.096510 0.442396
0.029777 0.096510 0.453496
0.040877 0.063210 0.453496
0.040877 0.074310 0.453496
0.063077 0.029910 0.442396
0.063077 0.029910 0.453496
0.051977 0.029910 0.464596
0.040877 0.052110 0.464596
0.051977 0.041010 0.464596
0.051977 0.041010 0.475696
0.051977 0.052110 0.464596
0.051977 0.052110 0.475696
0.051977 0.052110 0.486796
0.029777 0.085410 0.464596
0.029777 0.096510 0.464596
0.040877 0.063210 0.464596
0.040877 0.074310 0.464596
0.040877 0.074310 0.475696
0.051977 0.063210 0.475696
0.051977 0.074310 0.475696
0.051977 0.063210 0.486796
0.051977 0.074310 0.486796
0.051977 0.074310 0.497896
0.040877 0.085410 0.464596
0.040877 0.085410 0.475696
0.040877 0.096510 0.464596
0.040877 0.096510 0.475696
0.040877 0.096510 0.486796
0.051977 0.085410 0.486796
0.051977 0.085410 0.497896
0.051977 0.096510 0.486796
0.051977 0.096510 0.497896
0.051977 0.096510 0.508996
0.063077 0.029910 0.464596
0.063077 0.029910 0.475696
0.074177 0.029910 0.486796
0.074177 0.041010 0.464596
0.074177 0.041010 0.475696
0.063077 0.041010 0.486796
0.063077 0.052110 0.486796
0.063077 0.052110 0.497896
0.074177 0.041010 0.497896
0.085277 0.029910 0.497896
0.085277 0.041010 0.475696
0.085277 0.041010 0.486796
0.085277 0.041010 0.497896
0.096377 0.041010 0.486796
0.096377 0.041010 0.497896
0.074177 0.041010 0.508996
0.074177 0.052110 0.508996
0.085277 0.029910 0.508996
0.096377 0.029910 0.508996
0.096377 0.029910 0.520096
0.096377 0.029910 0.531196
0.085277 0.041010 0.508996
0.085277 0.041010 0.520096
0.085277 0.052110 0.520096
0.085277 0.052110 0.531196
0.096377 0.041010 0.531196
0.096377 0.052110 0.531196
0.096377 0.052110 0.542296
0.063077 0.063210 0.486796
0.063077 0.063210 0.497896
0.063077 0.074310 0.497896
0.063077 0.085410 0.497896
0.063077 0.063210 0.508996
0.063077 0.074310 0.508996
0.074177 0.063210 0.508996
0.074177 0.063210 0.520096
0.074177 0.074310 0.520096
0.074177 0.074310 0.531196
0.063077 0.085410 0.508996
0.063077 0.085410 0.520096
0.063077 0.096510 0.508996
0.063077 0.096510 0.520096
0.074177 0.085410 0.520096
0.074177 0.096510 0.520096
0.074177 0.085410 0.531196
0.074177 0.096510 0.531196
0.074177 0.096510 0.542296
0.085277 0.063210 0.531196
0.085277 0.074310 0.531196
0.085277 0.074310 0.542296
0.096377 0.063210 0.542296
0.085277 0.085410 0.531196
0.085277 0.085410 0.542296
0.085277 0.096510 0.542296
0.118577 0.007710 0.431296
0.118577 0.007710 0.442396
0.118577 0.007710 0.453496
0.129677 0.007710 0.420196
0.129677 0.007710 0.431296
0.129677 0.007710 0.442396
0.129677 0.007710 0.453496
0.129677 0.007710 0.464596
0.129677 0.007710 0.475696
0.140777 0.007710 0.464596
0.140777 0.007710 0.475696
0.129677 0.007710 0.486796
0.129677 0.007710 0.497896
0.140777 0.007710 0.486796
0.140777 0.007710 0.497896
0.151877 0.007710 0.475696
0.151877 0.007710 0.486796
0.151877 0.007710 0.497896
0.162977 0.007710 0.486796
0.162977 0.007710 0.497896
0.174077 0.007710 0.497896
0.162977 0.007710 0.508996
0.174077 0.007710 0.508996
0.185177 0.007710 0.508996
0.185177 0.007710 0.520096
0.185177 0.007710 0.531196
0.185177 0.007710 0.542296
0.140777 0.018810 0.464596
0.107477 0.029910 0.520096
0.107477 0.029910 0.531196
0.107477 0.029910 0.542296
0.107477 0.041010 0.508996
0.107477 0.041010 0.542296
0.118577 0.041010 0.542296
0.151877 0.018810 0.464596
0.162977 0.018810 0.475696
0.162977 0.018810 0.486796
0.174077 0.018810 0.475696
0.174077 0.018810 0.486796
0.174077 0.018810 0.497896
0.185177 0.018810 0.486796
0.185177 0.018810 0.497896
0.185177 0.018810 0.508996
0.096377 0.063210 0.553396
0.096377 0.074310 0.553396
0.085277 0.096510 0.553396
0.096377 0.085410 0.553396
0.096377 0.085410 0.564496
0.096377 0.096510 0.553396
0.096377 0.096510 0.564496
0.174077 0.007710 0.586696
0.185177 0.007710 0.586696
0.174077 0.007710 0.597796
0.185177 0.007710 0.597796
0.185177 0.007710 0.608896
0.107477 0.041010 0.553396
0.107477 0.052110 0.553396
0.118577 0.041010 0.553396
0.118577 0.041010 0.564496
0.118577 0.052110 0.564496
0.129677 0.029910 0.553396
0.129677 0.029910 0.564496
0.129677 0.041010 0.564496
0.129677 0.041010 0.575596
0.129677 0.052110 0.575596
0.140777 0.041010 0.575596
0.140777 0.052110 0.586696
0.107477 0.063210 0.553396
0.107477 0.063210 0.564496
0.107477 0.074310 0.553396
0.107477 0.074310 0.564496
0.118577 0.063210 0.564496
0.118577 0.074310 0.564496
0.118577 0.063210 0.575596
0.118577 0.074310 0.575596
0.107477 0.085410 0.564496
0.107477 0.085410 0.575596
0.107477 0.096510 0.575596
0.118577 0.085410 0.575596
0.118577 0.085410 0.586696
0.118577 0.096510 0.586696
0.129677 0.063210 0.575596
0.129677 0.063210 0.586696
0.129677 0.074310 0.586696
0.140777 0.063210 0.586696
0.129677 0.085410 0.586696
0.129677 0.096510 0.586696
0.140777 0.063210 0.597796
0.140777 0.074310 0.597796
0.129677 0.085410 0.597796
0.129677 0.096510 0.597796
0.140777 0.085410 0.597796
0.140777 0.085410 0.608896
0.140777 0.096510 0.597796
0.140777 0.096510 0.608896
0.151877 0.041010 0.575596
0.151877 0.041010 0.586696
0.162977 0.041010 0.586696
0.151877 0.041010 0.597796
0.151877 0.052110 0.597796
0.162977 0.041010 0.597796
0.162977 0.052110 0.597796
0.162977 0.052110 0.608896
0.174077 0.041010 0.597796
0.174077 0.052110 0.608896
0.185177 0.041010 0.597796
0.185177 0.041010 0.608896
0.185177 0.052110 0.619996
0.151877 0.063210 0.597796
0.151877 0.063210 0.608896
0.151877 0.074310 0.608896
0.162977 0.063210 0.608896
0.162977 0.074310 0.608896
0.151877 0.085410 0.608896
0.151877 0.096510 0.608896
0.162977 0.085410 0.608896
0.162977 0.085410 0.619996
0.162977 0.096510 0.619996
0.174077 0.063210 0.608896
0.174077 0.063210 0.619996
0.174077 0.074310 0.619996
0.185177 0.063210 0.619996
0.185177 0.074310 0.619996
0.185177 0.074310 0.631096
0.174077 0.085410 0.619996
0.174077 0.096510 0.619996
0.185177 0.085410 0.619996
0.185177 0.085410 0.631096
0.185177 0.096510 0.631096
0.018677 0.107610 0.397996
0.018677 0.107610 0.409096
0.018677 0.118710 0.409096
0.018677 0.129810 0.409096
0.018677 0.107610 0.420196
0.018677 0.107610 0.431296
0.018677 0.118710 0.420196
0.018677 0.118710 0.431296
0.018677 0.107610 0.442396
0.018677 0.118710 0.442396
0.029777 0.107610 0.442396
0.029777 0.107610 0.453496
0.029777 0.118710 0.442396
0.029777 0.118710 0.453496
0.018677 0.129810 0.420196
0.018677 0.129810 0.431296
0.018677 0.140910 0.420196
0.018677 0.140910 0.431296
0.018677 0.129810 0.442396
0.018677 0.140910 0.442396
0.018677 0.140910 0.453496
0.029777 0.129810 0.453496
0.029777 0.140910 0.453496
0.018677 0.152010 0.420196
0.018677 0.152010 0.431296
0.018677 0.163110 0.420196
0.018677 0.163110 0.431296
0.018677 0.152010 0.442396
0.018677 0.152010 0.453496
0.018677 0.163110 0.442396
0.029777 0.152010 0.453496
0.029777 0.163110 0.453496
0.018677 0.174210 0.420196
0.018677 0.174210 0.431296
0.018677 0.185310 0.420196
0.018677 0.185310 0.431296
0.018677 0.174210 0.442396
0.018677 0.174210 0.453496
0.018677 0.185310 0.442396
0.018677 0.185310 0.453496
0.029777 0.174210 0.453496
0.029777 0.185310 0.453496
0.029777 0.107610 0.464596
0.029777 0.118710 0.464596
0.029777 0.118710 0.475696
0.029777 0.129810 0.464596
0.029777 0.129810 0.475696
0.029777 0.140910 0.464596
0.029777 0.140910 0.475696
0.040877 0.107610 0.475696
0.040877 0.118710 0.475696
0.040877 0.107610 0.486796
0.040877 0.118710 0.486796
0.051977 0.107610 0.486796
0.051977 0.107610 0.497896
0.051977 0.118710 0.497896
0.040877 0.129810 0.486796
0.040877 0.129810 0.497896
0.040877 0.140910 0.486796
0.040877 0.140910 0.497896
0.051977 0.129810 0.497896
0.051977 0.140910 0.497896
0.051977 0.107610 0.508996
0.051977 0.118710 0.508996
0.051977 0.129810 0.508996
0.051977 0.140910 0.508996
0.029777 0.152010 0.464596
0.029777 0.152010 0.475696
0.029777 0.163110 0.464596
0.029777 0.163110 0.475696
0.029777 0.174210 0.464596
0.029777 0.174210 0.475696
0.029777 0.185310 0.464596
0.029777 0.185310 0.475696
0.040877 0.152010 0.486796
0.040877 0.152010 0.497896
0.040877 0.163110 0.486796
0.040877 0.163110 0.497896
0.051977 0.152010 0.497896
0.051977 0.163110 0.497896
0.040877 0.174210 0.486796
0.040877 0.174210 0.497896
0.040877 0.185310 0.486796
0.040877 0.185310 0.497896
0.051977 0.174210 0.497896
0.051977 0.185310 0.497896
0.051977 0.152010 0.508996
0.051977 0.163110 0.508996
0.051977 0.163110 0.520096
0.051977 0.174210 0.508996
0.051977 0.185310 0.508996
0.051977 0.185310 0.520096
0.063077 0.107610 0.508996
0.063077 0.107610 0.520096
0.063077 0.118710 0.508996
0.063077 0.118710 0.520096
0.074177 0.107610 0.531196
0.074177 0.107610 0.542296
0.074177 0.118710 0.531196
0.074177 0.118710 0.542296
0.063077 0.129810 0.508996
0.063077 0.129810 0.520096
0.063077 0.140910 0.520096
0.063077 0.129810 0.531196
0.063077 0.140910 0.531196
0.074177 0.129810 0.531196
0.074177 0.129810 0.542296
0.074177 0.140910 0.531196
0.074177 0.140910 0.542296
0.085277 0.107610 0.542296
0.085277 0.118710 0.542296
0.085277 0.129810 0.542296
0.063077 0.152010 0.520096
0.063077 0.163110 0.520096
0.063077 0.152010 0.531196
0.063077 0.163110 0.531196
0.074177 0.152010 0.531196
0.074177 0.152010 0.542296
0.074177 0.163110 0.531196
0.074177 0.163110 0.542296
0.063077 0.174210 0.520096
0.063077 0.185310 0.520096
0.063077 0.174210 0.531196
0.063077 0.185310 0.531196
0.074177 0.174210 0.531196
0.074177 0.174210 0.542296
0.074177 0.185310 0.531196
0.074177 0.185310 0.542296
0.018677 0.196410 0.420196
0.018677 0.196410 0.431296
0.018677 0.207510 0.431296
0.018677 0.196410 0.442396
0.018677 0.196410 0.453496
0.018677 0.207510 0.442396
0.018677 0.207510 0.453496
0.029777 0.196410 0.453496
0.029777 0.207510 0.453496
0.018677 0.218610 0.431296
0.018677 0.229710 0.420196
0.018677 0.229710 0.431296
0.018677 0.218610 0.442396
0.018677 0.229710 0.442396
0.018677 0.229710 0.453496
0.029777 0.218610 0.453496
0.018677 0.240810 0.431296
0.018677 0.251910 0.431296
0.018677 0.240810 0.442396
0.018677 0.240810 0.453496
0.018677 0.251910 0.442396
0.018677 0.251910 0.453496
0.029777 0.240810 0.453496
0.018677 0.263010 0.431296
0.018677 0.274110 0.431296
0.018677 0.263010 0.442396
0.018677 0.263010 0.453496
0.018677 0.274110 0.442396
0.018677 0.274110 0.453496
0.029777 0.263010 0.453496
0.029777 0.196410 0.464596
0.029777 0.196410 0.475696
0.029777 0.207510 0.464596
0.029777 0.207510 0.475696
0.029777 0.218610 0.464596
0.029777 0.218610 0.475696
0.029777 0.229710 0.464596
0.029777 0.229710 0.475696
0.040877 0.196410 0.486796
0.040877 0.196410 0.497896
0.040877 0.207510 0.486796
0.040877 0.207510 0.497896
0.051977 0.196410 0.497896
0.051977 0.207510 0.497896
0.040877 0.218610 0.486796
0.040877 0.218610 0.497896
0.040877 0.229710 0.486796
0.040877 0.229710 0.497896
0.051977 0.218610 0.497896
0.051977 0.196410 0.508996
0.051977 0.207510 0.508996
0.051977 0.218610 0.508996
0.051977 0.218610 0.520096
0.051977 0.229710 0.508996
0.029777 0.240810 0.464596
0.029777 0.240810 0.475696
0.029777 0.251910 0.464596
0.029777 0.251910 0.475696
0.029777 0.263010 0.464596
0.029777 0.263010 0.475696
0.029777 0.274110 0.464596
0.029777 0.274110 0.475696
0.040877 0.251910 0.475696
0.040877 0.240810 0.486796
0.040877 0.240810 0.497896
0.040877 0.251910 0.486796
0.040877 0.251910 0.497896
0.051977 0.240810 0.497896
0.051977 0.251910 0.497896
0.040877 0.274110 0.475696
0.040877 0.263010 0.486796
0.040877 0.263010 0.497896
0.040877 0.274110 0.486796
0.040877 0.274110 0.497896
0.051977 0.263010 0.497896
0.051977 0.274110 0.497896
0.051977 0.240810 0.508996
0.051977 0.240810 0.520096
0.051977 0.251910 0.508996
0.051977 0.251910 0.520096
0.051977 0.263010 0.508996
0.051977 0.274110 0.508996
0.051977 0.274110 0.520096
0.063077 0.196410 0.520096
0.063077 0.207510 0.520096
0.063077 0.196410 0.531196
0.063077 0.207510 0.531196
0.074177 0.196410 0.531196
0.074177 0.196410 0.542296
0.074177 0.207510 0.531196
0.074177 0.207510 0.542296
0.063077 0.218610 0.520096
0.063077 0.229710 0.520096
0.063077 0.218610 0.531196
0.063077 0.229710 0.531196
0.074177 0.218610 0.542296
0.074177 0.229710 0.542296
0.063077 0.240810 0.520096
0.063077 0.251910 0.520096
0.063077 0.240810 0.531196
0.063077 0.251910 0.531196
0.074177 0.240810 0.542296
0.074177 0.251910 0.542296
0.063077 0.263010 0.520096
0.063077 0.274110 0.520096
0.063077 0.263010 0.531196
0.063077 0.274110 0.531196
0.074177 0.263010 0.531196
0.074177 0.263010 0.542296
0.074177 0.274110 0.531196
0.074177 0.274110 0.542296
0.085277 0.107610 0.553396
0.085277 0.118710 0.553396
0.096377 0.107610 0.553396
0.096377 0.107610 0.564496
0.096377 0.118710 0.564496
0.096377 0.107610 0.575596
0.085277 0.129810 0.553396
0.085277 0.140910 0.553396
0.085277 0.140910 0.564496
0.096377 0.129810 0.564496
0.096377 0.140910 0.564496
0.096377 0.129810 0.575596
0.096377 0.140910 0.575596
0.085277 0.152010 0.553396
0.085277 0.152010 0.564496
0.085277 0.163110 0.553396
0.085277 0.163110 0.564496
0.096377 0.152010 0.564496
0.096377 0.163110 0.564496
0.096377 0.152010 0.575596
0.096377 0.163110 0.575596
0.085277 0.174210 0.553396
0.085277 0.174210 0.564496
0.085277 0.185310 0.553396
0.085277 0.185310 0.564496
0.096377 0.174210 0.564496
0.096377 0.185310 0.564496
0.096377 0.185310 0.575596
0.074177 0.207510 0.553396
0.074177 0.229710 0.553396
0.085277 0.196410 0.553396
0.085277 0.196410 0.564496
0.085277 0.207510 0.553396
0.085277 0.207510 0.564496
0.096377 0.207510 0.564496
0.096377 0.196410 0.575596
0.096377 0.207510 0.575596
0.085277 0.218610 0.553396
0.085277 0.218610 0.564496
0.085277 0.229710 0.553396
0.085277 0.229710 0.564496
0.096377 0.218610 0.564496
0.096377 0.229710 0.564496
0.096377 0.218610 0.575596
0.096377 0.229710 0.575596
0.074177 0.240810 0.553396
0.074177 0.251910 0.553396
0.074177 0.263010 0.553396
0.074177 0.274110 0.553396
0.085277 0.240810 0.564496
0.085277 0.251910 0.553396
0.085277 0.251910 0.564496
0.096377 0.251910 0.564496
0.096377 0.240810 0.575596
0.096377 0.251910 0.575596
0.085277 0.263010 0.553396
0.085277 0.263010 0.564496
0.085277 0.274110 0.553396
0.085277 0.274110 0.564496
0.096377 0.263010 0.564496
0.096377 0.263010 0.575596
0.096377 0.274110 0.575596
0.107477 0.107610 0.575596
0.107477 0.118710 0.575596
0.118577 0.107610 0.586696
0.118577 0.118710 0.586696
0.107477 0.129810 0.575596
0.107477 0.129810 0.586696
0.107477 0.140910 0.575596
0.107477 0.140910 0.586696
0.118577 0.129810 0.586696
0.118577 0.140910 0.586696
0.118577 0.129810 0.597796
0.118577 0.140910 0.597796
0.129677 0.107610 0.597796
0.129677 0.118710 0.597796
0.140777 0.107610 0.597796
0.140777 0.107610 0.608896
0.140777 0.118710 0.608896
0.129677 0.129810 0.597796
0.129677 0.129810 0.608896
0.129677 0.140910 0.597796
0.140777 0.129810 0.608896
0.140777 0.140910 0.608896
0.107477 0.152010 0.575596
0.107477 0.152010 0.586696
0.107477 0.163110 0.575596
0.107477 0.163110 0.586696
0.118577 0.152010 0.586696
0.118577 0.163110 0.586696
0.107477 0.174210 0.575596
0.107477 0.174210 0.586696
0.107477 0.185310 0.575596
0.107477 0.185310 0.586696
0.118577 0.174210 0.586696
0.118577 0.185310 0.586696
0.118577 0.163110 0.597796
0.118577 0.174210 0.597796
0.118577 0.185310 0.597796
0.129677 0.152010 0.597796
0.129677 0.152010 0.608896
0.129677 0.163110 0.597796
0.140777 0.152010 0.608896
0.140777 0.163110 0.608896
0.129677 0.174210 0.597796
0.129677 0.174210 0.608896
0.129677 0.185310 0.597796
0.129677 0.185310 0.608896
0.140777 0.174210 0.608896
0.140777 0.185310 0.608896
0.151877 0.107610 0.608896
0.151877 0.118710 0.608896
0.151877 0.118710 0.619996
0.162977 0.107610 0.619996
0.162977 0.118710 0.619996
0.151877 0.129810 0.608896
0.151877 0.140910 0.608896
0.151877 0.129810 0.619996
0.151877 0.140910 0.619996
0.162977 0.129810 0.619996
0.162977 0.140910 0.619996
0.174077 0.107610 0.619996
0.174077 0.107610 0.631096
0.174077 0.118710 0.631096
0.185177 0.107610 0.631096
0.185177 0.118710 0.631096
0.174077 0.129810 0.631096
0.174077 0.140910 0.631096
0.185177 0.129810 0.631096
0.185177 0.140910 0.631096
0.151877 0.152010 0.608896
0.151877 0.163110 0.608896
0.151877 0.152010 0.619996
0.151877 0.163110 0.619996
0.162977 0.152010 0.619996
0.162977 0.163110 0.619996
0.151877 0.174210 0.608896
0.151877 0.174210 0.619996
0.151877 0.185310 0.619996
0.162977 0.174210 0.619996
0.162977 0.185310 0.619996
0.174077 0.152010 0.631096
0.174077 0.163110 0.631096
0.185177 0.152010 0.631096
0.185177 0.163110 0.631096
0.174077 0.174210 0.631096
0.174077 0.185310 0.631096
0.185177 0.185310 0.631096
0.185177 0.118710 0.642196
0.185177 0.129810 0.642196
0.185177 0.140910 0.642196
0.185177 0.174210 0.642196
0.185177 0.185310 0.642196
0.107477 0.196410 0.575596
0.107477 0.196410 0.586696
0.107477 0.207510 0.575596
0.107477 0.207510 0.586696
0.118577 0.196410 0.586696
0.118577 0.207510 0.586696
0.107477 0.218610 0.575596
0.107477 0.218610 0.586696
0.107477 0.229710 0.575596
0.107477 0.229710 0.586696
0.118577 0.218610 0.586696
0.118577 0.229710 0.586696
0.118577 0.196410 0.597796
0.118577 0.207510 0.597796
0.118577 0.218610 0.597796
0.118577 0.229710 0.597796
0.129677 0.196410 0.597796
0.129677 0.196410 0.608896
0.129677 0.207510 0.597796
0.140777 0.196410 0.608896
0.140777 0.207510 0.608896
0.129677 0.218610 0.597796
0.129677 0.218610 0.608896
0.129677 0.229710 0.597796
0.129677 0.229710 0.608896
0.140777 0.218610 0.608896
0.140777 0.229710 0.608896
0.107477 0.240810 0.575596
0.107477 0.240810 0.586696
0.107477 0.251910 0.586696
0.118577 0.240810 0.586696
0.118577 0.251910 0.586696
0.107477 0.263010 0.575596
0.107477 0.263010 0.586696
0.107477 0.274110 0.586696
0.118577 0.263010 0.586696
0.118577 0.274110 0.586696
0.118577 0.240810 0.597796
0.118577 0.251910 0.597796
0.118577 0.263010 0.597796
0.118577 0.274110 0.597796
0.129677 0.240810 0.597796
0.129677 0.240810 0.608896
0.129677 0.251910 0.597796
0.129677 0.251910 0.608896
0.140777 0.240810 0.608896
0.140777 0.251910 0.608896
0.129677 0.263010 0.597796
0.129677 0.263010 0.608896
0.129677 0.274110 0.597796
0.140777 0.263010 0.608896
0.140777 0.274110 0.608896
0.151877 0.196410 0.608896
0.151877 0.196410 0.619996
0.151877 0.207510 0.619996
0.162977 0.196410 0.619996
0.162977 0.196410 0.631096
0.162977 0.207510 0.619996
0.151877 0.218610 0.619996
0.151877 0.229710 0.619996
0.162977 0.218610 0.619996
0.162977 0.229710 0.619996
0.162977 0.229710 0.631096
0.174077 0.196410 0.631096
0.174077 0.207510 0.631096
0.174077 0.218610 0.631096
0.174077 0.229710 0.631096
0.185177 0.218610 0.631096
0.151877 0.240810 0.619996
0.151877 0.251910 0.619996
0.162977 0.240810 0.619996
0.162977 0.240810 0.631096
0.162977 0.251910 0.619996
0.162977 0.251910 0.631096
0.151877 0.263010 0.619996
0.151877 0.274110 0.619996
0.162977 0.263010 0.619996
0.162977 0.274110 0.619996
0.162977 0.274110 0.631096
0.174077 0.240810 0.631096
0.174077 0.251910 0.631096
0.185177 0.240810 0.631096
0.174077 0.263010 0.631096
0.174077 0.274110 0.631096
0.185177 0.263010 0.631096
0.185177 0.274110 0.631096
0.185177 0.196410 0.642196
0.185177 0.207510 0.642196
0.185177 0.218610 0.642196
0.185177 0.229710 0.642196
0.185177 0.240810 0.642196
0.185177 0.251910 0.642196
0.185177 0.263010 0.642196
0.185177 0.274110 0.642196
0.007577 0.285210 0.253696
0.007577 0.296310 0.253696
0.007577 0.285210 0.264796
0.007577 0.285210 0.275896
0.007577 0.296310 0.264796
0.007577 0.296310 0.275896
0.007577 0.307410 0.253696
0.007577 0.307410 0.264796
0.007577 0.307410 0.275896
0.007577 0.318510 0.264796
0.007577 0.318510 0.275896
0.007577 0.329610 0.253696
0.007577 0.340710 0.253696
0.007577 0.329610 0.264796
0.007577 0.329610 0.275896
0.007577 0.340710 0.264796
0.007577 0.340710 0.275896
0.007577 0.351810 0.253696
0.007577 0.351810 0.264796
0.007577 0.351810 0.275896
0.007577 0.362910 0.264796
0.007577 0.362910 0.275896
0.007577 0.285210 0.286996
0.007577 0.285210 0.298096
0.007577 0.296310 0.286996
0.007577 0.296310 0.298096
0.007577 0.285210 0.309196
0.007577 0.285210 0.320296
0.007577 0.296310 0.309196
0.007577 0.296310 0.320296
0.007577 0.307410 0.286996
0.007577 0.307410 0.298096
0.007577 0.318510 0.286996
0.007577 0.318510 0.298096
0.007577 0.307410 0.309196
0.007577 0.307410 0.320296
0.007577 0.318510 0.309196
0.007577 0.318510 0.320296
0.007577 0.285210 0.331396
0.007577 0.285210 0.342496
0.007577 0.296310 0.331396
0.007577 0.296310 0.342496
0.007577 0.285210 0.353596
0.007577 0.285210 0.364696
0.007577 0.296310 0.353596
0.007577 0.296310 0.364696
-0.003523 0.318510 0.342496
0.007577 0.307410 0.331396
0.007577 0.307410 0.342496
0.007577 0.318510 0.331396
0.007577 0.318510 0.342496
-0.003523 0.318510 0.353596
0.007577 0.307410 0.353596
0.007577 0.307410 0.364696
0.007577 0.318510 0.353596
0.007577 0.318510 0.364696
0.007577 0.329610 0.286996
0.007577 0.329610 0.298096
0.007577 0.340710 0.286996
0.007577 0.340710 0.298096
0.007577 0.329610 0.309196
0.007577 0.329610 0.320296
0.007577 0.340710 0.309196
0.007577 0.340710 0.320296
0.007577 0.351810 0.286996
0.007577 0.351810 0.298096
0.007577 0.362910 0.286996
0.007577 0.362910 0.298096
-0.003523 0.351810 0.320296
-0.003523 0.362910 0.320296
0.007577 0.351810 0.309196
0.007577 0.351810 0.320296
0.007577 0.362910 0.309196
0.007577 0.362910 0.320296
-0.003523 0.329610 0.331396
-0.003523 0.329610 0.342496
-0.003523 0.340710 0.331396
-0.003523 0.340710 0.342496
-0.003523 0.329610 0.353596
-0.003523 0.329610 0.364696
-0.003523 0.340710 0.353596
-0.003523 0.340710 0.364696
-0.003523 0.351810 0.331396
-0.003523 0.351810 0.342496
-0.003523 0.362910 0.331396
-0.003523 0.362910 0.342496
-0.003523 0.351810 0.353596
-0.003523 0.351810 0.364696
-0.003523 0.362910 0.353596
-0.003523 0.362910 0.364696
0.007577 0.374010 0.253696
0.007577 0.385110 0.253696
0.007577 0.374010 0.264796
0.007577 0.374010 0.275896
0.007577 0.385110 0.264796
0.007577 0.385110 0.275896
0.007577 0.396210 0.253696
0.007577 0.396210 0.264796
0.007577 0.396210 0.275896
0.007577 0.407310 0.264796
0.007577 0.407310 0.275896
0.007577 0.418410 0.253696
0.007577 0.429510 0.253696
0.007577 0.418410 0.264796
0.007577 0.418410 0.275896
0.007577 0.429510 0.264796
0.007577 0.429510 0.275896
0.007577 0.440610 0.253696
0.007577 0.440610 0.264796
0.007577 0.440610 0.275896
0.007577 0.451710 0.264796
0.007577 0.451710 0.275896
0.007577 0.374010 0.286996
0.007577 0.374010 0.298096
0.007577 0.385110 0.286996
0.007577 0.385110 0.298096
-0.003523 0.374010 0.320296
0.007577 0.374010 0.309196
0.007577 0.374010 0.320296
0.007577 0.385110 0.309196
0.007577 0.385110 0.320296
0.007577 0.396210 0.286996
0.007577 0.396210 0.298096
0.007577 0.407310 0.286996
0.007577 0.407310 0.298096
0.007577 0.396210 0.309196
0.007577 0.396210 0.320296
0.007577 0.407310 0.309196
0.007577 0.407310 0.320296
-0.003523 0.374010 0.331396
-0.003523 0.374010 0.342496
-0.003523 0.385110 0.331396
-0.003523 0.385110 0.342496
0.007577 0.385110 0.331396
-0.003523 0.374010 0.353596
-0.003523 0.374010 0.364696
-0.003523 0.385110 0.353596
-0.003523 0.385110 0.364696
-0.003523 0.396210 0.331396
-0.003523 0.396210 0.342496
-0.003523 0.407310 0.331396
-0.003523 0.407310 0.342496
0.007577 0.396210 0.331396
0.007577 0.407310 0.331396
-0.003523 0.396210 0.353596
-0.003523 0.396210 0.364696
-0.003523 0.407310 0.353596
-0.003523 0.407310 0.364696
0.007577 0.418410 0.286996
0.007577 0.418410 0.298096
0.007577 0.429510 0.286996
0.007577 0.429510 0.298096
0.007577 0.418410 0.309196
0.007577 0.418410 0.320296
0.007577 0.429510 0.309196
0.007577 0.429510 0.320296
0.007577 0.440610 0.286996
0.007577 0.440610 0.298096
0.007577 0.451710 0.286996
0.007577 0.451710 0.298096
0.007577 0.440610 0.309196
0.007577 0.440610 0.320296
0.007577 0.451710 0.309196
0.007577 0.451710 0.320296
-0.003523 0.418410 0.331396
-0.003523 0.418410 0.342496
-0.003523 0.429510 0.331396
-0.003523 0.429510 0.342496
0.007577 0.418410 0.331396
-0.003523 0.418410 0.353596
-0.003523 0.418410 0.364696
-0.003523 0.429510 0.353596
-0.003523 0.429510 0.364696
-0.003523 0.440610 0.331396
-0.003523 0.440610 0.342496
-0.003523 0.451710 0.331396
-0.003523 0.451710 0.342496
0.007577 0.451710 0.331396
-0.003523 0.440610 0.353596
-0.003523 0.440610 0.364696
-0.003523 0.451710 0.353596
-0.003523 0.451710 0.364696
0.007577 0.462810 0.253696
0.007577 0.473910 0.253696
0.007577 0.462810 0.264796
0.007577 0.462810 0.275896
0.007577 0.473910 0.264796
0.007577 0.473910 0.275896
0.007577 0.485010 0.253696
0.007577 0.496110 0.253696
0.007577 0.485010 0.264796
0.007577 0.485010 0.275896
0.007577 0.496110 0.264796
0.007577 0.496110 0.275896
0.007577 0.507210 0.253696
0.007577 0.518310 0.253696
0.007577 0.507210 0.264796
0.007577 0.507210 0.275896
0.007577 0.518310 0.264796
0.007577 0.518310 0.275896
0.007577 0.529410 0.264796
0.007577 0.529410 0.275896
0.007577 0.540510 0.264796
0.007577 0.540510 0.275896
0.007577 0.462810 0.286996
0.007577 0.462810 0.298096
0.007577 0.473910 0.286996
0.007577 0.473910 0.298096
0.007577 0.462810 0.309196
0.007577 0.462810 0.320296
0.007577 0.473910 0.309196
0.007577 0.473910 0.320296
0.007577 0.485010 0.286996
0.007577 0.485010 0.298096
0.007577 0.496110 0.286996
0.007577 0.496110 0.298096
-0.003523 0.485010 0.320296
0.007577 0.485010 0.309196
0.007577 0.485010 0.320296
0.007577 0.496110 0.309196
0.007577 0.496110 0.320296
-0.003523 0.462810 0.342496
-0.003523 0.473910 0.331396
-0.003523 0.473910 0.342496
0.007577 0.462810 0.331396
-0.003523 0.462810 0.353596
-0.003523 0.462810 0.364696
-0.003523 0.473910 0.353596
-0.003523 0.473910 0.364696
-0.003523 0.485010 0.331396
-0.003523 0.485010 0.342496
-0.003523 0.496110 0.331396
-0.003523 0.496110 0.342496
-0.003523 0.485010 0.353596
-0.003523 0.485010 0.364696
-0.003523 0.496110 0.353596
-0.003523 0.496110 0.364696
0.007577 0.507210 0.286996
0.007577 0.507210 0.298096
0.007577 0.518310 0.286996
0.007577 0.518310 0.298096
-0.003523 0.507210 0.320296
-0.003523 0.518310 0.320296
0.007577 0.507210 0.309196
0.007577 0.507210 0.320296
0.007577 0.518310 0.309196
0.007577 0.518310 0.320296
0.007577 0.529410 0.286996
0.007577 0.529410 0.298096
0.007577 0.540510 0.286996
0.007577 0.540510 0.298096
-0.003523 0.529410 0.320296
-0.003523 0.540510 0.320296
0.007577 0.529410 0.309196
0.007577 0.529410 0.320296
0.007577 0.540510 0.309196
-0.003523 0.507210 0.331396
-0.003523 0.507210 0.342496
-0.003523 0.518310 0.331396
-0.003523 0.518310 0.342496
-0.003523 0.507210 0.353596
-0.003523 0.507210 0.364696
-0.003523 0.518310 0.353596
-0.003523 0.518310 0.364696
-0.003523 0.529410 0.331396
-0.003523 0.529410 0.342496
-0.003523 0.540510 0.331396
