ply
format ascii 1.0
element vertex 1773
property float x
property float y
property float z
end_header
0.506627 0.403760 0.052346
0.515427 0.394960 0.052346
0.515427 0.403760 0.052346
0.506627 0.421360 0.052346
0.515427 0.412560 0.052346
0.524227 0.394960 0.052346
0.524227 0.403760 0.061146
0.533027 0.394960 0.061146
0.533027 0.403760 0.061146
0.533027 0.403760 0.069946
0.524227 0.412560 0.061146
0.524227 0.421360 0.052346
0.524227 0.421360 0.061146
0.533027 0.412560 0.061146
0.533027 0.421360 0.061146
0.506627 0.430160 0.043546
0.506627 0.438960 0.043546
0.506627 0.447760 0.043546
0.506627 0.456560 0.043546
0.506627 0.438960 0.052346
0.515427 0.430160 0.052346
0.515427 0.438960 0.052346
0.515427 0.447760 0.052346
0.515427 0.456560 0.052346
0.524227 0.430160 0.061146
0.524227 0.438960 0.052346
0.524227 0.438960 0.061146
0.533027 0.430160 0.061146
0.533027 0.438960 0.061146
0.524227 0.447760 0.052346
0.524227 0.456560 0.061146
0.533027 0.447760 0.061146
0.533027 0.456560 0.061146
0.541827 0.394960 0.069946
0.541827 0.403760 0.069946
0.550627 0.394960 0.078746
0.550627 0.403760 0.069946
0.550627 0.403760 0.078746
0.541827 0.412560 0.069946
0.541827 0.421360 0.069946
0.550627 0.412560 0.069946
0.550627 0.412560 0.078746
0.550627 0.421360 0.078746
0.559427 0.394960 0.078746
0.559427 0.403760 0.078746
0.559427 0.412560 0.078746
0.541827 0.430160 0.069946
0.541827 0.438960 0.069946
0.550627 0.430160 0.069946
0.550627 0.430160 0.078746
0.550627 0.438960 0.069946
0.550627 0.438960 0.078746
0.541827 0.447760 0.069946
0.541827 0.456560 0.069946
0.550627 0.447760 0.069946
0.550627 0.447760 0.078746
0.550627 0.456560 0.069946
0.550627 0.456560 0.078746
0.559427 0.430160 0.078746
0.559427 0.438960 0.078746
0.559427 0.447760 0.078746
0.559427 0.456560 0.078746
0.559427 0.394960 0.087546
0.568227 0.394960 0.087546
0.568227 0.403760 0.087546
0.559427 0.421360 0.087546
0.568227 0.412560 0.087546
0.568227 0.421360 0.087546
0.568227 0.430160 0.087546
0.568227 0.438960 0.087546
0.559427 0.447760 0.087546
0.568227 0.447760 0.087546
0.568227 0.456560 0.087546
0.506627 0.465360 0.043546
0.506627 0.474160 0.043546
0.506627 0.482960 0.043546
0.515427 0.465360 0.052346
0.515427 0.474160 0.052346
0.506627 0.482960 0.052346
0.506627 0.491760 0.052346
0.515427 0.482960 0.052346
0.515427 0.491760 0.052346
0.524227 0.465360 0.052346
0.524227 0.474160 0.052346
0.524227 0.474160 0.061146
0.533027 0.465360 0.061146
0.533027 0.474160 0.061146
0.524227 0.482960 0.061146
0.524227 0.491760 0.061146
0.533027 0.482960 0.061146
0.533027 0.491760 0.061146
0.506627 0.500560 0.043546
0.506627 0.509360 0.043546
0.506627 0.518160 0.043546
0.506627 0.500560 0.052346
0.506627 0.509360 0.052346
0.515427 0.500560 0.052346
0.515427 0.509360 0.052346
0.515427 0.518160 0.052346
0.515427 0.526960 0.052346
0.524227 0.500560 0.061146
0.524227 0.509360 0.061146
0.533027 0.500560 0.061146
0.533027 0.509360 0.061146
0.524227 0.518160 0.061146
0.524227 0.526960 0.061146
0.533027 0.518160 0.061146
0.533027 0.526960 0.061146
0.541827 0.465360 0.069946
0.541827 0.474160 0.069946
0.550627 0.465360 0.069946
0.550627 0.465360 0.078746
0.550627 0.474160 0.069946
0.550627 0.474160 0.078746
0.541827 0.482960 0.069946
0.541827 0.491760 0.069946
0.550627 0.482960 0.069946
0.550627 0.482960 0.078746
0.550627 0.491760 0.069946
0.550627 0.491760 0.078746
0.559427 0.465360 0.078746
0.559427 0.474160 0.078746
0.559427 0.482960 0.078746
0.559427 0.491760 0.078746
0.541827 0.500560 0.069946
0.541827 0.509360 0.069946
0.550627 0.500560 0.078746
0.550627 0.509360 0.078746
0.541827 0.518160 0.069946
0.541827 0.526960 0.069946
0.550627 0.518160 0.069946
0.550627 0.518160 0.078746
0.550627 0.526960 0.078746
0.559427 0.500560 0.078746
0.559427 0.509360 0.078746
0.559427 0.518160 0.078746
0.559427 0.526960 0.078746
0.559427 0.474160 0.087546
0.568227 0.465360 0.087546
0.568227 0.474160 0.087546
0.559427 0.491760 0.087546
0.568227 0.482960 0.087546
0.568227 0.491760 0.087546
0.559427 0.500560 0.087546
0.559427 0.509360 0.087546
0.568227 0.500560 0.087546
0.568227 0.509360 0.087546
0.559427 0.526960 0.087546
0.568227 0.518160 0.087546
0.568227 0.526960 0.087546
0.577027 0.394960 0.096346
0.577027 0.403760 0.096346
0.585827 0.394960 0.096346
0.585827 0.403760 0.096346
0.585827 0.394960 0.105146
0.577027 0.412560 0.096346
0.577027 0.421360 0.096346
0.585827 0.412560 0.096346
0.585827 0.412560 0.105146
0.585827 0.421360 0.105146
0.594627 0.394960 0.105146
0.594627 0.394960 0.113946
0.594627 0.403760 0.105146
0.603427 0.394960 0.113946
0.603427 0.403760 0.113946
0.594627 0.412560 0.105146
0.594627 0.412560 0.113946
0.594627 0.421360 0.105146
0.594627 0.421360 0.113946
0.603427 0.412560 0.113946
0.603427 0.421360 0.113946
0.603427 0.394960 0.122746
0.603427 0.403760 0.122746
0.603427 0.412560 0.122746
0.603427 0.421360 0.122746
0.577027 0.438960 0.096346
0.585827 0.430160 0.096346
0.585827 0.430160 0.105146
0.585827 0.438960 0.105146
0.577027 0.447760 0.096346
0.577027 0.456560 0.096346
0.585827 0.447760 0.096346
0.585827 0.447760 0.105146
0.585827 0.456560 0.105146
0.594627 0.430160 0.105146
0.594627 0.430160 0.113946
0.594627 0.438960 0.105146
0.603427 0.430160 0.113946
0.603427 0.438960 0.113946
0.594627 0.447760 0.105146
0.594627 0.447760 0.113946
0.594627 0.456560 0.105146
0.603427 0.456560 0.113946
0.603427 0.438960 0.122746
0.603427 0.447760 0.122746
0.603427 0.456560 0.122746
0.612227 0.403760 0.131546
0.621027 0.394960 0.131546
0.621027 0.394960 0.149146
0.621027 0.403760 0.140346
0.612227 0.412560 0.122746
0.612227 0.412560 0.131546
0.612227 0.421360 0.131546
0.621027 0.412560 0.140346
0.621027 0.412560 0.149146
0.621027 0.421360 0.140346
0.621027 0.421360 0.149146
0.629827 0.394960 0.149146
0.629827 0.403760 0.149146
0.629827 0.412560 0.149146
0.629827 0.421360 0.149146
0.612227 0.430160 0.122746
0.612227 0.430160 0.131546
0.612227 0.438960 0.122746
0.612227 0.438960 0.131546
0.621027 0.430160 0.140346
0.621027 0.430160 0.149146
0.621027 0.438960 0.140346
0.612227 0.447760 0.122746
0.612227 0.447760 0.131546
0.612227 0.456560 0.122746
0.612227 0.456560 0.131546
0.621027 0.447760 0.131546
0.621027 0.447760 0.140346
0.621027 0.456560 0.140346
0.621027 0.456560 0.149146
0.629827 0.430160 0.149146
0.629827 0.438960 0.149146
0.629827 0.447760 0.149146
0.577027 0.465360 0.096346
0.577027 0.474160 0.096346
0.585827 0.474160 0.096346
0.585827 0.465360 0.105146
0.585827 0.474160 0.105146
0.577027 0.482960 0.096346
0.577027 0.491760 0.096346
0.585827 0.482960 0.096346
0.585827 0.491760 0.096346
0.585827 0.482960 0.105146
0.585827 0.491760 0.105146
0.594627 0.465360 0.105146
0.594627 0.465360 0.113946
0.594627 0.474160 0.113946
0.603427 0.465360 0.113946
0.594627 0.482960 0.105146
0.594627 0.482960 0.113946
0.594627 0.491760 0.113946
0.603427 0.491760 0.113946
0.603427 0.465360 0.122746
0.603427 0.474160 0.122746
0.603427 0.482960 0.122746
0.603427 0.491760 0.122746
0.577027 0.500560 0.096346
0.577027 0.509360 0.096346
0.585827 0.500560 0.096346
0.585827 0.509360 0.096346
0.585827 0.500560 0.105146
0.577027 0.518160 0.096346
0.577027 0.526960 0.096346
0.585827 0.518160 0.096346
0.585827 0.526960 0.096346
0.585827 0.518160 0.105146
0.585827 0.526960 0.105146
0.594627 0.500560 0.113946
0.594627 0.509360 0.105146
0.594627 0.518160 0.113946
0.594627 0.526960 0.105146
0.594627 0.526960 0.113946
0.603427 0.518160 0.113946
0.603427 0.526960 0.113946
0.603427 0.500560 0.122746
0.603427 0.509360 0.122746
0.603427 0.518160 0.122746
0.603427 0.526960 0.122746
0.612227 0.465360 0.122746
0.612227 0.465360 0.131546
0.612227 0.474160 0.122746
0.612227 0.474160 0.131546
0.621027 0.465360 0.140346
0.621027 0.474160 0.140346
0.612227 0.482960 0.131546
0.612227 0.491760 0.122746
0.612227 0.491760 0.131546
0.621027 0.482960 0.140346
0.621027 0.491760 0.140346
0.629827 0.465360 0.149146
0.629827 0.474160 0.149146
0.629827 0.482960 0.149146
0.629827 0.491760 0.149146
0.612227 0.500560 0.122746
0.612227 0.500560 0.131546
0.612227 0.509360 0.122746
0.612227 0.509360 0.131546
0.621027 0.500560 0.131546
0.621027 0.500560 0.140346
0.621027 0.509360 0.140346
0.612227 0.518160 0.122746
0.612227 0.526960 0.122746
0.612227 0.526960 0.131546
0.621027 0.518160 0.140346
0.621027 0.526960 0.140346
0.629827 0.500560 0.149146
0.629827 0.509360 0.149146
0.629827 0.518160 0.149146
0.629827 0.526960 0.149146
0.629827 0.394960 0.157946
0.629827 0.403760 0.157946
0.638627 0.394960 0.166746
0.638627 0.403760 0.157946
0.638627 0.403760 0.166746
0.638627 0.403760 0.175546
0.629827 0.412560 0.157946
0.629827 0.421360 0.157946
0.638627 0.412560 0.157946
0.638627 0.412560 0.166746
0.638627 0.421360 0.166746
0.638627 0.412560 0.175546
0.638627 0.421360 0.175546
0.629827 0.430160 0.157946
0.629827 0.438960 0.157946
0.638627 0.430160 0.166746
0.638627 0.438960 0.166746
0.638627 0.430160 0.175546
0.629827 0.447760 0.157946
0.629827 0.456560 0.157946
0.638627 0.447760 0.157946
0.638627 0.447760 0.166746
0.638627 0.456560 0.166746
0.638627 0.447760 0.175546
0.629827 0.474160 0.157946
0.638627 0.465360 0.166746
0.638627 0.474160 0.157946
0.638627 0.474160 0.166746
0.638627 0.474160 0.175546
0.629827 0.482960 0.157946
0.629827 0.491760 0.157946
0.638627 0.482960 0.157946
0.638627 0.482960 0.166746
0.638627 0.491760 0.166746
0.629827 0.500560 0.157946
0.629827 0.509360 0.157946
0.638627 0.500560 0.157946
0.638627 0.500560 0.166746
0.638627 0.509360 0.157946
0.638627 0.509360 0.166746
0.629827 0.518160 0.157946
0.629827 0.526960 0.157946
0.638627 0.518160 0.166746
0.638627 0.526960 0.157946
0.638627 0.526960 0.166746
0.647427 0.254160 0.184346
0.647427 0.262960 0.184346
0.647427 0.271760 0.184346
0.647427 0.280560 0.184346
0.647427 0.254160 0.193146
0.647427 0.262960 0.193146
0.656227 0.254160 0.201946
0.656227 0.262960 0.201946
0.656227 0.254160 0.210746
0.656227 0.254160 0.219546
0.656227 0.262960 0.210746
0.656227 0.262960 0.219546
0.647427 0.280560 0.193146
0.656227 0.271760 0.201946
0.656227 0.280560 0.201946
0.656227 0.271760 0.210746
0.656227 0.280560 0.210746
0.665027 0.271760 0.219546
0.665027 0.280560 0.219546
0.647427 0.289360 0.184346
0.647427 0.298160 0.184346
0.647427 0.306960 0.184346
0.647427 0.315760 0.184346
0.647427 0.289360 0.193146
0.647427 0.298160 0.193146
0.656227 0.289360 0.201946
0.656227 0.298160 0.201946
0.656227 0.289360 0.210746
0.656227 0.289360 0.219546
0.656227 0.298160 0.210746
0.656227 0.298160 0.219546
0.647427 0.306960 0.193146
0.647427 0.315760 0.193146
0.656227 0.306960 0.201946
0.656227 0.315760 0.201946
0.656227 0.306960 0.210746
0.656227 0.315760 0.210746
0.665027 0.289360 0.219546
0.665027 0.306960 0.219546
0.665027 0.315760 0.219546
0.665027 0.254160 0.228346
0.665027 0.254160 0.237146
0.665027 0.262960 0.237146
0.665027 0.254160 0.245946
0.665027 0.254160 0.254746
0.665027 0.262960 0.245946
0.665027 0.262960 0.254746
0.673827 0.262960 0.254746
0.665027 0.271760 0.228346
0.665027 0.271760 0.237146
0.665027 0.280560 0.228346
0.665027 0.280560 0.237146
0.665027 0.271760 0.245946
0.665027 0.280560 0.245946
0.673827 0.280560 0.254746
0.673827 0.254160 0.263546
0.673827 0.254160 0.272346
0.673827 0.262960 0.263546
0.673827 0.262960 0.272346
0.673827 0.254160 0.281146
0.673827 0.254160 0.289946
0.673827 0.262960 0.281146
0.673827 0.262960 0.289946
0.673827 0.271760 0.263546
0.673827 0.271760 0.272346
0.673827 0.280560 0.263546
0.673827 0.280560 0.272346
0.673827 0.271760 0.281146
0.673827 0.271760 0.289946
0.673827 0.280560 0.281146
0.673827 0.280560 0.289946
0.665027 0.289360 0.228346
0.665027 0.289360 0.237146
0.665027 0.298160 0.228346
0.665027 0.289360 0.245946
0.665027 0.298160 0.245946
0.673827 0.289360 0.254746
0.673827 0.298160 0.254746
0.665027 0.306960 0.228346
0.665027 0.306960 0.237146
0.665027 0.315760 0.228346
0.665027 0.315760 0.237146
0.665027 0.315760 0.245946
0.673827 0.306960 0.245946
0.673827 0.306960 0.254746
0.673827 0.315760 0.254746
0.673827 0.289360 0.263546
0.673827 0.289360 0.272346
0.673827 0.298160 0.263546
0.673827 0.298160 0.272346
0.673827 0.289360 0.281146
0.673827 0.289360 0.289946
0.673827 0.298160 0.281146
0.673827 0.298160 0.289946
0.673827 0.306960 0.263546
0.673827 0.306960 0.272346
0.673827 0.315760 0.263546
0.673827 0.306960 0.281146
0.673827 0.306960 0.289946
0.673827 0.315760 0.281146
0.673827 0.315760 0.289946
0.647427 0.324560 0.184346
0.647427 0.333360 0.184346
0.647427 0.342160 0.184346
0.647427 0.350960 0.184346
0.647427 0.324560 0.193146
0.647427 0.333360 0.193146
0.656227 0.324560 0.201946
0.656227 0.333360 0.201946
0.656227 0.324560 0.210746
0.647427 0.342160 0.193146
0.647427 0.350960 0.193146
0.656227 0.342160 0.201946
0.656227 0.350960 0.193146
0.656227 0.350960 0.201946
0.656227 0.342160 0.210746
0.656227 0.350960 0.210746
0.665027 0.324560 0.219546
0.665027 0.333360 0.219546
0.665027 0.342160 0.219546
0.665027 0.350960 0.219546
0.647427 0.359760 0.175546
0.647427 0.359760 0.184346
0.647427 0.368560 0.184346
0.647427 0.377360 0.175546
0.647427 0.377360 0.184346
0.647427 0.386160 0.175546
0.647427 0.386160 0.184346
0.647427 0.359760 0.193146
0.656227 0.359760 0.201946
0.656227 0.368560 0.193146
0.656227 0.368560 0.201946
0.656227 0.359760 0.210746
0.656227 0.359760 0.219546
0.656227 0.368560 0.210746
0.647427 0.377360 0.193146
0.647427 0.386160 0.193146
0.656227 0.377360 0.201946
0.656227 0.386160 0.193146
0.656227 0.386160 0.201946
0.656227 0.377360 0.210746
0.656227 0.386160 0.210746
0.656227 0.386160 0.219546
0.665027 0.359760 0.219546
0.665027 0.368560 0.219546
0.665027 0.377360 0.219546
0.665027 0.386160 0.219546
0.665027 0.324560 0.228346
0.665027 0.324560 0.237146
0.665027 0.333360 0.228346
0.665027 0.333360 0.237146
0.673827 0.324560 0.245946
0.673827 0.324560 0.254746
0.673827 0.333360 0.245946
0.665027 0.342160 0.228346
0.665027 0.342160 0.237146
0.665027 0.350960 0.228346
0.665027 0.350960 0.237146
0.665027 0.342160 0.245946
0.673827 0.342160 0.254746
0.673827 0.350960 0.245946
0.673827 0.350960 0.254746
0.673827 0.324560 0.263546
0.673827 0.324560 0.272346
0.673827 0.333360 0.263546
0.673827 0.333360 0.272346
0.673827 0.324560 0.281146
0.673827 0.333360 0.281146
0.673827 0.333360 0.289946
0.673827 0.342160 0.263546
0.673827 0.342160 0.272346
0.673827 0.350960 0.263546
0.673827 0.350960 0.272346
0.673827 0.342160 0.281146
0.673827 0.342160 0.289946
0.673827 0.350960 0.281146
0.673827 0.350960 0.289946
0.665027 0.359760 0.228346
0.665027 0.359760 0.237146
0.665027 0.368560 0.228346
0.665027 0.368560 0.237146
0.665027 0.359760 0.245946
0.665027 0.368560 0.245946
0.673827 0.359760 0.254746
0.673827 0.368560 0.245946
0.673827 0.368560 0.254746
0.665027 0.377360 0.228346
0.665027 0.377360 0.237146
0.665027 0.386160 0.228346
0.665027 0.386160 0.237146
0.665027 0.377360 0.245946
0.665027 0.386160 0.245946
0.673827 0.377360 0.254746
0.673827 0.386160 0.254746
0.673827 0.359760 0.263546
0.673827 0.359760 0.272346
0.673827 0.368560 0.263546
0.673827 0.368560 0.272346
0.673827 0.359760 0.281146
0.673827 0.359760 0.289946
0.673827 0.368560 0.281146
0.673827 0.368560 0.289946
0.673827 0.377360 0.263546
0.673827 0.377360 0.272346
0.673827 0.386160 0.263546
0.673827 0.386160 0.272346
0.673827 0.377360 0.281146
0.673827 0.377360 0.289946
0.673827 0.386160 0.281146
0.673827 0.386160 0.289946
0.647427 0.394960 0.175546
0.647427 0.394960 0.184346
0.647427 0.403760 0.175546
0.647427 0.403760 0.184346
0.647427 0.412560 0.175546
0.647427 0.412560 0.184346
0.647427 0.421360 0.184346
0.647427 0.394960 0.193146
0.656227 0.394960 0.201946
0.656227 0.403760 0.193146
0.656227 0.403760 0.201946
0.656227 0.394960 0.210746
0.656227 0.403760 0.210746
0.656227 0.412560 0.193146
0.656227 0.412560 0.201946
0.656227 0.421360 0.193146
0.656227 0.412560 0.210746
0.656227 0.421360 0.210746
0.665027 0.394960 0.219546
0.665027 0.403760 0.219546
0.665027 0.412560 0.219546
0.665027 0.421360 0.219546
0.647427 0.430160 0.184346
0.647427 0.438960 0.175546
0.647427 0.438960 0.184346
0.647427 0.447760 0.175546
0.647427 0.447760 0.184346
0.647427 0.456560 0.175546
0.647427 0.456560 0.184346
0.647427 0.438960 0.193146
0.656227 0.430160 0.201946
0.656227 0.438960 0.193146
0.656227 0.438960 0.201946
0.656227 0.438960 0.210746
0.647427 0.447760 0.193146
0.656227 0.447760 0.193146
0.656227 0.447760 0.201946
0.656227 0.456560 0.201946
0.656227 0.447760 0.210746
0.656227 0.456560 0.210746
0.665027 0.430160 0.219546
0.665027 0.438960 0.219546
0.665027 0.447760 0.219546
0.665027 0.456560 0.219546
0.665027 0.394960 0.228346
0.665027 0.394960 0.237146
0.665027 0.403760 0.228346
0.665027 0.403760 0.237146
0.665027 0.403760 0.245946
0.673827 0.394960 0.254746
0.673827 0.403760 0.254746
0.665027 0.412560 0.228346
0.665027 0.412560 0.237146
0.665027 0.421360 0.228346
0.665027 0.421360 0.237146
0.665027 0.412560 0.245946
0.673827 0.412560 0.245946
0.673827 0.412560 0.254746
0.673827 0.421360 0.245946
0.673827 0.421360 0.254746
0.673827 0.394960 0.263546
0.673827 0.394960 0.272346
0.673827 0.403760 0.263546
0.673827 0.403760 0.272346
0.673827 0.394960 0.281146
0.673827 0.394960 0.289946
0.673827 0.403760 0.281146
0.673827 0.403760 0.289946
0.673827 0.412560 0.263546
0.673827 0.421360 0.263546
0.673827 0.421360 0.272346
0.673827 0.412560 0.281146
0.673827 0.412560 0.289946
0.673827 0.421360 0.281146
0.673827 0.421360 0.289946
0.665027 0.430160 0.228346
0.665027 0.430160 0.237146
0.665027 0.438960 0.228346
0.665027 0.438960 0.237146
0.673827 0.430160 0.245946
0.673827 0.430160 0.254746
0.673827 0.438960 0.245946
0.673827 0.438960 0.254746
0.665027 0.447760 0.228346
0.665027 0.447760 0.237146
0.665027 0.456560 0.228346
0.665027 0.456560 0.237146
0.673827 0.447760 0.245946
0.673827 0.447760 0.254746
0.673827 0.456560 0.245946
0.673827 0.456560 0.254746
0.673827 0.430160 0.263546
0.673827 0.430160 0.272346
0.673827 0.438960 0.263546
0.673827 0.438960 0.272346
0.673827 0.430160 0.281146
0.673827 0.430160 0.289946
0.673827 0.438960 0.281146
0.673827 0.447760 0.263546
0.673827 0.447760 0.272346
0.673827 0.456560 0.263546
0.673827 0.456560 0.272346
0.673827 0.447760 0.281146
0.682627 0.421360 0.289946
0.682627 0.430160 0.289946
0.682627 0.438960 0.289946
0.682627 0.447760 0.281146
0.682627 0.447760 0.289946
0.682627 0.456560 0.289946
0.647427 0.465360 0.175546
0.647427 0.465360 0.184346
0.647427 0.474160 0.175546
0.647427 0.474160 0.184346
0.647427 0.482960 0.175546
0.647427 0.482960 0.184346
0.647427 0.491760 0.175546
0.647427 0.491760 0.184346
0.647427 0.474160 0.193146
0.656227 0.465360 0.193146
0.656227 0.465360 0.201946
0.656227 0.474160 0.201946
0.656227 0.465360 0.210746
0.647427 0.482960 0.193146
0.647427 0.491760 0.193146
0.656227 0.482960 0.201946
0.656227 0.491760 0.193146
0.656227 0.491760 0.201946
0.656227 0.482960 0.210746
0.656227 0.491760 0.210746
0.665027 0.465360 0.219546
0.665027 0.474160 0.219546
0.665027 0.482960 0.219546
0.665027 0.491760 0.219546
0.647427 0.500560 0.175546
0.647427 0.500560 0.184346
0.647427 0.509360 0.175546
0.647427 0.509360 0.184346
0.647427 0.518160 0.175546
0.647427 0.518160 0.184346
0.647427 0.526960 0.175546
0.647427 0.526960 0.184346
0.647427 0.500560 0.193146
0.656227 0.500560 0.193146
0.656227 0.500560 0.201946
0.656227 0.509360 0.193146
0.656227 0.509360 0.201946
0.656227 0.500560 0.210746
0.656227 0.509360 0.210746
0.656227 0.518160 0.201946
0.656227 0.526960 0.193146
0.656227 0.526960 0.201946
0.656227 0.518160 0.210746
0.656227 0.526960 0.210746
0.665027 0.500560 0.219546
0.665027 0.509360 0.219546
0.665027 0.518160 0.219546
0.665027 0.526960 0.219546
0.665027 0.465360 0.228346
0.665027 0.465360 0.237146
0.665027 0.474160 0.228346
0.665027 0.474160 0.237146
0.673827 0.465360 0.245946
0.673827 0.465360 0.254746
0.673827 0.474160 0.245946
0.673827 0.474160 0.254746
0.665027 0.482960 0.228346
0.665027 0.482960 0.237146
0.665027 0.491760 0.228346
0.665027 0.491760 0.237146
0.673827 0.482960 0.245946
0.673827 0.482960 0.254746
0.673827 0.491760 0.245946
0.673827 0.491760 0.254746
0.673827 0.465360 0.263546
0.673827 0.465360 0.272346
0.673827 0.474160 0.263546
0.673827 0.474160 0.272346
0.673827 0.482960 0.263546
0.673827 0.482960 0.272346
0.673827 0.491760 0.263546
0.673827 0.491760 0.272346
0.665027 0.500560 0.228346
0.665027 0.500560 0.237146
0.665027 0.509360 0.228346
0.665027 0.509360 0.237146
0.673827 0.500560 0.245946
0.673827 0.500560 0.254746
0.673827 0.509360 0.245946
0.673827 0.509360 0.254746
0.665027 0.518160 0.228346
0.665027 0.518160 0.237146
0.665027 0.526960 0.228346
0.665027 0.526960 0.237146
0.665027 0.526960 0.245946
0.673827 0.518160 0.245946
0.673827 0.518160 0.254746
0.673827 0.526960 0.245946
0.673827 0.526960 0.254746
0.673827 0.500560 0.263546
0.673827 0.500560 0.272346
0.673827 0.509360 0.263546
0.673827 0.509360 0.272346
0.673827 0.500560 0.281146
0.673827 0.509360 0.281146
0.673827 0.518160 0.263546
0.673827 0.526960 0.263546
0.673827 0.526960 0.272346
0.673827 0.518160 0.281146
0.673827 0.518160 0.289946
0.673827 0.526960 0.281146
0.673827 0.526960 0.289946
0.682627 0.465360 0.281146
0.682627 0.465360 0.289946
0.682627 0.474160 0.281146
0.682627 0.474160 0.289946
0.682627 0.482960 0.281146
0.682627 0.491760 0.281146
0.682627 0.491760 0.289946
0.682627 0.500560 0.289946
0.682627 0.509360 0.289946
0.638627 0.254160 0.483546
0.629827 0.262960 0.501146
0.638627 0.254160 0.492346
0.638627 0.254160 0.501146
0.638627 0.262960 0.492346
0.638627 0.271760 0.492346
0.638627 0.271760 0.501146
0.638627 0.280560 0.501146
0.638627 0.289360 0.492346
0.638627 0.289360 0.501146
0.638627 0.298160 0.501146
0.638627 0.306960 0.501146
0.638627 0.315760 0.501146
0.585827 0.254160 0.571546
0.585827 0.262960 0.562746
0.585827 0.262960 0.571546
0.585827 0.271760 0.571546
0.585827 0.280560 0.571546
0.594627 0.254160 0.553946
0.603427 0.254160 0.545146
0.603427 0.262960 0.553946
0.594627 0.254160 0.562746
0.594627 0.262960 0.562746
0.594627 0.271760 0.553946
0.594627 0.280560 0.553946
0.603427 0.271760 0.545146
0.603427 0.271760 0.553946
0.603427 0.280560 0.545146
0.603427 0.280560 0.553946
0.594627 0.271760 0.562746
0.594627 0.280560 0.562746
0.585827 0.289360 0.571546
0.585827 0.298160 0.571546
0.585827 0.306960 0.571546
0.585827 0.315760 0.571546
0.594627 0.289360 0.553946
0.603427 0.289360 0.545146
0.603427 0.289360 0.553946
0.603427 0.298160 0.553946
0.594627 0.289360 0.562746
0.594627 0.298160 0.562746
0.603427 0.306960 0.553946
0.603427 0.315760 0.553946
0.594627 0.306960 0.562746
0.594627 0.306960 0.571546
0.594627 0.315760 0.562746
0.621027 0.254160 0.518746
0.621027 0.262960 0.518746
0.612227 0.254160 0.527546
0.612227 0.254160 0.536346
0.612227 0.262960 0.527546
0.612227 0.262960 0.536346
0.621027 0.254160 0.527546
0.621027 0.262960 0.527546
0.621027 0.280560 0.518746
0.612227 0.271760 0.536346
0.612227 0.280560 0.536346
0.621027 0.271760 0.527546
0.621027 0.280560 0.527546
0.629827 0.254160 0.509946
0.629827 0.262960 0.509946
0.629827 0.262960 0.518746
0.629827 0.271760 0.509946
0.629827 0.271760 0.518746
0.629827 0.280560 0.509946
0.629827 0.280560 0.518746
0.612227 0.262960 0.545146
0.612227 0.271760 0.545146
0.612227 0.280560 0.545146
0.612227 0.289360 0.536346
0.612227 0.298160 0.536346
0.621027 0.289360 0.527546
0.621027 0.289360 0.536346
0.621027 0.298160 0.527546
0.612227 0.306960 0.536346
0.612227 0.315760 0.536346
0.621027 0.306960 0.527546
0.621027 0.306960 0.536346
0.621027 0.315760 0.527546
0.621027 0.315760 0.536346
0.629827 0.289360 0.509946
0.629827 0.289360 0.518746
0.629827 0.298160 0.518746
0.629827 0.306960 0.518746
0.629827 0.315760 0.509946
0.629827 0.315760 0.518746
0.638627 0.306960 0.509946
0.638627 0.315760 0.509946
0.629827 0.306960 0.527546
0.612227 0.289360 0.545146
0.612227 0.298160 0.545146
0.612227 0.306960 0.545146
0.612227 0.315760 0.545146
0.638627 0.324560 0.501146
0.638627 0.333360 0.501146
0.638627 0.342160 0.501146
0.638627 0.350960 0.501146
0.638627 0.359760 0.492346
0.638627 0.359760 0.501146
0.638627 0.368560 0.492346
0.638627 0.368560 0.501146
0.638627 0.377360 0.501146
0.638627 0.386160 0.492346
0.638627 0.386160 0.501146
0.585827 0.324560 0.571546
0.585827 0.342160 0.571546
0.585827 0.350960 0.571546
0.603427 0.324560 0.553946
0.603427 0.333360 0.553946
0.594627 0.324560 0.562746
0.594627 0.333360 0.562746
0.594627 0.333360 0.571546
0.603427 0.342160 0.553946
0.603427 0.350960 0.553946
0.594627 0.342160 0.562746
0.594627 0.350960 0.562746
0.603427 0.342160 0.562746
0.585827 0.359760 0.571546
0.585827 0.368560 0.571546
0.585827 0.377360 0.571546
0.585827 0.386160 0.571546
0.603427 0.359760 0.553946
0.603427 0.368560 0.553946
0.594627 0.359760 0.562746
0.594627 0.368560 0.562746
0.603427 0.377360 0.553946
0.603427 0.386160 0.553946
0.594627 0.377360 0.562746
0.594627 0.386160 0.562746
0.594627 0.386160 0.571546
0.612227 0.333360 0.536346
0.621027 0.324560 0.527546
0.621027 0.324560 0.536346
0.621027 0.333360 0.527546
0.621027 0.333360 0.536346
0.621027 0.342160 0.518746
0.621027 0.350960 0.518746
0.612227 0.342160 0.536346
0.612227 0.350960 0.536346
0.621027 0.342160 0.527546
0.621027 0.350960 0.527546
0.629827 0.324560 0.518746
0.629827 0.333360 0.509946
0.629827 0.333360 0.518746
0.638627 0.324560 0.509946
0.638627 0.333360 0.509946
0.629827 0.342160 0.518746
0.629827 0.350960 0.509946
0.629827 0.350960 0.518746
0.638627 0.342160 0.509946
0.612227 0.324560 0.545146
0.612227 0.333360 0.545146
0.612227 0.342160 0.545146
0.612227 0.350960 0.545146
0.612227 0.359760 0.536346
0.612227 0.368560 0.536346
0.621027 0.359760 0.527546
0.621027 0.368560 0.527546
0.612227 0.377360 0.536346
0.612227 0.386160 0.536346
0.621027 0.377360 0.527546
0.621027 0.386160 0.527546
0.629827 0.359760 0.509946
0.629827 0.359760 0.518746
0.629827 0.368560 0.509946
0.629827 0.368560 0.518746
0.629827 0.377360 0.509946
0.629827 0.377360 0.518746
0.629827 0.386160 0.509946
0.629827 0.386160 0.518746
0.638627 0.386160 0.509946
0.612227 0.359760 0.545146
0.612227 0.368560 0.545146
0.612227 0.377360 0.545146
0.612227 0.386160 0.545146
0.638627 0.394960 0.492346
0.638627 0.394960 0.501146
0.638627 0.403760 0.492346
0.638627 0.403760 0.501146
0.638627 0.412560 0.492346
0.638627 0.412560 0.501146
0.638627 0.421360 0.501146
0.638627 0.430160 0.501146
0.638627 0.438960 0.501146
0.638627 0.447760 0.501146
0.638627 0.456560 0.501146
0.585827 0.394960 0.571546
0.585827 0.403760 0.571546
0.585827 0.412560 0.571546
0.585827 0.421360 0.571546
0.603427 0.394960 0.553946
0.603427 0.403760 0.553946
0.594627 0.394960 0.562746
0.594627 0.403760 0.562746
0.603427 0.412560 0.553946
0.603427 0.421360 0.553946
0.594627 0.412560 0.562746
0.594627 0.421360 0.562746
0.585827 0.430160 0.571546
0.585827 0.438960 0.571546
0.585827 0.447760 0.571546
0.585827 0.456560 0.571546
0.603427 0.430160 0.553946
0.603427 0.438960 0.553946
0.594627 0.430160 0.562746
0.594627 0.430160 0.571546
0.594627 0.438960 0.562746
0.594627 0.438960 0.571546
0.603427 0.438960 0.562746
0.603427 0.447760 0.553946
0.603427 0.456560 0.553946
0.594627 0.447760 0.562746
0.594627 0.447760 0.571546
0.594627 0.456560 0.562746
0.594627 0.456560 0.571546
0.603427 0.447760 0.562746
0.612227 0.394960 0.536346
0.612227 0.403760 0.536346
0.621027 0.394960 0.527546
0.621027 0.403760 0.527546
0.621027 0.403760 0.536346
0.612227 0.412560 0.536346
0.612227 0.421360 0.536346
0.621027 0.412560 0.527546
0.621027 0.412560 0.536346
0.621027 0.421360 0.527546
0.621027 0.421360 0.536346
0.629827 0.394960 0.509946
0.629827 0.394960 0.518746
0.629827 0.403760 0.509946
0.629827 0.403760 0.518746
0.629827 0.412560 0.518746
0.629827 0.421360 0.509946
0.629827 0.421360 0.518746
0.638627 0.412560 0.509946
0.629827 0.412560 0.527546
0.612227 0.394960 0.545146
0.612227 0.403760 0.545146
0.612227 0.412560 0.545146
0.612227 0.421360 0.545146
0.612227 0.438960 0.536346
0.621027 0.430160 0.527546
0.621027 0.430160 0.536346
0.621027 0.438960 0.527546
0.621027 0.438960 0.536346
0.612227 0.447760 0.536346
0.621027 0.447760 0.527546
0.621027 0.447760 0.536346
0.621027 0.456560 0.527546
0.621027 0.456560 0.536346
0.629827 0.430160 0.509946
0.629827 0.430160 0.518746
0.629827 0.438960 0.509946
0.629827 0.438960 0.518746
0.638627 0.430160 0.509946
0.638627 0.438960 0.509946
0.629827 0.438960 0.527546
0.629827 0.447760 0.518746
0.629827 0.456560 0.509946
0.629827 0.456560 0.518746
0.638627 0.447760 0.509946
0.638627 0.456560 0.509946
0.629827 0.456560 0.527546
0.612227 0.430160 0.545146
0.612227 0.438960 0.545146
0.612227 0.447760 0.545146
0.612227 0.456560 0.545146
0.638627 0.465360 0.501146
0.638627 0.474160 0.501146
0.638627 0.482960 0.501146
0.638627 0.491760 0.501146
0.638627 0.500560 0.501146
0.638627 0.509360 0.501146
0.638627 0.526960 0.492346
0.638627 0.526960 0.501146
0.585827 0.465360 0.571546
0.585827 0.474160 0.571546
0.585827 0.491760 0.571546
0.603427 0.465360 0.553946
0.603427 0.474160 0.553946
0.594627 0.465360 0.562746
0.594627 0.465360 0.571546
0.594627 0.474160 0.562746
0.594627 0.474160 0.571546
0.603427 0.465360 0.562746
0.603427 0.474160 0.562746
0.603427 0.482960 0.553946
0.603427 0.491760 0.553946
0.594627 0.482960 0.562746
0.594627 0.482960 0.571546
0.594627 0.491760 0.562746
0.603427 0.482960 0.562746
0.585827 0.500560 0.571546
0.585827 0.509360 0.571546
0.585827 0.526960 0.571546
0.603427 0.500560 0.553946
0.603427 0.509360 0.553946
0.594627 0.500560 0.562746
0.594627 0.500560 0.571546
0.594627 0.509360 0.562746
0.594627 0.509360 0.571546
0.603427 0.500560 0.562746
0.603427 0.509360 0.562746
0.603427 0.518160 0.553946
0.603427 0.526960 0.553946
0.594627 0.518160 0.562746
0.594627 0.518160 0.571546
0.594627 0.526960 0.562746
0.612227 0.465360 0.536346
0.621027 0.474160 0.527546
0.621027 0.474160 0.536346
0.621027 0.482960 0.527546
0.621027 0.491760 0.527546
0.621027 0.491760 0.536346
0.629827 0.465360 0.518746
0.629827 0.474160 0.518746
0.638627 0.465360 0.509946
0.638627 0.474160 0.509946
0.629827 0.465360 0.527546
0.629827 0.474160 0.527546
0.629827 0.482960 0.518746
0.629827 0.491760 0.518746
0.638627 0.482960 0.509946
0.638627 0.491760 0.509946
0.629827 0.482960 0.527546
0.612227 0.465360 0.545146
0.612227 0.474160 0.545146
0.612227 0.482960 0.545146
0.612227 0.482960 0.553946
0.612227 0.491760 0.545146
0.612227 0.509360 0.536346
0.621027 0.500560 0.527546
0.621027 0.500560 0.536346
0.621027 0.509360 0.527546
0.621027 0.509360 0.536346
0.612227 0.518160 0.536346
0.612227 0.526960 0.536346
0.621027 0.518160 0.527546
0.621027 0.518160 0.536346
0.621027 0.526960 0.527546
0.629827 0.500560 0.518746
0.629827 0.509360 0.509946
0.629827 0.509360 0.518746
0.638627 0.500560 0.509946
0.638627 0.509360 0.509946
0.629827 0.500560 0.527546
0.629827 0.509360 0.527546
0.629827 0.518160 0.518746
0.629827 0.526960 0.509946
0.629827 0.526960 0.518746
0.638627 0.518160 0.509946
0.638627 0.526960 0.509946
0.612227 0.500560 0.545146
0.612227 0.509360 0.545146
0.612227 0.518160 0.545146
0.612227 0.526960 0.545146
0.673827 0.254160 0.298746
0.673827 0.254160 0.307546
0.673827 0.262960 0.298746
0.673827 0.262960 0.307546
0.673827 0.271760 0.298746
0.673827 0.280560 0.298746
0.682627 0.254160 0.316346
0.682627 0.254160 0.325146
0.682627 0.262960 0.316346
0.682627 0.262960 0.325146
0.682627 0.271760 0.307546
0.682627 0.280560 0.307546
0.682627 0.271760 0.316346
0.682627 0.280560 0.316346
0.682627 0.280560 0.325146
0.682627 0.254160 0.333946
0.682627 0.254160 0.342746
0.682627 0.262960 0.333946
0.682627 0.262960 0.342746
0.682627 0.254160 0.351546
0.682627 0.254160 0.360346
0.682627 0.262960 0.351546
0.682627 0.262960 0.360346
0.682627 0.271760 0.333946
0.682627 0.271760 0.342746
0.682627 0.280560 0.342746
0.682627 0.271760 0.351546
0.682627 0.271760 0.360346
0.682627 0.280560 0.351546
0.682627 0.280560 0.360346
0.682627 0.289360 0.307546
0.682627 0.298160 0.298746
0.682627 0.298160 0.307546
0.682627 0.289360 0.316346
0.682627 0.289360 0.325146
0.682627 0.298160 0.316346
0.682627 0.306960 0.298746
0.682627 0.315760 0.298746
0.682627 0.315760 0.307546
0.682627 0.306960 0.316346
0.682627 0.306960 0.325146
0.682627 0.315760 0.316346
0.682627 0.315760 0.325146
0.682627 0.289360 0.333946
0.682627 0.289360 0.342746
0.682627 0.298160 0.333946
0.682627 0.298160 0.342746
0.682627 0.289360 0.351546
0.682627 0.289360 0.360346
0.682627 0.298160 0.351546
0.682627 0.298160 0.360346
0.682627 0.306960 0.333946
0.682627 0.306960 0.342746
0.682627 0.315760 0.333946
0.682627 0.315760 0.342746
0.682627 0.306960 0.351546
0.682627 0.315760 0.351546
0.682627 0.315760 0.360346
0.673827 0.254160 0.369146
0.673827 0.254160 0.377946
0.673827 0.262960 0.369146
0.673827 0.262960 0.377946
0.673827 0.254160 0.386746
0.673827 0.254160 0.395546
0.673827 0.262960 0.386746
0.673827 0.262960 0.395546
0.673827 0.280560 0.377946
0.673827 0.271760 0.386746
0.673827 0.271760 0.395546
0.673827 0.280560 0.386746
0.665027 0.254160 0.413146
0.665027 0.262960 0.413146
0.673827 0.254160 0.404346
0.673827 0.262960 0.404346
0.673827 0.262960 0.413146
0.665027 0.254160 0.421946
0.665027 0.254160 0.430746
0.665027 0.262960 0.421946
0.665027 0.262960 0.430746
0.673827 0.271760 0.404346
0.673827 0.271760 0.413146
0.673827 0.280560 0.404346
0.673827 0.280560 0.413146
0.665027 0.271760 0.421946
0.665027 0.280560 0.421946
0.665027 0.280560 0.430746
0.673827 0.289360 0.386746
0.673827 0.289360 0.395546
0.673827 0.298160 0.386746
0.673827 0.298160 0.395546
0.673827 0.306960 0.386746
0.673827 0.306960 0.395546
0.673827 0.315760 0.386746
0.673827 0.315760 0.395546
0.673827 0.289360 0.404346
0.673827 0.289360 0.413146
0.673827 0.298160 0.404346
0.673827 0.298160 0.413146
0.665027 0.289360 0.421946
0.665027 0.289360 0.430746
0.665027 0.298160 0.430746
0.673827 0.298160 0.421946
0.673827 0.306960 0.404346
0.673827 0.306960 0.413146
0.673827 0.315760 0.404346
0.673827 0.315760 0.413146
0.665027 0.306960 0.421946
0.665027 0.306960 0.430746
0.665027 0.315760 0.421946
0.665027 0.315760 0.430746
0.673827 0.306960 0.421946
0.673827 0.315760 0.421946
0.682627 0.254160 0.369146
0.682627 0.271760 0.369146
0.682627 0.280560 0.369146
0.682627 0.280560 0.377946
0.682627 0.289360 0.369146
0.682627 0.289360 0.377946
0.682627 0.298160 0.369146
0.682627 0.298160 0.377946
0.682627 0.306960 0.369146
0.682627 0.306960 0.377946
0.682627 0.315760 0.369146
0.682627 0.315760 0.377946
0.682627 0.315760 0.386746
0.673827 0.368560 0.298746
0.673827 0.377360 0.298746
0.673827 0.386160 0.298746
0.682627 0.324560 0.298746
0.682627 0.324560 0.307546
0.682627 0.333360 0.298746
0.682627 0.324560 0.316346
0.682627 0.333360 0.316346
0.682627 0.333360 0.325146
0.682627 0.342160 0.298746
0.682627 0.342160 0.307546
0.682627 0.350960 0.298746
0.682627 0.350960 0.307546
0.682627 0.342160 0.316346
0.682627 0.342160 0.325146
0.682627 0.350960 0.316346
0.682627 0.350960 0.325146
0.682627 0.324560 0.333946
0.682627 0.324560 0.342746
0.682627 0.333360 0.333946
0.682627 0.333360 0.342746
0.682627 0.324560 0.351546
0.682627 0.324560 0.360346
0.682627 0.333360 0.351546
0.682627 0.342160 0.342746
0.682627 0.350960 0.333946
0.682627 0.350960 0.342746
0.682627 0.342160 0.351546
0.682627 0.342160 0.360346
0.682627 0.350960 0.351546
0.682627 0.350960 0.360346
0.682627 0.359760 0.307546
0.682627 0.368560 0.307546
0.682627 0.359760 0.316346
0.682627 0.359760 0.325146
0.682627 0.368560 0.316346
0.682627 0.368560 0.325146
0.682627 0.377360 0.307546
0.682627 0.386160 0.307546
0.682627 0.377360 0.316346
0.682627 0.377360 0.325146
0.682627 0.386160 0.316346
0.682627 0.386160 0.325146
0.682627 0.359760 0.333946
0.682627 0.359760 0.342746
0.682627 0.368560 0.333946
0.682627 0.368560 0.342746
0.682627 0.359760 0.351546
0.682627 0.359760 0.360346
0.682627 0.368560 0.351546
0.682627 0.368560 0.360346
0.682627 0.377360 0.342746
0.682627 0.386160 0.333946
0.682627 0.386160 0.342746
0.682627 0.377360 0.351546
0.682627 0.377360 0.360346
0.682627 0.386160 0.360346
0.673827 0.324560 0.386746
0.673827 0.333360 0.386746
0.673827 0.333360 0.395546
0.673827 0.342160 0.377946
0.673827 0.350960 0.377946
0.673827 0.342160 0.386746
0.673827 0.342160 0.395546
0.673827 0.350960 0.386746
0.673827 0.350960 0.395546
0.673827 0.324560 0.404346
0.673827 0.324560 0.413146
0.673827 0.333360 0.404346
0.673827 0.333360 0.413146
0.665027 0.324560 0.421946
0.665027 0.324560 0.430746
0.665027 0.333360 0.430746
0.673827 0.333360 0.421946
0.673827 0.342160 0.404346
0.673827 0.342160 0.413146
0.673827 0.350960 0.404346
0.673827 0.350960 0.413146
0.665027 0.342160 0.421946
0.665027 0.342160 0.430746
0.665027 0.350960 0.421946
0.665027 0.350960 0.430746
0.673827 0.359760 0.377946
0.673827 0.368560 0.377946
0.673827 0.359760 0.386746
0.673827 0.359760 0.395546
0.673827 0.368560 0.386746
0.673827 0.368560 0.395546
0.673827 0.377360 0.369146
0.673827 0.377360 0.377946
0.673827 0.386160 0.377946
0.673827 0.377360 0.386746
0.673827 0.377360 0.395546
0.673827 0.386160 0.386746
0.673827 0.386160 0.395546
0.665027 0.368560 0.413146
0.673827 0.359760 0.404346
0.673827 0.359760 0.413146
0.673827 0.368560 0.404346
0.665027 0.359760 0.421946
0.665027 0.359760 0.430746
0.665027 0.368560 0.421946
0.665027 0.368560 0.430746
0.665027 0.386160 0.413146
0.673827 0.377360 0.404346
0.673827 0.386160 0.404346
0.673827 0.386160 0.413146
0.665027 0.377360 0.421946
0.665027 0.377360 0.430746
0.665027 0.386160 0.430746
0.682627 0.324560 0.369146
0.682627 0.324560 0.377946
0.682627 0.333360 0.369146
0.682627 0.333360 0.377946
0.682627 0.324560 0.386746
0.682627 0.342160 0.369146
0.682627 0.342160 0.377946
0.682627 0.350960 0.369146
0.682627 0.359760 0.369146
0.682627 0.368560 0.369146
0.682627 0.386160 0.369146
0.656227 0.254160 0.448346
0.656227 0.262960 0.448346
0.647427 0.254160 0.465946
0.647427 0.262960 0.465946
0.656227 0.254160 0.457146
0.656227 0.254160 0.465946
0.656227 0.262960 0.457146
0.656227 0.271760 0.448346
0.656227 0.280560 0.448346
0.656227 0.271760 0.457146
0.656227 0.271760 0.465946
0.656227 0.280560 0.457146
0.656227 0.280560 0.465946
0.665027 0.254160 0.439546
0.665027 0.262960 0.439546
0.665027 0.271760 0.439546
0.665027 0.280560 0.439546
0.665027 0.280560 0.448346
0.647427 0.254160 0.474746
0.647427 0.262960 0.474746
0.647427 0.262960 0.483546
0.647427 0.271760 0.474746
0.647427 0.271760 0.483546
0.647427 0.280560 0.474746
0.647427 0.280560 0.483546
0.647427 0.280560 0.492346
0.656227 0.289360 0.457146
0.656227 0.289360 0.465946
0.656227 0.298160 0.457146
0.656227 0.298160 0.465946
0.656227 0.306960 0.457146
0.656227 0.306960 0.465946
0.656227 0.315760 0.457146
0.656227 0.315760 0.465946
0.665027 0.289360 0.439546
0.665027 0.289360 0.448346
0.665027 0.298160 0.439546
0.665027 0.298160 0.448346
0.665027 0.306960 0.439546
0.665027 0.306960 0.448346
0.665027 0.315760 0.439546
0.665027 0.315760 0.448346
0.665027 0.306960 0.457146
0.647427 0.289360 0.474746
0.647427 0.289360 0.483546
0.647427 0.298160 0.483546
0.656227 0.298160 0.474746
0.647427 0.289360 0.492346
0.647427 0.298160 0.492346
0.647427 0.306960 0.483546
0.647427 0.315760 0.483546
0.656227 0.306960 0.474746
0.656227 0.315760 0.474746
0.647427 0.306960 0.492346
0.647427 0.315760 0.492346
0.656227 0.324560 0.457146
0.656227 0.324560 0.465946
0.656227 0.333360 0.457146
0.656227 0.333360 0.465946
0.656227 0.342160 0.457146
0.656227 0.342160 0.465946
0.656227 0.350960 0.457146
0.656227 0.350960 0.465946
0.665027 0.324560 0.439546
0.665027 0.324560 0.448346
0.665027 0.333360 0.439546
0.665027 0.333360 0.448346
0.665027 0.324560 0.457146
0.665027 0.342160 0.439546
0.665027 0.342160 0.448346
0.665027 0.350960 0.439546
0.665027 0.350960 0.448346
0.665027 0.342160 0.457146
0.647427 0.333360 0.483546
0.656227 0.324560 0.474746
0.656227 0.333360 0.474746
0.647427 0.324560 0.492346
0.647427 0.333360 0.492346
0.647427 0.342160 0.483546
0.647427 0.350960 0.483546
0.656227 0.342160 0.474746
0.656227 0.350960 0.474746
0.647427 0.342160 0.492346
0.647427 0.350960 0.492346
0.656227 0.359760 0.457146
0.656227 0.359760 0.465946
0.656227 0.368560 0.457146
0.656227 0.368560 0.465946
0.656227 0.377360 0.448346
0.656227 0.386160 0.448346
0.656227 0.377360 0.457146
0.656227 0.377360 0.465946
0.656227 0.386160 0.457146
0.656227 0.386160 0.465946
0.665027 0.359760 0.439546
0.665027 0.359760 0.448346
0.665027 0.368560 0.439546
0.665027 0.368560 0.448346
0.665027 0.377360 0.439546
0.665027 0.377360 0.448346
0.665027 0.386160 0.439546
0.647427 0.359760 0.474746
0.647427 0.359760 0.483546
0.647427 0.368560 0.483546
0.656227 0.359760 0.474746
0.656227 0.368560 0.474746
0.647427 0.368560 0.492346
0.647427 0.377360 0.474746
0.647427 0.377360 0.483546
0.647427 0.386160 0.474746
0.647427 0.386160 0.483546
0.656227 0.377360 0.474746
0.656227 0.386160 0.474746
0.647427 0.377360 0.492346
0.673827 0.394960 0.298746
0.673827 0.403760 0.298746
0.682627 0.394960 0.307546
0.682627 0.403760 0.307546
0.682627 0.394960 0.325146
0.682627 0.403760 0.316346
0.682627 0.403760 0.325146
0.682627 0.412560 0.298746
0.682627 0.412560 0.307546
0.682627 0.421360 0.298746
0.682627 0.421360 0.307546
0.682627 0.412560 0.316346
0.682627 0.412560 0.325146
0.682627 0.421360 0.316346
0.682627 0.421360 0.325146
0.682627 0.394960 0.333946
0.682627 0.394960 0.342746
0.682627 0.403760 0.333946
0.682627 0.403760 0.342746
0.682627 0.394960 0.351546
0.682627 0.394960 0.360346
0.682627 0.403760 0.351546
0.682627 0.403760 0.360346
0.682627 0.412560 0.333946
0.682627 0.412560 0.342746
0.682627 0.421360 0.333946
0.682627 0.421360 0.342746
0.682627 0.412560 0.351546
0.682627 0.412560 0.360346
0.682627 0.421360 0.351546
0.682627 0.421360 0.360346
0.682627 0.430160 0.298746
0.682627 0.430160 0.307546
0.682627 0.438960 0.298746
0.682627 0.438960 0.307546
0.682627 0.430160 0.316346
0.682627 0.430160 0.325146
0.682627 0.438960 0.316346
0.682627 0.438960 0.325146
0.682627 0.447760 0.298746
0.682627 0.447760 0.307546
0.682627 0.456560 0.307546
0.682627 0.447760 0.316346
0.682627 0.447760 0.325146
0.682627 0.456560 0.316346
0.682627 0.456560 0.325146
0.682627 0.430160 0.333946
0.682627 0.430160 0.342746
0.682627 0.438960 0.333946
0.682627 0.438960 0.342746
0.682627 0.430160 0.351546
0.682627 0.430160 0.360346
0.682627 0.438960 0.351546
0.682627 0.438960 0.360346
0.682627 0.447760 0.333946
0.682627 0.447760 0.342746
0.682627 0.456560 0.342746
0.682627 0.447760 0.351546
0.682627 0.447760 0.360346
0.682627 0.456560 0.351546
0.673827 0.394960 0.377946
0.673827 0.403760 0.369146
0.673827 0.403760 0.377946
0.673827 0.394960 0.386746
0.673827 0.394960 0.395546
0.673827 0.403760 0.386746
0.673827 0.403760 0.395546
0.673827 0.412560 0.377946
0.673827 0.421360 0.377946
0.673827 0.412560 0.386746
0.673827 0.412560 0.395546
0.673827 0.421360 0.386746
0.673827 0.421360 0.395546
0.673827 0.394960 0.404346
0.673827 0.394960 0.413146
0.673827 0.403760 0.413146
0.665027 0.394960 0.421946
0.665027 0.394960 0.430746
0.665027 0.403760 0.430746
0.673827 0.412560 0.404346
0.673827 0.412560 0.413146
0.673827 0.421360 0.404346
0.673827 0.421360 0.413146
0.665027 0.412560 0.430746
0.665027 0.421360 0.430746
0.673827 0.412560 0.421946
0.673827 0.421360 0.421946
0.673827 0.430160 0.386746
0.673827 0.438960 0.386746
0.673827 0.438960 0.395546
0.673827 0.447760 0.395546
0.673827 0.456560 0.395546
0.673827 0.430160 0.404346
0.673827 0.430160 0.413146
0.673827 0.438960 0.404346
0.673827 0.438960 0.413146
0.665027 0.438960 0.430746
0.673827 0.430160 0.421946
0.673827 0.438960 0.421946
0.673827 0.438960 0.430746
0.673827 0.447760 0.404346
0.673827 0.456560 0.404346
0.673827 0.456560 0.413146
0.673827 0.447760 0.421946
0.673827 0.447760 0.430746
0.673827 0.456560 0.421946
0.673827 0.456560 0.430746
0.682627 0.394960 0.369146
0.682627 0.403760 0.369146
0.682627 0.412560 0.369146
0.682627 0.421360 0.369146
0.682627 0.430160 0.369146
0.682627 0.430160 0.377946
0.682627 0.438960 0.369146
0.682627 0.438960 0.377946
0.682627 0.447760 0.369146
0.682627 0.447760 0.377946
0.682627 0.456560 0.369146
0.682627 0.456560 0.377946
0.682627 0.447760 0.386746
0.682627 0.456560 0.386746
0.682627 0.465360 0.298746
0.682627 0.465360 0.307546
0.682627 0.474160 0.298746
0.682627 0.474160 0.307546
0.682627 0.465360 0.316346
0.682627 0.465360 0.325146
0.682627 0.474160 0.316346
0.682627 0.474160 0.325146
0.682627 0.482960 0.298746
0.682627 0.482960 0.307546
0.682627 0.491760 0.298746
0.682627 0.491760 0.307546
0.682627 0.482960 0.316346
0.682627 0.482960 0.325146
0.682627 0.491760 0.316346
0.682627 0.491760 0.325146
0.682627 0.465360 0.333946
0.682627 0.465360 0.342746
0.682627 0.474160 0.333946
0.682627 0.474160 0.342746
0.682627 0.465360 0.351546
0.682627 0.465360 0.360346
0.682627 0.474160 0.351546
0.682627 0.474160 0.360346
0.682627 0.482960 0.333946
0.682627 0.482960 0.342746
0.682627 0.491760 0.342746
0.682627 0.482960 0.351546
0.682627 0.482960 0.360346
0.682627 0.491760 0.351546
0.682627 0.491760 0.360346
0.682627 0.500560 0.307546
0.682627 0.509360 0.298746
0.682627 0.509360 0.307546
0.682627 0.500560 0.316346
0.682627 0.500560 0.325146
0.682627 0.509360 0.316346
0.682627 0.509360 0.325146
0.682627 0.518160 0.298746
0.682627 0.518160 0.307546
0.682627 0.526960 0.298746
0.682627 0.526960 0.307546
0.682627 0.518160 0.316346
0.682627 0.518160 0.325146
0.682627 0.526960 0.316346
0.682627 0.526960 0.325146
0.682627 0.500560 0.333946
0.682627 0.500560 0.342746
0.682627 0.509360 0.342746
0.682627 0.500560 0.351546
0.682627 0.509360 0.351546
0.682627 0.509360 0.360346
0.682627 0.518160 0.333946
0.682627 0.518160 0.342746
0.682627 0.526960 0.333946
0.682627 0.526960 0.342746
0.682627 0.518160 0.351546
0.682627 0.518160 0.360346
0.682627 0.526960 0.351546
0.682627 0.526960 0.360346
0.673827 0.465360 0.395546
0.673827 0.474160 0.395546
0.673827 0.482960 0.395546
0.673827 0.491760 0.395546
0.673827 0.465360 0.404346
0.673827 0.465360 0.413146
0.673827 0.474160 0.404346
0.673827 0.474160 0.413146
0.665027 0.465360 0.430746
0.665027 0.474160 0.430746
0.673827 0.465360 0.421946
0.673827 0.465360 0.430746
0.673827 0.474160 0.421946
0.673827 0.474160 0.430746
0.673827 0.482960 0.404346
0.673827 0.482960 0.413146
0.673827 0.491760 0.404346
0.673827 0.491760 0.413146
0.673827 0.482960 0.421946
0.673827 0.482960 0.430746
0.673827 0.491760 0.421946
0.673827 0.500560 0.395546
0.673827 0.509360 0.386746
0.673827 0.509360 0.395546
0.673827 0.526960 0.377946
0.673827 0.518160 0.395546
0.673827 0.526960 0.386746
0.673827 0.500560 0.404346
0.673827 0.500560 0.413146
0.673827 0.509360 0.404346
0.673827 0.509360 0.413146
0.665027 0.509360 0.430746
0.673827 0.500560 0.430746
0.673827 0.509360 0.421946
0.673827 0.518160 0.404346
0.673827 0.518160 0.413146
0.673827 0.526960 0.404346
0.673827 0.526960 0.413146
0.665027 0.518160 0.430746
0.665027 0.526960 0.430746
0.673827 0.526960 0.421946
0.673827 0.526960 0.430746
0.682627 0.465360 0.369146
0.682627 0.465360 0.377946
0.682627 0.474160 0.369146
0.682627 0.474160 0.377946
0.682627 0.465360 0.386746
0.682627 0.474160 0.386746
0.682627 0.482960 0.369146
0.682627 0.482960 0.377946
0.682627 0.491760 0.369146
0.682627 0.491760 0.377946
0.682627 0.482960 0.395546
0.682627 0.491760 0.386746
0.682627 0.500560 0.369146
0.682627 0.500560 0.377946
0.682627 0.509360 0.369146
0.682627 0.509360 0.377946
0.682627 0.500560 0.386746
0.682627 0.509360 0.386746
0.682627 0.518160 0.369146
0.682627 0.518160 0.377946
0.682627 0.526960 0.369146
0.682627 0.526960 0.377946
0.656227 0.394960 0.448346
0.656227 0.394960 0.457146
0.656227 0.394960 0.465946
0.656227 0.403760 0.457146
0.656227 0.403760 0.465946
0.656227 0.412560 0.457146
0.656227 0.412560 0.465946
0.656227 0.421360 0.465946
0.665027 0.394960 0.439546
0.665027 0.394960 0.448346
0.665027 0.403760 0.439546
0.665027 0.403760 0.448346
0.665027 0.412560 0.439546
0.665027 0.412560 0.448346
0.665027 0.421360 0.439546
0.665027 0.421360 0.448346
0.647427 0.394960 0.474746
0.647427 0.394960 0.483546
0.647427 0.403760 0.474746
0.647427 0.403760 0.483546
0.656227 0.403760 0.474746
0.647427 0.403760 0.492346
0.647427 0.412560 0.483546
0.647427 0.421360 0.483546
0.656227 0.412560 0.474746
0.656227 0.421360 0.474746
0.647427 0.412560 0.492346
0.647427 0.421360 0.492346
0.656227 0.430160 0.457146
0.656227 0.430160 0.465946
0.656227 0.438960 0.465946
0.656227 0.447760 0.465946
