ply
format ascii 1.0
element vertex 1768
property float x
property float y
property float z
end_header
0.028644 0.601706 0.303001
0.642965 0.625848 0.256970
0.057080 0.632964 0.259136
0.642548 0.641574 0.266158
0.617361 0.646901 0.255745
0.646134 0.636812 0.268996
0.059193 0.671695 0.267347
0.616743 0.649120 0.270665
0.050725 0.643021 0.267182
0.589680 0.649206 0.275359
0.065966 0.659035 0.289000
0.616343 0.668270 0.225627
0.067357 0.655698 0.258886
0.547164 0.684623 0.253012
0.054343 0.683970 0.265341
0.580728 0.655518 0.267638
0.076121 0.683227 0.243137
0.566802 0.690445 0.230701
0.561586 0.647379 0.268317
0.562790 0.703492 0.266230
0.079272 0.704491 0.267006
0.536966 0.697342 0.250769
0.529384 0.697968 0.261481
0.119116 0.671306 0.264282
0.109968 0.684443 0.268481
0.543206 0.653610 0.263554
0.515144 0.706579 0.274603
0.526278 0.700549 0.253272
0.097076 0.689917 0.248507
0.536122 0.690795 0.245992
0.460323 0.696322 0.259074
0.476984 0.681329 0.282766
0.160592 0.720527 0.260546
0.135741 0.710307 0.257568
0.105286 0.701111 0.239719
0.463566 0.675561 0.229348
0.469251 0.694175 0.261156
0.188238 0.704152 0.275431
0.152845 0.723546 0.295056
0.178467 0.646414 0.263534
0.152655 0.671263 0.261894
0.451469 0.699900 0.263724
0.436218 0.709262 0.255354
0.211798 0.699236 0.242127
0.208616 0.710354 0.260209
0.419601 0.722292 0.271459
0.229169 0.727583 0.256988
0.437702 0.728025 0.272097
0.220767 0.750981 0.257940
0.430191 0.718095 0.235191
0.417033 0.700624 0.276260
0.238618 0.719267 0.256037
0.418337 0.723726 0.275830
0.261393 0.712714 0.286828
0.405652 0.685376 0.291393
0.267940 0.753946 0.309194
0.274199 0.739422 0.270086
0.412189 0.776727 0.277015
0.303488 0.727433 0.291776
0.404352 0.745723 0.245660
0.316330 0.755444 0.245012
0.415467 0.755397 0.250729
0.370974 0.741384 0.260399
0.278050 0.788363 0.245076
0.386675 0.797649 0.273663
0.274843 0.789801 0.236974
0.412349 0.781564 0.287981
0.283502 0.779710 0.273384
0.370958 0.764785 0.253992
0.277609 0.780656 0.269872
0.318255 0.770821 0.255286
0.358981 0.776343 0.275632
0.287036 0.823899 0.252753
0.274309 0.746678 0.289201
0.386165 0.785540 0.296979
0.412694 0.797593 0.235470
0.307428 0.787152 0.289348
0.393548 0.783200 0.273026
0.300376 0.800280 0.261064
0.402318 0.780559 0.256115
0.371376 0.804518 0.275771
0.282064 0.794357 0.272807
0.329879 0.819280 0.257922
0.384906 0.825081 0.251038
0.319352 0.821527 0.261397
0.340986 0.846637 0.245797
0.321245 0.812384 0.248170
0.393074 0.840852 0.291175
0.332511 0.815238 0.238200
0.285923 0.821919 0.251715
0.359122 0.834246 0.243502
0.374730 0.861254 0.236919
0.303648 0.832007 0.275107
0.317237 0.855364 0.246399
0.357916 0.840518 0.255656
0.293597 0.835924 0.276438
0.323387 0.850550 0.274338
0.356582 0.857360 0.257174
0.303220 0.880217 0.260805
0.385634 0.863605 0.265567
0.361736 0.847507 0.267437
0.390157 0.886402 0.274201
0.377059 0.884219 0.243054
0.329607 0.867817 0.265138
0.297137 0.873298 0.272821
0.386218 0.863486 0.243831
0.365856 0.849748 0.246155
0.322875 0.849187 0.257667
0.348694 0.877434 0.273973
0.330017 0.871506 0.238684
0.325500 0.840142 0.257284
0.393889 0.879187 0.278560
0.340341 0.843290 0.247895
0.304089 0.867097 0.253237
0.366267 0.876380 0.270815
0.331575 0.889509 0.263489
0.401114 0.888132 0.269985
0.308598 0.908184 0.251726
0.372394 0.871679 0.244570
0.318186 0.879830 0.296282
0.353952 0.898697 0.245570
0.376665 0.882339 0.254754
0.311951 0.910873 0.229779
0.366422 0.897081 0.283617
0.397509 0.907294 0.261605
0.288339 0.889858 0.285264
0.363495 0.910907 0.272158
0.365879 0.942891 0.236430
0.275474 0.905332 0.258150
0.399249 0.903626 0.290332
0.414601 0.928533 0.267471
0.321290 0.916757 0.286546
0.315460 0.917647 0.277454
0.384902 0.921391 0.281419
0.362974 0.926383 0.234462
0.283756 0.945259 0.276980
0.280178 0.929502 0.283829
0.392255 0.920637 0.264350
0.286096 0.961240 0.242675
0.363977 0.953819 0.255214
0.294538 0.942636 0.258021
0.396204 0.972333 0.265408
0.320332 0.986898 0.233030
0.409306 0.921598 0.284947
0.400079 0.942447 0.273585
0.300272 0.953477 0.272878
0.379753 0.952266 0.235171
0.295450 0.964858 0.268546
0.414134 0.959201 0.281313
0.258908 0.945490 0.217822
0.421020 0.958095 0.294994
0.302944 0.959078 0.274759
0.430520 0.982016 0.285117
0.262319 0.970482 0.252211
0.292236 0.969174 0.264412
0.282010 1.009701 0.262732
0.426847 1.012400 0.269984
0.410276 0.967485 0.245103
0.310790 0.987169 0.279747
0.257105 1.010786 0.261658
0.418862 1.000676 0.258352
0.306470 0.988248 0.267940
0.411592 0.985987 0.250780
0.330241 1.003490 0.230042
0.285204 1.000693 0.297104
0.285918 0.995804 0.275354
0.368103 0.994215 0.245536
0.362058 0.985207 0.250554
0.384529 0.999354 0.269641
0.351519 1.008717 0.273380
0.308273 1.012355 0.244015
0.316947 -0.011111 0.253997
0.315281 0.014479 0.258254
0.208539 0.008368 0.252615
0.250390 -0.000418 0.267801
0.395343 0.018083 0.258080
0.371489 -0.002711 0.264214
0.341146 -0.016794 0.274304
0.368278 0.020238 0.278349
0.342206 0.010879 0.285201
0.302882 0.013932 0.269133
0.229996 0.039828 0.266896
0.192275 0.014019 0.277050
0.185396 0.003407 0.278747
0.649771 0.044569 0.259125
0.370523 -0.002883 0.281687
0.353578 0.009828 0.260028
0.298499 -0.018231 0.283260
0.290909 0.021519 0.252394
0.289813 0.005218 0.247819
0.245846 -0.015893 0.264684
0.249243 0.018458 0.275155
0.273363 0.011666 0.278490
0.050534 0.013835 0.256227
0.644741 0.000121 0.276564
0.035519 -0.001211 0.263817
0.630780 0.020096 0.272967
0.037796 0.060620 0.248554
0.645767 0.003695 0.274862
0.041251 0.033282 0.270161
0.653547 0.024273 0.248944
0.035504 0.034672 0.253678
0.679214 0.050023 0.253817
0.048931 0.009245 0.265690
0.658688 0.050596 0.259222
0.658427 0.073165 0.258306
0.002587 0.096358 0.269715
0.667979 0.068000 0.263506
0.024020 0.074232 0.258652
0.637850 0.102885 0.261169
0.029541 0.089637 0.308338
0.707268 0.103655 0.293278
0.023522 0.101814 0.250156
0.028057 0.099186 0.252983
0.010938 0.134531 0.253162
0.649863 0.109530 0.273566
0.001141 0.139853 0.262862
0.659377 0.136349 0.266061
-0.008541 0.103553 0.259486
0.039830 0.144257 0.273081
0.674748 0.126327 0.250635
0.013606 0.147106 0.243002
0.655163 0.193296 0.230721
0.028147 0.142090 0.271628
0.693567 0.149972 0.276816
0.661382 0.189808 0.265183
0.674359 0.190013 0.279825
0.018800 0.206943 0.284344
0.681336 0.210828 0.288374
0.650197 0.179569 0.257014
0.006822 0.206810 0.259508
0.031432 0.199493 0.276872
-0.022475 0.226555 0.250889
0.650985 0.207698 0.280292
-0.000479 0.243177 0.253349
0.683215 0.240323 0.254737
0.008010 0.243193 0.281575
0.676505 0.234465 0.276996
-0.013369 0.236707 0.272110
0.680789 0.256199 0.236767
-0.002719 0.239860 0.266469
0.678301 0.278363 0.259815
0.009187 0.262885 0.320426
0.669367 0.256614 0.279629
0.004935 0.280055 0.262278
0.682692 0.274553 0.278278
0.662829 0.313086 0.264436
0.028264 0.305090 0.257437
0.683939 0.297618 0.302007
0.668999 0.315139 0.299855
0.027093 0.333401 0.266705
0.669763 0.313929 0.278492
0.683128 0.344133 0.237650
0.679753 0.359657 0.261559
0.666190 0.363214 0.248850
0.677879 0.378564 0.294112
0.024253 0.366350 0.299699
0.674264 0.335826 0.290282
0.007096 0.360456 0.274256
0.681542 0.376034 0.232071
0.703472 0.375047 0.255566
0.031293 0.359037 0.274792
-0.000463 0.384656 0.258297
0.705087 0.388712 0.241615
0.004422 0.365115 0.279697
0.024570 0.414595 0.270097
0.020977 0.395270 0.273967
0.638209 0.411928 0.263381
0.648127 0.401185 0.309108
0.038021 0.422604 0.276257
-0.016265 0.418244 0.269572
0.676030 0.429573 0.261929
0.003083 0.415548 0.265966
0.685423 0.459213 0.260921
0.035275 0.436670 0.242653
0.013119 0.448786 0.308640
0.676600 0.486570 0.254002
0.025901 0.436796 0.272395
0.663043 0.477164 0.281173
0.669827 0.476346 0.292381
0.705197 0.506156 0.287820
0.002641 0.486483 0.270372
0.677978 0.541332 0.256453
-0.012075 0.516824 0.283305
-0.005524 0.509400 0.301748
0.015322 0.495698 0.302759
0.019633 0.545241 0.275393
0.662354 0.567148 0.247350
0.012085 0.540299 0.284148
0.671108 0.561181 0.283404
0.684224 0.577349 0.258490
0.647905 0.586419 0.239086
0.017855 0.565299 0.286109
0.007917 0.579178 0.274452
0.660250 0.630797 0.268401
0.041493 0.588363 0.278232
0.672418 0.594897 0.258739
0.019480 0.586137 0.260630
0.670565 0.594207 0.256874
0.011087 0.586212 0.286257
0.666137 0.610000 0.275730
0.012657 0.603818 0.264231
0.670962 0.625702 0.232338
0.050805 0.621355 0.280018
0.635662 0.609742 0.273803
0.630668 0.629959 0.254702
-0.008297 0.630059 0.260844
0.631421 0.608746 0.261173
0.047893 0.622657 0.291295
0.606135 0.639046 0.274802
0.633957 0.667026 0.266839
0.039203 0.667576 0.282808
0.627666 0.664449 0.294702
0.628121 0.663428 0.247808
0.022378 0.653047 0.258723
0.590453 0.660043 0.282622
0.074356 0.678151 0.258392
0.597814 0.695110 0.244394
0.590089 0.655995 0.258848
0.574205 0.672537 0.292402
0.576890 0.685022 0.281483
0.062476 0.649290 0.288208
0.583570 0.713746 0.271639
0.097111 0.686726 0.267278
0.535862 0.683620 0.273398
0.506551 0.712995 0.272363
0.113987 0.680862 0.273752
0.501444 0.700751 0.262590
0.515591 0.691531 0.266930
0.091037 0.690097 0.275458
0.130465 0.700415 0.256695
0.494708 0.711026 0.273986
0.493331 0.708302 0.261179
0.499721 0.691382 0.254411
0.152620 0.684163 0.290646
0.448104 0.704161 0.254460
0.189066 0.655427 0.251335
0.160362 0.689094 0.270557
0.468374 0.710575 0.257945
0.457799 0.684946 0.266405
0.220122 0.671633 0.260765
0.204970 0.697247 0.258244
0.193302 0.721292 0.297306
0.216699 0.677011 0.252065
0.460195 0.728174 0.269635
0.226514 0.721039 0.268992
0.449970 0.726041 0.269881
0.238094 0.718379 0.296342
0.219619 0.725531 0.260734
0.411707 0.738411 0.260225
0.239649 0.732843 0.276724
0.420880 0.702560 0.278352
0.256952 0.736486 0.275634
0.389384 0.721161 0.294947
0.255720 0.741994 0.266123
0.405365 0.721633 0.232013
0.244228 0.760509 0.282390
0.273773 0.739922 0.257565
0.429980 0.757432 0.267887
0.312319 0.768496 0.268181
0.404086 0.757945 0.277240
0.283613 0.774685 0.251324
0.417594 0.742141 0.257739
0.384959 0.736939 0.233962
0.282600 0.747725 0.282250
0.303957 0.779422 0.255495
0.411535 0.763267 0.270462
0.266812 0.785278 0.257315
0.398292 0.767705 0.306069
0.409934 0.803703 0.265825
0.267030 0.792265 0.268565
0.364660 0.794187 0.281761
0.286453 0.796978 0.264149
0.369132 0.828045 0.284930
0.385686 0.800943 0.259718
0.293304 0.791923 0.265534
0.404730 0.806584 0.308638
0.282662 0.814388 0.277239
0.287616 0.790806 0.264304
0.394037 0.810915 0.242201
0.294407 0.807883 0.260713
0.396801 0.843699 0.261489
0.372217 0.824144 0.269759
0.305457 0.838205 0.262940
0.374043 0.802210 0.249049
0.294897 0.816790 0.263365
0.396125 0.819730 0.253052
0.307936 0.838099 0.277022
0.384652 0.842171 0.269242
0.242717 0.847020 0.275479
0.368931 0.830840 0.296890
0.390022 0.833369 0.283875
0.316603 0.844514 0.272749
0.397798 0.853985 0.299098
0.323213 0.830294 0.252363
0.370351 0.833264 0.269808
0.338309 0.841449 0.271610
0.316832 0.835582 0.254477
0.403837 0.861095 0.295440
0.394633 0.867070 0.256496
0.291455 0.851221 0.263696
0.371830 0.873681 0.261015
0.300663 0.869865 0.265277
0.366974 0.857975 0.279145
0.353462 0.868197 0.287861
0.291984 0.889500 0.254538
0.313513 0.869560 0.247623
0.385095 0.863879 0.274345
0.282863 0.860009 0.242506
0.329913 0.859066 0.266256
0.376590 0.897430 0.292717
0.295505 0.901098 0.286719
0.416948 0.877286 0.266894
0.334241 0.938183 0.258737
0.313909 0.901422 0.271685
0.393786 0.904761 0.251518
0.311065 0.875443 0.262700
0.397829 0.900362 0.278148
0.319988 0.866697 0.256508
0.422293 0.911313 0.254135
0.298642 0.903972 0.272745
0.293628 0.918002 0.274324
0.360750 0.935157 0.270188
0.293916 0.900838 0.288103
0.379863 0.949561 0.300561
0.293351 0.935392 0.277106
0.417779 0.925608 0.273520
0.298164 0.935305 0.270502
0.403139 0.938147 0.262017
0.269374 0.941735 0.286487
0.399552 0.962102 0.254299
0.303256 0.934122 0.256925
0.406319 0.975227 0.255430
0.288977 0.930395 0.283486
0.449198 0.969855 0.269358
0.269886 0.966227 0.279433
0.289825 0.969816 0.273156
0.269973 0.997643 0.261160
0.250381 0.938575 0.253800
0.274319 0.997432 0.270766
0.273055 0.972800 0.258337
0.434314 1.001619 0.273133
0.405681 1.024254 0.252724
0.341415 0.992478 0.265061
0.290426 1.010646 0.269821
0.370178 1.006499 0.259063
0.349909 0.991311 0.303184
0.386596 0.997881 0.276803
0.372536 1.002777 0.277820
0.332329 1.003869 0.232003
0.367867 1.000492 0.243604
0.310932 1.008463 0.259199
0.301818 0.993574 0.262045
0.328847 1.012857 0.274805
0.281370 0.986796 0.270621
0.273186 1.013680 0.276153
0.671515 -0.020341 0.282454
0.223392 0.023142 0.269462
0.169952 -0.000988 0.287462
0.037803 -0.002901 0.269909
0.378128 -0.011410 0.263155
0.401371 0.015331 0.256049
0.310040 -0.017575 0.279208
0.328630 0.001251 0.263929
0.334733 0.006544 0.275421
0.210396 0.041523 0.286855
0.636577 0.001315 0.261797
0.420381 0.016663 0.265522
0.391778 -0.026803 0.271227
0.348933 -0.026725 0.283095
0.316818 0.002543 0.278472
0.284181 0.043359 0.259800
0.241336 -0.001770 0.268657
0.238455 -0.012431 0.268544
0.212322 0.013539 0.277385
0.285262 0.028177 0.256050
0.251397 0.019116 0.275967
0.292027 0.027515 0.271859
0.248941 -0.008857 0.235429
0.241062 0.021719 0.234345
0.235362 0.041871 0.272573
0.213482 0.012654 0.268801
0.650386 0.011379 0.277948
0.017779 0.039095 0.283116
0.663675 0.027721 0.279226
-0.001598 0.049490 0.242281
0.646865 0.057305 0.304124
0.020262 0.043137 0.302713
0.673640 0.068739 0.256873
-0.003024 0.033051 0.269567
0.642893 0.039169 0.264268
0.025970 0.078283 0.274981
0.686065 0.070191 0.289010
0.011973 0.079229 0.251233
0.668167 0.093720 0.273216
0.019252 0.084651 0.277512
0.021965 0.112152 0.248446
0.623966 0.114968 0.278150
0.694392 0.102944 0.284104
-0.007532 0.102329 0.257097
0.032408 0.127107 0.264156
0.021480 0.111125 0.265294
0.662836 0.123083 0.301960
0.663496 0.135346 0.274482
-0.005024 0.158355 0.289031
0.690376 0.170433 0.267427
-0.007485 0.175580 0.270166
0.007200 0.152286 0.286857
0.649980 0.186888 0.283190
0.001499 0.157774 0.271059
0.638823 0.195780 0.259741
-0.007052 0.175883 0.266966
0.682566 0.208624 0.272471
0.676985 0.216013 0.269996
0.008361 0.218909 0.276230
0.689870 0.231964 0.276725
0.675217 0.212944 0.268848
0.012872 0.166096 0.249325
0.016279 0.205368 0.256359
0.667640 0.235593 0.276075
0.001341 0.243615 0.254773
0.010062 0.266277 0.286089
0.656884 0.267585 0.267673
0.020698 0.239056 0.293395
-0.003949 0.254698 0.287876
0.697884 0.252685 0.298354
-0.033617 0.269882 0.300534
0.001459 0.280447 0.246014
-0.012473 0.278469 0.250556
0.695907 0.275649 0.282346
0.009136 0.276763 0.257940
-0.030187 0.304426 0.281197
0.683118 0.303350 0.276319
-0.019477 0.301283 0.232537
0.660517 0.314008 0.228552
0.018377 0.299353 0.277042
0.690415 0.296279 0.256249
0.017726 0.304265 0.237697
0.015963 0.312376 0.276484
0.664868 0.320713 0.274203
0.023020 0.334501 0.287328
0.657309 0.334088 0.273498
0.691675 0.362990 0.269346
0.009032 0.336847 0.254630
-0.014803 0.327439 0.276458
-0.002399 0.337333 0.271544
-0.001651 0.351262 0.286136
0.024781 0.361344 0.287300
0.664492 0.409998 0.273886
-0.018698 0.373898 0.281711
0.651619 0.404293 0.249906
0.027948 0.363977 0.250180
0.703081 0.360960 0.272690
0.649820 0.391341 0.284359
0.007987 0.353628 0.246855
0.668124 0.384899 0.266934
-0.010245 0.392995 0.282883
0.689009 0.370389 0.282507
-0.010184 0.404511 0.253229
0.019972 0.391561 0.276324
-0.002246 0.383997 0.273506
-0.004406 0.442113 0.237081
0.655294 0.443056 0.278334
0.008390 0.429677 0.269789
0.699944 0.410366 0.300601
-0.013516 0.439805 0.234627
0.681808 0.452792 0.260805
0.002348 0.451847 0.262880
0.670644 0.416540 0.263196
0.004723 0.463003 0.274996
0.670214 0.448839 0.253966
0.673696 0.483962 0.264729
0.022674 0.465605 0.273670
0.678442 0.446995 0.277673
-0.005787 0.485898 0.277464
0.695652 0.492418 0.272308
0.014259 0.479003 0.297498
0.676273 0.479457 0.284586
0.029301 0.540127 0.262886
0.683058 0.485617 0.287019
0.023564 0.508745 0.266617
0.687971 0.481263 0.278987
0.019068 0.506356 0.262647
0.689186 0.524030 0.299987
-0.006546 0.514932 0.297324
0.017969 0.533790 0.264180
0.688257 0.540874 0.303915
0.699548 0.525462 0.278183
-0.000613 0.554669 0.265706
0.011675 0.554888 0.254327
0.021982 0.548285 0.282947
0.653792 0.573232 0.272416
0.662800 0.596470 0.294350
0.650858 0.580238 0.269536
0.033913 0.604854 0.269023
0.681803 0.624846 0.284841
0.024654 0.601571 0.251077
0.017905 0.576720 0.270563
0.667556 0.602778 0.265334
0.669252 0.600884 0.265688
0.015088 0.637162 0.274563
0.680586 0.624621 0.275682
0.640910 0.595254 0.291903
0.663485 0.624702 0.288503
0.022351 0.624551 0.283462
0.642374 0.636636 0.254806
0.034643 0.607508 0.296994
0.075681 0.633830 0.293950
0.028797 0.643167 0.274197
0.642062 0.678306 0.264976
0.635172 0.664415 0.264949
0.052664 0.658648 0.267612
0.604652 0.685231 0.284964
0.063216 0.684745 0.265179
0.060018 0.650539 0.287521
0.591620 0.678105 0.269314
0.604487 0.690725 0.269033
0.046895 0.632218 0.297363
0.069659 0.685116 0.263169
0.588100 0.639834 0.246101
0.063862 0.649410 0.310116
0.552039 0.659213 0.296540
0.069619 0.660091 0.279200
0.586115 0.709683 0.243429
0.549281 0.669193 0.281244
0.087859 0.673628 0.255462
0.544734 0.667914 0.275629
0.524711 0.671989 0.278045
0.521282 0.701641 0.259404
0.105418 0.698833 0.276432
0.529692 0.700214 0.295783
0.519235 0.689330 0.290802
0.096706 0.727249 0.280876
0.120134 0.695955 0.269702
0.487959 0.684091 0.274463
0.490105 0.705327 0.278095
0.478415 0.722027 0.262585
0.494880 0.701632 0.280112
0.164138 0.690623 0.292524
0.138320 0.692221 0.261600
0.454706 0.707164 0.268349
0.199807 0.705008 0.261471
0.147921 0.670233 0.278496
0.159048 0.708454 0.254769
0.477200 0.715451 0.256442
0.191127 0.704032 0.298458
0.193579 0.709417 0.257648
0.177171 0.706178 0.296924
0.459200 0.701710 0.256927
0.198538 0.738043 0.256503
0.216417 0.718210 0.250809
0.430717 0.670094 0.241866
0.431507 0.731087 0.283598
0.243041 0.722673 0.249183
0.425398 0.720940 0.251788
0.233452 0.716978 0.268613
0.437223 0.727034 0.294635
0.258070 0.716414 0.271969
0.418340 0.743491 0.280143
0.269393 0.743383 0.282090
0.239271 0.750884 0.257016
0.411755 0.728146 0.276364
0.307039 0.748316 0.279900
0.387227 0.762168 0.263104
0.284068 0.770212 0.291176
0.411272 0.758592 0.266574
0.428700 0.794542 0.258726
0.276520 0.748953 0.254591
0.282259 0.786013 0.269330
0.412093 0.791852 0.265583
0.301946 0.776488 0.287737
0.438829 0.795445 0.307094
0.269262 0.783161 0.262165
0.292944 0.776342 0.263787
0.425302 0.798757 0.248130
0.288086 0.794443 0.286170
0.303772 0.794903 0.301212
0.409062 0.770266 0.272003
0.420051 0.784504 0.292975
0.295114 0.805751 0.271706
0.432275 0.801557 0.291404
0.295627 0.801570 0.257011
0.391865 0.808049 0.250243
0.271817 0.775465 0.279935
0.387570 0.829923 0.293884
0.280621 0.838473 0.288925
0.395571 0.802009 0.239903
0.285795 0.826035 0.272959
0.389116 0.823254 0.284713
0.294823 0.843447 0.274116
0.283364 0.830644 0.273858
0.382900 0.841019 0.266565
0.390917 0.855500 0.262170
0.280118 0.824236 0.267609
0.391152 0.819639 0.262702
0.281513 0.849517 0.262277
0.398944 0.827572 0.304990
0.271359 0.864670 0.281539
0.422421 0.852632 0.278141
0.381196 0.838711 0.264244
0.325126 0.863249 0.284576
0.403586 0.888641 0.281442
0.387761 0.853831 0.279969
0.303143 0.862723 0.295809
0.402547 0.912790 0.274576
0.431599 0.885959 0.318970
0.417380 0.882086 0.292991
0.309128 0.898038 0.287659
0.420288 0.907165 0.272674
0.394886 0.882234 0.268855
0.409261 0.896782 0.264111
0.287371 0.908311 0.305826
0.384045 0.905817 0.299403
0.275652 0.909992 0.262949
0.391689 0.928404 0.254969
0.422462 0.910454 0.286481
0.399438 0.909201 0.269254
0.393510 0.908499 0.255455
0.284493 0.900500 0.287786
0.386597 0.916082 0.268985
0.382025 0.928486 0.265710
0.251339 0.920846 0.292574
0.414188 0.916887 0.289592
0.377137 0.945955 0.265663
0.305535 0.930199 0.269854
0.372029 0.942710 0.262272
0.417228 0.938671 0.252765
0.300931 0.926062 0.255756
0.427234 0.943360 0.274431
0.401365 0.943947 0.246189
0.278145 0.954141 0.294716
0.406762 0.940516 0.275949
0.423766 0.940095 0.249238
0.295621 0.957629 0.281293
0.248515 0.930735 0.306805
0.423641 0.980804 0.270078
0.409623 0.942994 0.255885
0.285249 0.981477 0.255963
0.313451 0.958455 0.241694
0.431813 0.991298 0.258711
0.296404 0.980619 0.288616
0.266190 0.947274 0.285466
0.418005 0.976099 0.279443
0.269632 1.002701 0.278078
0.434956 0.978863 0.277969
0.356638 0.986777 0.267163
0.354409 0.983479 0.258275
0.354173 0.974780 0.257174
0.228786 0.982614 0.284043
0.419407 0.992675 0.273202
0.380304 0.984765 0.279962
0.380735 0.987138 0.265432
0.360242 0.976890 0.265281
0.378051 1.008428 0.256826
0.365860 0.974269 0.297120
0.311541 1.001157 0.270010
0.295416 0.982906 0.264713
0.284310 0.997639 0.255736
0.403441 0.997537 0.277909
0.360699 1.011258 0.282911
0.293562 1.025644 0.272991
0.300632 0.975150 0.278197
0.280542 0.995432 0.250228
0.239492 -0.023017 0.265633
0.239752 -0.007862 0.294898
0.171329 -0.004714 0.293578
0.197171 0.008158 0.265917
0.406854 0.021105 0.271278
0.388249 0.025579 0.285061
0.314296 -0.006533 0.271052
0.194299 0.013207 0.293371
0.173625 -0.001029 0.274686
0.196824 0.018174 0.259955
0.154199 0.001177 0.291946
0.144706 -0.010282 0.286648
0.666889 0.006525 0.261426
0.370685 0.017196 0.298543
0.344773 0.018291 0.262632
0.367032 0.002608 0.278457
0.338624 0.016035 0.284595
0.333026 0.019247 0.275623
0.306560 0.027640 0.257758
0.299696 -0.003128 0.256335
0.190656 -0.008348 0.262954
0.202520 0.022617 0.264356
0.036706 0.043843 0.260123
0.655471 -0.015965 0.265660
0.332015 0.034775 0.258419
0.321393 0.027158 0.267041
0.284981 0.009481 0.291721
0.243469 0.044255 0.284912
0.252197 0.026889 0.274983
0.207449 0.023642 0.268894
0.218184 -0.005777 0.269505
0.248410 0.009956 0.275879
0.024413 0.017543 0.258758
0.300786 0.004562 0.273245
0.228442 0.017587 0.283886
0.265015 0.006630 0.262729
0.233845 0.061626 0.253328
0.622513 0.013729 0.259918
0.029120 0.026885 0.281678
0.658486 0.020072 0.289937
0.060694 0.052405 0.306206
0.635362 0.039994 0.280979
0.007321 0.063997 0.301767
0.029982 0.045125 0.277432
0.659745 0.056640 0.288470
0.010988 0.082969 0.283040
0.652738 0.065066 0.287804
0.024933 0.054176 0.255333
0.644350 0.057916 0.292980
0.018460 0.078737 0.287809
-0.006291 0.080230 0.298904
0.657569 0.096168 0.266758
0.653466 0.112794 0.305482
0.031340 0.127254 0.254642
0.683866 0.108143 0.271089
0.701184 0.137338 0.276588
0.688642 0.146593 0.279403
0.686796 0.134860 0.290193
0.000436 0.173951 0.279866
0.683516 0.172963 0.258228
0.000144 0.115736 0.263461
0.664174 0.163531 0.305620
0.023293 0.175187 0.277907
0.676187 0.156387 0.255845
0.683495 0.188031 0.270383
0.002242 0.162191 0.286760
0.696623 0.200985 0.287375
0.663280 0.186608 0.298586
0.056108 0.148576 0.275590
0.674497 0.192895 0.291960
0.010034 0.173427 0.280304
0.000939 0.199348 0.293054
0.653189 0.193892 0.291001
0.666348 0.209351 0.283773
0.001783 0.202606 0.260328
0.682622 0.197364 0.278654
-0.009580 0.185653 0.282113
0.681741 0.201579 0.291110
-0.007491 0.212233 0.280435
0.671679 0.247252 0.262705
0.688079 0.242564 0.275594
0.003371 0.216151 0.265757
0.655822 0.237182 0.285679
0.665452 0.242758 0.277637
0.008215 0.233255 0.291631
0.649921 0.238026 0.277859
0.663824 0.244261 0.299362
0.026895 0.268336 0.258272
0.689950 0.236197 0.280438
0.675170 0.282189 0.275990
0.717163 0.276997 0.260248
0.687601 0.254028 0.251164
0.010574 0.292010 0.285933
0.690843 0.274052 0.278478
-0.000249 0.309435 0.269434
0.678110 0.318601 0.274584
0.001625 0.302427 0.269442
0.695963 0.298747 0.288967
0.026056 0.285836 0.318988
-0.003980 0.307436 0.300716
0.655779 0.340800 0.286733
-0.003066 0.339193 0.272218
0.659249 0.339406 0.267421
0.660143 0.334433 0.287723
0.035938 0.356476 0.268013
0.691850 0.346860 0.289061
0.034943 0.371644 0.288573
0.657799 0.369255 0.264171
0.005516 0.336007 0.291076
-0.014984 0.394089 0.254382
0.684377 0.352657 0.295309
0.003224 0.417618 0.283499
0.657400 0.393259 0.289086
-0.009522 0.388259 0.283543
0.662810 0.398192 0.292076
0.019353 0.443043 0.292294
0.639255 0.382406 0.291310
-0.000319 0.401764 0.274278
0.646144 0.401656 0.276227
-0.003658 0.438807 0.262115
0.690301 0.433703 0.283978
0.009926 0.445479 0.280452
0.641817 0.446718 0.299405
-0.004325 0.432450 0.276337
0.645410 0.463995 0.281512
0.024298 0.430423 0.283806
0.009279 0.452285 0.275404
0.695147 0.461727 0.256726
0.000711 0.459345 0.294134
0.003739 0.486628 0.254903
0.014859 0.471994 0.275291
0.020321 0.461997 0.282951
0.013422 0.522871 0.287477
0.662098 0.463685 0.296980
-0.008062 0.535864 0.282299
0.665276 0.482619 0.282538
0.010591 0.497724 0.287692
0.677239 0.509620 0.265075
0.696882 0.537735 0.276154
0.661058 0.530908 0.288767
0.011593 0.558295 0.269677
-0.008858 0.561749 0.295581
0.713720 0.535206 0.268379
0.039105 0.536111 0.274837
0.032421 0.581739 0.274947
0.052331 0.580533 0.263067
0.684950 0.584071 0.297453
0.015777 0.571318 0.266095
0.034005 0.601930 0.300108
0.680022 0.594019 0.296813
-0.021434 0.564322 0.275604
0.686029 0.583547 0.262634
-0.024753 0.601567 0.276670
0.672275 0.566337 0.286214
0.040315 0.588037 0.299149
-0.028296 0.635515 0.282001
0.675667 0.610394 0.290211
0.658733 0.624694 0.263888
0.006351 0.639673 0.280629
0.653409 0.619865 0.275953
0.638798 0.650709 0.301270
0.640485 0.643988 0.279886
0.060380 0.651958 0.274836
0.635491 0.631444 0.259117
0.036805 0.639750 0.260624
0.632077 0.648077 0.295012
0.062748 0.636630 0.273943
0.628005 0.651330 0.254313
0.027783 0.670586 0.264100
0.569715 0.670360 0.278896
0.064128 0.664461 0.246248
0.062778 0.682041 0.270901
0.568688 0.662730 0.298318
0.054413 0.663432 0.280693
0.573950 0.656840 0.282421
0.578059 0.663434 0.296620
0.081925 0.654009 0.278641
0.582257 0.680465 0.263429
0.581158 0.673947 0.273695
0.557087 0.670329 0.280523
0.088487 0.694670 0.270110
0.546248 0.695514 0.284241
0.512656 0.716004 0.287080
0.111933 0.689808 0.270128
0.104725 0.670968 0.266015
0.528791 0.702944 0.283099
0.113762 0.696927 0.283865
0.503013 0.653812 0.284007
0.482824 0.697144 0.287274
0.487068 0.712974 0.277526
0.107598 0.677856 0.280937
0.129910 0.692264 0.287003
0.501024 0.684032 0.251755
0.458795 0.716138 0.281089
0.162204 0.709677 0.293209
0.165767 0.706387 0.298643
0.160903 0.698058 0.288510
0.421066 0.690950 0.291111
0.204192 0.708693 0.264998
0.235969 0.699505 0.281068
0.161722 0.705519 0.274056
0.210771 0.716941 0.250736
0.434859 0.721077 0.271734
0.222976 0.718499 0.279637
0.232127 0.715441 0.268423
0.455420 0.699903 0.300534
0.243432 0.706848 0.256351
0.422634 0.736830 0.271351
0.238910 0.700140 0.306062
0.431021 0.742040 0.297823
0.240165 0.718988 0.288291
0.443421 0.741559 0.270023
0.249114 0.720003 0.303091
0.261814 0.766243 0.269925
0.395316 0.765514 0.286656
0.270230 0.726409 0.302817
0.387351 0.761333 0.276358
0.261749 0.779915 0.284007
0.450123 0.760358 0.270685
0.276452 0.760516 0.279372
0.398327 0.787264 0.259123
0.268176 0.739902 0.308259
0.393262 0.769130 0.265724
0.362940 0.764748 0.284250
0.288849 0.775222 0.266182
0.419006 0.802098 0.265055
0.408016 0.773792 0.273937
0.288014 0.795404 0.253852
0.435762 0.809567 0.279858
0.263654 0.812372 0.254629
0.411772 0.829114 0.266153
0.286739 0.774320 0.302801
0.406034 0.786467 0.244795
0.292447 0.782882 0.293711
0.394264 0.796421 0.263333
0.276429 0.796170 0.303283
0.378660 0.842894 0.266952
0.278132 0.809706 0.277086
0.275853 0.839574 0.249272
0.390980 0.844670 0.277362
0.286537 0.831791 0.263529
0.277407 0.848430 0.284115
0.432070 0.836222 0.299883
0.370873 0.856145 0.278849
0.291998 0.857786 0.284109
0.296307 0.847722 0.280904
0.418550 0.850526 0.290663
0.281596 0.868633 0.287815
0.290075 0.855000 0.272412
0.273145 0.863730 0.255992
0.290204 0.871494 0.294014
0.412897 0.894433 0.269250
0.413300 0.895564 0.275017
0.387718 0.891406 0.271375
0.287101 0.894167 0.308268
0.302643 0.856906 0.275941
0.397752 0.912080 0.273026
0.436836 0.897643 0.312937
0.292993 0.879203 0.263360
0.403847 0.909081 0.264916
0.294271 0.889824 0.289984
0.270304 0.909352 0.286942
0.281492 0.908871 0.290439
0.402053 0.897484 0.289201
0.287037 0.894042 0.298432
0.425371 0.885003 0.300481
0.245681 0.930554 0.284267
0.423638 0.934917 0.260429
0.283171 0.939930 0.285470
0.414888 0.926410 0.277786
0.266728 0.949875 0.254074
0.400492 0.965801 0.310591
0.259631 0.963854 0.258311
0.413800 0.988573 0.287794
0.432448 0.953604 0.253717
0.265809 0.985580 0.256126
0.246694 0.975382 0.287329
0.438308 0.982927 0.288328
0.276321 0.974913 0.269316
0.305169 0.970397 0.248947
0.340201 0.972524 0.277118
0.335087 1.005128 0.274142
0.366621 0.956520 0.279995
0.316275 1.021375 0.264307
0.342776 0.988110 0.311324
0.322148 0.988901 0.290866
0.264124 0.982322 0.270228
0.360942 1.000782 0.269638
0.375249 0.985073 0.284067
0.390908 0.996504 0.255016
0.314053 0.987410 0.290332
0.314534 0.989260 0.303426
0.417151 0.982679 0.303155
0.391434 0.986853 0.274957
0.403882 1.005587 0.290135
0.389179 0.971478 0.272944
0.348413 0.990687 0.290107
0.395753 1.002683 0.266784
0.292489 1.022617 0.279534
0.270577 1.003797 0.283889
0.257765 0.994979 0.260653
0.296660 0.975502 0.263279
0.284663 0.996915 0.288220
0.254425 0.981288 0.279337
0.634665 -0.009708 0.284503
0.054229 0.003279 0.280784
0.406199 -0.010925 0.303422
0.310405 0.027540 0.275104
0.178856 0.023805 0.283650
0.182572 0.013966 0.292689
0.171275 0.007555 0.306893
0.648451 -0.030286 0.278059
0.390388 0.014337 0.290991
0.361266 -0.005337 0.287493
0.303198 0.009319 0.257132
0.193601 0.009724 0.277332
0.018875 -0.011810 0.277841
0.374140 0.018435 0.298584
0.345969 0.007193 0.284493
0.353305 -0.017470 0.296776
0.335258 0.034321 0.280975
0.316485 0.003700 0.261003
0.265291 0.016053 0.302173
0.273385 -0.000382 0.287596
0.211847 0.036066 0.266984
0.213661 -0.000533 0.284823
0.298681 0.011178 0.304957
0.293655 0.037469 0.277788
0.285140 0.021548 0.267421
0.255862 0.006907 0.300518
0.269504 0.046121 0.285762
0.239030 0.030934 0.265753
0.235605 -0.000863 0.259224
0.241986 0.013090 0.291787
0.243185 0.042373 0.283761
0.008363 0.004370 0.290953
0.236864 0.037140 0.272499
0.188564 0.018775 0.304796
0.012653 0.049014 0.312719
0.641118 0.051901 0.266459
0.287554 -0.002513 0.287699
0.222143 0.058309 0.282494
0.026060 0.081078 0.284818
0.669141 0.060576 0.271342
0.030459 0.075644 0.297981
0.662190 0.048691 0.262291
0.021506 0.046217 0.297980
0.017469 0.036638 0.273151
0.702913 0.054871 0.312586
0.016486 0.068338 0.316885
0.646561 0.046791 0.295799
0.024904 0.092704 0.275643
0.648316 0.092260 0.309144
0.027830 0.089280 0.307598
0.673528 0.099406 0.267492
0.680177 0.105160 0.279181
0.034994 0.097209 0.247785
0.654915 0.115861 0.307203
0.663838 0.106826 0.264264
-0.005651 0.124661 0.279624
0.006688 0.125685 0.317368
0.014143 0.127309 0.278381
0.041083 0.140323 0.297667
-0.012826 0.179703 0.271260
0.681225 0.168966 0.291827
-0.001108 0.152427 0.282779
0.029114 0.194531 0.283213
0.674924 0.202209 0.283997
-0.015458 0.190509 0.294542
0.669997 0.195254 0.289234
0.673618 0.211566 0.277891
0.004071 0.188513 0.284558
0.669008 0.189526 0.301537
-0.014260 0.207976 0.291160
0.676153 0.241653 0.274587
-0.005819 0.208699 0.288348
0.020578 0.200493 0.304272
0.668176 0.245408 0.292313
-0.014511 0.241969 0.273612
-0.017718 0.293640 0.285675
0.669766 0.284197 0.291147
0.035166 0.270923 0.275831
0.662111 0.279074 0.283624
0.646395 0.266169 0.323551
0.679147 0.253322 0.283617
0.017393 0.280013 0.287109
0.654661 0.296613 0.273109
0.030108 0.306592 0.299804
-0.023876 0.337692 0.307161
0.670293 0.314112 0.281338
0.008345 0.318533 0.273944
0.671547 0.316040 0.278012
0.014731 0.327307 0.276074
0.695953 0.344227 0.267633
0.015665 0.335673 0.293644
0.671226 0.339895 0.259735
-0.003014 0.363940 0.288264
0.660694 0.348788 0.258097
-0.007687 0.375421 0.286731
0.699163 0.352488 0.293135
0.023148 0.389867 0.266955
0.696676 0.380233 0.280374
0.001020 0.401859 0.288473
0.008163 0.402260 0.256256
0.666514 0.406169 0.301128
-0.003639 0.418709 0.319963
0.680520 0.417350 0.272468
0.006045 0.410132 0.287586
0.673621 0.434611 0.312761
0.656388 0.418537 0.277578
0.662252 0.442379 0.279810
0.014623 0.479434 0.272861
0.643586 0.453210 0.302366
0.664279 0.488952 0.292793
0.678521 0.453940 0.305875
-0.013591 0.457272 0.264356
0.690190 0.478540 0.275433
0.677661 0.465306 0.256793
0.020733 0.481144 0.291509
0.693079 0.509965 0.291855
0.007555 0.487574 0.303159
0.672056 0.497631 0.283260
0.665981 0.492587 0.309534
-0.004223 0.531279 0.299933
0.648524 0.527030 0.283904
-0.006244 0.519932 0.298360
0.687262 0.523765 0.272069
0.017169 0.516746 0.313808
-0.005680 0.542225 0.298599
0.694435 0.580331 0.276237
0.707688 0.546586 0.286777
0.013359 0.582078 0.308791
0.678425 0.564852 0.280983
0.682923 0.578415 0.285101
0.684215 0.569779 0.308163
0.662091 0.593051 0.306296
0.024510 0.583692 0.274731
-0.009984 0.580815 0.265406
0.672468 0.616516 0.274592
0.029251 0.605585 0.287557
0.651507 0.611732 0.277390
0.008630 0.627917 0.274790
0.626668 0.601228 0.274700
0.664309 0.602554 0.273655
0.029065 0.636757 0.277079
0.650094 0.671227 0.285012
0.010183 0.644644 0.281716
0.659987 0.617452 0.324594
0.658008 0.676394 0.291217
0.040638 0.642986 0.293893
0.616324 0.666271 0.279777
0.599047 0.665688 0.267942
0.596905 0.664702 0.296634
0.592102 0.673767 0.278530
0.055943 0.668008 0.276514
0.588304 0.635575 0.303169
0.082781 0.687904 0.278070
0.563665 0.675832 0.300498
0.081816 0.694448 0.312851
0.563266 0.681435 0.289010
0.119510 0.689322 0.300456
0.542546 0.678097 0.280243
0.479209 0.699831 0.293835
0.498273 0.699372 0.253531
0.112523 0.688389 0.279482
0.100446 0.699985 0.288101
0.481311 0.703208 0.296316
0.153884 0.704072 0.297839
0.121178 0.715170 0.285841
0.490081 0.674856 0.301997
0.492610 0.698916 0.325366
0.151157 0.707438 0.253456
0.130648 0.733980 0.280516
0.146424 0.691224 0.280919
0.461194 0.697880 0.287879
0.183745 0.731581 0.272640
0.202159 0.684409 0.281946
0.422573 0.691818 0.273352
0.226959 0.703341 0.286358
0.216857 0.710537 0.294115
0.206573 0.701011 0.287248
0.407579 0.705070 0.285326
0.235424 0.712783 0.303048
0.460618 0.726479 0.284551
0.464060 0.754159 0.244383
0.242507 0.720666 0.278015
0.254949 0.745938 0.309839
0.410569 0.725132 0.272759
0.274074 0.746528 0.284602
0.408937 0.767380 0.287109
0.253863 0.777131 0.294521
0.425492 0.770198 0.272423
0.245811 0.756209 0.296453
0.264306 0.760938 0.288134
0.426856 0.749500 0.296089
0.425154 0.759982 0.304757
0.258914 0.759883 0.273061
0.257080 0.795785 0.301023
0.412597 0.777681 0.274355
0.280163 0.768394 0.252770
0.414457 0.814048 0.290455
0.231411 0.768533 0.276552
0.422847 0.797216 0.280432
0.279204 0.833098 0.258968
0.422181 0.819160 0.281222
0.299538 0.814485 0.288356
0.379128 0.820460 0.289495
0.414103 0.828744 0.294696
0.288331 0.842339 0.282738
0.412442 0.844888 0.265073
0.420769 0.824848 0.286023
0.263423 0.830039 0.282653
0.399702 0.851759 0.278459
0.279078 0.846394 0.284351
0.427832 0.856091 0.296298
0.283190 0.862857 0.270998
0.419999 0.847381 0.281416
0.270992 0.850563 0.281281
0.404398 0.835159 0.294022
0.302621 0.868937 0.264717
0.413989 0.873001 0.297251
0.286165 0.860533 0.296013
0.271389 0.851055 0.292785
0.403948 0.864728 0.326785
0.410142 0.862235 0.310136
0.407623 0.876133 0.253721
0.268804 0.898561 0.289415
0.405642 0.873165 0.285966
0.278980 0.881018 0.283785
0.434413 0.913946 0.286852
0.277437 0.890148 0.300519
0.425110 0.900357 0.273785
0.277741 0.929040 0.294676
0.295053 0.911867 0.281013
0.421582 0.938803 0.302460
0.331166 0.909426 0.280860
0.373933 0.903813 0.306974
0.354386 0.905211 0.304809
0.303610 0.907869 0.267312
0.332049 0.931839 0.283880
0.307348 0.899236 0.299462
0.406653 0.930299 0.259541
0.335516 0.940685 0.270220
0.327488 0.952668 0.277999
0.354146 0.918836 0.281860
0.280495 0.929211 0.284233
0.366141 0.919971 0.278530
0.371219 0.944008 0.279271
0.333464 0.917901 0.312644
0.273359 0.926636 0.294272
0.427932 0.938051 0.274388
0.360058 0.928657 0.276821
0.347828 0.931112 0.278511
0.262104 0.903714 0.276375
0.340859 0.938435 0.312936
0.366616 0.932683 0.283226
0.260057 0.920030 0.255994
0.379517 0.921349 0.283210
0.337532 0.939424 0.290154
0.271215 0.936792 0.271176
0.433441 0.920904 0.302988
0.340695 0.949143 0.320235
0.333068 0.959364 0.313769
0.260040 0.969462 0.295576
0.376986 0.943739 0.289915
0.248027 0.939987 0.271475
0.416381 0.986266 0.275060
0.325802 0.968565 0.290112
0.332218 0.971769 0.306295
0.240550 0.986880 0.318845
0.378952 0.989991 0.285641
0.357451 0.957382 0.298356
0.304121 0.998281 0.284631
0.263213 1.000069 0.302402
0.420844 1.002591 0.271207
0.358170 0.986409 0.315853
0.330250 0.991728 0.276774
0.302845 0.944467 0.268531
0.385299 1.006162 0.274792
0.358274 0.949203 0.243241
0.296973 0.969307 0.278607
0.247165 0.993585 0.285623
0.430928 0.963978 0.294099
0.362755 1.001308 0.296896
0.317896 1.025471 0.269562
0.424418 0.979998 0.278704
0.387490 1.005363 0.282615
0.395104 1.021078 0.267732
0.372515 0.964362 0.280436
0.311520 1.029442 0.262407
0.276989 0.963639 0.279491
0.268408 1.006073 0.240718
0.273785 0.971006 0.256577
0.268937 1.001174 0.288724
0.150562 0.012237 0.289593
0.041374 0.007244 0.280096
0.197186 -0.009460 0.288022
0.138911 -0.017070 0.290490
0.652302 0.023017 0.306894
0.356005 0.014208 0.287814
0.326917 0.018990 0.271350
0.172898 0.009091 0.291101
0.180161 0.007154 0.293412
0.048630 0.006011 0.280301
0.399891 0.023919 0.313532
0.320045 -0.001982 0.274308
0.338268 0.060331 0.268590
0.251354 -0.008823 0.286634
0.253030 0.012148 0.244278
0.249500 0.008386 0.316155
0.209433 0.031816 0.286861
0.187011 0.034892 0.254766
0.675261 -0.005276 0.267665
0.377850 -0.008393 0.265336
0.344172 0.038571 0.274081
0.295981 -0.011243 0.311195
0.323500 0.031612 0.289195
0.296535 0.015087 0.312340
0.255085 0.008327 0.285339
0.176077 0.011272 0.305565
0.629702 0.002463 0.271797
0.302219 0.035406 0.284757
0.271279 0.031383 0.278129
0.259278 0.009727 0.270328
0.215719 0.019037 0.265707
0.027930 0.013821 0.290168
0.298376 0.019668 0.261862
0.295763 0.026081 0.291848
0.256913 0.030881 0.269923
0.215633 0.053199 0.315907
0.193733 0.049790 0.265706
0.190498 0.063376 0.294151
0.302428 0.045069 0.289316
0.294729 0.035280 0.271873
0.210458 0.038453 0.297155
0.216702 0.027845 0.284602
0.042100 0.036434 0.256281
0.696399 0.049945 0.283367
0.005085 0.032609 0.291317
-0.005282 0.062505 0.284397
0.654782 0.052102 0.304409
0.034607 0.082489 0.277714
0.684345 0.095693 0.289110
0.029989 0.081731 0.302587
0.642896 0.067408 0.301565
0.005259 0.098388 0.304386
0.656048 0.109541 0.304004
-0.012283 0.108357 0.266267
0.670345 0.105637 0.299443
0.648095 0.118156 0.291017
-0.016882 0.115265 0.309870
0.652882 0.122795 0.289361
0.000620 0.130590 0.267408
0.650756 0.108705 0.276753
-0.005749 0.122819 0.290983
0.677368 0.129060 0.295554
0.017112 0.151664 0.301066
0.642240 0.156790 0.305967
0.698809 0.151658 0.303867
0.032167 0.161693 0.304773
0.642418 0.168046 0.295839
0.653077 0.158435 0.324989
0.031320 0.181455 0.278678
0.651605 0.195490 0.309396
0.018198 0.159243 0.283012
0.021486 0.211868 0.264835
0.680432 0.243245 0.267984
0.684042 0.247202 0.288992
-0.004613 0.215672 0.271329
0.694115 0.229699 0.315518
0.668263 0.240216 0.272628
-0.010130 0.232853 0.260168
0.681019 0.252021 0.265376
-0.006454 0.258192 0.289766
0.656060 0.241847 0.295278
0.662382 0.204842 0.283997
-0.012439 0.248945 0.299838
0.682092 0.263272 0.294726
-0.007500 0.272183 0.294838
0.681413 0.258729 0.314853
0.016663 0.261525 0.279876
0.007847 0.259427 0.283535
0.662944 0.291777 0.304814
-0.004002 0.262343 0.279494
0.660239 0.304978 0.270766
0.014894 0.279880 0.292909
0.671859 0.301066 0.282464
-0.023365 0.314679 0.297039
0.673427 0.281554 0.282136
0.016704 0.320882 0.283428
-0.004202 0.284168 0.271812
0.687404 0.331383 0.302641
0.003916 0.301003 0.297957
0.007050 0.341291 0.308906
0.007355 0.330715 0.277056
0.698678 0.355050 0.309241
-0.012448 0.337123 0.274197
0.677709 0.348889 0.283171
-0.024510 0.398778 0.276251
0.669731 0.393132 0.304698
0.673483 0.359689 0.298799
0.019262 0.388438 0.303429
0.666574 0.391445 0.239251
0.693050 0.412279 0.268437
0.658624 0.400398 0.301306
0.663984 0.443016 0.277961
0.000830 0.424971 0.300700
0.020139 0.435781 0.282063
0.674757 0.428346 0.288335
0.027183 0.438416 0.291573
0.669916 0.413392 0.291424
0.012553 0.445128 0.278076
0.694721 0.445107 0.298645
0.010951 0.470572 0.266870
-0.000354 0.420327 0.284171
0.657407 0.460563 0.300146
0.683739 0.463785 0.321944
0.011823 0.474302 0.285522
0.009952 0.460851 0.288226
0.679061 0.475308 0.286960
-0.001373 0.481012 0.285196
0.656151 0.470277 0.293909
-0.001757 0.462821 0.277983
0.653448 0.495713 0.305682
-0.005985 0.490751 0.306146
0.042682 0.519819 0.272515
0.655152 0.501098 0.313097
-0.009986 0.520661 0.288089
0.687957 0.524710 0.282399
-0.017579 0.536638 0.282986
0.679510 0.541614 0.259262
0.020742 0.547628 0.270489
0.661986 0.542918 0.286613
0.001450 0.570865 0.256048
0.005318 0.541225 0.316081
0.663052 0.587516 0.303330
-0.018942 0.576528 0.279735
0.653670 0.550228 0.246880
0.023499 0.554843 0.293303
-0.012192 0.565439 0.271508
0.679677 0.592688 0.288574
0.687389 0.604401 0.284488
0.016418 0.602117 0.275799
0.695325 0.596906 0.265303
0.038208 0.610268 0.275822
0.666504 0.588852 0.319476
0.614916 0.612532 0.295968
0.022835 0.603349 0.285078
0.662037 0.637792 0.274015
0.039974 0.631930 0.293671
0.680166 0.625156 0.292485
0.056160 0.649816 0.298739
0.632937 0.608055 0.276219
0.030251 0.630970 0.287415
0.036952 0.665804 0.336625
0.616950 0.648637 0.305965
0.059287 0.693401 0.261570
0.622999 0.666452 0.288268
0.033693 0.643896 0.312064
0.592394 0.645218 0.321694
0.074815 0.686301 0.282964
0.566970 0.692471 0.291582
0.080998 0.706512 0.304442
0.059155 0.658214 0.270771
0.561252 0.666921 0.291788
0.061471 0.706541 0.301320
0.531948 0.660320 0.318311
0.538488 0.664375 0.280366
0.530633 0.680216 0.278597
0.083101 0.686453 0.276063
0.092018 0.707960 0.284452
0.519506 0.667905 0.288494
0.517857 0.710457 0.321051
0.503074 0.705934 0.277400
0.506427 0.696767 0.270814
0.487774 0.705785 0.297733
0.128380 0.671210 0.288583
0.469835 0.704284 0.287468
0.139785 0.711172 0.279065
0.491961 0.695402 0.249769
0.178551 0.719975 0.264925
0.178014 0.705123 0.267193
0.174755 0.681714 0.268818
0.436879 0.714082 0.271493
0.464757 0.712827 0.277182
0.199679 0.722304 0.285442
0.240395 0.736633 0.281858
0.436683 0.768275 0.291510
0.223889 0.722295 0.291443
0.427728 0.741532 0.276645
0.401680 0.728076 0.292771
0.262941 0.764663 0.295699
0.402723 0.736611 0.309222
0.239954 0.760878 0.296287
0.436001 0.742598 0.276258
0.428652 0.746768 0.282524
0.428518 0.773285 0.301536
0.284981 0.775737 0.289948
0.425136 0.764042 0.264549
0.293829 0.788805 0.324243
0.270632 0.786978 0.276249
0.423869 0.765640 0.317242
0.252408 0.785676 0.299024
0.415588 0.783967 0.280328
0.239015 0.784984 0.302094
0.286254 0.808412 0.295825
0.436900 0.794439 0.315898
0.400908 0.845343 0.293398
0.281413 0.814230 0.272510
0.280438 0.802741 0.249455
0.278775 0.838598 0.287297
0.264711 0.839464 0.291902
0.401596 0.829594 0.304922
0.254911 0.849329 0.281776
0.417006 0.850210 0.281232
0.273483 0.860400 0.279439
0.397929 0.856474 0.283049
0.290136 0.860599 0.303403
0.396549 0.861110 0.279806
0.277277 0.855657 0.322065
0.402476 0.895965 0.292830
0.271619 0.896489 0.278882
0.284206 0.910070 0.279736
0.340513 0.896090 0.252454
0.299422 0.877316 0.292496
0.443263 0.882122 0.293791
0.344605 0.891806 0.316941
0.330470 0.906947 0.299911
0.408115 0.889397 0.312532
0.337588 0.866181 0.283232
0.320370 0.898823 0.276101
0.297731 0.907608 0.289034
0.439560 0.908324 0.305338
0.338931 0.896679 0.279229
0.362560 0.912176 0.250061
0.337283 0.876410 0.283856
0.344865 0.922126 0.293007
0.274550 0.907753 0.288491
0.393681 0.919379 0.296630
0.351478 0.917094 0.271765
0.340779 0.929761 0.303686
0.331203 0.938942 0.275274
0.280575 0.927408 0.272760
0.378366 0.939591 0.274607
0.313429 0.928234 0.294531
0.248552 0.925109 0.296778
0.396446 0.938157 0.302553
0.382147 0.937500 0.315688
0.321633 0.912630 0.284846
0.331703 0.924287 0.280493
0.372032 0.928467 0.292258
0.343897 0.942045 0.293516
0.318995 0.917473 0.313879
0.277776 0.936664 0.301101
0.412108 0.942477 0.290824
0.382572 0.946233 0.294372
0.371190 0.929401 0.265275
0.311865 0.924335 0.288438
0.415795 0.971630 0.280324
0.310093 0.928714 0.290763
0.278155 0.928626 0.297153
0.387750 0.956908 0.272541
0.359345 0.961789 0.288362
0.316726 0.940022 0.332284
0.312178 0.919348 0.272182
0.336921 0.926364 0.267083
0.269497 0.948408 0.277497
0.437151 0.962192 0.281727
0.369348 0.964417 0.286096
0.354677 0.949402 0.284534
0.346950 0.950863 0.295179
0.340891 0.944799 0.279700
0.319714 0.953222 0.280672
0.382599 0.962332 0.275146
0.356609 0.983078 0.291901
0.343423 0.954838 0.264536
0.326582 0.964590 0.259509
0.284654 0.969015 0.298694
0.334356 0.966074 0.305140
0.449200 0.962152 0.312072
0.375658 0.962560 0.287247
0.323772 0.966151 0.279218
0.252134 0.954752 0.308000
0.333097 0.971891 0.283958
0.351350 0.940175 0.295358
0.322977 0.955097 0.276845
0.328007 0.984480 0.310909
0.328266 0.979383 0.298167
0.266384 0.966388 0.267273
0.413008 0.955915 0.287793
0.361658 1.005665 0.294125
0.304024 0.957918 0.310362
0.354777 0.984829 0.266870
0.282506 0.960652 0.298077
0.261239 0.982439 0.282012
0.429933 1.000911 0.299134
0.370306 0.986070 0.278608
0.423082 0.974664 0.283462
0.373189 1.001925 0.311076
0.275535 1.015135 0.291685
0.408958 1.006665 0.295946
0.399182 1.006220 0.287195
0.263687 1.029314 0.304884
0.288288 1.005863 0.290738
0.243145 1.000534 0.279396
0.247959 0.992037 0.245953
0.255659 0.995349 0.311627
0.661163 0.008481 0.274483
0.396161 0.017550 0.299342
0.398445 0.006825 0.291320
0.049946 -0.002385 0.290210
0.058820 0.002927 0.276285
0.393641 0.004023 0.296978
0.172012 -0.032957 0.301089
0.649733 0.031880 0.281597
0.400235 0.014351 0.297321
0.366113 0.011640 0.293841
0.266039 0.012656 0.300437
0.188648 0.017677 0.304535
0.177888 0.016436 0.283275
0.038385 0.017765 0.310801
0.380704 0.037529 0.268130
0.355435 0.011536 0.282762
0.353642 0.037779 0.272771
0.350649 0.040481 0.277502
0.258306 0.044579 0.303827
0.268920 -0.006573 0.264486
0.175797 0.042086 0.255496
0.648688 0.032507 0.254195
0.353542 0.049970 0.296006
0.352693 0.033615 0.319216
0.338177 0.017683 0.303688
0.311097 0.013608 0.255101
0.293024 0.032114 0.291753
0.194609 -0.000677 0.298799
0.173136 -0.003770 0.295810
0.043240 0.027049 0.281254
0.342891 0.042205 0.297678
0.182233 0.011218 0.276665
0.677255 0.040334 0.295433
0.290168 0.037498 0.282951
0.303246 0.035402 0.278560
0.189909 0.039914 0.266229
0.029603 0.040810 0.294888
0.688246 0.037615 0.315960
0.271212 0.016677 0.275041
0.670707 0.047058 0.313037
0.666237 0.049034 0.314032
0.681391 0.108157 0.281875
0.009904 0.042937 0.270608
0.646158 0.082411 0.275743
0.000406 0.061524 0.286102
0.002260 0.077502 0.282662
0.694362 0.092240 0.303912
0.697069 0.080493 0.316138
0.036662 0.084418 0.300640
0.690036 0.086223 0.301309
0.023541 0.060641 0.298943
0.005622 0.122457 0.296154
0.638856 0.112146 0.303313
0.684645 0.140703 0.275019
0.001059 0.122036 0.305604
0.694139 0.118289 0.294812
0.008399 0.153970 0.274777
0.667967 0.143913 0.303474
0.006124 0.177980 0.314068
0.023097 0.163156 0.312883
-0.010482 0.150241 0.289113
0.668271 0.173768 0.276632
0.020470 0.190060 0.298701
0.711487 0.196579 0.312603
0.010360 0.177558 0.286162
0.008626 0.181583 0.278935
0.692719 0.223015 0.267311
0.684256 0.208558 0.275774
0.021210 0.203681 0.281413
-0.011448 0.207778 0.290692
0.021679 0.187380 0.286409
0.675581 0.181069 0.324170
0.019355 0.256266 0.327732
0.012616 0.251026 0.258689
0.683048 0.269822 0.296274
-0.011953 0.242447 0.300961
0.674141 0.241698 0.306862
0.679620 0.274600 0.289232
-0.019133 0.229790 0.301017
-0.014975 0.301669 0.299763
0.657544 0.277962 0.270874
0.689118 0.299421 0.261223
-0.002875 0.310104 0.292947
0.669273 0.298307 0.306985
0.694317 0.303850 0.266285
0.011207 0.297749 0.311920
0.669934 0.286226 0.276594
-0.002427 0.332402 0.292051
0.682969 0.311445 0.276536
0.674055 0.316209 0.286014
-0.021600 0.301194 0.308825
0.003277 0.336077 0.275493
0.673593 0.336843 0.284873
0.027896 0.317307 0.295738
0.679921 0.325727 0.311503
0.688773 0.363480 0.323667
-0.014940 0.328690 0.288444
0.681226 0.353447 0.316227
