ply
format ascii 1.0
element vertex 1773
property float x
property float y
property float z
end_header
0.237527 0.592860 0.656446
0.252527 0.577860 0.656446
0.252527 0.577860 0.671446
0.252527 0.592860 0.656446
0.252527 0.592860 0.671446
0.267527 0.547860 0.671446
0.267527 0.562860 0.671446
0.282527 0.547860 0.671446
0.282527 0.562860 0.671446
0.267527 0.577860 0.671446
0.267527 0.592860 0.671446
0.282527 0.577860 0.671446
0.282527 0.592860 0.671446
0.237527 0.622860 0.641446
0.237527 0.607860 0.656446
0.237527 0.622860 0.656446
0.252527 0.607860 0.656446
0.252527 0.622860 0.656446
0.237527 0.637860 0.641446
0.237527 0.652860 0.626446
0.252527 0.637860 0.641446
0.252527 0.652860 0.626446
0.252527 0.652860 0.641446
0.267527 0.607860 0.656446
0.267527 0.622860 0.656446
0.282527 0.607860 0.656446
0.282527 0.607860 0.671446
0.282527 0.622860 0.656446
0.267527 0.637860 0.641446
0.267527 0.652860 0.626446
0.267527 0.652860 0.641446
0.282527 0.637860 0.641446
0.282527 0.652860 0.626446
0.282527 0.652860 0.641446
0.267527 0.637860 0.656446
0.282527 0.637860 0.656446
0.177527 0.682860 0.506446
0.177527 0.682860 0.521446
0.192527 0.682860 0.506446
0.192527 0.682860 0.521446
0.177527 0.667860 0.551446
0.177527 0.682860 0.536446
0.177527 0.682860 0.551446
0.192527 0.682860 0.536446
0.192527 0.682860 0.551446
0.207527 0.682860 0.506446
0.207527 0.682860 0.521446
0.222527 0.682860 0.521446
0.207527 0.682860 0.536446
0.207527 0.682860 0.551446
0.222527 0.682860 0.536446
0.222527 0.682860 0.551446
0.207527 0.697860 0.506446
0.222527 0.697860 0.506446
0.177527 0.667860 0.566446
0.177527 0.667860 0.581446
0.192527 0.667860 0.566446
0.192527 0.667860 0.581446
0.192527 0.682860 0.566446
0.177527 0.667860 0.596446
0.192527 0.667860 0.596446
0.207527 0.667860 0.581446
0.207527 0.682860 0.566446
0.222527 0.667860 0.581446
0.222527 0.682860 0.566446
0.207527 0.667860 0.596446
0.222527 0.667860 0.596446
0.222527 0.667860 0.611446
0.237527 0.682860 0.521446
0.237527 0.682860 0.536446
0.237527 0.682860 0.551446
0.252527 0.682860 0.536446
0.252527 0.682860 0.551446
0.237527 0.697860 0.506446
0.237527 0.697860 0.521446
0.252527 0.697860 0.506446
0.252527 0.697860 0.521446
0.267527 0.682860 0.536446
0.267527 0.682860 0.551446
0.282527 0.682860 0.536446
0.282527 0.682860 0.551446
0.267527 0.697860 0.506446
0.267527 0.697860 0.521446
0.282527 0.697860 0.506446
0.282527 0.697860 0.521446
0.282527 0.697860 0.536446
0.237527 0.667860 0.581446
0.237527 0.682860 0.566446
0.237527 0.682860 0.581446
0.252527 0.682860 0.566446
0.252527 0.682860 0.581446
0.237527 0.667860 0.596446
0.237527 0.667860 0.611446
0.252527 0.667860 0.596446
0.252527 0.667860 0.611446
0.267527 0.682860 0.566446
0.267527 0.682860 0.581446
0.282527 0.682860 0.566446
0.282527 0.682860 0.581446
0.267527 0.667860 0.596446
0.267527 0.667860 0.611446
0.282527 0.667860 0.596446
0.282527 0.667860 0.611446
0.282527 0.682860 0.596446
0.282527 0.667860 0.626446
0.297527 0.547860 0.671446
0.297527 0.562860 0.671446
0.312527 0.547860 0.671446
0.312527 0.562860 0.671446
0.297527 0.577860 0.671446
0.297527 0.592860 0.671446
0.312527 0.577860 0.671446
0.312527 0.592860 0.671446
0.327527 0.547860 0.671446
0.327527 0.562860 0.671446
0.342527 0.562860 0.671446
0.327527 0.577860 0.671446
0.327527 0.592860 0.671446
0.342527 0.577860 0.671446
0.342527 0.592860 0.671446
0.327527 0.547860 0.686446
0.327527 0.562860 0.686446
0.342527 0.547860 0.686446
0.342527 0.562860 0.686446
0.297527 0.607860 0.671446
0.297527 0.622860 0.656446
0.297527 0.622860 0.671446
0.312527 0.607860 0.671446
0.312527 0.622860 0.656446
0.312527 0.622860 0.671446
0.297527 0.637860 0.641446
0.297527 0.652860 0.626446
0.297527 0.652860 0.641446
0.312527 0.652860 0.626446
0.312527 0.652860 0.641446
0.297527 0.637860 0.656446
0.312527 0.637860 0.656446
0.327527 0.607860 0.671446
0.327527 0.622860 0.656446
0.327527 0.622860 0.671446
0.342527 0.607860 0.671446
0.342527 0.622860 0.656446
0.342527 0.622860 0.671446
0.327527 0.652860 0.626446
0.327527 0.652860 0.641446
0.342527 0.652860 0.626446
0.342527 0.652860 0.641446
0.327527 0.637860 0.656446
0.342527 0.637860 0.656446
0.357527 0.547860 0.671446
0.357527 0.562860 0.671446
0.372527 0.547860 0.671446
0.372527 0.562860 0.671446
0.357527 0.577860 0.671446
0.357527 0.592860 0.671446
0.372527 0.577860 0.671446
0.372527 0.592860 0.671446
0.387527 0.547860 0.671446
0.387527 0.562860 0.671446
0.402527 0.547860 0.671446
0.402527 0.562860 0.671446
0.387527 0.577860 0.671446
0.387527 0.592860 0.671446
0.402527 0.577860 0.671446
0.402527 0.592860 0.671446
0.357527 0.547860 0.686446
0.357527 0.607860 0.671446
0.357527 0.622860 0.656446
0.357527 0.622860 0.671446
0.372527 0.607860 0.671446
0.372527 0.622860 0.656446
0.357527 0.652860 0.626446
0.357527 0.652860 0.641446
0.372527 0.637860 0.641446
0.372527 0.652860 0.626446
0.372527 0.652860 0.641446
0.357527 0.637860 0.656446
0.372527 0.637860 0.656446
0.387527 0.607860 0.671446
0.387527 0.622860 0.656446
0.402527 0.607860 0.656446
0.402527 0.607860 0.671446
0.402527 0.622860 0.656446
0.387527 0.637860 0.641446
0.387527 0.652860 0.626446
0.387527 0.652860 0.641446
0.402527 0.637860 0.641446
0.402527 0.652860 0.626446
0.402527 0.652860 0.641446
0.387527 0.637860 0.656446
0.402527 0.637860 0.656446
0.297527 0.682860 0.536446
0.297527 0.682860 0.551446
0.312527 0.682860 0.536446
0.312527 0.682860 0.551446
0.297527 0.697860 0.506446
0.297527 0.697860 0.521446
0.312527 0.697860 0.506446
0.312527 0.697860 0.521446
0.312527 0.697860 0.536446
0.327527 0.682860 0.536446
0.327527 0.682860 0.551446
0.342527 0.682860 0.551446
0.327527 0.697860 0.506446
0.327527 0.697860 0.521446
0.342527 0.697860 0.506446
0.342527 0.697860 0.521446
0.327527 0.697860 0.536446
0.342527 0.697860 0.536446
0.297527 0.682860 0.566446
0.297527 0.682860 0.581446
0.312527 0.682860 0.566446
0.312527 0.682860 0.581446
0.297527 0.667860 0.596446
0.297527 0.667860 0.611446
0.297527 0.682860 0.596446
0.312527 0.667860 0.596446
0.312527 0.667860 0.611446
0.312527 0.682860 0.596446
0.327527 0.682860 0.566446
0.327527 0.682860 0.581446
0.342527 0.682860 0.566446
0.342527 0.682860 0.581446
0.327527 0.667860 0.611446
0.327527 0.682860 0.596446
0.342527 0.667860 0.611446
0.342527 0.682860 0.596446
0.357527 0.682860 0.551446
0.372527 0.682860 0.551446
0.357527 0.697860 0.506446
0.357527 0.697860 0.521446
0.372527 0.697860 0.506446
0.372527 0.697860 0.521446
0.357527 0.697860 0.536446
0.372527 0.697860 0.536446
0.372527 0.697860 0.551446
0.387527 0.682860 0.551446
0.402527 0.682860 0.551446
0.387527 0.697860 0.506446
0.387527 0.697860 0.521446
0.402527 0.697860 0.506446
0.402527 0.697860 0.521446
0.387527 0.697860 0.536446
0.402527 0.697860 0.536446
0.357527 0.682860 0.566446
0.357527 0.682860 0.581446
0.372527 0.682860 0.566446
0.372527 0.682860 0.581446
0.357527 0.667860 0.596446
0.357527 0.667860 0.611446
0.357527 0.682860 0.596446
0.372527 0.667860 0.596446
0.372527 0.667860 0.611446
0.372527 0.682860 0.596446
0.387527 0.682860 0.566446
0.387527 0.682860 0.581446
0.402527 0.682860 0.566446
0.402527 0.682860 0.581446
0.387527 0.667860 0.596446
0.387527 0.667860 0.611446
0.387527 0.682860 0.596446
0.402527 0.667860 0.596446
0.402527 0.667860 0.611446
0.297527 0.667860 0.626446
0.312527 0.667860 0.626446
0.327527 0.667860 0.626446
0.342527 0.667860 0.626446
0.357527 0.667860 0.626446
0.372527 0.667860 0.626446
0.387527 0.667860 0.626446
0.417527 0.007860 0.041446
0.417527 0.022860 0.041446
0.432527 0.007860 0.041446
0.432527 0.022860 0.041446
0.417527 0.037860 0.041446
0.417527 0.052860 0.026446
0.417527 0.052860 0.041446
0.432527 0.037860 0.041446
0.432527 0.052860 0.041446
0.447527 0.007860 0.041446
0.447527 0.022860 0.041446
0.447527 0.007860 0.056446
0.447527 0.022860 0.056446
0.462527 0.007860 0.056446
0.462527 0.022860 0.056446
0.447527 0.037860 0.041446
0.447527 0.052860 0.041446
0.462527 0.037860 0.041446
0.462527 0.052860 0.041446
0.462527 0.037860 0.056446
0.462527 0.052860 0.056446
0.477527 0.007860 0.056446
0.477527 0.007860 0.071446
0.477527 0.022860 0.056446
0.477527 0.022860 0.071446
0.492527 0.007860 0.071446
0.492527 0.022860 0.071446
0.477527 0.037860 0.056446
0.477527 0.052860 0.056446
0.492527 0.037860 0.056446
0.492527 0.037860 0.071446
0.492527 0.052860 0.056446
0.492527 0.052860 0.071446
0.507527 0.007860 0.071446
0.507527 0.022860 0.071446
0.507527 0.037860 0.071446
0.507527 0.052860 0.071446
0.522527 0.052860 0.071446
0.507527 0.007860 0.086446
0.507527 0.022860 0.086446
0.522527 0.007860 0.086446
0.522527 0.022860 0.086446
0.522527 0.037860 0.086446
0.522527 0.052860 0.086446
0.537527 0.007860 0.101446
0.537527 0.022860 0.086446
0.537527 0.022860 0.101446
0.552527 0.007860 0.101446
0.552527 0.022860 0.101446
0.537527 0.037860 0.086446
0.537527 0.037860 0.101446
0.537527 0.052860 0.086446
0.552527 0.037860 0.101446
0.552527 0.052860 0.086446
0.552527 0.052860 0.101446
0.567527 0.007860 0.116446
0.567527 0.022860 0.116446
0.582527 0.007860 0.116446
0.582527 0.007860 0.131446
0.582527 0.022860 0.131446
0.567527 0.052860 0.101446
0.567527 0.037860 0.116446
0.567527 0.052860 0.116446
0.582527 0.037860 0.116446
0.582527 0.037860 0.131446
0.582527 0.052860 0.116446
0.582527 0.052860 0.131446
0.597527 0.052860 0.131446
0.582527 0.022860 0.146446
0.597527 0.007860 0.146446
0.597527 0.007860 0.161446
0.597527 0.022860 0.146446
0.597527 0.022860 0.161446
0.612527 0.007860 0.161446
0.612527 0.022860 0.161446
0.612527 0.007860 0.176446
0.612527 0.022860 0.176446
0.597527 0.037860 0.146446
0.597527 0.052860 0.146446
0.612527 0.037860 0.161446
0.612527 0.052860 0.146446
0.612527 0.052860 0.161446
0.612527 0.037860 0.176446
0.627527 0.007860 0.176446
0.627527 0.007860 0.191446
0.627527 0.022860 0.191446
0.627527 0.037860 0.176446
0.627527 0.037860 0.191446
0.627527 0.052860 0.176446
0.627527 0.052860 0.191446
0.627527 0.007860 0.206446
0.627527 0.022860 0.206446
0.642527 0.007860 0.206446
0.642527 0.007860 0.221446
0.642527 0.022860 0.221446
0.642527 0.007860 0.236446
0.642527 0.007860 0.251446
0.642527 0.022860 0.236446
0.642527 0.022860 0.251446
0.627527 0.037860 0.206446
0.627527 0.052860 0.206446
0.642527 0.037860 0.206446
0.642527 0.037860 0.221446
0.642527 0.052860 0.206446
0.642527 0.052860 0.221446
0.642527 0.037860 0.236446
0.642527 0.037860 0.251446
0.642527 0.052860 0.236446
0.417527 0.007860 0.311446
0.432527 0.007860 0.311446
0.417527 0.007860 0.326446
0.417527 0.007860 0.341446
0.417527 0.022860 0.341446
0.432527 0.007860 0.326446
0.432527 0.007860 0.341446
0.417527 0.022860 0.356446
0.417527 0.022860 0.371446
0.432527 0.007860 0.356446
0.432527 0.022860 0.356446
0.432527 0.022860 0.371446
0.417527 0.037860 0.356446
0.417527 0.037860 0.371446
0.417527 0.052860 0.371446
0.447527 0.007860 0.341446
0.462527 0.007860 0.341446
0.447527 0.007860 0.356446
0.447527 0.007860 0.371446
0.447527 0.022860 0.371446
0.462527 0.007860 0.356446
0.462527 0.007860 0.371446
0.477527 0.007860 0.341446
0.477527 0.007860 0.356446
0.477527 0.007860 0.371446
0.492527 0.007860 0.356446
0.492527 0.007860 0.371446
0.507527 0.007860 0.356446
0.507527 0.007860 0.371446
0.522527 0.007860 0.356446
0.522527 0.007860 0.371446
0.432527 0.022860 0.386446
0.432527 0.022860 0.401446
0.417527 0.022860 0.431446
0.432527 0.022860 0.416446
0.432527 0.022860 0.431446
0.417527 0.037860 0.386446
0.417527 0.037860 0.401446
0.417527 0.052860 0.386446
0.417527 0.052860 0.401446
0.432527 0.037860 0.386446
0.432527 0.037860 0.401446
0.417527 0.037860 0.416446
0.417527 0.037860 0.431446
0.417527 0.052860 0.416446
0.417527 0.052860 0.431446
0.447527 0.007860 0.386446
0.447527 0.007860 0.401446
0.447527 0.022860 0.386446
0.447527 0.022860 0.401446
0.462527 0.007860 0.386446
0.462527 0.007860 0.401446
0.447527 0.007860 0.416446
0.447527 0.007860 0.431446
0.447527 0.022860 0.431446
0.462527 0.007860 0.416446
0.462527 0.007860 0.431446
0.417527 0.022860 0.446446
0.417527 0.022860 0.461446
0.432527 0.007860 0.461446
0.432527 0.022860 0.446446
0.432527 0.022860 0.461446
0.417527 0.007860 0.491446
0.417527 0.022860 0.476446
0.417527 0.022860 0.491446
0.432527 0.007860 0.476446
0.432527 0.007860 0.491446
0.432527 0.022860 0.476446
0.417527 0.037860 0.446446
0.417527 0.037860 0.461446
0.447527 0.007860 0.446446
0.447527 0.007860 0.461446
0.462527 0.007860 0.446446
0.462527 0.007860 0.461446
0.447527 0.007860 0.476446
0.447527 0.007860 0.491446
0.462527 0.007860 0.476446
0.462527 0.007860 0.491446
0.477527 0.007860 0.386446
0.477527 0.007860 0.401446
0.492527 0.007860 0.386446
0.492527 0.007860 0.401446
0.477527 0.007860 0.416446
0.477527 0.007860 0.431446
0.492527 0.007860 0.416446
0.492527 0.007860 0.431446
0.507527 0.007860 0.386446
0.507527 0.007860 0.401446
0.522527 0.007860 0.386446
0.522527 0.007860 0.401446
0.507527 0.007860 0.431446
0.477527 0.007860 0.446446
0.477527 0.007860 0.461446
0.492527 0.007860 0.446446
0.492527 0.007860 0.461446
0.477527 0.007860 0.476446
0.477527 0.007860 0.491446
0.492527 0.007860 0.476446
0.492527 0.007860 0.491446
0.507527 0.007860 0.446446
0.507527 0.007860 0.461446
0.507527 0.007860 0.476446
0.642527 0.007860 0.266446
0.642527 0.022860 0.266446
0.627527 0.007860 0.371446
0.642527 0.007860 0.371446
0.582527 0.007860 0.491446
0.582527 0.022860 0.491446
0.612527 0.007860 0.386446
0.612527 0.007860 0.401446
0.612527 0.007860 0.416446
0.612527 0.007860 0.431446
0.612527 0.022860 0.416446
0.612527 0.022860 0.431446
0.627527 0.007860 0.386446
0.642527 0.007860 0.386446
0.642527 0.007860 0.401446
0.642527 0.022860 0.386446
0.642527 0.022860 0.401446
0.627527 0.007860 0.431446
0.642527 0.007860 0.416446
0.642527 0.007860 0.431446
0.642527 0.022860 0.416446
0.642527 0.022860 0.431446
0.642527 0.037860 0.416446
0.642527 0.037860 0.431446
0.642527 0.052860 0.431446
0.597527 0.007860 0.461446
0.597527 0.022860 0.461446
0.612527 0.007860 0.446446
0.612527 0.022860 0.446446
0.612527 0.022860 0.461446
0.597527 0.007860 0.476446
0.597527 0.007860 0.491446
0.597527 0.022860 0.476446
0.597527 0.022860 0.491446
0.612527 0.007860 0.476446
0.612527 0.007860 0.491446
0.612527 0.022860 0.491446
0.597527 0.037860 0.491446
0.612527 0.037860 0.491446
0.627527 0.007860 0.446446
0.627527 0.007860 0.461446
0.627527 0.022860 0.446446
0.627527 0.022860 0.461446
0.642527 0.022860 0.446446
0.627527 0.007860 0.476446
0.627527 0.022860 0.476446
0.627527 0.037860 0.461446
0.642527 0.037860 0.446446
0.642527 0.037860 0.461446
0.642527 0.052860 0.446446
0.642527 0.052860 0.461446
0.627527 0.037860 0.476446
0.627527 0.037860 0.491446
0.627527 0.052860 0.476446
0.627527 0.052860 0.491446
0.642527 0.052860 0.476446
0.657527 0.037860 0.251446
0.657527 0.052860 0.236446
0.657527 0.052860 0.251446
0.657527 0.007860 0.266446
0.657527 0.007860 0.281446
0.657527 0.022860 0.266446
0.657527 0.022860 0.281446
0.657527 0.007860 0.296446
0.657527 0.007860 0.311446
0.657527 0.022860 0.296446
0.657527 0.022860 0.311446
0.657527 0.037860 0.266446
0.657527 0.037860 0.281446
0.657527 0.052860 0.266446
0.657527 0.052860 0.281446
0.657527 0.037860 0.296446
0.657527 0.037860 0.311446
0.657527 0.052860 0.296446
0.657527 0.052860 0.311446
0.672527 0.052860 0.296446
0.672527 0.052860 0.311446
0.657527 0.007860 0.326446
0.657527 0.007860 0.341446
0.657527 0.022860 0.326446
0.657527 0.022860 0.341446
0.657527 0.007860 0.356446
0.657527 0.007860 0.371446
0.657527 0.022860 0.356446
0.657527 0.022860 0.371446
0.657527 0.037860 0.326446
0.657527 0.037860 0.341446
0.657527 0.052860 0.326446
0.657527 0.052860 0.341446
0.672527 0.052860 0.326446
0.672527 0.052860 0.341446
0.657527 0.037860 0.356446
0.657527 0.037860 0.371446
0.657527 0.052860 0.356446
0.657527 0.052860 0.371446
0.672527 0.052860 0.356446
0.672527 0.052860 0.371446
0.657527 0.022860 0.386446
0.657527 0.022860 0.401446
0.657527 0.037860 0.386446
0.657527 0.037860 0.401446
0.657527 0.052860 0.386446
0.657527 0.052860 0.401446
0.657527 0.037860 0.416446
0.657527 0.037860 0.431446
0.657527 0.052860 0.416446
0.657527 0.052860 0.431446
0.432527 -0.007140 0.581446
0.417527 -0.007140 0.596446
0.432527 -0.007140 0.596446
0.417527 0.007860 0.506446
0.417527 0.007860 0.521446
0.432527 0.007860 0.506446
0.432527 0.007860 0.521446
0.417527 0.007860 0.536446
0.417527 0.007860 0.551446
0.432527 0.007860 0.536446
0.432527 0.007860 0.551446
0.447527 0.007860 0.506446
0.447527 0.007860 0.521446
0.462527 0.007860 0.506446
0.462527 0.007860 0.521446
0.447527 0.007860 0.536446
0.447527 0.007860 0.551446
0.462527 0.007860 0.536446
0.462527 0.007860 0.551446
0.417527 0.007860 0.566446
0.417527 0.007860 0.581446
0.432527 0.007860 0.566446
0.432527 0.007860 0.581446
0.417527 0.007860 0.611446
0.432527 0.007860 0.596446
0.432527 0.007860 0.611446
0.447527 0.007860 0.566446
0.447527 0.007860 0.581446
0.462527 0.007860 0.566446
0.462527 0.007860 0.581446
0.447527 0.007860 0.596446
0.447527 0.007860 0.611446
0.462527 0.007860 0.596446
0.462527 0.007860 0.611446
0.462527 0.037860 0.611446
0.477527 0.007860 0.506446
0.477527 0.007860 0.521446
0.477527 0.007860 0.536446
0.477527 0.007860 0.551446
0.492527 0.007860 0.536446
0.477527 0.007860 0.566446
0.477527 0.007860 0.581446
0.492527 0.007860 0.566446
0.492527 0.007860 0.581446
0.477527 0.007860 0.596446
0.477527 0.007860 0.611446
0.477527 0.022860 0.611446
0.492527 0.007860 0.596446
0.492527 0.007860 0.611446
0.492527 0.022860 0.611446
0.477527 0.037860 0.611446
0.492527 0.037860 0.596446
0.492527 0.037860 0.611446
0.507527 0.007860 0.566446
0.507527 0.007860 0.581446
0.522527 0.007860 0.566446
0.522527 0.007860 0.581446
0.522527 0.022860 0.566446
0.522527 0.022860 0.581446
0.507527 0.007860 0.596446
0.507527 0.037860 0.581446
0.522527 0.037860 0.566446
0.522527 0.037860 0.581446
0.507527 0.037860 0.596446
0.507527 0.037860 0.611446
0.507527 0.052860 0.611446
0.522527 0.037860 0.596446
0.522527 0.037860 0.611446
0.522527 0.052860 0.596446
0.522527 0.052860 0.611446
0.417527 0.007860 0.626446
0.417527 0.007860 0.641446
0.417527 0.022860 0.641446
0.432527 0.007860 0.626446
0.432527 0.007860 0.641446
0.432527 0.022860 0.626446
0.432527 0.022860 0.641446
0.417527 0.037860 0.641446
0.417527 0.052860 0.626446
0.417527 0.052860 0.641446
0.432527 0.037860 0.626446
0.432527 0.037860 0.641446
0.432527 0.052860 0.626446
0.432527 0.052860 0.641446
0.417527 0.037860 0.656446
0.417527 0.052860 0.656446
0.432527 0.052860 0.656446
0.447527 0.007860 0.626446
0.447527 0.022860 0.626446
0.462527 0.007860 0.626446
0.462527 0.022860 0.626446
0.447527 0.037860 0.626446
0.447527 0.037860 0.641446
0.447527 0.052860 0.641446
0.462527 0.037860 0.626446
0.462527 0.037860 0.641446
0.462527 0.052860 0.641446
0.447527 0.052860 0.656446
0.477527 0.037860 0.626446
0.477527 0.052860 0.626446
0.477527 0.052860 0.641446
0.492527 0.037860 0.626446
0.492527 0.052860 0.626446
0.507527 0.052860 0.626446
0.537527 0.007860 0.551446
0.537527 0.022860 0.551446
0.552527 0.007860 0.536446
0.552527 0.007860 0.551446
0.552527 0.022860 0.536446
0.552527 0.022860 0.551446
0.567527 0.007860 0.521446
0.567527 0.022860 0.521446
0.582527 0.007860 0.506446
0.582527 0.007860 0.521446
0.582527 0.022860 0.506446
0.582527 0.022860 0.521446
0.567527 0.007860 0.536446
0.567527 0.007860 0.551446
0.567527 0.022860 0.536446
0.567527 0.022860 0.551446
0.582527 0.007860 0.536446
0.582527 0.022860 0.536446
0.582527 0.022860 0.551446
0.567527 0.037860 0.551446
0.582527 0.037860 0.551446
0.582527 0.052860 0.551446
0.537527 0.007860 0.566446
0.537527 0.022860 0.566446
0.537527 0.022860 0.581446
0.552527 0.022860 0.566446
0.537527 0.037860 0.581446
0.552527 0.037860 0.566446
0.552527 0.037860 0.581446
0.552527 0.052860 0.581446
0.537527 0.037860 0.596446
0.537527 0.052860 0.596446
0.567527 0.022860 0.566446
0.567527 0.037860 0.566446
0.567527 0.052860 0.566446
0.567527 0.052860 0.581446
0.582527 0.052860 0.566446
0.597527 0.007860 0.506446
0.597527 0.007860 0.521446
0.597527 0.022860 0.506446
0.597527 0.022860 0.521446
0.612527 0.022860 0.506446
0.597527 0.037860 0.521446
0.612527 0.037860 0.506446
0.612527 0.037860 0.521446
0.612527 0.052860 0.506446
0.612527 0.052860 0.521446
0.597527 0.037860 0.536446
0.597527 0.052860 0.536446
0.597527 0.052860 0.551446
0.627527 0.052860 0.506446
0.417527 0.067860 0.026446
0.417527 0.082860 0.026446
0.432527 0.067860 0.026446
0.432527 0.067860 0.041446
0.432527 0.082860 0.026446
0.417527 0.097860 0.026446
0.417527 0.112860 0.026446
0.432527 0.097860 0.026446
0.432527 0.112860 0.026446
0.447527 0.067860 0.041446
0.447527 0.082860 0.041446
0.462527 0.067860 0.041446
0.462527 0.082860 0.041446
0.447527 0.097860 0.026446
0.447527 0.112860 0.026446
0.462527 0.097860 0.041446
0.462527 0.112860 0.026446
0.462527 0.112860 0.041446
0.432527 0.127860 0.026446
0.432527 0.142860 0.026446
0.432527 0.157860 0.026446
0.447527 0.127860 0.026446
0.447527 0.142860 0.026446
0.462527 0.127860 0.026446
0.462527 0.127860 0.041446
0.462527 0.142860 0.026446
0.447527 0.157860 0.026446
0.447527 0.172860 0.026446
0.462527 0.157860 0.026446
0.462527 0.172860 0.026446
0.477527 0.067860 0.041446
0.477527 0.082860 0.041446
0.477527 0.067860 0.056446
0.477527 0.082860 0.056446
0.492527 0.067860 0.056446
0.492527 0.067860 0.071446
0.492527 0.082860 0.056446
0.477527 0.097860 0.041446
0.477527 0.112860 0.041446
0.492527 0.112860 0.041446
0.492527 0.097860 0.056446
0.492527 0.112860 0.056446
0.507527 0.067860 0.071446
0.507527 0.082860 0.056446
0.507527 0.082860 0.071446
0.522527 0.067860 0.071446
0.522527 0.082860 0.071446
0.507527 0.097860 0.056446
0.507527 0.097860 0.071446
0.507527 0.112860 0.056446
0.522527 0.097860 0.071446
0.522527 0.112860 0.056446
0.522527 0.112860 0.071446
0.522527 0.067860 0.086446
0.477527 0.127860 0.041446
0.477527 0.142860 0.041446
0.492527 0.127860 0.041446
0.492527 0.142860 0.041446
0.492527 0.127860 0.056446
0.477527 0.157860 0.026446
0.477527 0.157860 0.041446
0.477527 0.172860 0.026446
0.477527 0.172860 0.041446
0.492527 0.157860 0.041446
0.492527 0.172860 0.041446
0.507527 0.127860 0.056446
0.507527 0.142860 0.056446
0.522527 0.127860 0.056446
0.522527 0.127860 0.071446
0.522527 0.142860 0.056446
0.522527 0.142860 0.071446
0.507527 0.157860 0.041446
0.507527 0.157860 0.056446
0.507527 0.172860 0.056446
0.522527 0.157860 0.056446
0.522527 0.157860 0.071446
0.522527 0.172860 0.056446
0.522527 0.172860 0.071446
0.432527 0.187860 0.026446
0.432527 0.202860 0.026446
0.432527 0.217860 0.026446
0.432527 0.232860 0.026446
0.447527 0.187860 0.026446
0.447527 0.202860 0.026446
0.462527 0.187860 0.026446
0.462527 0.202860 0.026446
0.447527 0.217860 0.026446
0.447527 0.232860 0.026446
0.462527 0.217860 0.026446
0.462527 0.217860 0.041446
0.462527 0.232860 0.026446
0.462527 0.232860 0.041446
0.432527 0.247860 0.026446
0.432527 0.262860 0.026446
0.432527 0.277860 0.026446
0.447527 0.247860 0.026446
0.447527 0.262860 0.026446
0.462527 0.247860 0.026446
0.462527 0.262860 0.026446
0.447527 0.277860 0.026446
0.447527 0.292860 0.026446
0.462527 0.277860 0.026446
0.462527 0.292860 0.026446
0.477527 0.187860 0.026446
0.477527 0.187860 0.041446
0.477527 0.202860 0.026446
0.477527 0.202860 0.041446
0.492527 0.187860 0.041446
0.492527 0.202860 0.041446
0.477527 0.217860 0.041446
0.477527 0.232860 0.041446
0.492527 0.217860 0.041446
0.492527 0.232860 0.041446
0.507527 0.187860 0.041446
0.507527 0.187860 0.056446
0.507527 0.202860 0.056446
0.522527 0.187860 0.056446
0.522527 0.187860 0.071446
0.522527 0.202860 0.056446
0.507527 0.232860 0.041446
0.507527 0.217860 0.056446
0.507527 0.232860 0.056446
0.522527 0.217860 0.056446
0.522527 0.217860 0.071446
0.522527 0.232860 0.056446
0.522527 0.232860 0.071446
0.477527 0.247860 0.041446
0.477527 0.262860 0.026446
0.477527 0.262860 0.041446
0.492527 0.247860 0.041446
0.492527 0.262860 0.041446
0.477527 0.277860 0.026446
0.477527 0.277860 0.041446
0.477527 0.292860 0.026446
0.477527 0.292860 0.041446
0.492527 0.277860 0.041446
0.492527 0.292860 0.041446
0.507527 0.247860 0.041446
0.507527 0.262860 0.041446
0.507527 0.247860 0.056446
0.507527 0.262860 0.056446
0.522527 0.247860 0.056446
0.522527 0.247860 0.071446
0.522527 0.262860 0.056446
0.507527 0.277860 0.041446
0.507527 0.292860 0.041446
0.507527 0.277860 0.056446
0.507527 0.292860 0.056446
0.522527 0.277860 0.056446
0.522527 0.292860 0.056446
0.537527 0.082860 0.071446
0.537527 0.097860 0.071446
0.537527 0.112860 0.071446
0.537527 0.067860 0.086446
0.537527 0.082860 0.086446
0.552527 0.067860 0.086446
0.552527 0.067860 0.101446
0.552527 0.082860 0.086446
0.552527 0.082860 0.101446
0.537527 0.097860 0.086446
0.537527 0.112860 0.086446
0.552527 0.097860 0.086446
0.552527 0.112860 0.086446
0.567527 0.067860 0.101446
0.567527 0.082860 0.101446
0.567527 0.067860 0.116446
0.582527 0.067860 0.116446
0.582527 0.067860 0.131446
0.582527 0.082860 0.116446
0.582527 0.082860 0.131446
0.567527 0.097860 0.086446
0.567527 0.097860 0.101446
0.567527 0.112860 0.086446
0.567527 0.112860 0.101446
0.582527 0.097860 0.101446
0.582527 0.112860 0.101446
0.582527 0.097860 0.116446
0.582527 0.112860 0.116446
0.537527 0.127860 0.071446
0.537527 0.142860 0.071446
0.552527 0.142860 0.071446
0.537527 0.157860 0.071446
0.537527 0.172860 0.071446
0.537527 0.127860 0.086446
0.552527 0.127860 0.086446
0.552527 0.142860 0.086446
0.552527 0.157860 0.086446
0.552527 0.172860 0.086446
0.567527 0.127860 0.086446
0.567527 0.127860 0.101446
0.567527 0.142860 0.086446
0.567527 0.142860 0.101446
0.582527 0.127860 0.101446
0.582527 0.142860 0.101446
0.582527 0.127860 0.116446
0.582527 0.142860 0.116446
0.567527 0.157860 0.086446
0.567527 0.157860 0.101446
0.567527 0.172860 0.086446
0.567527 0.172860 0.101446
0.582527 0.157860 0.101446
0.582527 0.172860 0.101446
0.582527 0.172860 0.116446
0.597527 0.067860 0.131446
0.597527 0.082860 0.131446
0.597527 0.097860 0.116446
0.597527 0.097860 0.131446
0.597527 0.112860 0.116446
0.597527 0.112860 0.131446
0.612527 0.097860 0.131446
0.612527 0.112860 0.131446
0.597527 0.127860 0.116446
0.597527 0.127860 0.131446
0.597527 0.142860 0.116446
0.597527 0.142860 0.131446
0.612527 0.127860 0.131446
0.612527 0.142860 0.131446
0.597527 0.157860 0.116446
0.597527 0.157860 0.131446
0.597527 0.172860 0.116446
0.597527 0.172860 0.131446
0.612527 0.157860 0.131446
0.612527 0.172860 0.131446
0.597527 0.067860 0.146446
0.597527 0.082860 0.146446
0.612527 0.067860 0.146446
0.612527 0.067860 0.161446
0.612527 0.082860 0.146446
0.612527 0.082860 0.161446
0.612527 0.097860 0.146446
0.612527 0.112860 0.146446
0.627527 0.067860 0.161446
0.627527 0.082860 0.161446
0.627527 0.067860 0.176446
0.627527 0.067860 0.191446
0.627527 0.082860 0.176446
0.642527 0.067860 0.191446
0.642527 0.082860 0.176446
0.642527 0.082860 0.191446
0.627527 0.097860 0.161446
0.627527 0.112860 0.161446
0.627527 0.097860 0.176446
0.627527 0.112860 0.176446
0.642527 0.097860 0.176446
0.642527 0.097860 0.191446
0.642527 0.112860 0.176446
0.642527 0.112860 0.191446
0.642527 0.067860 0.206446
0.642527 0.067860 0.221446
0.642527 0.082860 0.206446
0.642527 0.097860 0.206446
0.642527 0.112860 0.206446
0.612527 0.127860 0.146446
0.612527 0.142860 0.146446
0.612527 0.157860 0.146446
0.612527 0.172860 0.146446
0.627527 0.127860 0.146446
0.627527 0.127860 0.161446
0.627527 0.142860 0.146446
0.627527 0.142860 0.161446
0.627527 0.127860 0.176446
0.627527 0.142860 0.176446
0.642527 0.127860 0.176446
0.642527 0.127860 0.191446
0.642527 0.142860 0.176446
0.642527 0.142860 0.191446
0.627527 0.157860 0.146446
0.627527 0.157860 0.161446
0.627527 0.172860 0.146446
0.627527 0.172860 0.161446
0.627527 0.157860 0.176446
0.642527 0.157860 0.176446
0.642527 0.157860 0.191446
0.642527 0.172860 0.176446
0.642527 0.172860 0.191446
0.537527 0.187860 0.071446
0.537527 0.202860 0.071446
0.552527 0.187860 0.071446
0.552527 0.202860 0.071446
0.537527 0.217860 0.071446
0.537527 0.232860 0.071446
0.552527 0.217860 0.071446
0.552527 0.232860 0.071446
0.552527 0.187860 0.086446
0.552527 0.202860 0.086446
0.552527 0.217860 0.086446
0.552527 0.232860 0.086446
0.567527 0.187860 0.086446
0.567527 0.187860 0.101446
0.567527 0.202860 0.086446
0.567527 0.202860 0.101446
0.582527 0.187860 0.101446
0.582527 0.202860 0.101446
0.567527 0.217860 0.086446
0.567527 0.217860 0.101446
0.567527 0.232860 0.086446
0.582527 0.217860 0.101446
0.582527 0.232860 0.101446
0.537527 0.247860 0.071446
0.537527 0.262860 0.071446
0.552527 0.247860 0.071446
0.552527 0.262860 0.071446
0.537527 0.277860 0.071446
0.537527 0.292860 0.056446
0.537527 0.292860 0.071446
0.552527 0.277860 0.071446
0.552527 0.292860 0.071446
0.552527 0.247860 0.086446
0.552527 0.262860 0.086446
0.552527 0.277860 0.086446
0.552527 0.292860 0.086446
0.567527 0.247860 0.086446
0.567527 0.262860 0.086446
0.582527 0.247860 0.101446
0.582527 0.262860 0.101446
0.567527 0.277860 0.086446
0.567527 0.292860 0.086446
0.582527 0.277860 0.101446
0.582527 0.292860 0.101446
0.597527 0.187860 0.116446
0.597527 0.202860 0.116446
0.597527 0.202860 0.131446
0.612527 0.187860 0.131446
0.612527 0.202860 0.131446
0.597527 0.217860 0.116446
0.597527 0.217860 0.131446
0.597527 0.232860 0.116446
0.612527 0.217860 0.131446
0.612527 0.232860 0.131446
0.597527 0.262860 0.101446
0.597527 0.247860 0.116446
0.597527 0.262860 0.116446
0.612527 0.247860 0.131446
0.612527 0.262860 0.131446
0.597527 0.292860 0.101446
0.597527 0.277860 0.116446
0.597527 0.292860 0.116446
0.612527 0.277860 0.131446
0.612527 0.292860 0.131446
0.612527 0.187860 0.146446
0.612527 0.202860 0.146446
0.612527 0.217860 0.146446
0.612527 0.232860 0.146446
0.627527 0.187860 0.146446
0.627527 0.187860 0.161446
0.627527 0.202860 0.146446
0.627527 0.202860 0.161446
0.642527 0.187860 0.176446
0.642527 0.187860 0.191446
0.642527 0.202860 0.176446
0.642527 0.202860 0.191446
0.627527 0.217860 0.146446
0.627527 0.217860 0.161446
0.627527 0.232860 0.146446
0.627527 0.232860 0.161446
0.642527 0.232860 0.161446
0.642527 0.217860 0.176446
0.642527 0.217860 0.191446
0.642527 0.232860 0.176446
0.642527 0.232860 0.191446
0.612527 0.247860 0.146446
0.612527 0.262860 0.146446
0.612527 0.277860 0.146446
0.612527 0.292860 0.146446
0.627527 0.247860 0.146446
0.627527 0.247860 0.161446
0.627527 0.262860 0.146446
0.627527 0.262860 0.161446
0.642527 0.247860 0.176446
0.642527 0.247860 0.191446
0.642527 0.262860 0.176446
0.642527 0.262860 0.191446
0.627527 0.277860 0.146446
0.627527 0.277860 0.161446
0.627527 0.292860 0.146446
0.627527 0.292860 0.161446
0.642527 0.277860 0.161446
0.642527 0.292860 0.161446
0.642527 0.277860 0.176446
0.642527 0.277860 0.191446
0.642527 0.292860 0.176446
0.642527 0.292860 0.191446
0.417527 0.067860 0.401446
0.642527 0.067860 0.446446
0.642527 0.067860 0.461446
0.642527 0.082860 0.461446
0.627527 0.067860 0.491446
0.627527 0.082860 0.491446
0.642527 0.067860 0.476446
0.642527 0.067860 0.491446
0.642527 0.082860 0.476446
0.642527 0.082860 0.491446
0.642527 0.097860 0.476446
0.642527 0.097860 0.491446
0.642527 0.112860 0.476446
0.642527 0.112860 0.491446
0.642527 0.127860 0.476446
0.642527 0.127860 0.491446
0.642527 0.142860 0.476446
0.642527 0.142860 0.491446
0.642527 0.157860 0.476446
0.642527 0.157860 0.491446
0.642527 0.172860 0.476446
0.642527 0.172860 0.491446
0.642527 0.187860 0.476446
0.642527 0.187860 0.491446
0.642527 0.202860 0.476446
0.642527 0.202860 0.491446
0.642527 0.232860 0.461446
0.627527 0.217860 0.491446
0.642527 0.217860 0.476446
0.642527 0.217860 0.491446
0.642527 0.232860 0.476446
0.642527 0.232860 0.491446
0.642527 0.247860 0.476446
0.642527 0.247860 0.491446
0.642527 0.262860 0.476446
0.642527 0.262860 0.491446
0.642527 0.277860 0.476446
0.642527 0.277860 0.491446
0.642527 0.292860 0.476446
0.642527 0.292860 0.491446
0.432527 0.307860 0.026446
0.447527 0.307860 0.026446
0.447527 0.322860 0.026446
0.462527 0.307860 0.026446
0.462527 0.322860 0.026446
0.447527 0.337860 0.026446
0.447527 0.352860 0.026446
0.462527 0.337860 0.026446
0.462527 0.352860 0.026446
0.447527 0.367860 0.026446
0.447527 0.382860 0.026446
0.462527 0.367860 0.026446
0.462527 0.382860 0.026446
0.447527 0.397860 0.026446
0.447527 0.412860 0.026446
0.462527 0.397860 0.026446
0.462527 0.412860 0.026446
0.477527 0.307860 0.026446
0.477527 0.307860 0.041446
0.477527 0.322860 0.026446
0.477527 0.322860 0.041446
0.492527 0.307860 0.041446
0.492527 0.322860 0.041446
0.477527 0.337860 0.026446
0.477527 0.352860 0.026446
0.477527 0.352860 0.041446
0.492527 0.337860 0.041446
0.492527 0.352860 0.041446
0.507527 0.307860 0.041446
0.507527 0.322860 0.041446
0.507527 0.322860 0.056446
0.522527 0.307860 0.056446
0.522527 0.322860 0.056446
0.507527 0.337860 0.041446
0.507527 0.352860 0.041446
0.522527 0.337860 0.056446
0.522527 0.352860 0.056446
0.477527 0.367860 0.026446
0.477527 0.367860 0.041446
0.477527 0.382860 0.026446
0.477527 0.382860 0.041446
0.492527 0.367860 0.041446
0.492527 0.382860 0.041446
0.477527 0.397860 0.026446
0.477527 0.397860 0.041446
0.477527 0.412860 0.026446
0.492527 0.397860 0.041446
0.492527 0.412860 0.041446
0.507527 0.367860 0.041446
0.507527 0.382860 0.041446
0.507527 0.367860 0.056446
0.507527 0.382860 0.056446
0.522527 0.367860 0.056446
0.522527 0.382860 0.056446
0.507527 0.397860 0.041446
0.507527 0.412860 0.041446
0.507527 0.397860 0.056446
0.507527 0.412860 0.056446
0.522527 0.397860 0.056446
0.522527 0.412860 0.056446
0.447527 0.427860 0.026446
0.447527 0.442860 0.026446
0.462527 0.427860 0.026446
0.462527 0.442860 0.026446
0.447527 0.457860 0.026446
0.447527 0.472860 0.026446
0.462527 0.457860 0.026446
0.462527 0.472860 0.026446
0.447527 0.487860 0.026446
0.447527 0.502860 0.026446
0.462527 0.487860 0.026446
0.462527 0.502860 0.026446
0.447527 0.517860 0.026446
0.462527 0.517860 0.026446
0.462527 0.532860 0.026446
0.477527 0.427860 0.026446
0.477527 0.427860 0.041446
0.477527 0.442860 0.026446
0.477527 0.442860 0.041446
0.492527 0.427860 0.041446
0.492527 0.442860 0.041446
0.477527 0.457860 0.026446
0.477527 0.457860 0.041446
0.477527 0.472860 0.026446
0.492527 0.457860 0.041446
0.492527 0.472860 0.041446
0.507527 0.427860 0.041446
0.507527 0.442860 0.041446
0.507527 0.427860 0.056446
0.507527 0.442860 0.056446
0.522527 0.427860 0.056446
0.522527 0.442860 0.056446
0.507527 0.457860 0.041446
0.507527 0.472860 0.041446
0.507527 0.457860 0.056446
0.507527 0.472860 0.056446
0.522527 0.457860 0.056446
0.522527 0.472860 0.056446
0.477527 0.487860 0.026446
0.477527 0.502860 0.026446
0.477527 0.502860 0.041446
0.492527 0.487860 0.041446
0.492527 0.502860 0.041446
0.477527 0.517860 0.026446
0.477527 0.517860 0.041446
0.477527 0.532860 0.026446
0.477527 0.532860 0.041446
0.492527 0.517860 0.041446
0.492527 0.532860 0.041446
0.507527 0.487860 0.041446
0.507527 0.502860 0.041446
0.507527 0.487860 0.056446
0.507527 0.502860 0.056446
0.522527 0.487860 0.056446
0.522527 0.502860 0.056446
0.507527 0.517860 0.041446
0.507527 0.532860 0.041446
0.507527 0.517860 0.056446
0.507527 0.532860 0.056446
0.522527 0.517860 0.056446
0.522527 0.532860 0.056446
0.537527 0.307860 0.056446
0.537527 0.307860 0.071446
0.537527 0.322860 0.056446
0.537527 0.322860 0.071446
0.552527 0.307860 0.071446
0.552527 0.322860 0.071446
0.537527 0.337860 0.056446
0.537527 0.337860 0.071446
0.537527 0.352860 0.056446
0.537527 0.352860 0.071446
0.552527 0.337860 0.071446
0.552527 0.352860 0.071446
0.552527 0.307860 0.086446
0.552527 0.322860 0.086446
0.552527 0.337860 0.086446
0.552527 0.352860 0.086446
0.567527 0.307860 0.086446
0.567527 0.322860 0.086446
0.582527 0.307860 0.101446
0.582527 0.322860 0.101446
0.567527 0.337860 0.086446
0.567527 0.352860 0.086446
0.582527 0.337860 0.101446
0.582527 0.352860 0.101446
0.537527 0.367860 0.056446
0.537527 0.367860 0.071446
0.537527 0.382860 0.056446
0.537527 0.382860 0.071446
0.552527 0.367860 0.071446
0.552527 0.382860 0.071446
0.537527 0.397860 0.071446
0.537527 0.412860 0.056446
0.537527 0.412860 0.071446
0.552527 0.397860 0.071446
0.552527 0.412860 0.071446
0.552527 0.367860 0.086446
0.552527 0.382860 0.086446
0.552527 0.397860 0.086446
0.552527 0.412860 0.086446
0.567527 0.367860 0.086446
0.567527 0.382860 0.086446
0.582527 0.367860 0.086446
0.582527 0.367860 0.101446
0.582527 0.382860 0.101446
0.567527 0.397860 0.086446
0.567527 0.412860 0.086446
0.582527 0.397860 0.086446
0.582527 0.397860 0.101446
0.582527 0.412860 0.101446
0.597527 0.307860 0.116446
0.597527 0.322860 0.116446
0.612527 0.307860 0.116446
0.612527 0.307860 0.131446
0.612527 0.322860 0.116446
0.612527 0.322860 0.131446
0.597527 0.352860 0.101446
0.597527 0.337860 0.116446
0.597527 0.352860 0.116446
0.612527 0.337860 0.131446
0.612527 0.352860 0.116446
0.612527 0.352860 0.131446
0.597527 0.367860 0.101446
0.597527 0.382860 0.101446
0.597527 0.367860 0.116446
0.597527 0.382860 0.116446
0.612527 0.367860 0.131446
0.612527 0.382860 0.116446
0.612527 0.382860 0.131446
0.597527 0.397860 0.101446
0.597527 0.412860 0.101446
0.597527 0.397860 0.116446
0.597527 0.412860 0.116446
0.612527 0.397860 0.116446
0.612527 0.397860 0.131446
0.612527 0.412860 0.116446
0.612527 0.412860 0.131446
0.612527 0.307860 0.146446
0.612527 0.322860 0.146446
0.612527 0.337860 0.146446
0.627527 0.307860 0.146446
0.627527 0.307860 0.161446
0.627527 0.322860 0.146446
0.627527 0.322860 0.161446
0.642527 0.322860 0.161446
0.642527 0.307860 0.176446
0.642527 0.307860 0.191446
0.642527 0.322860 0.176446
0.642527 0.322860 0.191446
0.627527 0.337860 0.146446
0.627527 0.337860 0.161446
0.627527 0.352860 0.146446
0.627527 0.352860 0.161446
0.642527 0.337860 0.161446
0.642527 0.352860 0.161446
0.642527 0.337860 0.176446
0.642527 0.337860 0.191446
0.642527 0.352860 0.176446
0.642527 0.352860 0.191446
0.612527 0.412860 0.146446
0.627527 0.367860 0.146446
0.627527 0.367860 0.161446
0.627527 0.382860 0.146446
0.627527 0.382860 0.161446
0.642527 0.367860 0.161446
0.642527 0.382860 0.161446
0.642527 0.367860 0.176446
0.642527 0.367860 0.191446
0.642527 0.382860 0.176446
0.627527 0.397860 0.146446
0.627527 0.397860 0.161446
0.627527 0.412860 0.146446
0.627527 0.412860 0.161446
0.642527 0.397860 0.161446
0.642527 0.412860 0.161446
0.642527 0.397860 0.176446
0.642527 0.397860 0.191446
0.642527 0.412860 0.176446
0.642527 0.412860 0.191446
0.537527 0.427860 0.056446
0.537527 0.427860 0.071446
0.537527 0.442860 0.056446
0.537527 0.442860 0.071446
0.552527 0.427860 0.071446
0.552527 0.442860 0.071446
0.537527 0.457860 0.056446
0.537527 0.457860 0.071446
0.537527 0.472860 0.056446
0.537527 0.472860 0.071446
0.552527 0.457860 0.071446
0.552527 0.472860 0.071446
0.552527 0.427860 0.086446
0.552527 0.442860 0.086446
0.552527 0.457860 0.086446
0.552527 0.472860 0.086446
0.567527 0.427860 0.086446
0.567527 0.442860 0.086446
0.582527 0.427860 0.101446
0.582527 0.442860 0.101446
0.567527 0.457860 0.086446
0.567527 0.472860 0.086446
0.582527 0.457860 0.101446
0.582527 0.472860 0.101446
0.537527 0.487860 0.056446
0.537527 0.487860 0.071446
0.537527 0.502860 0.056446
0.537527 0.502860 0.071446
0.552527 0.487860 0.071446
0.552527 0.502860 0.071446
0.537527 0.517860 0.056446
0.537527 0.517860 0.071446
0.537527 0.532860 0.056446
0.537527 0.532860 0.071446
0.552527 0.517860 0.071446
0.552527 0.532860 0.071446
0.552527 0.487860 0.086446
0.552527 0.502860 0.086446
0.552527 0.517860 0.086446
0.552527 0.532860 0.086446
0.567527 0.487860 0.086446
0.567527 0.502860 0.086446
0.582527 0.487860 0.101446
0.582527 0.502860 0.101446
0.567527 0.517860 0.086446
0.567527 0.532860 0.086446
0.582527 0.517860 0.101446
0.582527 0.532860 0.086446
0.582527 0.532860 0.101446
0.597527 0.427860 0.101446
0.597527 0.442860 0.101446
0.597527 0.427860 0.116446
0.597527 0.442860 0.116446
0.612527 0.427860 0.116446
0.612527 0.427860 0.131446
0.612527 0.442860 0.116446
0.612527 0.442860 0.131446
0.597527 0.457860 0.101446
0.597527 0.457860 0.116446
0.597527 0.472860 0.116446
0.612527 0.457860 0.131446
0.612527 0.472860 0.116446
0.612527 0.472860 0.131446
0.627527 0.457860 0.131446
0.597527 0.502860 0.101446
0.597527 0.487860 0.116446
0.597527 0.502860 0.116446
0.612527 0.487860 0.116446
0.612527 0.487860 0.131446
0.612527 0.502860 0.116446
0.612527 0.502860 0.131446
0.597527 0.517860 0.101446
0.597527 0.532860 0.101446
0.597527 0.517860 0.116446
0.597527 0.532860 0.116446
0.612527 0.517860 0.116446
0.612527 0.517860 0.131446
0.612527 0.532860 0.131446
0.627527 0.502860 0.131446
0.627527 0.427860 0.146446
0.627527 0.427860 0.161446
0.627527 0.442860 0.146446
0.627527 0.442860 0.161446
0.642527 0.427860 0.161446
0.642527 0.442860 0.161446
0.642527 0.427860 0.176446
0.642527 0.427860 0.191446
0.642527 0.442860 0.176446
0.642527 0.442860 0.191446
0.627527 0.457860 0.146446
0.627527 0.457860 0.161446
0.627527 0.472860 0.146446
0.627527 0.472860 0.161446
0.642527 0.457860 0.161446
0.642527 0.472860 0.161446
0.642527 0.457860 0.176446
0.642527 0.457860 0.191446
0.642527 0.472860 0.176446
0.642527 0.472860 0.191446
0.627527 0.487860 0.146446
0.627527 0.487860 0.161446
0.627527 0.502860 0.146446
0.627527 0.502860 0.161446
0.642527 0.487860 0.161446
0.642527 0.502860 0.161446
0.642527 0.487860 0.176446
0.642527 0.487860 0.191446
0.642527 0.502860 0.176446
0.627527 0.517860 0.146446
0.627527 0.517860 0.161446
0.627527 0.532860 0.146446
0.627527 0.532860 0.161446
0.642527 0.517860 0.161446
0.642527 0.532860 0.161446
0.642527 0.517860 0.176446
0.642527 0.517860 0.191446
0.642527 0.532860 0.176446
0.642527 0.532860 0.191446
0.642527 0.307860 0.491446
0.642527 0.322860 0.491446
0.642527 0.337860 0.491446
0.642527 0.352860 0.491446
0.642527 0.367860 0.476446
0.642527 0.367860 0.491446
0.642527 0.382860 0.491446
0.642527 0.397860 0.491446
0.642527 0.412860 0.476446
0.642527 0.412860 0.491446
0.642527 0.427860 0.491446
0.642527 0.442860 0.491446
0.642527 0.457860 0.491446
0.642527 0.472860 0.491446
0.642527 0.487860 0.491446
0.642527 0.502860 0.491446
0.642527 0.517860 0.491446
0.642527 0.532860 0.491446
0.657527 0.082860 0.221446
0.657527 0.067860 0.236446
0.657527 0.067860 0.251446
0.657527 0.082860 0.236446
0.657527 0.082860 0.251446
0.657527 0.097860 0.206446
0.657527 0.097860 0.221446
0.657527 0.112860 0.206446
0.657527 0.112860 0.221446
0.657527 0.097860 0.236446
0.657527 0.097860 0.251446
0.657527 0.112860 0.236446
0.672527 0.097860 0.251446
0.672527 0.112860 0.251446
0.657527 0.142860 0.191446
0.657527 0.157860 0.191446
0.657527 0.172860 0.191446
0.657527 0.127860 0.206446
0.657527 0.127860 0.221446
0.657527 0.142860 0.206446
0.657527 0.142860 0.221446
0.657527 0.127860 0.236446
0.657527 0.142860 0.236446
0.672527 0.127860 0.236446
0.672527 0.127860 0.251446
0.672527 0.142860 0.236446
0.672527 0.142860 0.251446
0.657527 0.157860 0.206446
0.657527 0.157860 0.221446
0.657527 0.172860 0.206446
0.657527 0.172860 0.221446
0.657527 0.157860 0.236446
0.657527 0.172860 0.236446
0.672527 0.157860 0.251446
0.672527 0.172860 0.236446
0.672527 0.172860 0.251446
0.657527 0.187860 0.191446
0.657527 0.232860 0.191446
0.657527 0.187860 0.206446
0.657527 0.187860 0.221446
0.657527 0.202860 0.206446
0.657527 0.202860 0.221446
0.657527 0.187860 0.236446
0.657527 0.202860 0.236446
0.672527 0.187860 0.236446
0.672527 0.187860 0.251446
0.672527 0.202860 0.236446
0.672527 0.202860 0.251446
0.657527 0.217860 0.206446
0.657527 0.217860 0.221446
0.657527 0.232860 0.206446
0.657527 0.232860 0.221446
0.657527 0.217860 0.236446
0.657527 0.232860 0.236446
0.672527 0.217860 0.236446
0.672527 0.217860 0.251446
0.672527 0.232860 0.251446
0.657527 0.247860 0.191446
0.657527 0.262860 0.191446
0.657527 0.277860 0.191446
0.657527 0.292860 0.191446
0.657527 0.247860 0.206446
0.657527 0.247860 0.221446
0.657527 0.262860 0.206446
0.657527 0.262860 0.221446
0.657527 0.247860 0.236446
0.657527 0.262860 0.236446
0.672527 0.247860 0.236446
0.672527 0.247860 0.251446
0.672527 0.262860 0.236446
0.672527 0.262860 0.251446
0.657527 0.277860 0.206446
0.657527 0.277860 0.221446
0.657527 0.292860 0.206446
0.657527 0.292860 0.221446
0.657527 0.277860 0.236446
0.657527 0.292860 0.236446
0.672527 0.277860 0.236446
0.672527 0.277860 0.251446
0.672527 0.292860 0.236446
0.672527 0.292860 0.251446
0.657527 0.067860 0.266446
0.657527 0.067860 0.281446
0.657527 0.082860 0.266446
0.672527 0.067860 0.281446
0.672527 0.082860 0.266446
0.672527 0.082860 0.281446
0.672527 0.067860 0.296446
0.672527 0.067860 0.311446
0.672527 0.082860 0.296446
0.672527 0.082860 0.311446
0.672527 0.097860 0.266446
0.672527 0.097860 0.281446
0.672527 0.112860 0.266446
0.672527 0.112860 0.281446
0.672527 0.097860 0.296446
0.672527 0.097860 0.311446
0.672527 0.112860 0.296446
0.672527 0.112860 0.311446
0.672527 0.067860 0.326446
0.672527 0.067860 0.341446
0.672527 0.082860 0.326446
0.672527 0.082860 0.341446
0.672527 0.067860 0.356446
0.672527 0.067860 0.371446
0.672527 0.082860 0.356446
0.672527 0.082860 0.371446
0.672527 0.097860 0.326446
0.672527 0.097860 0.341446
0.672527 0.112860 0.326446
0.672527 0.112860 0.341446
0.672527 0.097860 0.356446
0.672527 0.097860 0.371446
0.672527 0.112860 0.356446
0.672527 0.112860 0.371446
0.672527 0.127860 0.266446
0.672527 0.127860 0.281446
0.672527 0.142860 0.266446
0.672527 0.142860 0.281446
0.672527 0.127860 0.296446
0.672527 0.127860 0.311446
0.672527 0.142860 0.296446
0.672527 0.142860 0.311446
0.672527 0.157860 0.266446
0.672527 0.157860 0.281446
0.672527 0.172860 0.266446
0.672527 0.172860 0.281446
0.672527 0.157860 0.296446
0.672527 0.157860 0.311446
0.672527 0.172860 0.296446
0.672527 0.172860 0.311446
0.672527 0.127860 0.326446
0.672527 0.127860 0.341446
0.672527 0.142860 0.326446
0.672527 0.142860 0.341446
0.672527 0.127860 0.356446
0.672527 0.127860 0.371446
0.672527 0.142860 0.356446
0.672527 0.142860 0.371446
0.672527 0.157860 0.326446
0.672527 0.157860 0.341446
0.672527 0.172860 0.326446
0.672527 0.172860 0.341446
0.672527 0.157860 0.356446
0.672527 0.157860 0.371446
0.672527 0.172860 0.356446
0.672527 0.172860 0.371446
0.657527 0.067860 0.401446
0.672527 0.067860 0.386446
0.672527 0.067860 0.401446
0.672527 0.082860 0.386446
0.672527 0.082860 0.401446
0.657527 0.067860 0.416446
0.657527 0.067860 0.431446
0.657527 0.082860 0.416446
0.657527 0.082860 0.431446
0.672527 0.082860 0.416446
0.672527 0.097860 0.386446
0.672527 0.097860 0.401446
0.672527 0.112860 0.386446
0.672527 0.112860 0.401446
0.657527 0.097860 0.431446
0.657527 0.112860 0.431446
0.672527 0.097860 0.416446
0.672527 0.097860 0.431446
0.672527 0.112860 0.416446
0.672527 0.112860 0.431446
0.657527 0.067860 0.446446
0.657527 0.082860 0.446446
0.657527 0.082860 0.461446
0.657527 0.097860 0.446446
0.657527 0.097860 0.461446
0.657527 0.112860 0.446446
0.657527 0.112860 0.461446
0.672527 0.127860 0.386446
0.672527 0.127860 0.401446
0.672527 0.142860 0.386446
0.672527 0.142860 0.401446
0.672527 0.127860 0.416446
0.672527 0.127860 0.431446
0.672527 0.142860 0.416446
0.672527 0.142860 0.431446
0.672527 0.157860 0.386446
0.672527 0.157860 0.401446
0.672527 0.172860 0.386446
0.672527 0.172860 0.401446
0.657527 0.172860 0.431446
0.672527 0.157860 0.416446
0.672527 0.157860 0.431446
0.672527 0.172860 0.416446
0.672527 0.172860 0.431446
0.657527 0.127860 0.446446
0.657527 0.127860 0.461446
0.657527 0.142860 0.446446
0.657527 0.142860 0.461446
0.657527 0.127860 0.476446
0.657527 0.142860 0.476446
0.657527 0.157860 0.446446
0.657527 0.157860 0.461446
0.657527 0.172860 0.446446
0.657527 0.172860 0.461446
0.657527 0.157860 0.476446
0.657527 0.172860 0.476446
0.672527 0.187860 0.266446
0.672527 0.187860 0.281446
0.672527 0.202860 0.266446
0.672527 0.202860 0.281446
0.672527 0.187860 0.296446
0.672527 0.187860 0.311446
0.672527 0.202860 0.296446
0.672527 0.202860 0.311446
0.672527 0.217860 0.266446
0.672527 0.217860 0.281446
0.672527 0.232860 0.266446
0.672527 0.232860 0.281446
0.672527 0.217860 0.296446
0.672527 0.217860 0.311446
0.672527 0.232860 0.296446
0.672527 0.232860 0.311446
0.672527 0.187860 0.326446
0.672527 0.187860 0.341446
0.672527 0.202860 0.326446
0.672527 0.202860 0.341446
0.672527 0.187860 0.356446
0.672527 0.187860 0.371446
0.672527 0.202860 0.356446
0.672527 0.202860 0.371446
0.672527 0.217860 0.326446
0.672527 0.217860 0.341446
0.672527 0.232860 0.326446
0.672527 0.232860 0.341446
0.672527 0.217860 0.356446
0.672527 0.217860 0.371446
0.672527 0.232860 0.356446
