ply
format ascii 1.0
element vertex 1773
property float x
property float y
property float z
end_header
0.236909 0.192161 0.442119
0.019817 0.190911 0.441184
0.247074 0.193697 0.439322
0.664197 0.198631 0.442097
0.237446 0.198588 0.442893
0.019610 0.202930 0.445843
0.263445 0.202602 0.443587
0.240325 0.203375 0.436339
0.018775 0.205073 0.436489
0.256972 0.210488 0.443856
0.659129 0.218967 0.440830
0.252597 0.218268 0.444060
0.019111 0.214448 0.441045
0.247771 0.222952 0.441357
0.246565 0.228505 0.437467
0.020000 0.225043 0.441469
0.017514 0.231371 0.438708
0.242925 0.236194 0.442365
0.659019 0.240427 0.440239
0.245346 0.247329 0.443632
0.021250 0.245832 0.439643
0.247741 0.251906 0.442528
0.017052 0.255229 0.445667
0.018885 0.255125 0.440827
0.660052 0.264056 0.441973
0.244111 0.258849 0.445780
0.236586 0.264290 0.442962
0.016383 0.261489 0.439350
0.662161 0.273428 0.440823
0.236987 0.271057 0.442166
0.662734 0.280568 0.436440
0.230125 0.277181 0.440967
0.019396 0.277549 0.440065
0.659819 0.289020 0.444344
0.018230 0.292000 0.441834
0.227379 0.291147 0.439913
0.012760 0.294809 0.441451
0.012611 0.306270 0.438673
0.664626 0.305759 0.445684
0.221542 0.303806 0.445160
0.212007 0.307126 0.440262
0.013994 0.309924 0.440919
0.664594 0.310717 0.438227
0.667501 0.321303 0.440329
0.020844 0.321230 0.442502
0.018975 0.334333 0.442580
0.666618 0.336617 0.440047
0.017722 0.332557 0.441867
0.016099 0.340326 0.437846
0.667216 0.345779 0.438157
0.018912 0.344663 0.441344
0.013373 0.347221 0.439494
0.660553 0.354814 0.439588
0.021202 0.356956 0.442906
0.016947 0.365596 0.439775
0.663615 0.373096 0.442590
0.660397 0.376005 0.438214
0.017914 0.377112 0.436865
0.023713 0.382225 0.441958
0.663375 0.383074 0.439296
0.663459 0.388736 0.443127
0.013535 0.389728 0.439889
0.018425 0.394611 0.441160
0.660507 0.397741 0.447506
0.016765 0.402998 0.442628
0.017624 0.406745 0.438273
0.668918 0.416076 0.440317
0.021410 0.416805 0.441191
0.664733 0.422663 0.441974
0.667670 0.426642 0.441690
0.666512 0.438992 0.443627
0.014724 0.432236 0.439797
0.018015 0.443761 0.442991
0.017724 0.447336 0.441436
0.665857 0.459852 0.442173
0.016289 0.459584 0.440478
0.018097 0.465654 0.443292
0.016336 0.472599 0.440729
0.663979 0.480433 0.443515
0.665997 0.483065 0.443661
0.019939 0.487236 0.440385
0.666289 0.506424 0.441967
0.019268 0.527521 0.440648
0.017783 0.533657 0.441096
0.663908 0.542339 0.440851
0.663844 0.559228 0.439447
0.020046 0.566826 0.442292
0.664643 0.568604 0.437602
0.662173 0.572884 0.440513
0.018755 0.580490 0.442033
0.659339 0.584521 0.447083
0.654741 0.596690 0.440725
0.020574 0.593162 0.441794
0.654139 0.601037 0.445738
0.025547 0.600698 0.445607
0.649583 0.616144 0.437819
0.021336 0.615744 0.442665
0.644651 0.622281 0.441191
0.639162 0.627029 0.437173
0.635931 0.632061 0.443454
0.034856 0.629203 0.443463
0.630399 0.638563 0.441028
0.618964 0.639485 0.443394
0.038926 0.633978 0.438399
0.621746 0.643871 0.444849
0.612800 0.652583 0.446679
0.597493 0.656180 0.436044
0.057765 0.654708 0.445085
0.052461 0.649979 0.443431
0.594221 0.663620 0.441263
0.064386 0.663078 0.441497
0.582748 0.665554 0.440565
0.580226 0.668759 0.445467
0.566786 0.673446 0.440928
0.075004 0.672627 0.440630
0.552756 0.677851 0.439548
0.089650 0.677770 0.440855
0.079988 0.674334 0.442992
0.538354 0.679502 0.441578
0.099764 0.682811 0.438796
0.533161 0.683659 0.443643
0.526409 0.682162 0.442790
0.516393 0.687339 0.444286
0.510885 0.688996 0.439241
0.130251 0.684219 0.439655
0.121903 0.686657 0.442701
0.109195 0.686964 0.437889
0.505306 0.690512 0.444086
0.500179 0.689612 0.444359
0.490807 0.694131 0.440295
0.161267 0.694601 0.442883
0.154035 0.692265 0.446124
0.142567 0.692151 0.445174
0.138102 0.688049 0.446922
0.467554 0.697952 0.444489
0.457293 0.698516 0.438694
0.208280 0.703451 0.437895
0.206361 0.697703 0.440419
0.194477 0.695997 0.441085
0.186339 0.695099 0.440659
0.444748 0.700892 0.444235
0.435497 0.702138 0.441945
0.425424 0.703628 0.444733
0.249529 0.702114 0.442343
0.233594 0.700178 0.438715
0.232898 0.704742 0.445246
0.414006 0.707793 0.442956
0.408547 0.707430 0.441368
0.261097 0.708659 0.441907
0.254213 0.704948 0.442752
0.404818 0.711063 0.442997
0.277107 0.714364 0.439580
0.269619 0.709178 0.444417
0.395058 0.716626 0.441151
0.383558 0.718871 0.439367
0.286626 0.717377 0.441053
0.379277 0.719816 0.444417
0.369082 0.724341 0.439227
0.303557 0.718126 0.438026
0.292510 0.717623 0.443491
0.367213 0.724720 0.440386
0.355152 0.730553 0.438370
0.349257 0.725755 0.445442
0.345535 0.721755 0.440371
0.339430 0.728314 0.442457
0.328831 0.725816 0.439403
0.324406 0.724461 0.448101
0.315245 0.729035 0.441009
0.313640 0.721867 0.443488
0.501818 -0.000524 0.446903
0.497469 0.005093 0.448344
0.487888 0.005687 0.446019
0.477061 0.006717 0.444784
0.470111 0.006691 0.447968
0.123377 0.005834 0.449579
0.633033 0.005269 0.445981
0.446933 0.009876 0.447981
0.442742 0.013564 0.449594
0.134323 0.009250 0.447418
0.631004 0.015579 0.448717
0.604669 0.018995 0.447297
0.439183 0.016305 0.450063
0.054008 0.022098 0.446619
0.424739 0.028776 0.449475
0.051857 0.030346 0.445557
0.640258 0.031005 0.447955
0.047688 0.034301 0.443071
0.640609 0.035881 0.449285
0.422200 0.032520 0.449145
0.643280 0.041253 0.448631
0.042268 0.046772 0.451152
0.644088 0.047709 0.450585
0.409629 0.051538 0.443742
0.039688 0.052975 0.446730
0.652240 0.058589 0.447606
0.400685 0.056940 0.445972
0.033928 0.064006 0.444746
0.649331 0.065710 0.446005
0.395981 0.069718 0.448294
0.035102 0.073212 0.444429
0.652550 0.070849 0.441960
0.397604 0.081793 0.447255
0.389962 0.087288 0.450725
0.028490 0.082852 0.447888
0.658178 0.088601 0.446369
0.385647 0.089001 0.448999
0.025993 0.097535 0.447736
0.663514 0.102246 0.445887
0.024654 0.104217 0.445457
0.661675 0.108249 0.449568
0.022100 0.115443 0.443593
0.023771 0.124532 0.447221
0.026210 0.131330 0.444860
0.660790 0.138096 0.444731
0.021787 0.133647 0.450416
0.660386 0.141727 0.448205
0.024716 0.144722 0.450760
0.020109 0.148886 0.442786
0.661705 0.175591 0.447509
0.018563 0.184658 0.446715
0.655124 0.193387 0.447649
0.245465 0.190655 0.447035
0.236933 0.190678 0.449795
0.240280 0.198106 0.441788
0.658242 0.203740 0.447440
0.241459 0.208078 0.451295
0.024197 0.205366 0.442849
0.661869 0.214729 0.445687
0.262935 0.208494 0.451678
0.658129 0.217608 0.447670
0.253969 0.215679 0.447030
0.242024 0.212591 0.449329
0.658235 0.222733 0.447404
0.254600 0.223455 0.444476
0.020551 0.220977 0.447614
0.246769 0.225863 0.443255
0.660642 0.235892 0.447935
0.021541 0.228489 0.445664
0.653596 0.232139 0.444504
0.248897 0.235491 0.444916
0.657995 0.244993 0.443262
0.249462 0.247718 0.449045
0.660209 0.255481 0.450644
0.657802 0.255567 0.446425
0.017662 0.264578 0.449122
0.244135 0.270071 0.448977
0.244099 0.271402 0.447245
0.022276 0.271401 0.442218
0.660601 0.275447 0.447630
0.239165 0.278323 0.445588
0.232406 0.287764 0.447095
0.019765 0.280414 0.447229
0.021139 0.287380 0.448421
0.660458 0.294385 0.447178
0.018610 0.292667 0.450531
0.666765 0.294666 0.444288
0.223599 0.299017 0.444068
0.017093 0.298877 0.449513
0.663544 0.298515 0.451210
0.217389 0.303189 0.452878
0.020103 0.309528 0.450010
0.666685 0.312741 0.446515
0.662901 0.316569 0.442667
0.020848 0.315544 0.447517
0.663642 0.320446 0.450297
0.020556 0.323117 0.447470
0.664454 0.330333 0.445523
0.661300 0.334260 0.451151
0.021604 0.333131 0.450351
0.663644 0.337658 0.443531
0.664389 0.351117 0.446809
0.662521 0.360562 0.449901
0.662410 0.370252 0.449786
0.018712 0.370288 0.445764
0.662984 0.380765 0.445670
0.022539 0.391209 0.445624
0.660709 0.410245 0.445894
0.662137 0.411422 0.450561
0.018855 0.414583 0.444454
0.664503 0.419429 0.446080
0.019372 0.423313 0.444995
0.014272 0.426039 0.447211
0.666598 0.430864 0.447145
0.022954 0.432430 0.451521
0.019964 0.443724 0.449960
0.667109 0.445274 0.446257
0.020098 0.447639 0.449549
0.015071 0.454800 0.445292
0.020932 0.461899 0.448451
0.665561 0.465260 0.446956
0.017099 0.469476 0.450151
0.017886 0.476657 0.447192
0.019029 0.481466 0.448246
0.019330 0.493589 0.444894
0.667669 0.496218 0.451836
0.021402 0.496934 0.451963
0.015067 0.502737 0.444128
0.667903 0.511207 0.446797
0.028030 0.505872 0.449936
0.660332 0.511891 0.447435
0.020431 0.513799 0.438985
0.019502 0.518754 0.447842
0.664777 0.525952 0.446546
0.019097 0.523400 0.448178
0.664392 0.534285 0.445452
0.018650 0.532068 0.447619
0.663932 0.545369 0.450676
0.018908 0.545203 0.445044
0.663087 0.549023 0.441596
0.017480 0.550677 0.449406
0.666210 0.552597 0.445237
0.019848 0.556487 0.447943
0.021171 0.560632 0.447149
0.659613 0.560492 0.445647
0.018363 0.567195 0.447266
0.662051 0.575190 0.444217
0.651188 0.588315 0.448514
0.022189 0.589086 0.447908
0.651748 0.596230 0.453814
0.027586 0.595360 0.449039
0.650117 0.607676 0.445444
0.028133 0.610563 0.444250
0.647010 0.611874 0.445910
0.031644 0.607747 0.445560
0.637829 0.619485 0.446795
0.635645 0.627095 0.452154
0.631052 0.638168 0.446431
0.627217 0.638289 0.447735
0.039514 0.636571 0.445087
0.621024 0.641332 0.444853
0.044450 0.638101 0.445515
0.610802 0.647595 0.445417
0.048096 0.646535 0.446286
0.610108 0.652841 0.445313
0.598885 0.655480 0.448784
0.585797 0.658236 0.448747
0.065036 0.664006 0.448395
0.569734 0.667655 0.449443
0.557106 0.677209 0.446748
0.547099 0.676992 0.448096
0.088839 0.675824 0.448196
0.540604 0.682512 0.448867
0.104726 0.685413 0.448238
0.100710 0.678434 0.445302
0.523347 0.685402 0.449453
0.513810 0.688615 0.446714
0.129465 0.687048 0.444611
0.119832 0.684331 0.443492
0.495429 0.692603 0.448148
0.483410 0.690934 0.444964
0.171158 0.692291 0.451186
0.158767 0.691796 0.444904
0.148886 0.693719 0.447615
0.468845 0.697001 0.448532
0.454409 0.698558 0.444359
0.451262 0.700781 0.444218
0.216152 0.698495 0.446764
0.214372 0.696830 0.444207
0.200680 0.697575 0.445943
0.191695 0.699756 0.446780
0.176956 0.696838 0.443404
0.437393 0.699269 0.445044
0.419629 0.708760 0.450374
0.261297 0.705627 0.450294
0.238588 0.705608 0.446726
0.237454 0.701527 0.450311
0.417161 0.704767 0.443179
0.405701 0.707770 0.448028
0.272836 0.707967 0.445176
0.398982 0.708432 0.442822
0.385470 0.710947 0.449173
0.288086 0.711518 0.445709
0.385000 0.714495 0.450921
0.376595 0.716781 0.448389
0.372400 0.717046 0.445649
0.369443 0.717117 0.448735
0.306593 0.717246 0.443573
0.300353 0.714563 0.443926
0.367407 0.721748 0.444578
0.356129 0.714280 0.448431
0.352304 0.715625 0.448952
0.343677 0.718783 0.451768
0.337418 0.721353 0.445626
0.328946 0.721286 0.449032
0.314000 0.717034 0.446498
0.308344 0.715993 0.452409
0.629224 0.002419 0.449973
0.606648 0.005955 0.452268
0.124584 0.000416 0.449982
0.608494 0.004279 0.449902
0.493969 0.007248 0.452350
0.480102 0.003297 0.452396
0.473687 0.006155 0.449834
0.465794 0.007701 0.448472
0.452525 0.011354 0.450893
0.133353 0.005977 0.453189
0.627649 0.013171 0.453463
0.634292 0.025431 0.449558
0.430688 0.020811 0.450099
0.061004 0.027068 0.451385
0.051944 0.027769 0.455276
0.047850 0.032902 0.452716
0.636113 0.031434 0.456625
0.042117 0.041327 0.447131
0.639553 0.038756 0.452966
0.411980 0.039862 0.451338
0.410588 0.048687 0.447291
0.043011 0.046377 0.455715
0.400767 0.053322 0.450601
0.038929 0.048572 0.452030
0.643045 0.055702 0.452125
0.040021 0.059902 0.447019
0.649242 0.060287 0.453887
0.035658 0.067493 0.455249
0.652519 0.073115 0.450694
0.391959 0.068726 0.449313
0.029903 0.070881 0.452569
0.652277 0.079694 0.448514
0.388277 0.078681 0.451052
0.380839 0.085787 0.452847
0.655883 0.088524 0.451394
0.028737 0.089962 0.454107
0.657141 0.094361 0.451465
0.029885 0.097266 0.455010
0.658766 0.104715 0.453014
0.027462 0.107129 0.455304
0.660041 0.114925 0.451175
0.660125 0.124039 0.453264
0.660293 0.131713 0.453219
0.022769 0.131799 0.455192
0.659752 0.147255 0.452109
0.022300 0.155555 0.447416
0.659555 0.157698 0.450393
0.023214 0.163343 0.453213
0.659867 0.163669 0.454871
0.660262 0.170789 0.452103
0.021508 0.170805 0.444918
0.025010 0.174062 0.453289
0.658188 0.186511 0.452419
0.020669 0.187163 0.454933
0.660607 0.193739 0.452701
0.019991 0.188251 0.447538
0.661636 0.199145 0.453860
0.021981 0.194795 0.454356
0.244327 0.199958 0.451369
0.023578 0.203960 0.455318
0.656467 0.205043 0.457305
0.268305 0.203918 0.448239
0.024144 0.209261 0.451640
0.266905 0.216092 0.452372
0.024630 0.214999 0.456114
0.259542 0.222528 0.453698
0.657255 0.222236 0.451301
0.269474 0.227234 0.454194
0.261244 0.225044 0.448502
0.025589 0.222107 0.447728
0.659862 0.233120 0.449207
0.264040 0.228851 0.451816
0.255716 0.233317 0.447416
0.257292 0.242356 0.453430
0.024804 0.238095 0.450502
0.652098 0.246398 0.456011
0.656604 0.248471 0.451953
0.253695 0.243889 0.449603
0.020581 0.251871 0.454388
0.254203 0.251162 0.454690
0.022546 0.252398 0.452038
0.655872 0.256463 0.452116
0.659551 0.259822 0.447520
0.250662 0.260676 0.451449
0.021029 0.265786 0.450138
0.659570 0.269765 0.449655
0.247940 0.271747 0.450396
0.242924 0.276245 0.450194
0.024351 0.278187 0.449023
0.659304 0.277729 0.450153
0.021574 0.285598 0.450908
0.235872 0.284242 0.454437
0.231585 0.294868 0.455249
0.660224 0.295847 0.453955
0.224642 0.302223 0.450703
0.230424 0.301151 0.455188
0.657230 0.309526 0.453365
0.660682 0.320362 0.454400
0.024036 0.319268 0.451494
0.025255 0.331435 0.450187
0.661813 0.342389 0.452349
0.020431 0.344822 0.452668
0.660570 0.351625 0.453387
0.021233 0.352868 0.451523
0.019556 0.360551 0.452977
0.663336 0.372539 0.455135
0.029327 0.374720 0.454458
0.022700 0.380543 0.454560
0.660059 0.384091 0.450910
0.020989 0.382307 0.448534
0.021059 0.390573 0.453245
0.661204 0.392459 0.455667
0.021408 0.397010 0.450162
0.662148 0.402502 0.452180
0.022387 0.404298 0.453477
0.659734 0.419961 0.455522
0.660893 0.423874 0.451446
0.017155 0.425003 0.451771
0.663911 0.437124 0.454879
0.664420 0.438552 0.451472
0.666715 0.452485 0.449508
0.022355 0.456427 0.449547
0.664753 0.459577 0.447740
0.019343 0.467603 0.451509
0.665675 0.473779 0.452425
0.663981 0.474740 0.455204
0.665146 0.482062 0.451673
0.021184 0.479822 0.452541
0.021003 0.489607 0.456680
0.664781 0.494476 0.452764
0.666938 0.513695 0.456366
0.666192 0.522253 0.449389
0.659751 0.531338 0.455133
0.019772 0.541223 0.451024
0.018139 0.553896 0.454140
0.020566 0.564662 0.450229
0.660309 0.573235 0.451270
0.019726 0.575116 0.449746
0.023741 0.580090 0.447272
0.654429 0.585494 0.449865
0.020902 0.592016 0.453302
0.648171 0.606280 0.445589
0.026231 0.606516 0.452642
0.645515 0.608365 0.447322
0.027178 0.606690 0.455724
0.641563 0.618510 0.452538
0.638337 0.619946 0.456124
0.030878 0.626133 0.449903
0.035755 0.627448 0.451134
0.046030 0.637728 0.452656
0.048003 0.642028 0.449360
0.610658 0.648464 0.453202
0.053651 0.649540 0.449475
0.602165 0.656629 0.451903
0.058733 0.655849 0.452275
0.585479 0.663925 0.450430
0.061397 0.661584 0.454328
0.579767 0.666270 0.452170
0.072097 0.668084 0.454318
0.569193 0.673764 0.451527
0.557817 0.673571 0.456143
0.075787 0.667196 0.452117
0.550391 0.675258 0.453522
0.093528 0.680037 0.452041
0.543022 0.679779 0.455211
0.537481 0.678751 0.452244
0.531883 0.681715 0.447590
0.109820 0.684609 0.447249
0.098396 0.678034 0.455992
0.517815 0.685205 0.452555
0.506543 0.689442 0.449818
0.133041 0.690851 0.449657
0.131250 0.684307 0.453675
0.121730 0.685831 0.452926
0.116876 0.684729 0.447083
0.487349 0.695247 0.451445
0.476816 0.693471 0.451223
0.176025 0.694326 0.449540
0.164019 0.691370 0.452998
0.154867 0.691067 0.452125
0.139563 0.692724 0.446814
0.470874 0.696395 0.453204
0.460591 0.695674 0.448144
0.452185 0.698692 0.448536
0.445827 0.699665 0.447459
0.222939 0.696545 0.452759
0.219257 0.698104 0.453182
0.212693 0.699540 0.453800
0.197929 0.694922 0.451354
0.188295 0.695601 0.453213
0.181005 0.697788 0.454282
0.438146 0.701003 0.449840
0.432288 0.699944 0.451977
0.427958 0.702512 0.456340
0.411909 0.705280 0.450076
0.267848 0.705066 0.453965
0.255291 0.700031 0.450031
0.251010 0.701023 0.451009
0.242494 0.700806 0.450252
0.408369 0.704459 0.454245
0.398063 0.707725 0.454803
0.279449 0.709225 0.451022
0.272418 0.706876 0.449789
0.390503 0.706277 0.453062
0.381822 0.709574 0.453738
0.370885 0.708934 0.452601
0.301978 0.712966 0.451140
0.296167 0.706428 0.455995
0.361784 0.713072 0.451858
0.355107 0.709457 0.452965
0.345943 0.712885 0.456450
0.337847 0.715413 0.450095
0.333756 0.713254 0.453480
0.328114 0.713357 0.454024
0.324394 0.716463 0.450318
0.308952 0.714538 0.454134
0.622828 0.006313 0.456197
0.507478 0.001788 0.458080
0.496365 0.003047 0.454089
0.464841 0.007130 0.457989
0.125758 0.004627 0.459184
0.605122 0.010212 0.457682
0.461587 0.011689 0.456678
0.452146 0.013140 0.456059
0.443538 0.015178 0.460243
0.135958 0.012268 0.456882
0.622989 0.013961 0.458238
0.605361 0.014602 0.450430
0.432681 0.017897 0.457864
0.625605 0.020642 0.458495
0.605721 0.019400 0.456147
0.056984 0.024262 0.453214
0.633564 0.027077 0.457521
0.426547 0.021654 0.455867
0.419935 0.027528 0.457303
0.062558 0.031060 0.456750
0.411043 0.035261 0.454225
0.068580 0.033301 0.454775
0.044955 0.036722 0.456099
0.634550 0.042076 0.461022
0.411195 0.039189 0.456261
0.641978 0.049895 0.458912
0.409503 0.047766 0.460362
0.402450 0.055358 0.456895
0.047138 0.051802 0.454509
0.041375 0.058707 0.457798
0.647352 0.066070 0.456757
0.398202 0.064514 0.457232
0.036556 0.061736 0.457100
0.647498 0.065356 0.455321
0.392309 0.069562 0.456848
0.390103 0.071024 0.457690
0.037317 0.074994 0.459923
0.650488 0.079604 0.456204
0.380706 0.076949 0.456405
0.034506 0.080346 0.453509
0.381647 0.080868 0.453698
0.655082 0.087653 0.459237
0.032736 0.084345 0.458359
0.030340 0.102738 0.459427
0.654326 0.108697 0.460158
0.661893 0.109891 0.460907
0.023908 0.114027 0.454323
0.656553 0.123310 0.460101
0.027145 0.120604 0.454570
0.656455 0.129787 0.462494
0.658067 0.133253 0.458315
0.661703 0.141544 0.451334
0.023094 0.140701 0.456506
0.659245 0.145960 0.452244
0.027542 0.145769 0.455960
0.657434 0.152104 0.459142
0.028026 0.146310 0.455682
0.656277 0.159149 0.455486
0.026786 0.162721 0.456085
0.659330 0.172778 0.456250
0.652805 0.176891 0.453964
0.655707 0.186620 0.458196
0.024078 0.191995 0.460347
0.028592 0.208677 0.456720
0.657379 0.209783 0.455060
0.654069 0.217338 0.460954
0.027108 0.221393 0.461046
0.651571 0.227780 0.461758
0.271283 0.225286 0.452538
0.653356 0.231545 0.462998
0.269907 0.229834 0.451248
0.021526 0.231079 0.455573
0.271368 0.238794 0.457736
0.266245 0.240405 0.453591
0.028007 0.239484 0.453865
0.652662 0.243565 0.461760
0.266519 0.251950 0.457622
0.027279 0.250796 0.457614
0.257975 0.252722 0.453538
0.023630 0.256378 0.454248
0.253662 0.261938 0.460409
0.020874 0.260058 0.458689
0.654065 0.264927 0.460726
0.249272 0.269313 0.453281
0.659400 0.275599 0.458325
0.019054 0.269177 0.454236
0.251712 0.277737 0.460149
0.656125 0.284554 0.458373
0.244864 0.282269 0.458416
0.025367 0.281579 0.459853
0.656277 0.288599 0.455418
0.248713 0.285281 0.456610
0.239972 0.286729 0.458491
0.239593 0.295366 0.452189
0.022186 0.292645 0.451486
0.231751 0.295515 0.459156
0.019260 0.302618 0.450547
0.229760 0.303495 0.459081
0.024252 0.309950 0.451329
0.024874 0.309452 0.458635
0.023970 0.316112 0.460400
0.657749 0.314659 0.458423
0.657560 0.323719 0.457801
0.022598 0.322529 0.457868
0.657724 0.327247 0.455740
0.026145 0.333066 0.458522
0.029398 0.336647 0.456084
0.658423 0.345771 0.456782
0.022831 0.345066 0.457923
0.660629 0.356709 0.454422
0.024959 0.357158 0.460283
0.664523 0.367048 0.457624
0.026408 0.362243 0.451289
0.026494 0.370310 0.454506
0.658587 0.376652 0.457009
0.658489 0.388336 0.457365
0.022577 0.401150 0.456205
0.022101 0.407458 0.457854
0.661660 0.409026 0.453697
0.024895 0.409364 0.454157
0.024068 0.417713 0.455716
0.020894 0.423115 0.457378
0.022154 0.426086 0.457376
0.661622 0.431497 0.455606
0.025239 0.427299 0.459321
0.661041 0.437617 0.458478
0.020942 0.440612 0.453545
0.659823 0.449283 0.457615
0.019831 0.452491 0.457315
0.663897 0.453775 0.458577
0.019867 0.461880 0.460819
0.664472 0.467296 0.456373
0.019928 0.471177 0.456576
0.664933 0.483114 0.453513
0.024907 0.489194 0.459828
0.662890 0.496118 0.455054
0.661886 0.501205 0.455412
0.020622 0.499063 0.454469
0.661925 0.503084 0.452202
0.023507 0.505057 0.459305
0.024835 0.516744 0.461818
0.022973 0.522642 0.457206
0.662129 0.529284 0.462798
0.021777 0.529998 0.451769
0.662549 0.541490 0.457470
0.025338 0.536382 0.461335
0.655803 0.550319 0.455127
0.658666 0.558808 0.456411
0.023456 0.558991 0.457026
0.027143 0.560806 0.458779
0.656866 0.571307 0.461883
0.017023 0.571505 0.453807
0.021837 0.576802 0.458414
0.658898 0.578007 0.455021
0.026104 0.578532 0.456127
0.652442 0.592198 0.459420
0.647891 0.597285 0.455696
0.028103 0.599174 0.462872
0.645666 0.603202 0.459472
0.032110 0.602632 0.458563
0.642120 0.613952 0.459980
0.035462 0.616540 0.457345
0.035309 0.620729 0.457696
0.638538 0.626311 0.455708
0.038770 0.630308 0.460740
0.629716 0.636214 0.455174
0.623139 0.638065 0.454345
0.049380 0.637808 0.458133
0.615935 0.646251 0.455000
0.608851 0.648583 0.457067
0.050852 0.648497 0.456413
0.601562 0.646555 0.459567
0.055911 0.653432 0.456751
0.598252 0.651125 0.458657
0.059169 0.655469 0.456550
0.595162 0.659900 0.458234
0.064759 0.661373 0.459354
0.573551 0.667823 0.460477
0.076864 0.668927 0.457356
0.082991 0.671223 0.461865
0.547926 0.675608 0.458452
0.092163 0.677322 0.459361
0.534892 0.680121 0.457247
0.530323 0.681028 0.455871
0.115165 0.681654 0.458913
0.522853 0.681248 0.454726
0.515360 0.686252 0.460942
0.502124 0.690531 0.453505
0.139384 0.687699 0.456857
0.127498 0.688156 0.452897
0.122470 0.684668 0.458347
0.496583 0.690601 0.455581
0.487668 0.690098 0.457802
0.475096 0.693825 0.456486
0.180897 0.694840 0.458286
0.166988 0.691991 0.455923
0.159753 0.694409 0.458770
0.151654 0.690806 0.457824
0.145370 0.687700 0.455114
0.464649 0.691811 0.457429
0.456880 0.698007 0.459395
0.441720 0.698616 0.453104
0.234966 0.695015 0.455288
0.228977 0.700625 0.454766
0.215935 0.699947 0.455379
0.209761 0.696447 0.457152
0.193233 0.696018 0.454599
0.188308 0.696253 0.460431
0.436933 0.700177 0.459004
0.423380 0.703124 0.457126
0.274171 0.700652 0.456035
0.259808 0.700646 0.454835
0.252926 0.699588 0.460968
0.399717 0.702089 0.458223
0.396409 0.702607 0.455252
0.382845 0.708885 0.453708
0.300583 0.712125 0.455112
0.293548 0.709696 0.458900
0.284504 0.703876 0.461804
0.372678 0.707682 0.458059
0.363568 0.709293 0.455446
0.355032 0.708062 0.460481
0.351855 0.711730 0.457991
0.341634 0.712409 0.459266
0.333907 0.711296 0.459334
0.326589 0.710291 0.458308
0.318561 0.711434 0.455844
0.311954 0.707655 0.455954
0.605197 0.004084 0.463687
0.618894 0.004161 0.464672
0.497555 0.006831 0.462616
0.490740 0.006867 0.462356
0.485356 0.005891 0.462654
0.472738 0.006360 0.463812
0.129188 0.001220 0.459940
0.469156 0.010995 0.465254
0.450330 0.013485 0.460270
0.140158 0.017847 0.464394
0.135270 0.014306 0.458155
0.625636 0.017625 0.461015
0.430600 0.023782 0.463791
0.626597 0.030106 0.463713
0.056418 0.027750 0.458867
0.050946 0.029678 0.461883
0.633668 0.031686 0.463303
0.416975 0.033123 0.464554
0.411755 0.035965 0.463602
0.067287 0.030751 0.464160
0.053085 0.035346 0.465347
0.405114 0.041532 0.463832
0.046492 0.038932 0.465528
0.636245 0.050288 0.464566
0.399387 0.045643 0.465828
0.643818 0.054672 0.468435
0.391582 0.058454 0.460037
0.045822 0.052492 0.466331
0.640457 0.056458 0.460952
0.386772 0.062559 0.462785
0.043656 0.062428 0.460924
0.646229 0.064534 0.464128
0.382251 0.067972 0.464462
0.646697 0.073233 0.458277
0.380189 0.074596 0.464445
0.038244 0.069404 0.465780
0.039887 0.077241 0.457077
0.655092 0.091089 0.464816
0.033101 0.095918 0.461993
0.653162 0.098443 0.457281
0.651581 0.106526 0.467755
0.032346 0.110279 0.465016
0.653031 0.111089 0.462655
0.029895 0.119122 0.463656
0.029770 0.128806 0.463861
0.029446 0.132527 0.459437
0.656748 0.139412 0.459026
0.029345 0.146758 0.462138
0.024573 0.158384 0.458099
0.653658 0.164991 0.462082
0.023234 0.167753 0.461940
0.027455 0.178932 0.459876
0.026546 0.186919 0.463379
0.657030 0.190119 0.461723
0.651288 0.197411 0.466010
0.652771 0.200765 0.455838
0.028911 0.200652 0.462355
0.654268 0.206493 0.462651
0.026860 0.209385 0.461001
0.650785 0.224495 0.462409
0.024707 0.226173 0.461878
0.275472 0.236312 0.463077
0.276035 0.240308 0.460549
0.649129 0.248568 0.462537
0.655353 0.253815 0.460848
0.273203 0.253931 0.463400
0.262794 0.254078 0.459082
0.653648 0.256267 0.461967
0.022164 0.256512 0.461127
0.656110 0.260540 0.462129
0.260856 0.265147 0.463170
0.262706 0.269311 0.461161
0.030194 0.267296 0.460218
0.257051 0.272194 0.457571
0.023776 0.278948 0.462064
0.652536 0.282930 0.462843
0.251524 0.282028 0.462943
0.658172 0.290693 0.462927
0.022781 0.284544 0.465619
0.658148 0.294243 0.460151
0.251822 0.295041 0.462272
0.244821 0.292544 0.462327
0.237200 0.298967 0.460327
0.026410 0.298158 0.460229
0.659768 0.302041 0.464534
0.232561 0.305741 0.465487
0.026151 0.305415 0.459777
0.656009 0.310112 0.463670
0.659020 0.319501 0.467563
0.025513 0.316970 0.461746
0.657572 0.335513 0.459676
0.658359 0.347605 0.461199
0.657403 0.355006 0.464823
0.660158 0.361096 0.462773
0.027944 0.361526 0.461204
0.660953 0.360641 0.459567
0.656310 0.372905 0.458626
0.024572 0.376100 0.460759
0.658724 0.373084 0.464042
0.024637 0.376523 0.463522
0.657028 0.385619 0.461984
0.025722 0.387088 0.459391
0.660479 0.390911 0.462022
0.025473 0.397952 0.463204
0.655592 0.400539 0.464706
0.658339 0.404539 0.457315
0.660449 0.407270 0.460714
0.024510 0.414027 0.466350
0.662151 0.414163 0.462430
0.657729 0.421991 0.463273
0.662420 0.426057 0.460476
0.657772 0.428212 0.465489
0.022272 0.427208 0.462230
0.026897 0.441477 0.462212
0.022933 0.449463 0.462070
0.660345 0.463143 0.462803
0.026126 0.463274 0.462821
0.024567 0.464973 0.459672
0.659349 0.472368 0.460331
0.027999 0.472055 0.461660
0.024347 0.475806 0.462829
0.659258 0.486503 0.460945
0.659255 0.501371 0.463589
0.025103 0.493927 0.463390
0.025246 0.508375 0.463638
0.659362 0.511197 0.459815
0.661790 0.513335 0.462671
0.023500 0.520094 0.461177
0.659843 0.524045 0.463568
0.028428 0.523216 0.460758
0.656466 0.532959 0.462552
0.656745 0.535735 0.463785
0.659283 0.545743 0.459814
0.022799 0.551034 0.462067
0.658952 0.551898 0.458884
0.023398 0.552128 0.463431
0.657525 0.561042 0.462719
0.026941 0.558427 0.467179
0.654786 0.579780 0.457800
0.026046 0.583142 0.460450
0.651745 0.588915 0.466706
0.028106 0.593709 0.457666
0.647683 0.598188 0.462586
0.029441 0.599492 0.464309
0.035039 0.610974 0.460805
0.041260 0.613256 0.462166
0.636009 0.620382 0.461554
0.631613 0.628006 0.461221
0.039686 0.626640 0.462804
0.630227 0.626451 0.459931
0.623965 0.636795 0.462611
0.619794 0.637839 0.465524
0.046301 0.643631 0.462747
0.605611 0.649377 0.456856
0.601559 0.654930 0.461957
0.054336 0.651726 0.466375
0.593618 0.653683 0.463724
0.589880 0.664200 0.465363
0.068600 0.661735 0.464064
0.065877 0.660949 0.463395
0.581576 0.663625 0.463682
0.573342 0.667296 0.462748
0.562816 0.671668 0.460178
0.088403 0.671850 0.465210
0.081586 0.674916 0.462238
0.555524 0.673825 0.461902
0.544827 0.676641 0.460315
0.093389 0.678969 0.459814
0.538489 0.678784 0.463626
0.531197 0.680963 0.459960
0.527652 0.680620 0.461962
0.115603 0.680546 0.464033
0.110144 0.678859 0.461331
0.519527 0.683823 0.462436
0.514468 0.685686 0.459361
0.502505 0.686495 0.462736
0.144910 0.689341 0.463795
0.132613 0.685988 0.461338
0.502450 0.690884 0.459805
0.488583 0.690205 0.462203
0.482084 0.693651 0.459545
0.172230 0.691331 0.462962
0.164953 0.696066 0.465096
0.156009 0.690905 0.462687
0.151459 0.690357 0.463413
0.465499 0.695023 0.463825
0.463840 0.696431 0.461773
0.454112 0.696858 0.463288
0.439252 0.698692 0.465408
0.246218 0.699083 0.463434
0.238373 0.698908 0.463147
0.226661 0.694920 0.457908
0.211058 0.693969 0.466345
0.198786 0.697400 0.464039
0.193699 0.698438 0.465578
0.425580 0.698627 0.468131
0.415987 0.699313 0.457809
0.408655 0.701256 0.460688
0.405956 0.702006 0.460320
0.391240 0.704553 0.466259
0.278316 0.704416 0.465819
0.264817 0.699203 0.463646
0.262843 0.697299 0.463890
0.388060 0.706923 0.457990
0.379565 0.705132 0.464271
0.374368 0.707247 0.469526
0.307568 0.708494 0.464796
0.301608 0.706743 0.466278
0.293446 0.700830 0.461773
0.295960 0.703557 0.459689
0.595609 0.006715 0.467952
0.143449 0.000393 0.467611
0.599488 0.009676 0.464668
0.505027 0.006654 0.467093
0.487363 0.005988 0.467480
0.481101 0.006380 0.466541
0.460318 0.009082 0.468034
0.132290 0.006779 0.468570
0.627491 0.011982 0.466827
0.452180 0.008723 0.470312
0.445423 0.008239 0.466580
0.136570 0.007627 0.464570
0.603571 0.018121 0.467127
0.439526 0.012938 0.463085
0.431165 0.019368 0.471638
0.152524 0.015416 0.468378
0.426819 0.022775 0.467034
0.623815 0.023374 0.468780
0.604540 0.024950 0.464669
0.418749 0.026818 0.465044
0.057968 0.026337 0.465290
0.629280 0.034520 0.470217
0.411426 0.034122 0.467634
0.058351 0.035707 0.466461
0.633236 0.039493 0.466233
0.406012 0.043169 0.470310
0.067691 0.034584 0.465593
0.048256 0.042234 0.467651
0.396839 0.045514 0.471003
0.046083 0.045517 0.468475
0.636933 0.050107 0.468830
0.392316 0.052958 0.468152
0.392104 0.058974 0.469657
0.386671 0.056730 0.473888
0.385268 0.060858 0.469302
0.046049 0.061329 0.466137
0.646415 0.067022 0.470519
0.378923 0.066202 0.467423
0.647853 0.074892 0.470229
0.044821 0.070207 0.472137
0.646103 0.075222 0.466295
0.377125 0.073618 0.469210
0.040340 0.076298 0.465561
0.037530 0.086286 0.463704
0.649178 0.088507 0.466723
0.038984 0.091273 0.468726
0.646794 0.101629 0.468274
0.033606 0.101313 0.467870
0.036446 0.110216 0.469968
0.032619 0.116144 0.466468
0.656036 0.119029 0.463420
0.654791 0.123989 0.466166
0.653064 0.130952 0.466623
0.028452 0.134375 0.466800
0.651994 0.141218 0.470061
0.030007 0.138255 0.462788
0.655710 0.148701 0.465561
0.648671 0.152635 0.470597
0.031778 0.146133 0.469805
0.029557 0.154906 0.466232
0.656191 0.161820 0.468196
0.029320 0.159877 0.465698
0.653270 0.162296 0.467446
0.027760 0.163063 0.464745
0.655621 0.172907 0.464074
0.027251 0.171970 0.467822
0.653183 0.178273 0.463992
0.653639 0.184016 0.468641
0.031652 0.178200 0.465009
0.650615 0.192212 0.465717
0.028815 0.193492 0.461490
0.031437 0.204697 0.469948
0.652743 0.211854 0.467572
0.030333 0.213804 0.466793
0.027917 0.217400 0.462778
0.028729 0.217017 0.470132
0.026584 0.228442 0.471569
0.655185 0.230045 0.466643
0.025423 0.237481 0.466762
0.650191 0.238860 0.464910
0.030122 0.239851 0.470961
0.276154 0.247640 0.466798
0.028020 0.246093 0.467345
0.649725 0.254395 0.465887
0.282726 0.258582 0.463679
0.273561 0.258635 0.465216
0.029817 0.257906 0.468297
0.651390 0.262863 0.469522
0.654963 0.270883 0.466062
0.285166 0.264740 0.471915
0.275151 0.268290 0.466807
0.032462 0.270451 0.470568
0.264894 0.272088 0.465821
0.653973 0.276755 0.469122
0.264108 0.279279 0.467808
0.028073 0.277798 0.468334
0.030355 0.281894 0.470030
0.254274 0.285901 0.471637
0.030601 0.292603 0.465708
0.653798 0.299755 0.464670
0.247130 0.297371 0.464533
0.026641 0.296915 0.471375
0.654098 0.305752 0.467537
0.240555 0.304328 0.466652
0.026533 0.303822 0.470685
0.026465 0.311008 0.469854
0.027560 0.320350 0.466087
0.652575 0.322170 0.472423
0.028242 0.324093 0.466066
0.027820 0.328075 0.462484
0.653601 0.334519 0.469181
0.031992 0.334421 0.467224
0.029716 0.339816 0.468487
0.656483 0.343896 0.465475
0.031815 0.343190 0.470151
0.656748 0.347604 0.470379
0.028083 0.352123 0.462313
0.028162 0.352132 0.468649
0.658265 0.358162 0.469935
0.026668 0.363053 0.463007
0.651643 0.371002 0.465678
0.028558 0.370607 0.469371
0.030449 0.376887 0.469005
0.657511 0.392252 0.464046
0.656949 0.398767 0.463172
0.025494 0.396865 0.461651
0.653355 0.404448 0.465105
0.027303 0.412142 0.468445
0.654483 0.416281 0.464110
0.027480 0.419986 0.465716
0.030826 0.426856 0.466400
0.656033 0.434451 0.469556
0.657314 0.438856 0.463988
0.656803 0.450721 0.467748
0.660110 0.450924 0.466016
0.656600 0.452330 0.469049
0.027949 0.455254 0.467277
0.656796 0.468682 0.469967
0.026392 0.465854 0.467889
0.660547 0.477800 0.467279
0.655577 0.481695 0.469690
0.028537 0.482330 0.467036
0.659984 0.483653 0.471390
0.025813 0.489134 0.464043
0.658377 0.498801 0.467558
0.022355 0.500172 0.465817
0.654695 0.506662 0.470078
0.023895 0.507348 0.467201
0.656779 0.515376 0.474009
0.027160 0.513625 0.466335
0.659198 0.517375 0.465578
0.657525 0.523880 0.465014
0.658561 0.531531 0.469347
0.024592 0.529693 0.466643
0.656971 0.543887 0.471805
0.024629 0.541891 0.468279
0.654837 0.553903 0.466559
0.023158 0.551409 0.466997
0.655280 0.563045 0.463176
0.025700 0.567099 0.465695
0.656367 0.572531 0.467225
0.029946 0.578733 0.469324
0.650336 0.582759 0.473740
0.030833 0.580490 0.469526
0.028859 0.590355 0.466796
0.652235 0.597655 0.467314
0.647404 0.601767 0.465607
0.034010 0.605327 0.467846
0.642306 0.609240 0.466992
0.638795 0.616246 0.464687
0.637847 0.618312 0.464627
0.040079 0.622169 0.466602
0.632938 0.624330 0.469009
0.623489 0.630956 0.470111
0.039856 0.629753 0.465816
0.619525 0.636756 0.468759
0.046496 0.637527 0.471854
0.614531 0.644612 0.468614
0.607630 0.644129 0.466121
0.598351 0.650349 0.464091
0.591859 0.656790 0.468160
0.059981 0.652667 0.465424
0.580073 0.662530 0.472633
0.076095 0.665478 0.463492
0.563943 0.667883 0.470917
0.095638 0.669190 0.465976
0.546199 0.674023 0.470389
0.099315 0.676827 0.467801
0.530167 0.679263 0.471166
0.121478 0.682519 0.466788
0.513184 0.683260 0.468681
0.137075 0.690012 0.470551
0.123246 0.683423 0.465660
0.486299 0.691385 0.466669
0.479083 0.695730 0.469648
0.183924 0.696276 0.469010
0.181000 0.693694 0.464856
0.167199 0.695136 0.467713
0.163304 0.691999 0.471515
0.466989 0.692958 0.467246
0.459236 0.698349 0.468641
0.445826 0.698014 0.467838
0.437182 0.694633 0.465738
0.419874 0.698692 0.469411
0.268052 0.697862 0.468630
0.253981 0.698087 0.465501
0.233766 0.696217 0.466041
0.217853 0.696773 0.465266
0.203632 0.692619 0.470411
0.200148 0.694481 0.471445
0.411745 0.702275 0.470595
0.406495 0.704894 0.466021
0.402350 0.698915 0.466916
0.390141 0.701759 0.463292
0.363902 0.703482 0.469116
0.307540 0.700721 0.467159
0.286088 0.702390 0.464195
0.273247 0.700633 0.464792
0.356610 0.707416 0.461794
0.356585 0.704531 0.468631
0.346215 0.706503 0.464668
0.340824 0.704245 0.463680
0.333950 0.705149 0.463294
0.328927 0.708392 0.465972
0.322027 0.700708 0.464141
0.315252 0.705278 0.464431
0.595601 0.003099 0.474348
0.617878 0.004897 0.473558
0.501566 0.005826 0.472262
0.498664 0.005110 0.472293
0.476141 0.004866 0.472634
0.144950 0.004963 0.470202
0.599241 0.009632 0.473347
0.446879 0.011149 0.471778
0.438922 0.009282 0.473810
0.148854 0.010383 0.473774
0.620598 0.014982 0.474715
0.164630 0.014318 0.478362
0.600701 0.020036 0.471320
0.424118 0.021635 0.471421
0.413958 0.029174 0.473740
0.626807 0.029106 0.473802
0.599922 0.028385 0.479106
0.066716 0.033452 0.476342
0.629439 0.035150 0.472592
0.407590 0.034649 0.474008
0.054753 0.037674 0.471407
0.635832 0.043810 0.472490
0.404140 0.038691 0.473455
0.073752 0.039029 0.475246
0.395196 0.046386 0.472816
0.055257 0.048269 0.473147
0.386292 0.051118 0.475529
0.049187 0.055709 0.472178
0.637482 0.057663 0.473131
0.377439 0.062976 0.474666
0.377219 0.067828 0.476730
0.642246 0.069194 0.471303
0.642936 0.080711 0.475752
0.044609 0.080304 0.474265
0.045959 0.084931 0.470835
0.645980 0.087529 0.473114
0.039464 0.087301 0.474081
0.644650 0.092336 0.469241
0.037202 0.098851 0.468034
0.652400 0.107318 0.472717
0.649935 0.112621 0.473816
0.038486 0.121318 0.469857
0.031830 0.123052 0.473172
0.651468 0.128733 0.469951
0.036250 0.126937 0.475302
0.652010 0.142262 0.470918
0.035138 0.148169 0.471543
0.652780 0.158682 0.470195
0.033591 0.155755 0.472383
0.033114 0.161202 0.472768
0.031217 0.169255 0.472331
0.649027 0.174990 0.474142
0.650799 0.181139 0.470586
0.030130 0.186686 0.469600
0.649557 0.196934 0.472621
0.032385 0.193434 0.475776
0.643202 0.203146 0.474488
0.031227 0.203313 0.476601
0.648619 0.206466 0.470126
0.646207 0.212044 0.474666
0.031758 0.210161 0.472074
0.651560 0.216706 0.472436
0.647109 0.219467 0.473802
0.646913 0.228671 0.468731
0.032923 0.231471 0.475793
0.648158 0.237826 0.474524
0.034257 0.238672 0.475504
0.646539 0.247230 0.471868
0.647612 0.250007 0.479379
0.029813 0.250207 0.472366
0.645238 0.257391 0.472003
0.277929 0.266570 0.471446
0.652036 0.273007 0.473735
0.271512 0.269981 0.471325
0.651586 0.277265 0.475491
0.269491 0.275631 0.471638
0.652407 0.285397 0.472391
0.293882 0.282491 0.471310
0.263303 0.282161 0.469363
0.302732 0.290801 0.474805
0.266346 0.282111 0.474462
0.652708 0.292633 0.470154
0.309791 0.292882 0.475000
0.255168 0.292891 0.470039
0.650757 0.296828 0.475442
0.250701 0.295246 0.468599
0.243084 0.299945 0.471105
0.656579 0.311474 0.469032
0.035142 0.308860 0.469205
0.031020 0.327598 0.473829
0.653181 0.344701 0.466822
0.029771 0.358031 0.475108
0.656481 0.366419 0.472000
0.654895 0.368833 0.475662
0.653765 0.373854 0.473005
0.656053 0.378238 0.467432
0.030857 0.388468 0.470892
0.653653 0.389933 0.476280
0.027465 0.390845 0.475953
0.650883 0.403516 0.470666
0.034426 0.399331 0.475061
0.650064 0.404873 0.472956
0.027112 0.406142 0.470345
0.653065 0.415011 0.474282
0.027454 0.407281 0.475651
0.654846 0.412361 0.474849
0.654206 0.420580 0.477084
0.032362 0.421527 0.474253
0.654120 0.432247 0.468419
0.027467 0.433448 0.471022
0.028165 0.439899 0.472099
0.652403 0.438142 0.467450
0.024484 0.439980 0.470869
0.031003 0.443689 0.472081
0.653707 0.452151 0.472197
0.028490 0.451651 0.469906
0.030566 0.456005 0.475188
0.655036 0.459440 0.473592
0.029970 0.463686 0.468359
0.026205 0.475586 0.469607
0.655115 0.474761 0.471596
0.033332 0.478834 0.470738
0.029111 0.485109 0.476927
0.656206 0.491886 0.475056
0.029219 0.489894 0.474471
0.026511 0.498587 0.473269
0.025691 0.502816 0.473808
0.652933 0.518407 0.473041
0.026259 0.516562 0.472398
0.026697 0.521344 0.469803
0.029427 0.535508 0.476051
0.030892 0.539764 0.475871
0.652969 0.545305 0.470375
0.028867 0.548487 0.470954
0.651381 0.556934 0.472422
0.028458 0.558119 0.469848
0.655365 0.556435 0.470498
0.652014 0.564387 0.472434
0.029933 0.563934 0.473125
0.653492 0.570577 0.469450
0.029913 0.570963 0.473120
0.651090 0.592201 0.472772
0.647221 0.593766 0.473590
0.031596 0.593445 0.470303
0.029795 0.600835 0.470683
0.643805 0.605752 0.474302
0.037935 0.607366 0.473901
0.635274 0.616107 0.475556
0.040484 0.614176 0.473210
0.631249 0.622895 0.473884
0.045454 0.629699 0.474303
0.626699 0.627291 0.473240
0.044665 0.627819 0.474675
0.617422 0.635904 0.475497
0.052750 0.638074 0.473587
0.612654 0.639996 0.470116
0.609599 0.648792 0.473274
0.056759 0.648152 0.470078
0.597556 0.651266 0.472034
0.061619 0.649203 0.472445
0.065021 0.660412 0.471659
0.586035 0.659420 0.471579
0.072927 0.661912 0.472910
0.569205 0.664736 0.470440
0.081902 0.667838 0.471510
0.557427 0.671206 0.467365
0.084986 0.670589 0.469558
0.552613 0.671194 0.473325
0.541539 0.672169 0.473288
0.100823 0.678539 0.466652
0.097368 0.671892 0.475815
0.535766 0.680950 0.471834
0.527882 0.679947 0.474200
0.521460 0.680200 0.473091
0.123700 0.684639 0.471363
0.115346 0.681560 0.469327
0.515380 0.683261 0.474915
0.508721 0.686662 0.473667
0.498153 0.686179 0.469634
0.149965 0.689493 0.472047
0.141732 0.688396 0.475296
0.139004 0.686189 0.475196
0.129427 0.683249 0.469129
0.495258 0.689074 0.472500
0.480705 0.690069 0.474029
0.477553 0.693124 0.471888
0.469694 0.690094 0.474926
0.192560 0.692583 0.471005
0.186531 0.696048 0.469143
0.176094 0.693021 0.472519
0.170654 0.694096 0.470576
0.160102 0.692970 0.469895
0.458090 0.698067 0.474387
0.451664 0.698518 0.471928
0.441640 0.695318 0.474622
0.429335 0.696287 0.473296
0.257894 0.698488 0.469532
0.248430 0.699331 0.473974
0.231101 0.694238 0.470380
0.219160 0.694589 0.474761
0.215594 0.695837 0.474866
0.200792 0.692909 0.478339
0.405403 0.700110 0.476724
0.396389 0.700777 0.469956
0.384587 0.698081 0.472743
0.380127 0.701957 0.471698
0.372194 0.702652 0.474811
0.347715 0.705935 0.474856
0.338740 0.703973 0.471642
0.325571 0.702788 0.476707
0.316783 0.701284 0.472632
0.299867 0.701783 0.472796
0.289073 0.698296 0.471483
0.291026 0.698881 0.477731
0.278953 0.697061 0.470669
0.615118 0.003568 0.475435
0.511081 0.002321 0.479149
0.494891 0.006410 0.479263
0.479440 0.006693 0.475986
0.468196 0.003452 0.480747
0.464963 0.006984 0.476239
0.453001 0.005921 0.473328
0.131297 0.007257 0.469087
0.617418 0.011915 0.478053
0.595529 0.011140 0.475949
0.164572 0.008465 0.481367
0.433756 0.015222 0.478239
0.426644 0.017686 0.474393
0.171280 0.016979 0.478721
0.156456 0.012598 0.476290
0.153655 0.011705 0.480904
0.619416 0.021808 0.481640
0.423441 0.024953 0.480534
0.410664 0.029162 0.477425
0.068523 0.032031 0.481595
0.054466 0.034820 0.472748
0.620763 0.034327 0.479644
0.403869 0.034489 0.478529
0.630415 0.042457 0.475497
0.395185 0.041722 0.475961
0.077869 0.040198 0.477715
0.057252 0.041663 0.476760
0.632828 0.046617 0.475511
0.055344 0.051857 0.476938
0.636922 0.058429 0.476879
0.380132 0.056736 0.475032
0.055289 0.056140 0.476487
0.637478 0.062858 0.479454
0.375582 0.061282 0.474528
0.370320 0.055451 0.482945
0.049421 0.062189 0.473374
0.369718 0.068545 0.476924
0.046251 0.069964 0.476488
0.639789 0.074744 0.476908
0.643142 0.082521 0.473458
0.044938 0.085160 0.476963
0.040130 0.088324 0.474582
0.643539 0.093115 0.481189
0.645237 0.099919 0.476514
0.041353 0.098252 0.473975
0.037203 0.102589 0.475329
0.649097 0.105158 0.476387
0.039994 0.110993 0.476156
0.645294 0.119053 0.474224
0.646159 0.126241 0.472843
0.649617 0.132447 0.480904
0.037556 0.135670 0.476698
0.646949 0.141588 0.475955
0.034050 0.138593 0.479188
0.648599 0.149177 0.479903
0.035063 0.143366 0.474729
0.648291 0.155419 0.477313
0.035645 0.161118 0.477593
0.647962 0.165391 0.477163
0.035846 0.162489 0.477504
0.646577 0.168969 0.475229
0.032603 0.175050 0.475784
0.646694 0.177605 0.478668
0.036034 0.180885 0.474703
0.649571 0.185095 0.479053
0.036066 0.183191 0.477597
0.646736 0.188242 0.476379
0.038022 0.192463 0.478617
0.644362 0.196303 0.477444
0.645175 0.215890 0.474898
0.036806 0.215485 0.474145
0.031823 0.223642 0.472605
0.645483 0.231050 0.476432
0.646618 0.242869 0.478292
0.037721 0.249539 0.476709
0.644412 0.258025 0.480859
0.037848 0.256119 0.477134
0.646864 0.264702 0.476306
0.034656 0.262110 0.476335
0.647725 0.267171 0.478918
0.280183 0.269642 0.473249
0.032465 0.265287 0.475243
0.281910 0.276653 0.480578
0.038759 0.271624 0.480914
0.644999 0.275596 0.479474
0.286164 0.278435 0.473952
0.273071 0.279773 0.474723
0.034695 0.279810 0.477068
0.648593 0.285677 0.478087
0.291143 0.284305 0.476458
0.291578 0.282266 0.478388
0.267461 0.289227 0.475469
0.032901 0.286762 0.476116
0.312403 0.293126 0.475700
0.305886 0.292724 0.471877
0.279736 0.290202 0.481201
0.032414 0.293154 0.472659
0.309172 0.297338 0.480529
0.259753 0.297339 0.479546
0.032247 0.297175 0.472299
0.652486 0.304448 0.478672
0.253352 0.302108 0.475953
0.036825 0.308834 0.479163
0.649055 0.311639 0.476369
0.652407 0.320120 0.472637
0.032691 0.318690 0.478151
0.650309 0.322160 0.480836
0.032198 0.324086 0.475262
0.653797 0.324806 0.474380
0.037261 0.329059 0.483051
0.653375 0.334366 0.473255
0.032749 0.334237 0.480904
0.649889 0.339390 0.477911
0.034876 0.338494 0.475795
0.035759 0.346766 0.476728
0.656567 0.345934 0.476581
0.031393 0.350417 0.477836
0.652103 0.356564 0.476142
0.651566 0.359159 0.478366
0.030006 0.366630 0.479322
0.034114 0.368508 0.479944
0.648072 0.379579 0.477326
0.036877 0.379826 0.477133
0.649225 0.384053 0.472176
0.648868 0.397749 0.480381
0.652013 0.401642 0.478307
0.650512 0.421140 0.482073
0.032187 0.425027 0.475733
0.652513 0.428344 0.477263
0.656216 0.438304 0.480130
0.029606 0.433646 0.478961
0.653292 0.438335 0.480651
0.032449 0.439210 0.473786
0.652751 0.450363 0.476117
0.649526 0.459316 0.481578
0.655526 0.468024 0.472716
0.031275 0.463809 0.476522
0.656559 0.471284 0.476853
0.651135 0.479178 0.480973
0.654298 0.487548 0.476037
0.654757 0.492280 0.480369
0.651861 0.504021 0.478010
0.029104 0.502168 0.479876
0.653260 0.509315 0.474762
0.655057 0.513363 0.481548
0.029963 0.516330 0.481596
0.032932 0.523371 0.480837
0.648805 0.524042 0.475476
0.650868 0.529095 0.480266
0.032137 0.530020 0.476367
0.654155 0.533857 0.474310
0.652038 0.535554 0.476746
0.654279 0.545401 0.477999
0.032850 0.548365 0.480714
0.649652 0.559888 0.478294
0.029670 0.559203 0.472212
0.652677 0.573956 0.479001
0.031482 0.578502 0.479425
0.649452 0.586240 0.473845
0.032913 0.588289 0.478846
0.643337 0.590323 0.477926
0.033801 0.585591 0.472121
0.033572 0.595067 0.476828
0.642817 0.603370 0.479051
0.035574 0.603539 0.478275
0.638834 0.608793 0.476216
0.039821 0.612276 0.477384
0.633775 0.618390 0.479223
0.043870 0.625872 0.478034
0.623298 0.632853 0.476190
0.051581 0.632507 0.477313
0.056675 0.641506 0.477396
0.599224 0.646259 0.478890
0.596770 0.655268 0.476626
0.059764 0.646829 0.479774
0.064842 0.648763 0.480931
0.577090 0.658838 0.477291
0.076338 0.666693 0.478224
0.069337 0.658683 0.480382
0.568447 0.661283 0.473971
0.085109 0.665205 0.476367
0.558331 0.670025 0.480597
0.088503 0.667822 0.477070
0.540262 0.671892 0.479835
0.116954 0.681164 0.475449
0.098731 0.676904 0.482172
0.534874 0.677555 0.480106
0.524733 0.680244 0.474537
0.127100 0.682968 0.477058
0.117831 0.681242 0.476197
0.511033 0.685728 0.480395
0.499674 0.687454 0.478724
0.498712 0.687432 0.477124
0.155913 0.687963 0.475811
0.152859 0.688993 0.476008
0.143168 0.685774 0.477292
0.138392 0.682971 0.478978
0.490437 0.691290 0.478111
0.484330 0.689909 0.477589
0.479191 0.689924 0.476934
0.469141 0.690227 0.480360
0.466857 0.694989 0.474399
0.195993 0.695279 0.479948
0.190396 0.691422 0.477151
0.180304 0.689692 0.475724
0.173953 0.690725 0.478991
0.158959 0.686707 0.475665
0.455366 0.695195 0.480061
0.447641 0.695943 0.477486
0.436372 0.699842 0.479084
0.423073 0.698124 0.476087
0.415862 0.697721 0.477101
0.399225 0.700074 0.480346
0.293353 0.697484 0.478848
0.278064 0.698661 0.477818
0.271307 0.696236 0.481388
0.266115 0.697462 0.476698
0.250692 0.698584 0.478184
0.237947 0.698670 0.473581
0.231398 0.696581 0.477230
0.225803 0.695606 0.474938
0.216389 0.695174 0.480129
0.390488 0.700488 0.478773
0.379111 0.704601 0.481267
0.368937 0.700064 0.478431
0.356531 0.701210 0.480376
0.350213 0.701314 0.480745
0.310422 0.698811 0.478447
0.307035 0.700533 0.473848
0.300045 0.700188 0.478731
0.594828 0.004754 0.477879
0.145287 0.003795 0.479545
0.611717 0.006528 0.485305
0.587978 0.003599 0.485164
0.503702 0.001876 0.485440
0.493232 0.004052 0.485282
0.485183 0.006981 0.481613
0.470179 0.001479 0.478580
0.464953 0.010784 0.485192
0.138861 0.004166 0.481368
0.615284 0.007876 0.483518
0.450368 0.007377 0.485593
0.440426 0.014249 0.482268
0.158847 0.011379 0.483615
0.616471 0.015053 0.479573
0.595988 0.013458 0.485259
0.426590 0.015197 0.484794
0.173135 0.021553 0.487255
0.167063 0.012021 0.486701
0.598601 0.020325 0.482613
0.420551 0.016963 0.482088
0.416682 0.022882 0.485156
0.619611 0.026231 0.482998
0.594970 0.027711 0.483148
0.405746 0.026941 0.482085
0.075023 0.030823 0.481873
0.062449 0.033933 0.479075
0.394100 0.037259 0.476517
0.625221 0.042057 0.483667
0.385823 0.042694 0.481500
0.087537 0.044347 0.481623
0.060115 0.042243 0.483062
0.628722 0.046119 0.484461
0.382185 0.045871 0.475596
0.375457 0.052105 0.478788
0.372151 0.053282 0.487379
0.631496 0.054891 0.485100
0.057551 0.057634 0.484727
0.635001 0.063145 0.486405
0.369597 0.061703 0.481030
0.052758 0.064769 0.483106
0.638325 0.070067 0.479629
0.358177 0.068020 0.481084
0.048108 0.073593 0.482969
0.049975 0.073648 0.481654
0.642227 0.084074 0.483594
0.641430 0.091234 0.483658
0.045151 0.092739 0.481530
0.647498 0.105066 0.482475
0.041730 0.106747 0.479674
0.644739 0.107201 0.486442
0.643109 0.113459 0.478569
0.038382 0.113878 0.483480
0.040534 0.117489 0.482123
0.040462 0.119868 0.479352
0.643503 0.122242 0.483421
0.037393 0.124770 0.481242
0.645104 0.137169 0.482515
0.035593 0.144621 0.483287
0.644740 0.159874 0.481393
0.643497 0.169755 0.482029
0.039390 0.168563 0.483015
