ply
format ascii 1.0
element vertex 1773
property float x
property float y
property float z
end_header
0.005642 0.537809 0.298612
0.678411 0.546688 0.298358
0.006096 0.549512 0.298043
0.678374 0.553821 0.299605
0.677579 0.558730 0.298380
0.677622 0.569050 0.298232
0.008395 0.573324 0.299696
0.675335 0.579821 0.297973
0.675570 0.585921 0.297067
0.010250 0.589312 0.299051
0.674447 0.593594 0.301378
0.010946 0.594873 0.297990
0.670637 0.600376 0.297496
0.667183 0.607425 0.295964
0.012178 0.604996 0.297851
0.664527 0.613626 0.297405
0.014651 0.614971 0.298923
0.659810 0.622920 0.298874
0.654128 0.629093 0.298538
0.649907 0.636513 0.297936
0.645439 0.640956 0.298278
0.028843 0.643729 0.299400
0.635023 0.650693 0.298149
0.033747 0.649150 0.298738
0.039074 0.655099 0.300010
0.622397 0.659174 0.299846
0.616692 0.662360 0.299955
0.050343 0.662453 0.299447
0.044068 0.659447 0.300053
0.607922 0.666419 0.298802
0.056448 0.666527 0.299024
0.595080 0.671445 0.300607
0.071491 0.675677 0.299052
0.571662 0.679061 0.296172
0.562251 0.683297 0.299109
0.087558 0.682542 0.300325
0.553465 0.683855 0.298332
0.542422 0.687547 0.298339
0.092830 0.685847 0.298583
0.522787 0.691489 0.298155
0.511040 0.693686 0.300735
0.507396 0.693532 0.298342
0.108708 0.690222 0.298718
0.496285 0.696586 0.297427
0.491393 0.697641 0.299886
0.133462 0.697828 0.300638
0.127874 0.696166 0.298038
0.121033 0.695313 0.300737
0.483928 0.699866 0.298684
0.476664 0.701839 0.298297
0.469310 0.705042 0.295372
0.165214 0.704352 0.299537
0.154174 0.701786 0.297474
0.148754 0.700997 0.297118
0.142182 0.699362 0.299130
0.194685 0.708090 0.300876
0.185496 0.706984 0.298061
0.179659 0.705251 0.297660
0.171844 0.704737 0.300370
0.459657 0.711438 0.300845
0.203382 0.710169 0.298682
0.454694 0.715101 0.299338
0.225157 0.718355 0.298947
0.217719 0.715569 0.300467
0.449281 0.721892 0.300001
0.444024 0.726747 0.299728
0.233355 0.727682 0.299337
0.238063 0.731743 0.300607
0.244016 0.737442 0.299980
0.438655 0.741056 0.300601
0.246792 0.741699 0.299699
0.435034 0.747003 0.299176
0.252319 0.756648 0.299592
0.428351 0.762262 0.298158
0.427219 0.768678 0.297010
0.428755 0.772711 0.301097
0.260498 0.775804 0.296247
0.424127 0.788797 0.298597
0.303363 0.792693 0.304517
0.422172 0.795948 0.296058
0.423063 0.800005 0.298132
0.311508 0.801711 0.301929
0.305670 0.799594 0.302438
0.264682 0.799908 0.296485
0.304881 0.806414 0.301044
0.262381 0.804248 0.298876
0.423226 0.810607 0.299758
0.308271 0.810432 0.298676
0.300665 0.810879 0.303938
0.264634 0.810267 0.298420
0.303193 0.816563 0.301167
0.421051 0.819381 0.297611
0.305529 0.824888 0.299368
0.308142 0.835714 0.300130
0.269790 0.834585 0.296628
0.419439 0.841784 0.299750
0.268022 0.840678 0.300500
0.417384 0.847028 0.295402
0.309099 0.843122 0.300645
0.270803 0.845552 0.295966
0.418899 0.852536 0.300525
0.268144 0.851379 0.300541
0.418342 0.861441 0.299154
0.269429 0.860577 0.298156
0.270927 0.865959 0.297364
0.306588 0.871452 0.301730
0.312105 0.877799 0.299250
0.268215 0.875490 0.299558
0.318283 0.882383 0.299305
0.269654 0.882648 0.300077
0.419743 0.886145 0.300128
0.367616 0.888652 0.299622
0.322818 0.886544 0.298622
0.309748 0.887585 0.300168
0.269684 0.886764 0.296827
0.420469 0.891149 0.297467
0.372042 0.892734 0.300683
0.327532 0.890364 0.296716
0.267196 0.892324 0.300228
0.374491 0.898747 0.301024
0.324841 0.895183 0.297083
0.304198 0.898702 0.300739
0.314091 0.901676 0.298641
0.266357 0.902844 0.298668
0.373430 0.906305 0.297258
0.325008 0.903676 0.294813
0.306643 0.907981 0.299107
0.299861 0.905605 0.301872
0.425059 0.910624 0.300534
0.378180 0.913044 0.299283
0.310246 0.912624 0.297904
0.303526 0.912351 0.300757
0.262743 0.913569 0.300792
0.425088 0.918077 0.297130
0.308148 0.918197 0.298312
0.426518 0.924330 0.296806
0.383164 0.924365 0.299797
0.303862 0.921726 0.300105
0.262461 0.923205 0.298942
0.428098 0.929073 0.300774
0.306668 0.927027 0.296543
0.426978 0.931027 0.296021
0.382836 0.934067 0.299699
0.301968 0.932723 0.297844
0.259286 0.932920 0.300531
0.297630 0.938135 0.299365
0.431419 0.942972 0.297747
0.385265 0.942860 0.302458
0.295159 0.943996 0.300301
0.257056 0.943328 0.298107
0.433708 0.948558 0.299206
0.298347 0.947458 0.296803
0.386310 0.949992 0.302323
0.293689 0.953894 0.300133
0.255216 0.952723 0.297860
0.252281 0.959168 0.299071
0.435279 0.961385 0.300173
0.381916 0.961803 0.300644
0.295191 0.961717 0.297766
0.435553 0.967821 0.298568
0.379686 0.967217 0.298946
0.291962 0.968402 0.299578
0.247871 0.970529 0.299678
0.432535 0.976213 0.295407
0.287652 0.974915 0.300552
0.379800 0.978178 0.297449
0.247154 0.979306 0.299035
0.429020 0.982175 0.298832
0.389337 0.983631 0.297617
0.286540 0.984035 0.297819
0.423886 0.987188 0.298952
0.401909 0.988588 0.298817
0.282312 0.990162 0.298900
0.247351 0.987272 0.300108
0.278140 0.995062 0.298855
0.252227 0.992693 0.298157
0.271769 0.997491 0.298313
0.262495 0.997643 0.299313
0.654031 0.004075 0.303005
0.029917 0.004802 0.302544
0.408714 0.003648 0.303106
0.161910 0.008244 0.301974
0.154072 0.003909 0.304464
0.397931 0.010259 0.303577
0.030101 0.011105 0.304857
0.653660 0.015276 0.302818
0.387301 0.015058 0.304247
0.166719 0.014523 0.304478
0.028947 0.016355 0.304166
0.657772 0.022114 0.304124
0.172169 0.023796 0.303306
0.367737 0.025777 0.304463
0.359562 0.028350 0.302391
0.177433 0.029332 0.301377
0.028053 0.027747 0.302198
0.657329 0.028154 0.305039
0.344912 0.033600 0.301663
0.026883 0.033158 0.303452
0.349101 0.036316 0.304998
0.339486 0.037511 0.302841
0.329581 0.037963 0.301519
0.661139 0.041307 0.304320
0.324925 0.042705 0.303571
0.318613 0.046088 0.303264
0.663901 0.049263 0.304062
0.312204 0.052637 0.303811
0.666167 0.057767 0.303221
0.021675 0.059256 0.299130
0.668913 0.067965 0.303556
0.015133 0.072112 0.304528
0.670217 0.077639 0.304120
0.011567 0.088599 0.304842
0.008712 0.095545 0.304713
0.674911 0.103999 0.302163
0.005802 0.107431 0.302886
0.675640 0.113540 0.303909
0.005554 0.114364 0.303654
0.004662 0.120259 0.303430
0.676812 0.123106 0.302921
0.677016 0.130284 0.305669
0.004029 0.129290 0.306892
0.004798 0.138615 0.301049
0.677191 0.144167 0.303658
0.004124 0.144555 0.302822
0.676449 0.150905 0.302595
0.003683 0.152133 0.302419
0.676432 0.159381 0.303939
0.005343 0.161824 0.303277
0.004350 0.168587 0.303650
0.676793 0.175241 0.303441
0.005253 0.175841 0.301044
0.676533 0.184710 0.306063
0.003780 0.184904 0.304337
0.676952 0.190328 0.303151
0.004822 0.195948 0.303490
0.677063 0.205088 0.302057
0.003706 0.203739 0.304900
0.677044 0.216248 0.303738
0.004017 0.215073 0.302241
0.004443 0.218907 0.303028
0.677179 0.230683 0.303834
0.003976 0.230745 0.303387
0.676946 0.237814 0.303100
0.004872 0.241328 0.304195
0.677309 0.247593 0.303498
0.676911 0.256979 0.304223
0.004976 0.256462 0.304150
0.676850 0.263476 0.304534
0.677762 0.270160 0.303550
0.005309 0.267273 0.303172
0.005787 0.271729 0.301767
0.678334 0.278581 0.302993
0.004607 0.282961 0.303002
0.679071 0.289128 0.304552
0.004422 0.297665 0.303481
0.004627 0.303312 0.304989
0.679557 0.308140 0.303239
0.679780 0.316880 0.303384
0.004616 0.318210 0.302142
0.679877 0.322606 0.303848
0.004808 0.328726 0.305537
0.678543 0.333994 0.302569
0.003876 0.347988 0.303057
0.678668 0.359434 0.303457
0.004734 0.359214 0.303202
0.004132 0.372808 0.303014
0.005027 0.378886 0.302462
0.678263 0.383926 0.303730
0.004689 0.385767 0.303904
0.678294 0.397097 0.307026
0.005281 0.400753 0.300769
0.679443 0.404916 0.303976
0.006496 0.409717 0.304528
0.678906 0.420534 0.303017
0.004684 0.420332 0.303443
0.004331 0.426897 0.302871
0.004824 0.432325 0.303293
0.680082 0.441576 0.302658
0.004318 0.443098 0.302221
0.681458 0.448532 0.303516
0.003690 0.456438 0.303786
0.680453 0.467025 0.304626
0.003830 0.470913 0.303693
0.680922 0.476592 0.303480
0.680268 0.486402 0.303303
0.004190 0.486831 0.303983
0.004904 0.492684 0.304264
0.680231 0.497323 0.303114
0.004407 0.502644 0.303258
0.679307 0.507816 0.303221
0.679723 0.514014 0.302543
0.004461 0.518440 0.304820
0.678997 0.523760 0.305092
0.678308 0.528740 0.304169
0.003640 0.530394 0.303278
0.678424 0.539225 0.304451
0.004576 0.542125 0.302667
0.678680 0.547625 0.307058
0.004614 0.548515 0.303348
0.005010 0.553043 0.302540
0.677494 0.562467 0.303248
0.004559 0.565040 0.304294
0.677510 0.567940 0.303321
0.677464 0.574514 0.304032
0.007124 0.580090 0.304353
0.675623 0.585958 0.302649
0.007479 0.588196 0.305487
0.009627 0.594674 0.303385
0.671532 0.601168 0.305048
0.011774 0.599696 0.302905
0.668792 0.607052 0.305296
0.012547 0.609176 0.303771
0.661257 0.621098 0.303271
0.015939 0.618956 0.302976
0.657534 0.627198 0.303990
0.017126 0.624382 0.303757
0.020946 0.630995 0.304684
0.024092 0.638544 0.300754
0.647968 0.639219 0.305518
0.642493 0.643698 0.305955
0.637405 0.649085 0.305754
0.036161 0.651149 0.304133
0.631014 0.655150 0.304211
0.616548 0.662328 0.305196
0.050494 0.664244 0.304971
0.604639 0.667523 0.303138
0.059586 0.668997 0.302624
0.066934 0.672466 0.304414
0.587671 0.675703 0.302870
0.579473 0.677542 0.304840
0.074786 0.677693 0.303554
0.563015 0.682730 0.305699
0.555657 0.684752 0.305273
0.547468 0.686466 0.302699
0.539446 0.688105 0.305652
0.102539 0.688688 0.302617
0.090996 0.685690 0.304018
0.530655 0.690515 0.303409
0.518776 0.692350 0.304145
0.112612 0.691927 0.302879
0.491921 0.697805 0.305469
0.477214 0.703291 0.304318
0.160503 0.704180 0.303722
0.154690 0.702633 0.304498
0.148750 0.701730 0.302682
0.469629 0.705761 0.303973
0.463885 0.709209 0.302830
0.189921 0.707755 0.303602
0.209913 0.713572 0.304752
0.227559 0.720888 0.303439
0.444699 0.731677 0.305237
0.243235 0.740926 0.305905
0.437607 0.746623 0.305290
0.246602 0.748081 0.304105
0.434665 0.752557 0.304987
0.431264 0.759177 0.302482
0.255150 0.764836 0.302671
0.256257 0.773127 0.303595
0.429011 0.778075 0.303574
0.303833 0.784223 0.310489
0.259607 0.781603 0.300101
0.428203 0.785967 0.304932
0.260141 0.788889 0.304094
0.426022 0.793336 0.303341
0.299371 0.799745 0.305393
0.260831 0.799425 0.302830
0.425853 0.804514 0.304092
0.261929 0.810154 0.304474
0.424576 0.814991 0.304431
0.264376 0.817480 0.301275
0.299046 0.820809 0.303271
0.422759 0.825678 0.300463
0.300105 0.827524 0.301870
0.264441 0.823781 0.301617
0.423306 0.829634 0.305082
0.263979 0.828309 0.301535
0.421542 0.833779 0.301592
0.302094 0.833701 0.303292
0.264779 0.835931 0.303719
0.298194 0.842793 0.305786
0.303117 0.846640 0.303809
0.265904 0.846093 0.302272
0.306185 0.850644 0.302932
0.299029 0.851643 0.306095
0.304282 0.857309 0.303705
0.267458 0.854801 0.303402
0.307767 0.861475 0.302877
0.299631 0.862426 0.306477
0.267432 0.860105 0.303705
0.420795 0.866610 0.302653
0.302555 0.865619 0.303541
0.267446 0.867438 0.303047
0.421436 0.871696 0.304070
0.303496 0.876842 0.303154
0.304538 0.882229 0.301663
0.297194 0.882118 0.304825
0.423479 0.893184 0.306539
0.376355 0.894181 0.304583
0.309516 0.893364 0.299953
0.303509 0.890853 0.301386
0.298029 0.897132 0.304559
0.423375 0.903173 0.303807
0.379127 0.903651 0.304673
0.263233 0.904034 0.305916
0.424645 0.907970 0.305091
0.381970 0.913083 0.303322
0.297917 0.911612 0.303029
0.427882 0.919942 0.304846
0.296763 0.916969 0.303571
0.260744 0.917090 0.303773
0.297348 0.923117 0.303453
0.258188 0.923067 0.305236
0.386668 0.933880 0.305829
0.296573 0.931673 0.302362
0.431637 0.937832 0.304358
0.292352 0.937940 0.303272
0.256424 0.938717 0.304014
0.434038 0.944971 0.304328
0.288366 0.944755 0.305932
0.253324 0.949431 0.304815
0.289160 0.954308 0.304621
0.435373 0.957149 0.303869
0.289882 0.960490 0.302170
0.386223 0.960602 0.305936
0.249420 0.962067 0.302606
0.434206 0.966921 0.305119
0.384112 0.968751 0.305112
0.286614 0.968124 0.303190
0.380909 0.973580 0.300813
0.283662 0.974467 0.305397
0.433160 0.975631 0.305948
0.385742 0.978008 0.302614
0.243980 0.979055 0.306045
0.427691 0.985258 0.303299
0.394770 0.984504 0.303658
0.282153 0.983903 0.303280
0.419773 0.989440 0.303963
0.411477 0.989530 0.301193
0.404885 0.989051 0.303101
0.245008 0.986333 0.306255
0.277733 0.990422 0.304604
0.248575 0.991323 0.306131
0.274345 0.996201 0.304190
0.266111 0.998347 0.305343
0.258048 0.996418 0.303286
0.654246 0.003582 0.311003
0.043188 0.003029 0.310583
0.028103 0.003109 0.309013
0.413984 0.003376 0.309751
0.406267 0.007015 0.309450
0.152344 0.007687 0.308677
0.048534 0.008736 0.305046
0.655769 0.010337 0.308733
0.395249 0.012073 0.308693
0.159481 0.012500 0.308468
0.655461 0.017624 0.310349
0.380689 0.019481 0.304962
0.048965 0.013426 0.311192
0.387136 0.019265 0.311142
0.657805 0.023453 0.310660
0.374101 0.026911 0.308873
0.026614 0.026400 0.307430
0.368528 0.031009 0.309492
0.359390 0.033487 0.307352
0.661330 0.036861 0.309181
0.352758 0.038109 0.307404
0.344329 0.038743 0.307873
0.338550 0.041936 0.306647
0.330279 0.044332 0.306528
0.026815 0.039280 0.307566
0.347479 0.043046 0.312283
0.324666 0.049450 0.307093
0.024955 0.045242 0.308584
0.331236 0.050907 0.309415
0.319227 0.053966 0.308127
0.023306 0.050899 0.306636
0.666157 0.056439 0.310832
0.322037 0.058543 0.310557
0.020317 0.058087 0.308322
0.669114 0.066248 0.309104
0.018302 0.064366 0.308246
0.669459 0.072326 0.307795
0.013025 0.078320 0.308272
0.672397 0.083728 0.309025
0.009999 0.087266 0.310102
0.672869 0.091736 0.306875
0.674317 0.099128 0.306091
0.006302 0.103209 0.307220
0.676421 0.108575 0.308345
0.003945 0.114660 0.308626
0.676572 0.119486 0.309166
0.003944 0.121479 0.310303
0.676308 0.133623 0.309531
0.002931 0.133004 0.309807
0.002553 0.140098 0.311247
0.003243 0.146412 0.309454
0.677199 0.149495 0.308811
0.676907 0.155199 0.307808
0.003261 0.154869 0.309459
0.676869 0.165364 0.308980
0.003346 0.163017 0.310991
0.003824 0.175082 0.306525
0.676500 0.180456 0.309417
0.003713 0.181125 0.308333
0.676679 0.188586 0.309797
0.004769 0.190969 0.309632
0.677815 0.195226 0.306701
0.678028 0.200371 0.308432
0.677303 0.210263 0.307951
0.003949 0.211791 0.308967
0.002974 0.215710 0.311727
0.677117 0.221027 0.309516
0.004340 0.224350 0.308797
0.678263 0.231706 0.310236
0.677597 0.237207 0.308112
0.004546 0.235622 0.310027
0.678141 0.242312 0.306250
0.003696 0.245809 0.308221
0.678828 0.253221 0.308693
0.004421 0.261790 0.309287
0.678803 0.269064 0.311700
0.678953 0.277552 0.309596
0.004314 0.277938 0.308677
0.004765 0.287434 0.308342
0.679189 0.298825 0.308477
0.293841 0.298393 0.309177
0.299735 0.300867 0.310181
0.003754 0.301657 0.309964
0.003936 0.307372 0.309584
0.681332 0.312162 0.308038
0.004505 0.313879 0.306699
0.003747 0.318039 0.308581
0.680373 0.328026 0.309328
0.004276 0.333146 0.308302
0.680372 0.338681 0.308231
0.002855 0.339723 0.307498
0.680192 0.349873 0.309120
0.004417 0.351919 0.308220
0.679113 0.365289 0.308692
0.004404 0.364892 0.308978
0.678523 0.370304 0.306309
0.679499 0.374573 0.311004
0.004087 0.380893 0.308542
0.679110 0.384851 0.311177
0.677908 0.389973 0.309642
0.003720 0.394693 0.307348
0.004169 0.406046 0.308545
0.679432 0.409241 0.307534
0.679339 0.415051 0.308172
0.003415 0.416288 0.309084
0.004379 0.422641 0.308252
0.680245 0.426188 0.308376
0.680242 0.436021 0.308389
0.004231 0.435233 0.309198
0.681071 0.446363 0.310057
0.004057 0.446980 0.307974
0.681286 0.452226 0.308140
0.003713 0.453667 0.309305
0.681255 0.458713 0.306426
0.003783 0.463092 0.308738
0.681187 0.471634 0.309021
0.002696 0.476515 0.306989
0.681426 0.482654 0.308733
0.002720 0.481815 0.310482
0.679615 0.492972 0.308475
0.002679 0.497073 0.307406
0.679025 0.502119 0.309335
0.003087 0.507900 0.306913
0.680014 0.512791 0.309151
0.003399 0.513888 0.308859
0.679105 0.518594 0.308351
0.679604 0.524101 0.309651
0.002647 0.529218 0.310723
0.679891 0.535165 0.308279
0.003625 0.537859 0.310443
0.003913 0.543271 0.308067
0.678811 0.552830 0.309199
0.003579 0.553021 0.308803
0.679638 0.559184 0.309504
0.679165 0.567011 0.310602
0.005704 0.569292 0.308069
0.678727 0.573568 0.308902
0.006305 0.575331 0.308870
0.676585 0.579067 0.308743
0.674903 0.590361 0.307496
0.008158 0.592031 0.311863
0.673568 0.598186 0.310000
0.009855 0.599356 0.310356
0.010552 0.604258 0.307618
0.667692 0.611642 0.311208
0.011663 0.612760 0.308428
0.664194 0.618817 0.308074
0.015859 0.621188 0.309811
0.659607 0.625021 0.308955
0.654858 0.630296 0.310166
0.018829 0.626958 0.311490
0.021548 0.634523 0.308201
0.025891 0.641434 0.307926
0.031865 0.647638 0.306764
0.632592 0.654362 0.310197
0.626470 0.657452 0.309541
0.041296 0.655223 0.309139
0.622870 0.659996 0.306860
0.046691 0.661322 0.309565
0.609377 0.667319 0.308193
0.057047 0.668650 0.307397
0.602591 0.670992 0.308917
0.596236 0.671981 0.310190
0.574137 0.679537 0.309126
0.076586 0.678854 0.309853
0.069773 0.674340 0.308522
0.560190 0.683798 0.309136
0.083813 0.680663 0.307832
0.097431 0.687201 0.310810
0.088917 0.684366 0.310232
0.532661 0.690784 0.309028
0.522429 0.692991 0.307583
0.513277 0.694396 0.310816
0.112770 0.691947 0.309456
0.105951 0.691243 0.309511
0.505151 0.694585 0.307214
0.132285 0.698406 0.311435
0.125165 0.696216 0.306487
0.484129 0.700515 0.307839
0.168209 0.704375 0.309133
0.158575 0.703171 0.309516
0.153366 0.701692 0.310031
0.139877 0.700330 0.308990
0.465904 0.708104 0.307921
0.193792 0.708942 0.310617
0.184993 0.707125 0.308188
0.175169 0.704617 0.309154
0.461444 0.712597 0.309158
0.201993 0.710531 0.308471
0.456027 0.717429 0.308838
0.221042 0.718347 0.307708
0.450278 0.723050 0.309368
0.230697 0.727200 0.307487
0.236568 0.732595 0.310375
0.442312 0.739599 0.308022
0.438013 0.751215 0.310432
0.247580 0.752770 0.309805
0.434818 0.760014 0.308852
0.250437 0.759816 0.308667
0.432184 0.765469 0.306580
0.252639 0.768541 0.308388
0.430954 0.773054 0.308150
0.256746 0.778201 0.307068
0.299185 0.786630 0.311679
0.256640 0.785090 0.310171
0.295497 0.791921 0.312696
0.257888 0.789839 0.309536
0.428273 0.793684 0.309153
0.426562 0.799731 0.306126
0.294412 0.799941 0.310319
0.258272 0.800103 0.310094
0.428878 0.804337 0.311693
0.293588 0.806670 0.309938
0.259926 0.805354 0.306550
0.427484 0.808778 0.308380
0.295136 0.811290 0.309002
0.294136 0.820068 0.308896
0.261240 0.820496 0.307610
0.425488 0.825315 0.307929
0.297027 0.826235 0.306006
0.294030 0.829975 0.308866
0.261862 0.830369 0.309939
0.424114 0.835179 0.309210
0.421709 0.843478 0.306253
0.293617 0.839093 0.309662
0.262699 0.839662 0.308963
0.291786 0.846104 0.310780
0.263086 0.846420 0.311042
0.422076 0.850976 0.306193
0.263614 0.852612 0.309069
0.424206 0.856772 0.310297
0.296539 0.856002 0.307041
0.421437 0.862247 0.306614
0.294923 0.861629 0.308797
0.263599 0.860974 0.309459
0.294767 0.868161 0.310222
0.422191 0.870630 0.310585
0.264328 0.872419 0.306932
0.294325 0.876324 0.308310
0.263318 0.876609 0.309921
0.422547 0.880430 0.304549
0.292269 0.882882 0.310003
0.265289 0.880854 0.306419
0.423507 0.885677 0.307874
0.295402 0.888403 0.306566
0.289385 0.889171 0.312891
0.293262 0.892626 0.308863
0.264547 0.890804 0.305760
0.380971 0.900952 0.309679
0.290347 0.897156 0.311805
0.262453 0.896108 0.308924
0.425335 0.901925 0.309490
0.382516 0.903266 0.310563
0.293576 0.902162 0.308348
0.429222 0.914549 0.309906
0.384544 0.912770 0.312708
0.291615 0.912968 0.308970
0.260450 0.910243 0.306864
0.384073 0.917623 0.306915
0.257102 0.918571 0.309541
0.386503 0.921921 0.310055
0.290963 0.920485 0.308888
0.431294 0.927252 0.309243
0.290163 0.926947 0.307208
0.288330 0.932080 0.308946
0.255381 0.932634 0.307634
0.433061 0.939331 0.309666
0.253657 0.938840 0.310194
0.389908 0.943287 0.308839
0.390492 0.949401 0.311768
0.284116 0.947843 0.311357
0.435723 0.952210 0.308215
0.388573 0.951268 0.306384
0.436498 0.957635 0.309054
0.390188 0.956296 0.312893
0.283478 0.957527 0.310986
0.248959 0.956995 0.307173
0.435874 0.963404 0.310206
0.286097 0.962109 0.305576
0.246927 0.964355 0.308349
0.389166 0.964368 0.310740
0.283601 0.969199 0.308173
0.434976 0.972718 0.311422
0.245140 0.971691 0.306367
0.389745 0.979122 0.309723
0.281127 0.978418 0.309047
0.429876 0.981694 0.309502
0.398458 0.984705 0.309123
0.277798 0.984714 0.309053
0.241170 0.982419 0.311406
0.425082 0.987047 0.308770
0.409782 0.988516 0.308835
0.274662 0.991462 0.311019
0.246726 0.990352 0.310788
0.256892 0.997648 0.308213
0.249695 0.994573 0.312049
0.419552 0.003994 0.314654
0.655067 0.012376 0.314613
0.400831 0.011370 0.312779
0.044742 0.008779 0.313225
0.026503 0.010258 0.312206
0.656190 0.016419 0.316498
0.393820 0.016117 0.314147
0.381745 0.024523 0.311136
0.026848 0.020092 0.314024
0.659036 0.030564 0.313019
0.373927 0.031974 0.314776
0.026639 0.030546 0.314506
0.660784 0.036771 0.315474
0.367659 0.035335 0.314045
0.360623 0.038513 0.311613
0.355290 0.042752 0.314355
0.025267 0.041072 0.314403
0.663047 0.044010 0.311609
0.340445 0.049821 0.311522
0.665691 0.051236 0.312914
0.338752 0.053934 0.313535
0.022279 0.053270 0.314665
0.667190 0.056186 0.316605
0.341909 0.057724 0.316517
0.333758 0.058256 0.314477
0.018621 0.060733 0.313771
0.014627 0.070821 0.313786
0.672574 0.077876 0.315195
0.673297 0.088990 0.314304
0.008909 0.092911 0.314024
0.674627 0.098419 0.312489
0.675002 0.102661 0.314083
0.005094 0.103374 0.313528
0.004413 0.108509 0.314663
0.676526 0.113474 0.314610
0.003574 0.115787 0.315311
0.676313 0.123608 0.313246
0.002260 0.128145 0.314404
0.676702 0.130857 0.313185
0.002258 0.135060 0.315253
0.677328 0.137683 0.314379
0.676028 0.147899 0.314401
0.677224 0.155220 0.312663
0.678281 0.169848 0.313597
0.002060 0.169166 0.315549
0.677633 0.181557 0.315523
0.003682 0.186990 0.312904
0.677549 0.196097 0.313846
0.004010 0.194995 0.313348
0.003556 0.200616 0.312105
0.677488 0.207012 0.312404
0.677069 0.216703 0.313063
0.677988 0.221685 0.313982
0.004634 0.226791 0.314843
0.677716 0.241781 0.313556
0.004243 0.239486 0.313572
0.678816 0.249118 0.313408
0.003519 0.250379 0.313894
0.678544 0.257128 0.313465
0.003712 0.257500 0.313893
0.679187 0.263668 0.314267
0.005799 0.268031 0.314688
0.004206 0.272931 0.312717
0.679519 0.281175 0.313839
0.005467 0.283673 0.313295
0.680479 0.287985 0.313930
0.680722 0.293149 0.314280
0.286479 0.295823 0.311484
0.003596 0.293526 0.313612
0.278559 0.299594 0.314615
0.680712 0.303363 0.313785
0.307118 0.302137 0.315008
0.287748 0.300145 0.315761
0.003737 0.312568 0.311955
0.680797 0.319202 0.313178
0.004832 0.323924 0.312837
0.681531 0.329488 0.314692
0.003388 0.338365 0.312345
0.680753 0.344393 0.313480
0.003515 0.344713 0.311464
0.679808 0.353688 0.313677
0.003872 0.352581 0.315512
0.003889 0.360075 0.313456
0.004804 0.370166 0.312306
0.003467 0.376079 0.312961
0.003359 0.388990 0.314009
0.679081 0.399797 0.314432
0.003679 0.401081 0.312765
0.679229 0.405147 0.314155
0.003790 0.406029 0.313803
0.003504 0.413191 0.313403
0.680693 0.420726 0.313901
0.003139 0.421559 0.316133
0.680259 0.430384 0.313755
0.004024 0.430432 0.314646
0.681208 0.441397 0.313929
0.003364 0.441206 0.311266
0.681476 0.451349 0.314846
0.680862 0.457097 0.313236
0.004024 0.463073 0.316206
0.680240 0.467978 0.313252
0.002948 0.469063 0.310604
0.679945 0.477251 0.313503
0.680718 0.486356 0.313933
0.002872 0.486677 0.315417
0.003009 0.494257 0.312609
0.680267 0.498071 0.313813
0.004016 0.502191 0.310032
0.680569 0.507621 0.313907
0.003303 0.507354 0.314708
0.681359 0.517093 0.313725
0.003026 0.518392 0.315303
0.678695 0.527637 0.313184
0.679990 0.538952 0.313459
0.002420 0.545063 0.314122
0.003618 0.552131 0.314826
0.003976 0.556924 0.313046
0.003597 0.563703 0.314212
0.005199 0.568812 0.314496
0.678845 0.571496 0.316168
0.677556 0.579658 0.314858
0.006945 0.579342 0.313901
0.677173 0.585236 0.313469
0.007191 0.585823 0.312821
0.008891 0.600344 0.316316
0.670114 0.605531 0.314213
0.662804 0.622646 0.314268
0.015748 0.621908 0.314838
0.658048 0.628517 0.316087
0.651768 0.636381 0.312728
0.021489 0.635358 0.315003
0.646509 0.642178 0.314172
0.026076 0.641778 0.314411
0.639798 0.646300 0.313795
0.031378 0.647970 0.312912
0.036525 0.651844 0.313164
0.626826 0.658610 0.315498
0.619407 0.661689 0.313488
0.050352 0.662814 0.312961
0.612922 0.664707 0.315278
0.606177 0.668139 0.313963
0.590915 0.674375 0.314819
0.066109 0.673095 0.312391
0.059544 0.670189 0.316569
0.582640 0.677014 0.313464
0.076205 0.678411 0.316864
0.571242 0.679844 0.312444
0.563998 0.682468 0.314827
0.556257 0.685259 0.313333
0.547460 0.686639 0.313059
0.537671 0.689828 0.313880
0.090275 0.684082 0.315485
0.527514 0.691173 0.311932
0.112535 0.693227 0.315857
0.505719 0.695362 0.313273
0.497649 0.697328 0.314866
0.487751 0.699556 0.313936
0.119946 0.694493 0.314041
0.480505 0.702159 0.312582
0.473689 0.705181 0.312426
0.164522 0.703712 0.314061
0.172878 0.704889 0.313848
0.463696 0.712052 0.315206
0.209740 0.713727 0.314471
0.200756 0.711215 0.312574
0.459091 0.715161 0.316432
0.215661 0.715995 0.312632
0.454267 0.720283 0.314981
0.225653 0.723435 0.313605
0.450308 0.727424 0.315937
0.231298 0.728928 0.312439
0.445494 0.733331 0.312876
0.238025 0.737136 0.315744
0.441670 0.744578 0.313655
0.241333 0.743119 0.313992
0.245283 0.748105 0.313462
0.248012 0.757533 0.315379
0.434411 0.765313 0.313919
0.250596 0.764416 0.314784
0.433658 0.772935 0.314945
0.298519 0.781743 0.316466
0.252518 0.774894 0.313826
0.431539 0.778060 0.313102
0.429238 0.788393 0.314737
0.288989 0.795922 0.319187
0.257435 0.794902 0.313916
0.289839 0.805304 0.316458
0.258510 0.804710 0.313892
0.429053 0.810170 0.314171
0.290573 0.812106 0.313557
0.259870 0.810886 0.311172
0.426493 0.816009 0.310386
0.429300 0.820273 0.315990
0.289291 0.819881 0.316302
0.258688 0.820801 0.315207
0.289427 0.826091 0.316633
0.258938 0.825468 0.313800
0.427440 0.829617 0.313980
0.288738 0.832058 0.316935
0.288859 0.840511 0.316547
0.425880 0.846594 0.313325
0.424963 0.851447 0.313511
0.290863 0.849566 0.314583
0.290958 0.855096 0.312934
0.424695 0.861256 0.315545
0.288797 0.860477 0.316427
0.261929 0.864916 0.315354
0.289902 0.871123 0.313873
0.288363 0.877013 0.315705
0.423894 0.879708 0.314332
0.261130 0.882349 0.314098
0.261395 0.887634 0.312806
0.424678 0.890891 0.314517
0.425845 0.897165 0.315080
0.286730 0.901530 0.313514
0.258974 0.901664 0.312870
0.427415 0.906443 0.313205
0.256890 0.908080 0.313767
0.288570 0.913447 0.313666
0.429813 0.922992 0.313718
0.285940 0.922456 0.312920
0.254247 0.921691 0.313878
0.431352 0.928197 0.315466
0.389005 0.927724 0.314092
0.285776 0.927060 0.314352
0.390087 0.932565 0.313913
0.282643 0.932328 0.315520
0.252830 0.933639 0.313861
0.433394 0.935647 0.315608
0.391682 0.939190 0.315926
0.285944 0.941119 0.310540
0.434956 0.946938 0.313628
0.249984 0.949073 0.314018
0.436138 0.956979 0.315059
0.246559 0.959203 0.313505
0.390555 0.961149 0.315069
0.281303 0.963645 0.313176
0.435385 0.968414 0.315039
0.278931 0.968355 0.314523
0.243404 0.968073 0.313340
0.435126 0.973530 0.315979
0.388051 0.972091 0.311798
0.280038 0.973301 0.311306
0.394174 0.979461 0.314385
0.277180 0.977859 0.314424
0.432185 0.978627 0.315429
0.402653 0.986026 0.314268
0.240717 0.981082 0.316509
0.427252 0.984232 0.317607
0.419318 0.989367 0.314429
0.410334 0.988236 0.315293
0.274546 0.986913 0.316340
0.243343 0.987906 0.315931
0.268127 0.996491 0.311573
0.261846 0.998651 0.314274
0.655141 0.003836 0.317734
0.041291 0.002901 0.320093
0.027558 0.003366 0.317007
0.425399 0.004033 0.316905
0.415511 0.006884 0.318706
0.407746 0.008257 0.316341
0.027782 0.010990 0.317450
0.399508 0.016754 0.319979
0.046841 0.015695 0.318671
0.027362 0.016399 0.318616
0.659678 0.023833 0.317989
0.390612 0.022473 0.317541
0.385361 0.027199 0.318243
0.660315 0.032780 0.319331
0.379110 0.032018 0.318435
0.374075 0.036045 0.319180
0.025442 0.037169 0.318536
0.663234 0.042897 0.320005
0.369037 0.041106 0.319702
0.360922 0.043313 0.318131
0.024744 0.041737 0.320526
0.355100 0.047770 0.317089
0.346208 0.050312 0.315205
0.022431 0.049103 0.321640
0.348474 0.055300 0.320236
0.668333 0.063875 0.318557
0.015628 0.067655 0.318101
0.670913 0.071978 0.317799
0.672248 0.077332 0.319621
0.011866 0.078837 0.318303
0.673692 0.085102 0.320768
0.010586 0.085515 0.317663
0.676053 0.098485 0.318518
0.007187 0.099099 0.318361
0.677537 0.108067 0.318890
0.003847 0.108737 0.321362
0.676505 0.118553 0.318599
0.002398 0.122657 0.318988
0.677551 0.128491 0.318568
0.002154 0.128789 0.319706
0.002032 0.133463 0.321641
0.676786 0.137981 0.320155
0.002255 0.139783 0.319941
0.677244 0.148668 0.320960
0.002553 0.148465 0.318422
0.677157 0.153355 0.317893
0.677689 0.160520 0.316863
0.002898 0.159233 0.317709
0.677038 0.176185 0.319721
0.002369 0.174635 0.319950
0.678409 0.184595 0.319284
0.002774 0.184220 0.320272
0.678383 0.191862 0.318036
0.004120 0.191037 0.317307
0.678190 0.201134 0.318618
0.003647 0.206548 0.318703
0.678571 0.212815 0.318636
0.004267 0.212398 0.316085
0.003786 0.215128 0.319715
0.004139 0.222506 0.317625
0.678503 0.227275 0.319536
0.004033 0.227469 0.320182
0.003546 0.232875 0.318061
0.678004 0.236017 0.317634
0.004305 0.248235 0.319124
0.678820 0.253780 0.320321
0.004736 0.256251 0.319322
0.004866 0.261688 0.318579
0.679194 0.271583 0.318278
0.004289 0.272569 0.318645
0.003107 0.277258 0.317412
0.679976 0.283098 0.319322
0.004008 0.290290 0.318950
0.679934 0.298124 0.318119
0.004481 0.297497 0.319256
0.298015 0.300990 0.316489
0.280102 0.301509 0.319676
0.003885 0.303954 0.321517
0.680916 0.308201 0.319351
0.274100 0.303936 0.316604
0.003368 0.311986 0.318994
0.681920 0.324042 0.318363
0.003129 0.322817 0.321818
0.001961 0.328742 0.319599
0.681777 0.334203 0.319128
0.002548 0.337387 0.320074
0.002334 0.342799 0.320237
0.681163 0.348724 0.319890
0.679913 0.359860 0.318397
0.002716 0.359206 0.320335
0.680250 0.370687 0.319177
0.001945 0.369699 0.319829
0.679826 0.380948 0.317378
0.002894 0.381213 0.315554
0.002063 0.384287 0.321318
0.678513 0.391212 0.318570
0.003638 0.394800 0.317513
0.679631 0.401282 0.319054
0.003245 0.401964 0.318905
0.679425 0.410460 0.318539
0.003380 0.417076 0.319544
0.680746 0.425130 0.319331
0.681872 0.435539 0.318574
0.002340 0.436409 0.318939
0.681816 0.444015 0.320325
0.002802 0.446109 0.318311
0.681340 0.451150 0.319969
0.681534 0.456789 0.318330
0.003332 0.454813 0.315946
0.681287 0.470720 0.319124
0.002563 0.471533 0.318317
0.002601 0.476498 0.318540
0.681126 0.481911 0.317843
0.680892 0.492510 0.318526
0.001408 0.492247 0.320311
0.680793 0.504001 0.319769
0.002232 0.502667 0.318902
0.680097 0.512425 0.319304
0.002053 0.512901 0.318987
0.679876 0.522729 0.318192
0.002028 0.522590 0.319456
0.001504 0.529397 0.318580
0.679831 0.533560 0.318024
0.001781 0.539351 0.321143
0.678413 0.543638 0.318804
0.679560 0.553692 0.318675
0.678854 0.558982 0.318048
0.004141 0.557372 0.320573
0.004307 0.569488 0.320172
0.004307 0.573551 0.319915
0.677283 0.577468 0.321509
0.676745 0.584394 0.319898
0.676323 0.589224 0.318040
0.007582 0.589796 0.316779
0.674337 0.599437 0.319543
0.671726 0.607063 0.318626
0.010072 0.604761 0.319604
0.669094 0.612248 0.316855
0.012206 0.614566 0.319201
0.664248 0.617716 0.317584
0.018467 0.627990 0.319128
0.654632 0.633392 0.318972
0.648866 0.639621 0.318621
0.023322 0.637544 0.321081
0.027522 0.643861 0.319874
0.638720 0.648654 0.317441
0.032748 0.650233 0.317758
0.632852 0.654792 0.316532
0.041702 0.657081 0.318976
0.047289 0.661206 0.318183
0.617009 0.664095 0.319807
0.610251 0.667214 0.320163
0.051129 0.665259 0.318096
0.603355 0.669599 0.317894
0.595224 0.672739 0.319723
0.580384 0.678515 0.320414
0.068583 0.674585 0.319626
0.082755 0.682308 0.318547
0.553468 0.685213 0.319977
0.096757 0.687720 0.320499
0.535698 0.689951 0.319862
0.525432 0.692005 0.317867
0.516999 0.693414 0.319896
0.105955 0.690857 0.316592
0.509814 0.694854 0.321037
0.502519 0.695678 0.316978
0.492430 0.698930 0.320674
0.131203 0.697967 0.320097
0.485513 0.700501 0.318348
0.477477 0.703796 0.318875
0.164142 0.702877 0.319583
0.157653 0.701722 0.319176
0.145064 0.700613 0.318013
0.139623 0.700190 0.318389
0.471776 0.707291 0.319936
0.196068 0.709044 0.317845
0.187726 0.707389 0.319022
0.180953 0.705841 0.319474
0.171693 0.705014 0.320805
0.204772 0.712485 0.320014
0.218252 0.718526 0.318915
0.213213 0.715227 0.320728
0.451555 0.724334 0.320014
0.227173 0.726051 0.320487
0.448379 0.731500 0.321257
0.232596 0.731511 0.319278
0.445995 0.736426 0.319407
0.239202 0.741048 0.321298
0.441450 0.748030 0.318383
0.242087 0.747087 0.320170
0.438078 0.755346 0.316080
0.247910 0.761685 0.320838
0.294597 0.780475 0.321724
0.434024 0.780046 0.319475
0.252146 0.779774 0.318538
0.432046 0.784629 0.317227
0.292878 0.784176 0.319997
0.253246 0.785528 0.317557
0.290615 0.790476 0.320220
0.431023 0.794137 0.319332
0.431206 0.800072 0.318747
0.256445 0.798544 0.318653
0.255222 0.803970 0.319137
0.256419 0.809757 0.317544
0.289124 0.814417 0.318158
0.287159 0.822054 0.320561
0.428702 0.826357 0.319946
0.257657 0.827782 0.320304
0.259731 0.832553 0.316044
0.428220 0.836379 0.315101
0.429135 0.840319 0.320137
0.259302 0.840149 0.317493
0.427774 0.848323 0.320377
0.286175 0.848219 0.321445
0.261046 0.849628 0.317681
0.426407 0.866340 0.319036
0.286882 0.866160 0.319223
0.425977 0.872398 0.318245
0.259097 0.870784 0.318725
0.287086 0.882428 0.318323
0.259279 0.884010 0.322754
0.426199 0.886220 0.317920
0.283952 0.886864 0.322116
0.285726 0.891410 0.318233
0.258743 0.893277 0.320189
0.426480 0.896102 0.320189
0.284152 0.898218 0.321517
0.257380 0.900322 0.319371
0.427940 0.907206 0.319289
0.286017 0.906120 0.317328
0.384941 0.912054 0.317667
0.284017 0.912383 0.320562
0.256341 0.912783 0.319023
0.430589 0.917476 0.318265
0.386535 0.918903 0.319561
0.284088 0.916898 0.318640
0.387968 0.923477 0.318273
0.253307 0.923363 0.320181
0.431439 0.927747 0.320734
0.281444 0.928610 0.321223
0.390771 0.936058 0.320590
0.280373 0.937435 0.318211
0.251254 0.936609 0.318618
0.434484 0.943354 0.317740
0.280338 0.943429 0.318490
0.249909 0.942511 0.319824
0.391283 0.947589 0.319096
0.436006 0.953078 0.319052
0.279998 0.952258 0.317448
0.247943 0.954495 0.319669
0.392273 0.956215 0.319210
0.279340 0.957807 0.318844
0.436901 0.964114 0.320004
0.242574 0.964053 0.318935
0.391354 0.965985 0.320712
0.390655 0.973383 0.317225
0.277099 0.973794 0.318524
0.240161 0.973831 0.319053
0.400142 0.982350 0.318179
0.274012 0.981281 0.320337
0.270752 0.992484 0.317536
0.247587 0.992595 0.320685
0.261221 0.997013 0.320467
0.253579 0.996538 0.318211
0.654707 0.004006 0.325496
0.027098 0.004333 0.324830
0.431524 0.004370 0.323099
0.418979 0.007379 0.322222
0.411957 0.008595 0.321187
0.655554 0.011296 0.322810
0.405372 0.011845 0.322823
0.042695 0.009436 0.322504
0.027624 0.013693 0.323404
0.044111 0.014643 0.325713
0.026013 0.018533 0.323794
0.657245 0.020025 0.323724
0.394958 0.021811 0.323998
0.659126 0.027057 0.323632
0.389614 0.026184 0.323977
0.027291 0.029049 0.324227
0.384918 0.031891 0.322582
0.662019 0.037639 0.323161
0.379245 0.037337 0.323232
0.025717 0.038677 0.324725
0.374131 0.041832 0.324453
0.664594 0.049200 0.324524
0.368783 0.046811 0.324972
0.360428 0.049232 0.321508
0.355862 0.053753 0.321872
0.667229 0.055676 0.325647
0.361600 0.055316 0.326085
0.019685 0.055293 0.323789
0.668712 0.062938 0.324472
0.353626 0.061259 0.325717
0.016516 0.062716 0.320655
0.357499 0.063819 0.328447
0.015375 0.068091 0.324894
0.672412 0.077530 0.323940
0.013482 0.075368 0.326282
0.011514 0.081258 0.323888
0.006661 0.091250 0.324755
0.675026 0.092483 0.323303
0.006336 0.097668 0.323109
0.676801 0.103165 0.325287
0.004004 0.103531 0.325179
0.677436 0.113459 0.324422
0.003554 0.114213 0.324156
0.676920 0.119991 0.324440
0.001876 0.123746 0.323792
0.002256 0.138534 0.325443
0.677974 0.144241 0.323900
0.002242 0.145162 0.322008
0.002538 0.153404 0.321777
0.677158 0.158862 0.323462
0.003260 0.159635 0.325325
0.678540 0.165449 0.324884
0.002711 0.165627 0.323361
0.676882 0.172390 0.323256
0.676552 0.181203 0.325330
0.002657 0.178567 0.324565
0.677414 0.189503 0.322409
0.003185 0.190873 0.324361
0.003174 0.195877 0.321113
0.677174 0.198252 0.323822
0.003860 0.201371 0.325325
0.679022 0.204570 0.324728
0.001564 0.209750 0.325055
0.678391 0.214400 0.325581
0.678992 0.224142 0.325323
0.004492 0.220169 0.322399
0.679708 0.231281 0.325110
0.003159 0.237149 0.323653
0.678650 0.241537 0.323665
0.004169 0.243862 0.324003
0.003371 0.253412 0.323897
0.679855 0.261040 0.324488
0.003256 0.267216 0.324412
0.681201 0.277625 0.324548
0.003725 0.275675 0.323694
0.679787 0.288455 0.323999
0.004458 0.288588 0.324318
0.297082 0.297878 0.324732
0.302685 0.298386 0.324903
0.292136 0.298028 0.324505
0.282569 0.299687 0.324018
0.266375 0.299146 0.324548
0.682223 0.302426 0.323622
0.309701 0.301997 0.321406
0.272765 0.301993 0.323015
0.003884 0.301680 0.325455
0.680910 0.313329 0.323349
0.002695 0.317573 0.324289
0.682012 0.328711 0.326741
0.002266 0.331841 0.323319
0.681419 0.339183 0.323301
0.001598 0.344193 0.326614
0.001270 0.349389 0.324090
0.681113 0.354680 0.324464
0.001735 0.354814 0.323208
0.680414 0.364218 0.324189
0.002195 0.364177 0.324398
0.001882 0.370424 0.325534
0.679079 0.375174 0.323697
0.679284 0.386573 0.322478
0.003692 0.390784 0.323259
0.680198 0.395903 0.324298
0.002791 0.400097 0.326894
0.679927 0.405933 0.322850
0.002533 0.405987 0.324299
0.679691 0.412398 0.323738
0.680908 0.421709 0.322841
0.002438 0.425272 0.323488
0.680952 0.431583 0.324165
0.001995 0.430657 0.326234
0.003200 0.443420 0.325658
0.682208 0.451776 0.326619
0.002801 0.451425 0.323627
0.682357 0.462086 0.323209
0.002905 0.461818 0.324030
0.681017 0.471290 0.324629
0.681369 0.477008 0.324319
0.002631 0.481519 0.324407
0.681240 0.488142 0.324045
0.001836 0.486809 0.325226
0.680491 0.497959 0.324477
0.680932 0.508154 0.324184
0.002814 0.506866 0.323994
0.680052 0.517461 0.323226
0.001983 0.518382 0.324203
0.001851 0.525161 0.324074
0.679404 0.527667 0.325081
0.679364 0.537542 0.324209
0.679017 0.542895 0.324682
0.001523 0.544866 0.324155
0.679870 0.548270 0.322755
0.003148 0.550221 0.322275
0.679010 0.558176 0.325083
0.678800 0.565356 0.323740
0.003445 0.562408 0.324530
0.679569 0.569513 0.322805
0.004730 0.570467 0.325251
0.005008 0.579006 0.324094
0.677667 0.585684 0.326163
0.676061 0.595411 0.323136
0.008427 0.594679 0.323731
0.009519 0.601418 0.325527
0.673919 0.602144 0.327389
0.668833 0.611198 0.325582
0.664638 0.619158 0.324299
0.013878 0.618026 0.325275
0.660388 0.625998 0.323872
0.016882 0.626584 0.324464
0.656563 0.630706 0.323065
0.021423 0.633601 0.324539
0.651914 0.636912 0.324702
0.646836 0.642922 0.325679
0.640953 0.648370 0.322701
0.029325 0.646933 0.325004
0.636279 0.652651 0.323150
0.629175 0.657662 0.323665
0.038537 0.654396 0.324298
0.624065 0.660707 0.324855
0.043292 0.658775 0.324059
0.610708 0.667035 0.326212
0.055541 0.667807 0.326245
0.048991 0.662484 0.325003
0.062441 0.673323 0.324339
0.588179 0.675600 0.323355
0.072794 0.676656 0.323945
0.573099 0.680460 0.324357
0.563403 0.683191 0.324757
0.082820 0.682279 0.323649
0.551520 0.685607 0.324641
0.544073 0.687926 0.321666
0.090029 0.685064 0.323267
0.532168 0.689541 0.324963
0.523660 0.692142 0.323557
0.517756 0.693026 0.326648
0.112831 0.693159 0.326569
0.105726 0.691133 0.322631
0.501837 0.696426 0.322468
0.124840 0.696553 0.321642
0.481179 0.702426 0.324802
0.149103 0.701482 0.323943
0.468421 0.709256 0.325589
0.189844 0.708194 0.324509
0.179736 0.705846 0.325334
0.463280 0.712861 0.322323
0.206000 0.712947 0.326259
0.197265 0.710013 0.323475
0.457338 0.719548 0.323772
0.219163 0.719771 0.325287
0.233735 0.734286 0.324477
0.444678 0.742404 0.325718
0.442039 0.749172 0.324854
0.245004 0.754288 0.323087
0.439592 0.757112 0.323896
0.437144 0.763870 0.323366
0.248778 0.770443 0.322746
0.435103 0.775231 0.323765
0.291381 0.781710 0.326978
0.433689 0.784673 0.323430
0.252701 0.786475 0.323577
0.254197 0.790221 0.321260
0.433031 0.791921 0.326966
0.287720 0.796081 0.325566
0.431242 0.798466 0.324838
0.286906 0.801178 0.324740
0.254090 0.798727 0.327169
0.431777 0.806487 0.323810
0.285946 0.809205 0.322990
0.255317 0.809497 0.324504
0.430156 0.815575 0.323999
0.286234 0.814308 0.324272
0.256246 0.815390 0.324580
0.256260 0.820669 0.324161
0.285725 0.825016 0.324259
0.286429 0.831500 0.322408
0.256576 0.831593 0.323386
0.257651 0.836822 0.324109
0.286558 0.837441 0.320895
0.285206 0.839991 0.325500
0.258510 0.846775 0.323934
0.427347 0.856014 0.322522
0.285483 0.855892 0.324404
0.258933 0.856008 0.321943
0.258574 0.862916 0.325287
0.426748 0.864633 0.325170
0.427118 0.870458 0.324119
0.285267 0.870419 0.323164
0.258415 0.870996 0.325704
0.426137 0.877004 0.321925
0.283155 0.877713 0.326817
0.425959 0.882301 0.321507
0.426620 0.887835 0.324712
0.282486 0.892016 0.324350
0.427848 0.901810 0.323281
0.280344 0.901481 0.328231
0.256290 0.907442 0.323706
0.430942 0.911000 0.322618
0.430925 0.917934 0.324408
0.281216 0.917169 0.325218
0.253806 0.919120 0.325484
0.431590 0.922899 0.325029
0.432976 0.932749 0.324282
0.389226 0.930308 0.322381
0.279220 0.933069 0.324426
0.251800 0.932656 0.324269
0.434826 0.938442 0.323697
0.279474 0.937318 0.326803
0.250949 0.937677 0.325540
0.435397 0.948153 0.324134
0.392563 0.949857 0.325588
0.278414 0.947703 0.324187
0.248447 0.948298 0.323372
0.436401 0.958456 0.324466
0.243799 0.960012 0.325113
0.392430 0.961535 0.324575
0.276163 0.964297 0.324442
0.275444 0.969355 0.323067
0.241768 0.968819 0.323733
0.434784 0.971601 0.326138
0.393406 0.974616 0.324629
0.239716 0.975686 0.326483
0.396444 0.979858 0.326229
0.275229 0.974458 0.326535
0.431941 0.980970 0.323610
0.404341 0.985541 0.323981
0.239921 0.981034 0.323946
0.426673 0.985557 0.321768
0.419767 0.988459 0.325300
0.410462 0.987231 0.323704
0.270600 0.989688 0.324749
0.243168 0.988520 0.323760
0.267986 0.992935 0.323960
0.260974 0.997612 0.326829
0.041050 0.004474 0.328682
0.440319 0.004226 0.329839
0.425470 0.008038 0.328711
0.414431 0.011875 0.329057
0.032390 0.009401 0.337978
0.027186 0.010151 0.328585
0.405125 0.017550 0.328569
0.043747 0.017191 0.330978
0.027212 0.015724 0.329526
0.656537 0.020098 0.330074
0.398921 0.020899 0.328894
0.659997 0.026596 0.329492
0.395085 0.025926 0.328824
0.388524 0.031260 0.328621
0.025213 0.033326 0.329362
0.385330 0.037448 0.328576
0.663306 0.042273 0.327556
0.379497 0.042806 0.328530
0.373832 0.046538 0.329577
0.023053 0.043782 0.328122
0.368226 0.051636 0.329470
0.020503 0.051541 0.331011
0.017896 0.057574 0.329337
0.668643 0.062762 0.330399
0.015061 0.067895 0.330229
0.357858 0.069861 0.331144
0.673302 0.082255 0.329510
0.011381 0.082659 0.331541
0.354927 0.089756 0.329669
0.676032 0.097685 0.328363
0.353913 0.099064 0.328273
0.005894 0.098427 0.328702
0.356859 0.101990 0.331633
0.676533 0.107696 0.328630
0.355848 0.109288 0.330055
0.004620 0.106618 0.329050
0.677810 0.117751 0.330714
0.000614 0.119178 0.328475
0.677846 0.125006 0.328092
0.676529 0.130717 0.326586
0.002413 0.129885 0.329674
0.677225 0.139564 0.329541
0.002420 0.142461 0.329413
0.677919 0.149375 0.329903
0.002010 0.148716 0.328886
0.002444 0.154561 0.328676
0.677378 0.159798 0.329890
0.002422 0.165094 0.329797
0.678070 0.170072 0.329994
0.002784 0.169639 0.326797
0.678376 0.175192 0.329813
0.002783 0.184769 0.330083
0.677408 0.192986 0.327790
0.002939 0.195109 0.330759
0.678112 0.199091 0.329007
0.677999 0.209953 0.328438
0.003595 0.215801 0.326247
0.003295 0.221192 0.329627
0.003703 0.228127 0.327316
0.679098 0.235309 0.329451
0.004496 0.235591 0.329237
0.679772 0.246249 0.329348
0.003889 0.248062 0.328296
0.680121 0.257527 0.329105
0.003945 0.256874 0.329164
0.680179 0.265912 0.328557
0.003654 0.266002 0.329914
0.004818 0.271432 0.329294
0.679681 0.282745 0.328957
0.004766 0.280810 0.327815
0.003258 0.286409 0.330305
0.680871 0.292272 0.329407
0.295300 0.296978 0.329787
0.003818 0.291956 0.329024
0.302660 0.296536 0.331564
0.286883 0.297565 0.328384
0.270929 0.297904 0.329527
0.681739 0.307421 0.328075
0.002678 0.308812 0.329090
0.681218 0.319099 0.328338
0.681162 0.325026 0.331240
0.001935 0.322490 0.329288
0.681549 0.333094 0.328926
0.001681 0.333606 0.328957
0.001000 0.338693 0.329097
0.680557 0.343558 0.329722
0.680895 0.359508 0.328501
0.001914 0.357602 0.327346
0.680820 0.369769 0.328985
0.001053 0.369267 0.330218
0.001080 0.374208 0.330181
0.679381 0.379239 0.328759
0.002055 0.385198 0.328369
0.679616 0.391692 0.327611
0.679708 0.404328 0.329835
0.679653 0.409667 0.329629
0.003030 0.409519 0.328277
0.001920 0.416191 0.328868
0.001025 0.421492 0.330093
0.680663 0.428253 0.329359
0.682596 0.436775 0.327951
0.002155 0.436608 0.329478
0.682087 0.445827 0.328738
0.002656 0.447233 0.328377
0.682734 0.456236 0.330316
0.002590 0.456676 0.327480
0.002225 0.467040 0.328755
0.680478 0.476784 0.330910
0.001825 0.476431 0.329066
0.681714 0.483359 0.329362
0.680707 0.492509 0.329251
0.001629 0.491585 0.330102
0.002773 0.497448 0.327395
0.680866 0.502357 0.329021
0.680869 0.513016 0.329047
0.001713 0.513146 0.328977
0.680560 0.517889 0.328109
0.680160 0.523605 0.329331
0.679950 0.531384 0.328939
0.001538 0.532598 0.328270
0.679395 0.536866 0.328701
0.001491 0.538392 0.331595
0.679641 0.543221 0.330277
0.001926 0.548657 0.328369
0.679749 0.553167 0.328620
0.679581 0.559849 0.332262
0.679560 0.570027 0.329084
0.003140 0.566611 0.330168
0.003738 0.574202 0.330691
0.678821 0.578688 0.328935
0.004570 0.584953 0.328528
0.006389 0.590640 0.326602
0.675944 0.594468 0.328217
0.007846 0.597831 0.331248
0.010017 0.604442 0.329445
0.666346 0.616475 0.328952
0.661910 0.622712 0.331805
0.016640 0.623913 0.329990
0.654485 0.635469 0.329148
0.027113 0.641541 0.329578
0.639227 0.649933 0.328296
0.032877 0.648528 0.329497
0.037968 0.654371 0.330891
0.627591 0.659180 0.331154
0.618901 0.665274 0.328550
0.602930 0.669707 0.329257
0.594363 0.673357 0.329061
0.582251 0.677758 0.329876
0.068526 0.675901 0.328425
0.575908 0.678797 0.331602
0.569058 0.682222 0.328651
0.563852 0.682712 0.331409
0.081831 0.682035 0.329892
0.075647 0.679438 0.331899
0.555897 0.684403 0.330076
0.543582 0.687478 0.327426
0.096447 0.687821 0.330708
0.535492 0.690159 0.331934
0.523077 0.692393 0.330541
0.513240 0.694272 0.329046
0.103994 0.690602 0.328781
0.497227 0.697268 0.329292
0.490031 0.699527 0.327090
0.131440 0.698622 0.327111
0.124410 0.696333 0.328628
0.117842 0.694595 0.329801
0.477901 0.703517 0.327563
0.168394 0.704653 0.327343
0.158882 0.702603 0.329079
0.144587 0.700473 0.331138
0.467770 0.708609 0.331564
0.187755 0.707337 0.329054
0.192355 0.708657 0.329407
0.208420 0.714979 0.329324
0.459775 0.716224 0.327574
0.455249 0.722756 0.329324
0.222165 0.721740 0.329597
0.227320 0.726678 0.329930
0.449788 0.730993 0.328112
0.237919 0.741460 0.328845
0.443279 0.745337 0.330871
0.241099 0.748473 0.328327
0.441358 0.753918 0.329463
0.246470 0.758966 0.330871
0.438950 0.761987 0.331592
0.246529 0.764703 0.328328
0.436003 0.769568 0.331277
0.250943 0.775775 0.329221
0.435099 0.779926 0.328375
0.288191 0.787340 0.329438
0.252701 0.790977 0.328233
0.433170 0.797704 0.331893
0.285026 0.801419 0.331533
0.432510 0.804194 0.329403
0.253031 0.803096 0.330564
0.284356 0.809534 0.331126
0.254433 0.814496 0.329795
0.430436 0.820135 0.328908
0.283764 0.819595 0.330307
0.256180 0.825114 0.328600
0.429866 0.828667 0.327460
0.283863 0.828764 0.331772
0.283218 0.833325 0.331360
0.429766 0.839135 0.329587
0.256179 0.841367 0.329182
0.429373 0.844501 0.327632
0.284247 0.845281 0.330283
0.429216 0.851248 0.328813
0.256536 0.853750 0.329231
0.283467 0.855094 0.330573
0.427874 0.858997 0.328120
0.284064 0.860991 0.328493
0.257997 0.867839 0.328236
0.427273 0.869873 0.328707
0.282031 0.872882 0.329277
0.427651 0.875007 0.329382
0.257581 0.876392 0.329927
0.281325 0.881134 0.331965
0.426574 0.885159 0.330079
0.281317 0.885371 0.328984
0.257458 0.885564 0.329356
0.428318 0.892470 0.331092
0.281500 0.892793 0.331367
0.256565 0.895946 0.328367
0.256565 0.902094 0.330025
0.429623 0.907063 0.328758
0.279558 0.905560 0.329948
0.431012 0.913082 0.329662
0.254012 0.911665 0.329410
0.279892 0.914361 0.332702
0.431749 0.922697 0.330487
0.279667 0.920606 0.329656
0.280736 0.927595 0.327380
0.251870 0.926830 0.329063
0.391659 0.936595 0.325434
0.279378 0.932494 0.329404
0.434291 0.938067 0.331701
0.249541 0.937234 0.332154
0.435368 0.944176 0.328890
0.392879 0.945592 0.330307
0.247575 0.944209 0.329926
