ply
format ascii 1.0
element vertex 1773
property float x
property float y
property float z
end_header
0.474427 0.125160 0.041346
0.474427 0.131960 0.041346
0.481227 0.118360 0.041346
0.481227 0.125160 0.041346
0.488027 0.125160 0.048146
0.488027 0.131960 0.041346
0.488027 0.138760 0.041346
0.467627 0.145560 0.034546
0.467627 0.152360 0.034546
0.474427 0.152360 0.034546
0.467627 0.159160 0.034546
0.467627 0.165960 0.034546
0.481227 0.152360 0.034546
0.481227 0.165960 0.034546
0.481227 0.145560 0.041346
0.481227 0.152360 0.041346
0.488027 0.145560 0.041346
0.488027 0.152360 0.041346
0.481227 0.159160 0.041346
0.494827 0.118360 0.048146
0.494827 0.125160 0.048146
0.494827 0.118360 0.054946
0.501627 0.125160 0.054946
0.494827 0.131960 0.048146
0.494827 0.138760 0.048146
0.501627 0.131960 0.054946
0.508427 0.118360 0.061746
0.515227 0.125160 0.061746
0.508427 0.131960 0.054946
0.508427 0.138760 0.054946
0.515227 0.131960 0.054946
0.515227 0.131960 0.061746
0.515227 0.138760 0.061746
0.494827 0.152360 0.048146
0.501627 0.145560 0.048146
0.501627 0.152360 0.048146
0.494827 0.159160 0.041346
0.494827 0.165960 0.048146
0.501627 0.165960 0.048146
0.508427 0.145560 0.054946
0.508427 0.152360 0.054946
0.515227 0.145560 0.061746
0.515227 0.152360 0.061746
0.508427 0.165960 0.054946
0.515227 0.159160 0.061746
0.515227 0.165960 0.054946
0.413227 0.172760 0.014146
0.413227 0.179560 0.014146
0.420027 0.172760 0.014146
0.413227 0.186360 0.014146
0.413227 0.193160 0.014146
0.420027 0.186360 0.014146
0.420027 0.193160 0.014146
0.426827 0.172760 0.014146
0.433627 0.179560 0.014146
0.426827 0.186360 0.014146
0.426827 0.193160 0.014146
0.433627 0.193160 0.020946
0.413227 0.206760 0.014146
0.420027 0.199960 0.014146
0.420027 0.206760 0.014146
0.413227 0.213560 0.014146
0.420027 0.213560 0.014146
0.420027 0.220360 0.014146
0.426827 0.206760 0.020946
0.433627 0.199960 0.020946
0.426827 0.213560 0.014146
0.433627 0.220360 0.020946
0.440427 0.172760 0.020946
0.440427 0.179560 0.020946
0.447227 0.172760 0.020946
0.447227 0.179560 0.020946
0.440427 0.186360 0.020946
0.447227 0.186360 0.020946
0.447227 0.193160 0.020946
0.454027 0.172760 0.027746
0.454027 0.179560 0.027746
0.460827 0.172760 0.027746
0.460827 0.179560 0.027746
0.460827 0.186360 0.027746
0.440427 0.199960 0.020946
0.440427 0.206760 0.020946
0.447227 0.199960 0.020946
0.447227 0.206760 0.020946
0.440427 0.213560 0.020946
0.440427 0.220360 0.020946
0.447227 0.213560 0.020946
0.454027 0.199960 0.027746
0.454027 0.206760 0.027746
0.460827 0.199960 0.027746
0.454027 0.213560 0.027746
0.454027 0.220360 0.027746
0.460827 0.213560 0.027746
0.460827 0.220360 0.027746
0.413227 0.227160 0.014146
0.413227 0.233960 0.014146
0.420027 0.233960 0.014146
0.413227 0.240760 0.014146
0.413227 0.247560 0.014146
0.426827 0.227160 0.014146
0.426827 0.233960 0.014146
0.433627 0.233960 0.020946
0.426827 0.240760 0.014146
0.426827 0.247560 0.014146
0.433627 0.240760 0.020946
0.413227 0.254360 0.014146
0.413227 0.261160 0.014146
0.420027 0.254360 0.014146
0.420027 0.261160 0.014146
0.413227 0.267960 0.014146
0.413227 0.274760 0.014146
0.420027 0.267960 0.014146
0.420027 0.274760 0.014146
0.426827 0.254360 0.014146
0.426827 0.261160 0.014146
0.433627 0.261160 0.020946
0.426827 0.274760 0.014146
0.433627 0.267960 0.020946
0.433627 0.274760 0.020946
0.440427 0.233960 0.020946
0.447227 0.233960 0.020946
0.447227 0.227160 0.027746
0.447227 0.233960 0.027746
0.440427 0.247560 0.020946
0.454027 0.227160 0.027746
0.454027 0.233960 0.027746
0.460827 0.227160 0.034546
0.460827 0.233960 0.034546
0.454027 0.240760 0.027746
0.454027 0.247560 0.027746
0.460827 0.247560 0.027746
0.440427 0.254360 0.020946
0.440427 0.261160 0.020946
0.447227 0.254360 0.020946
0.440427 0.274760 0.020946
0.447227 0.267960 0.020946
0.447227 0.274760 0.027746
0.454027 0.254360 0.027746
0.454027 0.261160 0.027746
0.454027 0.267960 0.027746
0.454027 0.274760 0.027746
0.460827 0.267960 0.027746
0.460827 0.274760 0.027746
0.467627 0.179560 0.034546
0.474427 0.172760 0.034546
0.474427 0.179560 0.034546
0.467627 0.186360 0.034546
0.467627 0.193160 0.034546
0.474427 0.193160 0.034546
0.481227 0.172760 0.034546
0.488027 0.172760 0.041346
0.481227 0.186360 0.041346
0.481227 0.193160 0.041346
0.488027 0.186360 0.041346
0.488027 0.193160 0.041346
0.467627 0.199960 0.034546
0.467627 0.206760 0.034546
0.474427 0.206760 0.034546
0.467627 0.213560 0.034546
0.467627 0.220360 0.034546
0.474427 0.213560 0.034546
0.474427 0.220360 0.034546
0.481227 0.199960 0.041346
0.488027 0.206760 0.041346
0.481227 0.213560 0.041346
0.488027 0.213560 0.041346
0.488027 0.220360 0.041346
0.494827 0.172760 0.048146
0.494827 0.179560 0.041346
0.501627 0.179560 0.048146
0.494827 0.186360 0.048146
0.494827 0.193160 0.041346
0.494827 0.193160 0.048146
0.501627 0.193160 0.048146
0.508427 0.172760 0.054946
0.515227 0.172760 0.054946
0.515227 0.179560 0.061746
0.508427 0.186360 0.054946
0.508427 0.193160 0.054946
0.515227 0.186360 0.054946
0.515227 0.193160 0.061746
0.494827 0.206760 0.048146
0.501627 0.199960 0.048146
0.494827 0.213560 0.048146
0.494827 0.220360 0.048146
0.501627 0.213560 0.048146
0.508427 0.199960 0.054946
0.515227 0.199960 0.054946
0.515227 0.206760 0.054946
0.508427 0.213560 0.054946
0.508427 0.220360 0.054946
0.515227 0.213560 0.061746
0.515227 0.220360 0.061746
0.467627 0.233960 0.034546
0.474427 0.227160 0.034546
0.474427 0.233960 0.034546
0.467627 0.240760 0.034546
0.467627 0.247560 0.034546
0.474427 0.240760 0.034546
0.481227 0.247560 0.034546
0.481227 0.233960 0.041346
0.488027 0.227160 0.041346
0.488027 0.233960 0.041346
0.481227 0.240760 0.041346
0.488027 0.240760 0.041346
0.467627 0.254360 0.034546
0.467627 0.261160 0.034546
0.474427 0.254360 0.034546
0.474427 0.261160 0.034546
0.474427 0.267960 0.034546
0.474427 0.274760 0.034546
0.481227 0.267960 0.034546
0.481227 0.261160 0.041346
0.488027 0.254360 0.041346
0.488027 0.267960 0.041346
0.488027 0.274760 0.041346
0.494827 0.233960 0.048146
0.501627 0.233960 0.048146
0.494827 0.247560 0.041346
0.501627 0.240760 0.048146
0.501627 0.247560 0.048146
0.508427 0.227160 0.054946
0.508427 0.233960 0.054946
0.515227 0.227160 0.054946
0.515227 0.233960 0.054946
0.508427 0.240760 0.054946
0.508427 0.247560 0.054946
0.515227 0.247560 0.054946
0.494827 0.254360 0.041346
0.494827 0.261160 0.041346
0.494827 0.261160 0.048146
0.501627 0.254360 0.048146
0.501627 0.261160 0.048146
0.494827 0.267960 0.041346
0.494827 0.274760 0.041346
0.501627 0.267960 0.048146
0.501627 0.274760 0.048146
0.508427 0.261160 0.048146
0.508427 0.254360 0.054946
0.515227 0.261160 0.054946
0.508427 0.274760 0.048146
0.515227 0.267960 0.054946
0.515227 0.274760 0.054946
0.528827 0.070760 0.075346
0.528827 0.063960 0.082146
0.522027 0.077560 0.075346
0.522027 0.084360 0.075346
0.528827 0.084360 0.075346
0.535627 0.063960 0.082146
0.535627 0.070760 0.082146
0.542427 0.063960 0.088946
0.542427 0.070760 0.088946
0.535627 0.077560 0.082146
0.542427 0.077560 0.088946
0.542427 0.084360 0.082146
0.522027 0.091160 0.068546
0.528827 0.091160 0.075346
0.528827 0.097960 0.075346
0.522027 0.104760 0.068546
0.522027 0.111560 0.068546
0.528827 0.111560 0.068546
0.535627 0.091160 0.075346
0.535627 0.091160 0.082146
0.542427 0.091160 0.082146
0.542427 0.097960 0.082146
0.535627 0.104760 0.075346
0.535627 0.111560 0.075346
0.542427 0.104760 0.082146
0.542427 0.111560 0.082146
0.549227 0.063960 0.088946
0.556027 0.070760 0.088946
0.549227 0.084360 0.088946
0.556027 0.077560 0.088946
0.556027 0.084360 0.088946
0.549227 0.063960 0.095746
0.556027 0.063960 0.095746
0.556027 0.070760 0.095746
0.556027 0.077560 0.095746
0.556027 0.084360 0.095746
0.562827 0.063960 0.102546
0.562827 0.070760 0.102546
0.569627 0.070760 0.102546
0.562827 0.077560 0.095746
0.562827 0.084360 0.095746
0.569627 0.084360 0.102546
0.569627 0.077560 0.109346
0.549227 0.091160 0.088946
0.556027 0.091160 0.088946
0.556027 0.097960 0.088946
0.549227 0.111560 0.082146
0.549227 0.111560 0.088946
0.556027 0.104760 0.088946
0.556027 0.111560 0.088946
0.562827 0.097960 0.095746
0.569627 0.091160 0.102546
0.569627 0.097960 0.102546
0.562827 0.104760 0.095746
0.569627 0.104760 0.095746
0.569627 0.111560 0.095746
0.522027 0.125160 0.061746
0.522027 0.131960 0.061746
0.522027 0.138760 0.061746
0.522027 0.145560 0.061746
0.522027 0.152360 0.061746
0.522027 0.165960 0.061746
0.528827 0.159160 0.061746
0.522027 0.118360 0.068546
0.528827 0.125160 0.068546
0.528827 0.131960 0.068546
0.528827 0.138760 0.068546
0.535627 0.118360 0.075346
0.535627 0.125160 0.075346
0.542427 0.125160 0.082146
0.535627 0.131960 0.068546
0.535627 0.138760 0.075346
0.542427 0.131960 0.075346
0.542427 0.138760 0.082146
0.528827 0.145560 0.068546
0.528827 0.152360 0.068546
0.528827 0.159160 0.068546
0.528827 0.165960 0.068546
0.535627 0.152360 0.068546
0.535627 0.152360 0.075346
0.542427 0.145560 0.075346
0.542427 0.152360 0.075346
0.535627 0.159160 0.075346
0.542427 0.159160 0.075346
0.542427 0.165960 0.075346
0.549227 0.118360 0.082146
0.556027 0.125160 0.082146
0.556027 0.125160 0.088946
0.549227 0.131960 0.082146
0.549227 0.138760 0.082146
0.556027 0.131960 0.088946
0.562827 0.118360 0.088946
0.562827 0.125160 0.088946
0.562827 0.138760 0.088946
0.569627 0.118360 0.095746
0.562827 0.131960 0.095746
0.569627 0.131960 0.095746
0.569627 0.138760 0.095746
0.549227 0.145560 0.082146
0.556027 0.145560 0.082146
0.556027 0.152360 0.082146
0.556027 0.152360 0.088946
0.549227 0.165960 0.082146
0.556027 0.165960 0.082146
0.562827 0.145560 0.088946
0.562827 0.159160 0.088946
0.562827 0.165960 0.088946
0.562827 0.152360 0.095746
0.569627 0.145560 0.095746
0.569627 0.159160 0.095746
0.569627 0.165960 0.095746
0.576427 0.063960 0.109346
0.576427 0.063960 0.116146
0.576427 0.070760 0.109346
0.583227 0.070760 0.116146
0.576427 0.077560 0.109346
0.576427 0.084360 0.109346
0.583227 0.077560 0.116146
0.583227 0.084360 0.116146
0.576427 0.091160 0.102546
0.576427 0.091160 0.109346
0.576427 0.097960 0.109346
0.583227 0.091160 0.109346
0.583227 0.091160 0.116146
0.576427 0.104760 0.102546
0.576427 0.111560 0.102546
0.583227 0.104760 0.109346
0.583227 0.111560 0.109346
0.590027 0.091160 0.116146
0.590027 0.097960 0.116146
0.590027 0.104760 0.116146
0.590027 0.111560 0.116146
0.576427 0.118360 0.102546
0.576427 0.125160 0.102546
0.583227 0.118360 0.109346
0.583227 0.125160 0.109346
0.576427 0.131960 0.102546
0.576427 0.138760 0.102546
0.583227 0.131960 0.109346
0.590027 0.118360 0.116146
0.596827 0.125160 0.116146
0.590027 0.131960 0.116146
0.590027 0.138760 0.116146
0.596827 0.131960 0.116146
0.596827 0.138760 0.116146
0.576427 0.145560 0.102546
0.576427 0.152360 0.095746
0.576427 0.152360 0.102546
0.583227 0.145560 0.109346
0.583227 0.152360 0.109346
0.576427 0.159160 0.095746
0.576427 0.165960 0.102546
0.583227 0.165960 0.102546
0.583227 0.159160 0.109346
0.590027 0.145560 0.116146
0.590027 0.152360 0.109346
0.590027 0.152360 0.116146
0.596827 0.145560 0.116146
0.596827 0.152360 0.116146
0.590027 0.159160 0.116146
0.590027 0.165960 0.109346
0.596827 0.165960 0.116146
0.583227 0.063960 0.122946
0.590027 0.063960 0.122946
0.590027 0.070760 0.122946
0.596827 0.070760 0.129746
0.596827 0.063960 0.136546
0.596827 0.070760 0.136546
0.590027 0.077560 0.122946
0.590027 0.084360 0.122946
0.596827 0.077560 0.129746
0.596827 0.084360 0.129746
0.596827 0.084360 0.136546
0.596827 0.091160 0.122946
0.596827 0.091160 0.129746
0.596827 0.097960 0.122946
0.590027 0.104760 0.122946
0.596827 0.104760 0.129746
0.596827 0.111560 0.122946
0.603627 0.063960 0.143346
0.603627 0.070760 0.143346
0.603627 0.077560 0.136546
0.603627 0.077560 0.143346
0.603627 0.084360 0.136546
0.610427 0.084360 0.143346
0.610427 0.070760 0.150146
0.610427 0.077560 0.150146
0.617227 0.063960 0.156946
0.617227 0.070760 0.150146
0.617227 0.070760 0.156946
0.617227 0.063960 0.163746
0.624027 0.063960 0.163746
0.624027 0.063960 0.170546
0.624027 0.070760 0.163746
0.624027 0.070760 0.170546
0.617227 0.077560 0.156946
0.617227 0.084360 0.150146
0.617227 0.084360 0.156946
0.624027 0.084360 0.163746
0.603627 0.091160 0.136546
0.603627 0.097960 0.136546
0.610427 0.091160 0.143346
0.610427 0.097960 0.143346
0.603627 0.111560 0.129746
0.603627 0.104760 0.136546
0.603627 0.111560 0.136546
0.610427 0.104760 0.143346
0.610427 0.111560 0.143346
0.610427 0.091160 0.150146
0.617227 0.097960 0.150146
0.624027 0.097960 0.156946
0.624027 0.091160 0.163746
0.624027 0.097960 0.163746
0.617227 0.104760 0.150146
0.617227 0.111560 0.150146
0.624027 0.104760 0.156946
0.624027 0.111560 0.156946
0.596827 0.118360 0.122946
0.596827 0.131960 0.122946
0.596827 0.138760 0.122946
0.596827 0.152360 0.122946
0.596827 0.159160 0.122946
0.603627 0.118360 0.129746
0.603627 0.125160 0.129746
0.610427 0.118360 0.136546
0.610427 0.125160 0.136546
0.603627 0.131960 0.129746
0.603627 0.138760 0.129746
0.610427 0.131960 0.136546
0.610427 0.131960 0.143346
0.610427 0.138760 0.143346
0.617227 0.118360 0.143346
0.617227 0.138760 0.143346
0.617227 0.118360 0.150146
0.617227 0.125160 0.150146
0.624027 0.118360 0.156946
0.624027 0.125160 0.156946
0.617227 0.131960 0.150146
0.624027 0.131960 0.150146
0.624027 0.131960 0.156946
0.624027 0.138760 0.156946
0.603627 0.145560 0.122946
0.603627 0.145560 0.129746
0.603627 0.152360 0.129746
0.610427 0.145560 0.136546
0.610427 0.152360 0.136546
0.603627 0.159160 0.122946
0.603627 0.159160 0.129746
0.603627 0.165960 0.122946
0.610427 0.159160 0.129746
0.610427 0.165960 0.136546
0.617227 0.145560 0.143346
0.617227 0.152360 0.143346
0.617227 0.159160 0.143346
0.617227 0.145560 0.150146
0.624027 0.145560 0.156946
0.624027 0.152360 0.150146
0.624027 0.152360 0.156946
0.624027 0.159160 0.150146
0.624027 0.165960 0.150146
0.522027 0.172760 0.061746
0.522027 0.179560 0.061746
0.528827 0.172760 0.061746
0.522027 0.186360 0.061746
0.522027 0.193160 0.061746
0.522027 0.199960 0.061746
0.522027 0.206760 0.061746
0.522027 0.213560 0.061746
0.528827 0.220360 0.061746
0.528827 0.172760 0.068546
0.528827 0.179560 0.068546
0.528827 0.186360 0.068546
0.528827 0.193160 0.068546
0.535627 0.172760 0.075346
0.535627 0.179560 0.075346
0.542427 0.172760 0.075346
0.542427 0.179560 0.075346
0.535627 0.186360 0.075346
0.535627 0.193160 0.068546
0.542427 0.193160 0.075346
0.528827 0.213560 0.068546
0.535627 0.199960 0.075346
0.535627 0.206760 0.068546
0.542427 0.206760 0.075346
0.535627 0.213560 0.075346
0.535627 0.220360 0.068546
0.535627 0.220360 0.075346
0.542427 0.220360 0.075346
0.549227 0.172760 0.082146
0.549227 0.179560 0.082146
0.556027 0.172760 0.082146
0.549227 0.193160 0.075346
0.549227 0.186360 0.082146
0.549227 0.193160 0.082146
0.556027 0.186360 0.082146
0.556027 0.193160 0.082146
0.562827 0.172760 0.088946
0.562827 0.179560 0.088946
0.562827 0.193160 0.088946
0.569627 0.172760 0.095746
0.569627 0.179560 0.095746
0.569627 0.186360 0.095746
0.569627 0.193160 0.095746
0.549227 0.206760 0.075346
0.549227 0.199960 0.082146
0.556027 0.199960 0.082146
0.556027 0.206760 0.082146
0.549227 0.213560 0.075346
0.549227 0.220360 0.082146
0.556027 0.213560 0.082146
0.562827 0.206760 0.088946
0.562827 0.213560 0.088946
0.562827 0.220360 0.088946
0.569627 0.199960 0.095746
0.569627 0.213560 0.095746
0.569627 0.220360 0.095746
0.522027 0.227160 0.061746
0.528827 0.227160 0.061746
0.528827 0.233960 0.061746
0.522027 0.240760 0.061746
0.522027 0.247560 0.061746
0.528827 0.240760 0.061746
0.522027 0.254360 0.061746
0.522027 0.261160 0.054946
0.528827 0.254360 0.061746
0.528827 0.261160 0.061746
0.522027 0.267960 0.061746
0.522027 0.274760 0.054946
0.528827 0.267960 0.061746
0.528827 0.274760 0.061746
0.528827 0.227160 0.068546
0.528827 0.233960 0.068546
0.535627 0.233960 0.068546
0.535627 0.233960 0.075346
0.542427 0.227160 0.075346
0.542427 0.233960 0.075346
0.535627 0.240760 0.068546
0.542427 0.240760 0.075346
0.542427 0.247560 0.075346
0.528827 0.254360 0.068546
0.535627 0.254360 0.068546
0.535627 0.261160 0.068546
0.542427 0.254360 0.075346
0.535627 0.274760 0.068546
0.542427 0.267960 0.068546
0.542427 0.274760 0.068546
0.542427 0.274760 0.075346
0.549227 0.233960 0.075346
0.556027 0.227160 0.082146
0.556027 0.233960 0.082146
0.549227 0.240760 0.075346
0.549227 0.247560 0.075346
0.556027 0.240760 0.082146
0.562827 0.227160 0.088946
0.569627 0.233960 0.088946
0.562827 0.240760 0.088946
0.569627 0.240760 0.088946
0.569627 0.247560 0.088946
0.569627 0.227160 0.095746
0.549227 0.254360 0.075346
0.549227 0.261160 0.075346
0.556027 0.254360 0.082146
0.556027 0.261160 0.082146
0.549227 0.267960 0.075346
0.549227 0.274760 0.075346
0.556027 0.267960 0.082146
0.556027 0.274760 0.082146
0.562827 0.254360 0.088946
0.562827 0.261160 0.082146
0.569627 0.254360 0.088946
0.569627 0.261160 0.088946
0.562827 0.267960 0.082146
0.562827 0.267960 0.088946
0.562827 0.274760 0.082146
0.569627 0.267960 0.088946
0.569627 0.274760 0.088946
0.576427 0.172760 0.095746
0.576427 0.179560 0.102546
0.583227 0.172760 0.102546
0.583227 0.172760 0.109346
0.583227 0.179560 0.109346
0.576427 0.186360 0.095746
0.576427 0.193160 0.102546
0.583227 0.193160 0.102546
0.583227 0.193160 0.109346
0.590027 0.179560 0.109346
0.590027 0.179560 0.116146
0.596827 0.172760 0.116146
0.596827 0.179560 0.116146
0.590027 0.186360 0.109346
0.590027 0.193160 0.109346
0.596827 0.186360 0.116146
0.596827 0.193160 0.116146
0.576427 0.199960 0.095746
0.576427 0.206760 0.095746
0.583227 0.199960 0.102546
0.583227 0.206760 0.102546
0.576427 0.213560 0.095746
0.576427 0.220360 0.102546
0.583227 0.213560 0.102546
0.583227 0.220360 0.102546
0.590027 0.199960 0.109346
0.590027 0.206760 0.109346
0.596827 0.206760 0.116146
0.590027 0.213560 0.102546
0.590027 0.213560 0.109346
0.590027 0.220360 0.109346
0.596827 0.213560 0.116146
0.596827 0.220360 0.116146
0.603627 0.186360 0.116146
0.576427 0.227160 0.095746
0.576427 0.233960 0.095746
0.583227 0.227160 0.102546
0.583227 0.233960 0.102546
0.576427 0.240760 0.095746
0.576427 0.247560 0.095746
0.583227 0.247560 0.102546
0.590027 0.227160 0.102546
0.590027 0.233960 0.109346
0.596827 0.227160 0.109346
0.596827 0.233960 0.116146
0.590027 0.240760 0.102546
0.590027 0.247560 0.102546
0.590027 0.240760 0.109346
0.596827 0.240760 0.109346
0.596827 0.240760 0.116146
0.596827 0.247560 0.109346
0.596827 0.247560 0.116146
0.576427 0.254360 0.095746
0.576427 0.261160 0.095746
0.583227 0.254360 0.102546
0.583227 0.261160 0.102546
0.576427 0.267960 0.095746
0.576427 0.274760 0.095746
0.583227 0.267960 0.102546
0.583227 0.274760 0.102546
0.590027 0.261160 0.102546
0.590027 0.254360 0.109346
0.596827 0.254360 0.116146
0.596827 0.261160 0.109346
0.596827 0.261160 0.116146
0.590027 0.274760 0.102546
0.590027 0.267960 0.109346
0.590027 0.274760 0.109346
0.596827 0.267960 0.116146
0.596827 0.274760 0.109346
0.603627 0.172760 0.129746
0.603627 0.179560 0.122946
0.610427 0.172760 0.129746
0.610427 0.179560 0.129746
0.610427 0.172760 0.136546
0.610427 0.179560 0.136546
0.603627 0.186360 0.122946
0.603627 0.193160 0.122946
0.610427 0.193160 0.129746
0.610427 0.193160 0.136546
0.617227 0.172760 0.143346
0.617227 0.179560 0.143346
0.617227 0.193160 0.143346
0.624027 0.172760 0.150146
0.624027 0.172760 0.156946
0.624027 0.179560 0.150146
0.624027 0.186360 0.150146
0.624027 0.193160 0.150146
0.624027 0.193160 0.156946
0.603627 0.199960 0.122946
0.603627 0.206760 0.122946
0.603627 0.206760 0.129746
0.610427 0.199960 0.129746
0.610427 0.206760 0.129746
0.603627 0.213560 0.122946
0.603627 0.213560 0.129746
0.603627 0.220360 0.122946
0.610427 0.213560 0.129746
0.610427 0.220360 0.129746
0.610427 0.220360 0.136546
0.617227 0.199960 0.136546
0.617227 0.199960 0.143346
0.617227 0.206760 0.136546
0.617227 0.206760 0.143346
0.617227 0.213560 0.136546
0.617227 0.220360 0.143346
0.624027 0.213560 0.143346
0.624027 0.199960 0.150146
0.624027 0.213560 0.150146
0.624027 0.220360 0.150146
0.603627 0.227160 0.122946
0.603627 0.227160 0.129746
0.603627 0.233960 0.122946
0.610427 0.233960 0.129746
0.610427 0.227160 0.136546
0.603627 0.240760 0.122946
0.603627 0.247560 0.122946
0.610427 0.240760 0.129746
0.610427 0.240760 0.136546
0.617227 0.227160 0.143346
0.617227 0.233960 0.136546
0.624027 0.227160 0.143346
0.624027 0.233960 0.143346
0.617227 0.240760 0.143346
0.617227 0.247560 0.136546
0.624027 0.233960 0.150146
0.624027 0.240760 0.150146
0.624027 0.240760 0.156946
0.624027 0.247560 0.150146
0.603627 0.254360 0.122946
0.603627 0.254360 0.129746
0.603627 0.261160 0.122946
0.610427 0.254360 0.129746
0.610427 0.261160 0.129746
0.610427 0.254360 0.136546
0.610427 0.261160 0.136546
0.603627 0.267960 0.122946
0.603627 0.274760 0.122946
0.610427 0.274760 0.129746
0.610427 0.267960 0.136546
0.610427 0.274760 0.136546
0.617227 0.254360 0.143346
0.617227 0.261160 0.143346
0.617227 0.267960 0.143346
0.624027 0.254360 0.150146
0.624027 0.261160 0.150146
0.624027 0.267960 0.150146
0.624027 0.267960 0.156946
0.624027 0.274760 0.150146
0.413227 0.063960 0.394946
0.413227 0.063960 0.401746
0.413227 0.063960 0.408546
0.413227 0.063960 0.422146
0.413227 0.281560 0.014146
0.413227 0.288360 0.014146
0.420027 0.288360 0.014146
0.413227 0.295160 0.014146
0.413227 0.301960 0.014146
0.420027 0.295160 0.014146
0.420027 0.301960 0.014146
0.426827 0.281560 0.014146
0.433627 0.288360 0.020946
0.426827 0.295160 0.014146
0.433627 0.295160 0.020946
0.433627 0.301960 0.014146
0.413227 0.308760 0.014146
0.413227 0.315560 0.014146
0.420027 0.308760 0.014146
0.420027 0.315560 0.014146
0.413227 0.322360 0.014146
0.413227 0.329160 0.014146
0.420027 0.322360 0.014146
0.420027 0.329160 0.014146
0.426827 0.308760 0.014146
0.433627 0.315560 0.014146
0.426827 0.329160 0.014146
0.433627 0.322360 0.014146
0.433627 0.322360 0.020946
0.433627 0.329160 0.014146
0.440427 0.281560 0.020946
0.447227 0.281560 0.020946
0.447227 0.288360 0.020946
0.440427 0.295160 0.020946
0.440427 0.301960 0.020946
0.447227 0.295160 0.020946
0.447227 0.301960 0.020946
0.454027 0.288360 0.027746
0.460827 0.281560 0.027746
0.454027 0.295160 0.027746
0.460827 0.295160 0.027746
0.460827 0.301960 0.027746
0.440427 0.315560 0.020946
0.447227 0.308760 0.020946
0.447227 0.322360 0.020946
0.447227 0.329160 0.020946
0.454027 0.308760 0.020946
0.454027 0.315560 0.020946
0.460827 0.315560 0.027746
0.460827 0.322360 0.027746
0.413227 0.342760 0.014146
0.420027 0.342760 0.014146
0.426827 0.335960 0.014146
0.426827 0.342760 0.014146
0.433627 0.335960 0.014146
0.433627 0.342760 0.014146
0.426827 0.349560 0.014146
0.426827 0.356360 0.014146
0.433627 0.349560 0.014146
0.433627 0.356360 0.014146
0.420027 0.383560 0.014146
0.426827 0.363160 0.014146
0.426827 0.369960 0.014146
0.433627 0.363160 0.014146
0.433627 0.369960 0.014146
0.426827 0.376760 0.014146
0.426827 0.383560 0.014146
0.433627 0.376760 0.014146
0.433627 0.383560 0.014146
0.440427 0.335960 0.020946
0.447227 0.335960 0.020946
0.447227 0.342760 0.020946
0.440427 0.356360 0.020946
0.447227 0.349560 0.020946
0.447227 0.356360 0.020946
0.454027 0.342760 0.020946
0.460827 0.335960 0.027746
0.454027 0.349560 0.027746
0.460827 0.356360 0.027746
0.440427 0.363160 0.020946
0.440427 0.369960 0.020946
0.447227 0.363160 0.020946
0.447227 0.369960 0.020946
0.440427 0.376760 0.020946
0.440427 0.383560 0.020946
0.447227 0.376760 0.020946
0.447227 0.383560 0.020946
0.454027 0.369960 0.020946
0.454027 0.383560 0.020946
0.460827 0.376760 0.027746
0.467627 0.288360 0.027746
0.474427 0.281560 0.034546
0.474427 0.288360 0.034546
0.467627 0.295160 0.027746
0.467627 0.301960 0.027746
0.474427 0.295160 0.034546
0.481227 0.281560 0.034546
0.481227 0.288360 0.034546
0.481227 0.301960 0.034546
0.488027 0.295160 0.034546
0.488027 0.301960 0.034546
0.488027 0.288360 0.041346
0.467627 0.308760 0.027746
0.467627 0.315560 0.027746
0.474427 0.308760 0.034546
0.474427 0.315560 0.027746
0.467627 0.322360 0.027746
0.467627 0.329160 0.027746
0.474427 0.322360 0.034546
0.474427 0.329160 0.034546
0.481227 0.315560 0.034546
0.488027 0.308760 0.034546
0.488027 0.315560 0.034546
0.481227 0.322360 0.034546
0.481227 0.329160 0.034546
0.488027 0.315560 0.041346
0.488027 0.322360 0.041346
0.488027 0.329160 0.041346
0.494827 0.281560 0.041346
0.494827 0.288360 0.041346
0.501627 0.281560 0.048146
0.494827 0.295160 0.041346
0.494827 0.301960 0.041346
0.501627 0.301960 0.041346
0.508427 0.281560 0.048146
0.515227 0.281560 0.054946
0.515227 0.288360 0.054946
0.508427 0.295160 0.048146
0.508427 0.301960 0.048146
0.515227 0.295160 0.048146
0.515227 0.295160 0.054946
0.515227 0.301960 0.054946
0.494827 0.308760 0.041346
0.494827 0.315560 0.041346
0.501627 0.308760 0.041346
0.501627 0.315560 0.048146
0.501627 0.322360 0.041346
0.508427 0.308760 0.048146
0.508427 0.315560 0.048146
0.515227 0.315560 0.054946
0.508427 0.322360 0.048146
0.508427 0.329160 0.048146
0.515227 0.322360 0.048146
0.467627 0.335960 0.027746
0.467627 0.342760 0.027746
0.474427 0.335960 0.034546
0.474427 0.342760 0.027746
0.467627 0.349560 0.027746
0.467627 0.356360 0.027746
0.474427 0.349560 0.034546
0.474427 0.356360 0.027746
0.474427 0.356360 0.034546
0.481227 0.335960 0.034546
0.481227 0.342760 0.034546
0.488027 0.342760 0.034546
0.481227 0.356360 0.034546
0.488027 0.349560 0.034546
0.488027 0.335960 0.041346
0.488027 0.356360 0.041346
0.467627 0.363160 0.027746
0.467627 0.369960 0.027746
0.474427 0.369960 0.027746
0.467627 0.376760 0.027746
0.467627 0.383560 0.027746
0.474427 0.376760 0.027746
0.474427 0.383560 0.034546
0.481227 0.363160 0.034546
0.488027 0.363160 0.034546
0.488027 0.369960 0.034546
0.481227 0.376760 0.034546
0.481227 0.383560 0.034546
0.488027 0.376760 0.034546
0.488027 0.383560 0.034546
0.488027 0.369960 0.041346
0.494827 0.342760 0.041346
0.501627 0.335960 0.041346
0.501627 0.342760 0.041346
0.494827 0.349560 0.041346
0.494827 0.356360 0.041346
0.501627 0.349560 0.041346
0.501627 0.356360 0.041346
0.508427 0.335960 0.048146
0.508427 0.342760 0.048146
0.515227 0.335960 0.054946
0.515227 0.342760 0.054946
0.508427 0.349560 0.048146
0.508427 0.356360 0.048146
0.515227 0.349560 0.054946
0.494827 0.369960 0.041346
0.501627 0.369960 0.048146
0.494827 0.376760 0.041346
0.494827 0.383560 0.041346
0.501627 0.376760 0.041346
0.508427 0.363160 0.048146
0.508427 0.369960 0.048146
0.515227 0.363160 0.054946
0.515227 0.369960 0.054946
0.508427 0.383560 0.048146
0.515227 0.376760 0.048146
0.515227 0.383560 0.054946
0.420027 0.390360 0.014146
0.420027 0.397160 0.014146
0.420027 0.410760 0.014146
0.426827 0.397160 0.014146
0.433627 0.390360 0.014146
0.426827 0.403960 0.014146
0.426827 0.410760 0.014146
0.433627 0.403960 0.014146
0.426827 0.417560 0.014146
0.433627 0.417560 0.014146
0.426827 0.431160 0.014146
0.426827 0.437960 0.014146
0.433627 0.437960 0.014146
0.440427 0.390360 0.020946
0.440427 0.397160 0.020946
0.447227 0.390360 0.020946
0.440427 0.403960 0.020946
0.440427 0.410760 0.014146
0.460827 0.390360 0.027746
0.460827 0.397160 0.027746
0.454027 0.403960 0.020946
0.454027 0.410760 0.020946
0.454027 0.403960 0.027746
0.460827 0.410760 0.027746
0.440427 0.417560 0.020946
0.440427 0.424360 0.014146
0.447227 0.417560 0.020946
0.447227 0.424360 0.020946
0.440427 0.431160 0.014146
0.440427 0.437960 0.014146
0.447227 0.437960 0.020946
0.454027 0.417560 0.020946
0.454027 0.424360 0.020946
0.460827 0.417560 0.027746
0.460827 0.424360 0.027746
0.454027 0.431160 0.020946
0.454027 0.437960 0.020946
0.460827 0.437960 0.020946
0.420027 0.465160 0.014146
0.426827 0.444760 0.014146
0.426827 0.451560 0.014146
0.426827 0.458360 0.014146
0.433627 0.465160 0.014146
0.420027 0.478760 0.014146
0.426827 0.471960 0.014146
0.433627 0.471960 0.014146
0.433627 0.478760 0.014146
0.426827 0.485560 0.014146
0.426827 0.492360 0.014146
0.433627 0.492360 0.014146
0.440427 0.444760 0.014146
0.447227 0.444760 0.020946
0.447227 0.451560 0.020946
0.440427 0.458360 0.014146
0.440427 0.465160 0.014146
0.447227 0.458360 0.020946
0.447227 0.465160 0.020946
0.454027 0.444760 0.020946
0.454027 0.451560 0.020946
0.454027 0.458360 0.020946
0.454027 0.465160 0.020946
0.460827 0.458360 0.027746
0.460827 0.465160 0.027746
0.447227 0.471960 0.020946
0.447227 0.485560 0.020946
0.447227 0.492360 0.020946
0.454027 0.471960 0.020946
0.454027 0.478760 0.020946
0.460827 0.478760 0.020946
0.454027 0.485560 0.020946
0.460827 0.485560 0.020946
0.460827 0.492360 0.020946
0.467627 0.390360 0.027746
0.467627 0.397160 0.027746
0.474427 0.390360 0.027746
0.474427 0.397160 0.034546
0.467627 0.403960 0.027746
0.467627 0.410760 0.027746
0.474427 0.403960 0.034546
0.481227 0.397160 0.034546
0.488027 0.390360 0.034546
0.488027 0.397160 0.034546
0.488027 0.410760 0.034546
0.467627 0.417560 0.027746
0.474427 0.417560 0.034546
0.474427 0.424360 0.034546
0.467627 0.431160 0.027746
0.467627 0.437960 0.027746
0.474427 0.437960 0.034546
0.481227 0.424360 0.034546
0.488027 0.417560 0.034546
0.488027 0.424360 0.034546
0.481227 0.431160 0.034546
0.488027 0.417560 0.041346
0.488027 0.431160 0.041346
0.488027 0.437960 0.041346
0.494827 0.390360 0.041346
0.494827 0.397160 0.041346
0.501627 0.390360 0.048146
0.494827 0.403960 0.041346
0.501627 0.410760 0.041346
0.508427 0.390360 0.048146
0.508427 0.397160 0.048146
0.515227 0.397160 0.054946
0.508427 0.403960 0.048146
0.508427 0.410760 0.048146
0.515227 0.403960 0.054946
0.515227 0.410760 0.054946
0.494827 0.417560 0.041346
0.494827 0.424360 0.041346
0.501627 0.424360 0.041346
0.494827 0.437960 0.041346
0.501627 0.431160 0.041346
0.501627 0.437960 0.048146
0.508427 0.417560 0.048146
0.515227 0.424360 0.054946
0.508427 0.431160 0.048146
0.508427 0.437960 0.048146
0.515227 0.431160 0.048146
0.515227 0.437960 0.048146
0.467627 0.444760 0.027746
0.467627 0.451560 0.027746
0.474427 0.444760 0.034546
0.467627 0.458360 0.027746
0.467627 0.465160 0.027746
0.474427 0.458360 0.034546
0.474427 0.465160 0.027746
0.474427 0.465160 0.034546
0.481227 0.444760 0.034546
0.481227 0.451560 0.034546
0.481227 0.458360 0.034546
0.488027 0.465160 0.034546
0.488027 0.444760 0.041346
0.488027 0.451560 0.041346
0.488027 0.458360 0.041346
0.467627 0.471960 0.027746
0.467627 0.478760 0.027746
0.474427 0.471960 0.034546
0.467627 0.485560 0.027746
0.467627 0.492360 0.027746
0.474427 0.485560 0.034546
0.474427 0.492360 0.034546
0.481227 0.478760 0.034546
0.488027 0.471960 0.034546
0.488027 0.478760 0.034546
0.488027 0.485560 0.034546
0.488027 0.492360 0.041346
0.494827 0.451560 0.041346
0.494827 0.458360 0.041346
0.494827 0.465160 0.041346
0.508427 0.451560 0.048146
0.515227 0.451560 0.048146
0.515227 0.444760 0.054946
0.508427 0.458360 0.048146
0.508427 0.465160 0.048146
0.515227 0.458360 0.054946
0.515227 0.465160 0.054946
0.494827 0.471960 0.041346
0.494827 0.478760 0.041346
0.494827 0.485560 0.041346
0.501627 0.485560 0.048146
0.501627 0.492360 0.048146
0.508427 0.471960 0.048146
0.515227 0.478760 0.048146
0.515227 0.471960 0.054946
0.508427 0.485560 0.048146
0.508427 0.492360 0.048146
0.515227 0.485560 0.054946
0.522027 0.281560 0.054946
0.522027 0.288360 0.054946
0.528827 0.281560 0.061746
0.522027 0.295160 0.054946
0.522027 0.301960 0.054946
0.528827 0.295160 0.061746
0.528827 0.301960 0.061746
0.535627 0.281560 0.061746
0.535627 0.288360 0.061746
0.535627 0.295160 0.061746
0.535627 0.301960 0.061746
0.522027 0.315560 0.054946
0.528827 0.308760 0.061746
0.528827 0.315560 0.061746
0.522027 0.322360 0.054946
0.528827 0.329160 0.054946
0.535627 0.308760 0.061746
0.535627 0.315560 0.061746
0.535627 0.322360 0.061746
0.535627 0.329160 0.061746
0.542427 0.281560 0.068546
0.542427 0.288360 0.068546
0.535627 0.295160 0.068546
0.542427 0.295160 0.068546
0.542427 0.308760 0.068546
0.542427 0.315560 0.068546
0.535627 0.322360 0.068546
0.542427 0.322360 0.068546
0.542427 0.329160 0.068546
0.549227 0.281560 0.075346
0.556027 0.281560 0.082146
0.549227 0.295160 0.075346
0.549227 0.301960 0.075346
0.556027 0.295160 0.075346
0.556027 0.301960 0.075346
0.556027 0.295160 0.082146
0.562827 0.281560 0.082146
0.562827 0.288360 0.082146
0.569627 0.288360 0.088946
0.562827 0.295160 0.082146
0.562827 0.301960 0.082146
0.562827 0.301960 0.088946
0.569627 0.295160 0.088946
0.569627 0.301960 0.088946
0.549227 0.308760 0.075346
0.549227 0.315560 0.075346
0.556027 0.308760 0.075346
0.556027 0.315560 0.082146
0.549227 0.322360 0.075346
0.556027 0.322360 0.082146
0.556027 0.329160 0.082146
0.562827 0.308760 0.082146
0.562827 0.315560 0.082146
0.569627 0.308760 0.088946
0.569627 0.315560 0.088946
0.562827 0.322360 0.088946
0.562827 0.329160 0.082146
0.569627 0.322360 0.088946
0.569627 0.329160 0.088946
0.528827 0.335960 0.061746
0.528827 0.342760 0.061746
0.522027 0.356360 0.054946
0.528827 0.349560 0.061746
0.528827 0.356360 0.061746
0.535627 0.335960 0.061746
0.535627 0.342760 0.061746
0.535627 0.349560 0.061746
0.535627 0.356360 0.061746
0.522027 0.363160 0.054946
0.522027 0.376760 0.054946
0.528827 0.376760 0.061746
0.528827 0.383560 0.061746
0.535627 0.363160 0.061746
0.535627 0.369960 0.061746
0.535627 0.383560 0.061746
0.535627 0.342760 0.068546
0.542427 0.335960 0.068546
0.542427 0.349560 0.068546
0.542427 0.356360 0.068546
0.535627 0.369960 0.068546
0.542427 0.363160 0.068546
0.535627 0.376760 0.068546
0.535627 0.383560 0.068546
0.542427 0.383560 0.068546
0.549227 0.335960 0.075346
0.549227 0.342760 0.075346
0.556027 0.335960 0.075346
0.556027 0.342760 0.075346
0.556027 0.335960 0.082146
0.556027 0.342760 0.082146
0.549227 0.356360 0.075346
0.556027 0.349560 0.075346
0.556027 0.356360 0.082146
0.562827 0.342760 0.082146
0.569627 0.335960 0.088946
0.569627 0.342760 0.088946
0.562827 0.349560 0.082146
0.562827 0.356360 0.082146
0.569627 0.349560 0.088946
0.569627 0.356360 0.088946
0.549227 0.363160 0.075346
0.549227 0.369960 0.068546
0.549227 0.369960 0.075346
0.556027 0.363160 0.075346
0.556027 0.369960 0.082146
0.549227 0.376760 0.075346
0.549227 0.383560 0.075346
0.556027 0.376760 0.082146
0.562827 0.363160 0.082146
0.569627 0.363160 0.088946
0.569627 0.369960 0.088946
0.562827 0.376760 0.082146
0.562827 0.383560 0.082146
0.569627 0.376760 0.088946
0.569627 0.383560 0.088946
0.576427 0.281560 0.095746
0.576427 0.288360 0.095746
0.583227 0.281560 0.102546
0.583227 0.288360 0.102546
0.576427 0.295160 0.095746
0.576427 0.301960 0.095746
0.583227 0.295160 0.095746
0.583227 0.295160 0.102546
0.590027 0.288360 0.102546
0.596827 0.281560 0.109346
0.596827 0.281560 0.116146
0.596827 0.288360 0.116146
0.590027 0.301960 0.102546
0.590027 0.295160 0.109346
0.590027 0.301960 0.109346
0.596827 0.295160 0.109346
0.596827 0.295160 0.116146
0.596827 0.301960 0.116146
0.576427 0.315560 0.095746
0.583227 0.308760 0.095746
0.583227 0.308760 0.102546
0.583227 0.315560 0.095746
0.576427 0.322360 0.095746
0.576427 0.329160 0.095746
0.583227 0.322360 0.102546
0.583227 0.329160 0.102546
0.590027 0.315560 0.102546
0.590027 0.315560 0.109346
0.596827 0.308760 0.109346
0.596827 0.308760 0.116146
0.596827 0.315560 0.116146
0.590027 0.322360 0.102546
0.590027 0.329160 0.109346
0.596827 0.322360 0.116146
0.596827 0.329160 0.116146
0.603627 0.322360 0.116146
0.576427 0.335960 0.095746
0.576427 0.342760 0.095746
0.583227 0.335960 0.095746
0.583227 0.342760 0.102546
0.576427 0.349560 0.095746
0.576427 0.356360 0.095746
0.583227 0.349560 0.102546
0.583227 0.356360 0.102546
0.590027 0.335960 0.102546
0.590027 0.342760 0.102546
0.596827 0.335960 0.109346
0.596827 0.335960 0.116146
0.596827 0.342760 0.109346
0.596827 0.342760 0.116146
0.590027 0.349560 0.102546
0.590027 0.356360 0.102546
0.590027 0.356360 0.109346
0.596827 0.349560 0.109346
0.596827 0.356360 0.109346
0.596827 0.356360 0.116146
0.576427 0.369960 0.088946
0.576427 0.376760 0.088946
0.576427 0.363160 0.095746
0.583227 0.363160 0.095746
0.583227 0.369960 0.095746
0.583227 0.369960 0.102546
0.576427 0.383560 0.095746
0.583227 0.376760 0.095746
0.583227 0.383560 0.102546
0.590027 0.363160 0.102546
0.590027 0.369960 0.109346
0.596827 0.363160 0.109346
0.596827 0.369960 0.116146
0.590027 0.376760 0.102546
0.590027 0.383560 0.102546
0.590027 0.383560 0.109346
0.596827 0.376760 0.116146
0.596827 0.383560 0.109346
0.603627 0.335960 0.116146
0.603627 0.349560 0.116146
0.603627 0.383560 0.116146
0.603627 0.281560 0.122946
0.603627 0.288360 0.122946
0.610427 0.281560 0.129746
0.610427 0.288360 0.129746
0.610427 0.281560 0.136546
0.610427 0.288360 0.136546
0.603627 0.295160 0.122946
0.603627 0.301960 0.122946
0.610427 0.295160 0.129746
0.610427 0.301960 0.129746
0.610427 0.295160 0.136546
0.617227 0.281560 0.143346
0.617227 0.288360 0.143346
0.617227 0.295160 0.136546
0.617227 0.295160 0.143346
0.617227 0.301960 0.136546
0.624027 0.281560 0.150146
0.624027 0.288360 0.150146
0.624027 0.295160 0.150146
0.624027 0.301960 0.150146
0.603627 0.308760 0.122946
0.603627 0.315560 0.122946
0.610427 0.308760 0.129746
0.610427 0.315560 0.122946
0.610427 0.315560 0.129746
0.603627 0.322360 0.122946
0.603627 0.329160 0.122946
0.610427 0.322360 0.129746
0.610427 0.329160 0.122946
0.610427 0.329160 0.129746
0.617227 0.308760 0.143346
0.617227 0.315560 0.136546
0.617227 0.315560 0.143346
0.624027 0.315560 0.143346
0.617227 0.322360 0.136546
0.617227 0.329160 0.143346
0.624027 0.308760 0.150146
0.624027 0.322360 0.150146
0.624027 0.329160 0.150146
0.603627 0.335960 0.122946
0.603627 0.342760 0.122946
0.610427 0.335960 0.129746
0.610427 0.342760 0.122946
0.603627 0.349560 0.122946
0.603627 0.356360 0.122946
0.610427 0.349560 0.129746
0.610427 0.356360 0.122946
0.610427 0.356360 0.129746
0.617227 0.335960 0.136546
0.617227 0.335960 0.143346
0.617227 0.342760 0.136546
0.617227 0.342760 0.143346
0.624027 0.335960 0.143346
0.624027 0.342760 0.143346
0.617227 0.349560 0.136546
0.617227 0.356360 0.136546
0.624027 0.349560 0.143346
0.624027 0.342760 0.150146
0.624027 0.349560 0.150146
0.624027 0.356360 0.150146
0.603627 0.363160 0.122946
0.603627 0.369960 0.122946
0.610427 0.363160 0.122946
0.610427 0.363160 0.129746
0.610427 0.369960 0.122946
0.603627 0.376760 0.122946
0.603627 0.383560 0.122946
0.610427 0.376760 0.129746
0.610427 0.383560 0.122946
0.617227 0.363160 0.136546
0.617227 0.369960 0.136546
0.624027 0.363160 0.143346
0.624027 0.369960 0.143346
0.617227 0.376760 0.136546
0.617227 0.383560 0.136546
0.617227 0.383560 0.143346
0.624027 0.376760 0.143346
0.624027 0.383560 0.143346
0.522027 0.390360 0.054946
0.522027 0.397160 0.054946
0.528827 0.390360 0.061746
0.528827 0.397160 0.061746
0.522027 0.410760 0.054946
0.528827 0.403960 0.061746
0.535627 0.390360 0.061746
0.535627 0.403960 0.061746
0.522027 0.417560 0.054946
0.522027 0.424360 0.054946
0.528827 0.417560 0.061746
0.528827 0.424360 0.061746
0.522027 0.431160 0.054946
0.522027 0.437960 0.054946
0.528827 0.431160 0.061746
0.528827 0.437960 0.054946
0.535627 0.417560 0.061746
0.535627 0.424360 0.061746
0.535627 0.431160 0.061746
0.535627 0.390360 0.068546
0.535627 0.397160 0.068546
0.542427 0.397160 0.068546
0.542427 0.403960 0.068546
0.542427 0.417560 0.068546
0.542427 0.424360 0.068546
0.542427 0.437960 0.068546
0.549227 0.390360 0.075346
0.549227 0.397160 0.075346
0.556027 0.397160 0.075346
0.556027 0.390360 0.082146
0.556027 0.397160 0.082146
0.549227 0.403960 0.075346
0.556027 0.410760 0.075346
0.556027 0.403960 0.082146
0.562827 0.397160 0.082146
0.569627 0.390360 0.088946
0.569627 0.397160 0.088946
0.562827 0.403960 0.082146
0.562827 0.410760 0.082146
0.569627 0.403960 0.088946
0.569627 0.410760 0.088946
0.549227 0.417560 0.075346
0.549227 0.424360 0.075346
0.556027 0.417560 0.075346
0.556027 0.424360 0.075346
0.549227 0.431160 0.075346
0.549227 0.437960 0.075346
0.556027 0.437960 0.075346
0.556027 0.431160 0.082146
0.562827 0.417560 0.082146
0.562827 0.424360 0.082146
0.569627 0.417560 0.088946
0.569627 0.424360 0.088946
0.562827 0.431160 0.088946
0.562827 0.437960 0.082146
0.569627 0.431160 0.088946
0.569627 0.437960 0.088946
0.522027 0.444760 0.054946
0.522027 0.451560 0.054946
0.528827 0.451560 0.061746
0.522027 0.458360 0.054946
0.522027 0.465160 0.054946
0.528827 0.465160 0.061746
0.535627 0.444760 0.061746
0.535627 0.451560 0.061746
0.535627 0.458360 0.061746
0.535627 0.465160 0.061746
0.522027 0.471960 0.054946
0.528827 0.471960 0.061746
0.522027 0.485560 0.054946
0.522027 0.492360 0.054946
0.528827 0.485560 0.061746
0.535627 0.471960 0.061746
0.535627 0.478760 0.061746
0.535627 0.485560 0.061746
0.535627 0.444760 0.068546
0.535627 0.451560 0.068546
0.542427 0.451560 0.068546
0.542427 0.458360 0.068546
0.542427 0.465160 0.068546
0.535627 0.478760 0.068546
0.542427 0.471960 0.068546
0.535627 0.492360 0.068546
0.542427 0.485560 0.068546
0.542427 0.492360 0.068546
0.549227 0.444760 0.075346
0.549227 0.451560 0.075346
0.556027 0.444760 0.075346
0.556027 0.444760 0.082146
0.556027 0.451560 0.082146
0.549227 0.458360 0.075346
0.549227 0.465160 0.068546
0.549227 0.465160 0.075346
0.556027 0.458360 0.075346
0.556027 0.465160 0.075346
0.556027 0.465160 0.082146
0.562827 0.444760 0.082146
0.562827 0.451560 0.088946
0.569627 0.444760 0.088946
0.569627 0.451560 0.088946
0.562827 0.458360 0.082146
0.569627 0.458360 0.088946
0.569627 0.465160 0.088946
0.549227 0.478760 0.075346
0.556027 0.471960 0.075346
0.556027 0.478760 0.075346
0.549227 0.485560 0.075346
0.549227 0.492360 0.075346
0.556027 0.485560 0.075346
0.556027 0.492360 0.075346
0.562827 0.471960 0.082146
0.562827 0.478760 0.082146
0.569627 0.471960 0.088946
0.569627 0.478760 0.088946
0.562827 0.485560 0.082146
0.562827 0.492360 0.082146
0.569627 0.485560 0.088946
0.569627 0.492360 0.088946
0.576427 0.397160 0.095746
0.583227 0.390360 0.095746
0.583227 0.397160 0.102546
0.576427 0.403960 0.095746
0.583227 0.403960 0.102546
0.583227 0.410760 0.102546
0.590027 0.390360 0.102546
0.590027 0.397160 0.102546
0.596827 0.390360 0.109346
0.596827 0.397160 0.109346
0.590027 0.403960 0.102546
0.590027 0.410760 0.102546
0.596827 0.403960 0.116146
0.596827 0.410760 0.109346
0.576427 0.417560 0.095746
0.576427 0.424360 0.095746
0.583227 0.417560 0.095746
0.583227 0.417560 0.102546
0.583227 0.424360 0.095746
0.576427 0.437960 0.095746
0.583227 0.431160 0.095746
0.590027 0.417560 0.102546
0.590027 0.424360 0.102546
0.596827 0.417560 0.109346
0.596827 0.424360 0.109346
0.590027 0.431160 0.102546
0.590027 0.437960 0.102546
0.596827 0.431160 0.109346
0.596827 0.437960 0.109346
0.596827 0.437960 0.116146
0.603627 0.390360 0.116146
0.603627 0.397160 0.116146
0.603627 0.410760 0.116146
0.603627 0.417560 0.116146
0.603627 0.424360 0.116146
0.603627 0.431160 0.116146
0.603627 0.437960 0.116146
0.576427 0.444760 0.095746
0.576427 0.451560 0.095746
0.583227 0.444760 0.102546
0.583227 0.451560 0.102546
0.576427 0.458360 0.095746
0.576427 0.465160 0.095746
0.583227 0.458360 0.095746
0.583227 0.465160 0.095746
0.583227 0.465160 0.102546
0.590027 0.444760 0.102546
0.590027 0.451560 0.102546
0.596827 0.444760 0.109346
0.596827 0.444760 0.116146
0.596827 0.451560 0.109346
0.590027 0.458360 0.102546
0.590027 0.458360 0.109346
0.590027 0.465160 0.109346
0.596827 0.458360 0.116146
0.596827 0.465160 0.116146
0.576427 0.471960 0.095746
0.576427 0.478760 0.095746
0.583227 0.471960 0.102546
0.583227 0.478760 0.102546
0.576427 0.485560 0.095746
0.576427 0.492360 0.095746
0.583227 0.485560 0.102546
0.583227 0.492360 0.102546
0.590027 0.471960 0.102546
0.590027 0.478760 0.109346
0.596827 0.471960 0.109346
0.596827 0.471960 0.116146
0.596827 0.478760 0.116146
0.590027 0.485560 0.102546
0.590027 0.492360 0.102546
0.596827 0.485560 0.109346
0.596827 0.492360 0.109346
0.596827 0.492360 0.116146
0.603627 0.444760 0.116146
0.603627 0.465160 0.116146
0.603627 0.397160 0.122946
0.610427 0.390360 0.129746
0.610427 0.397160 0.129746
0.603627 0.403960 0.122946
0.610427 0.403960 0.129746
0.610427 0.410760 0.122946
0.617227 0.390360 0.136546
0.617227 0.397160 0.136546
0.624027 0.390360 0.143346
0.624027 0.397160 0.143346
0.617227 0.410760 0.129746
0.617227 0.403960 0.136546
0.617227 0.410760 0.136546
0.624027 0.410760 0.143346
0.624027 0.397160 0.150146
0.624027 0.410760 0.150146
0.610427 0.417560 0.122946
0.610427 0.417560 0.129746
0.610427 0.424360 0.122946
0.610427 0.424360 0.129746
0.603627 0.437960 0.122946
0.610427 0.431160 0.122946
0.610427 0.437960 0.129746
0.617227 0.417560 0.136546
0.617227 0.424360 0.136546
0.624027 0.417560 0.143346
0.624027 0.424360 0.143346
0.617227 0.431160 0.129746
0.617227 0.431160 0.136546
0.617227 0.437960 0.136546
0.624027 0.431160 0.143346
0.624027 0.424360 0.150146
0.624027 0.437960 0.150146
0.603627 0.451560 0.122946
0.610427 0.444760 0.122946
0.610427 0.451560 0.122946
0.603627 0.458360 0.122946
0.603627 0.465160 0.122946
0.610427 0.458360 0.129746
0.610427 0.465160 0.122946
0.610427 0.465160 0.129746
0.617227 0.444760 0.129746
0.617227 0.451560 0.129746
0.617227 0.444760 0.136546
0.617227 0.451560 0.136546
0.624027 0.444760 0.143346
0.624027 0.451560 0.143346
0.617227 0.458360 0.129746
0.617227 0.458360 0.136546
0.617227 0.465160 0.136546
0.624027 0.458360 0.143346
0.624027 0.465160 0.136546
0.624027 0.465160 0.143346
0.624027 0.444760 0.150146
0.603627 0.471960 0.122946
0.603627 0.478760 0.122946
0.610427 0.471960 0.122946
0.610427 0.478760 0.122946
0.603627 0.485560 0.122946
0.610427 0.485560 0.129746
0.610427 0.492360 0.122946
0.617227 0.471960 0.129746
0.617227 0.478760 0.136546
0.624027 0.471960 0.143346
0.624027 0.478760 0.143346
0.617227 0.492360 0.129746
0.617227 0.485560 0.136546
0.624027 0.485560 0.143346
0.624027 0.492360 0.136546
0.624027 0.492360 0.143346
0.624027 0.478760 0.150146
0.630827 0.077560 0.170546
0.630827 0.091160 0.170546
0.630827 0.097960 0.163746
0.630827 0.097960 0.170546
0.630827 0.104760 0.170546
0.630827 0.111560 0.163746
0.630827 0.111560 0.170546
0.637627 0.104760 0.170546
0.630827 0.063960 0.177346
0.630827 0.070760 0.177346
0.630827 0.070760 0.184146
0.630827 0.063960 0.190946
0.637627 0.063960 0.197746
0.637627 0.070760 0.190946
0.630827 0.077560 0.177346
0.637627 0.084360 0.177346
0.637627 0.084360 0.184146
0.637627 0.077560 0.190946
0.637627 0.077560 0.197746
0.644427 0.070760 0.197746
0.637627 0.063960 0.204546
0.644427 0.070760 0.211346
0.644427 0.063960 0.218146
0.644427 0.070760 0.218146
0.651227 0.063960 0.224946
0.651227 0.070760 0.218146
0.644427 0.084360 0.204546
0.651227 0.077560 0.211346
0.651227 0.077560 0.224946
0.651227 0.084360 0.218146
0.651227 0.084360 0.224946
0.637627 0.091160 0.177346
0.637627 0.091160 0.184146
0.637627 0.097960 0.177346
0.637627 0.097960 0.184146
0.637627 0.091160 0.190946
0.637627 0.104760 0.184146
0.637627 0.111560 0.177346
0.644427 0.091160 0.197746
0.644427 0.097960 0.190946
0.644427 0.097960 0.197746
0.644427 0.104760 0.184146
0.644427 0.104760 0.190946
0.644427 0.111560 0.190946
0.644427 0.111560 0.197746
0.651227 0.091160 0.204546
0.651227 0.097960 0.204546
0.651227 0.097960 0.211346
0.651227 0.091160 0.218146
0.651227 0.104760 0.204546
0.651227 0.111560 0.204546
0.651227 0.111560 0.211346
0.651227 0.104760 0.218146
0.658027 0.091160 0.224946
0.658027 0.097960 0.224946
0.658027 0.104760 0.224946
0.658027 0.111560 0.218146
0.658027 0.111560 0.224946
0.630827 0.118360 0.163746
0.630827 0.118360 0.170546
0.637627 0.125160 0.170546
0.630827 0.131960 0.163746
0.630827 0.131960 0.170546
0.630827 0.138760 0.163746
0.637627 0.131960 0.170546
0.637627 0.138760 0.170546
0.630827 0.145560 0.163746
0.630827 0.152360 0.163746
0.637627 0.145560 0.170546
0.637627 0.152360 0.170546
0.630827 0.165960 0.156946
0.630827 0.159160 0.163746
0.630827 0.165960 0.163746
0.630827 0.165960 0.170546
0.637627 0.159160 0.170546
0.637627 0.118360 0.177346
0.637627 0.118360 0.184146
0.637627 0.125160 0.177346
0.637627 0.138760 0.177346
0.644427 0.125160 0.184146
0.644427 0.118360 0.190946
0.644427 0.125160 0.190946
0.651227 0.118360 0.197746
0.651227 0.125160 0.197746
0.644427 0.131960 0.184146
0.644427 0.138760 0.184146
0.644427 0.131960 0.190946
0.651227 0.131960 0.197746
0.651227 0.138760 0.190946
0.651227 0.138760 0.197746
0.651227 0.125160 0.204546
0.651227 0.131960 0.204546
0.637627 0.152360 0.177346
0.637627 0.159160 0.177346
0.637627 0.165960 0.177346
0.644427 0.145560 0.184146
0.644427 0.152360 0.184146
0.644427 0.152360 0.190946
0.651227 0.145560 0.190946
0.651227 0.152360 0.197746
0.644427 0.159160 0.184146
0.644427 0.165960 0.184146
