ply
format ascii 1.0
element vertex 1769
property float x
property float y
property float z
end_header
0.249566 0.768910 0.310236
0.412972 0.776177 0.285415
0.423478 0.789959 0.300222
0.412806 0.776552 0.293712
0.257737 0.782129 0.300415
0.264479 0.794582 0.296846
0.313280 0.815940 0.313386
0.278225 0.792208 0.292610
0.409633 0.804473 0.295243
0.417798 0.812353 0.300368
0.315443 0.814942 0.305839
0.312102 0.812909 0.293700
0.268104 0.799404 0.292277
0.411769 0.811876 0.295159
0.310751 0.828759 0.291373
0.269804 0.816920 0.302125
0.430805 0.813021 0.297040
0.304607 0.831234 0.298626
0.324034 0.839354 0.290767
0.260227 0.822790 0.291091
0.434818 0.849752 0.292082
0.430019 0.837252 0.295102
0.298275 0.829407 0.287409
0.264319 0.848127 0.289599
0.274023 0.849107 0.302761
0.405181 0.861698 0.295698
0.422946 0.868274 0.285711
0.275766 0.865491 0.295001
0.410201 0.884724 0.304067
0.270516 0.858167 0.296546
0.409499 0.872304 0.294365
0.365044 0.875729 0.309047
0.355557 0.891879 0.276996
0.353282 0.892981 0.289883
0.350483 0.893621 0.304318
0.340037 0.880392 0.297172
0.280472 0.881974 0.297926
0.430179 0.887761 0.292787
0.353114 0.890325 0.315605
0.333722 0.907904 0.296970
0.288289 0.880677 0.292470
0.373201 0.899710 0.308425
0.366187 0.898363 0.285257
0.325881 0.900315 0.283080
0.323469 0.905418 0.322644
0.272962 0.908444 0.283691
0.412393 0.906990 0.290505
0.378368 0.905325 0.306970
0.309820 0.901385 0.312854
0.268202 0.904105 0.299718
0.397081 0.913605 0.288472
0.369875 0.921913 0.287710
0.324521 0.900128 0.287725
0.314540 0.926315 0.285726
0.274290 0.923251 0.289214
0.415210 0.919160 0.290722
0.369933 0.916864 0.304678
0.305878 0.923507 0.296545
0.328494 0.923265 0.298159
0.366284 0.915931 0.295111
0.253485 0.928987 0.284997
0.299938 0.921089 0.282497
0.309667 0.932814 0.289404
0.257673 0.944294 0.285030
0.422979 0.938464 0.287391
0.375723 0.943583 0.318043
0.326189 0.926484 0.301054
0.296478 0.930630 0.296992
0.261731 0.938351 0.288058
0.414096 0.950576 0.290655
0.383494 0.948627 0.301327
0.267438 0.942845 0.309981
0.373877 0.949108 0.280896
0.304408 0.936234 0.289471
0.290759 0.960130 0.284358
0.428745 0.961583 0.296512
0.360804 0.947478 0.303277
0.304906 0.952360 0.280259
0.251324 0.963109 0.289776
0.373475 0.965223 0.284702
0.373501 0.966525 0.299622
0.265800 0.978872 0.299715
0.437600 0.970336 0.296469
0.373439 0.972168 0.301125
0.298386 0.957134 0.295533
0.371602 0.964281 0.285770
0.291651 0.973044 0.292779
0.247556 0.969404 0.297339
0.374061 0.979616 0.276326
0.304915 0.980495 0.310837
0.395616 0.988036 0.293598
0.244621 0.991194 0.276446
0.429699 0.989369 0.295741
0.416188 0.980270 0.288824
0.383964 0.985897 0.290313
0.288258 0.980533 0.281689
0.256170 0.992155 0.283323
0.408890 0.996598 0.300186
0.286278 0.987879 0.272705
0.278103 0.992936 0.295423
0.653774 0.001303 0.299442
0.034481 0.004399 0.300030
0.409299 -0.001613 0.313979
0.398550 -0.002503 0.286052
0.157164 -0.003324 0.295260
0.051164 0.011928 0.312308
0.653455 -0.005618 0.310375
0.392490 0.008820 0.311424
0.036460 0.008376 0.309885
0.379526 0.008623 0.299429
0.174028 0.025483 0.302324
0.373493 0.030948 0.308667
0.160147 0.029836 0.291975
0.030500 0.006962 0.292077
0.665701 0.029447 0.303391
0.380219 0.015767 0.291203
0.367664 0.008205 0.301942
0.352878 0.025136 0.310675
0.320717 0.018473 0.295763
0.673298 0.036397 0.301238
0.355982 0.036565 0.300691
0.336259 0.023445 0.299330
0.326514 0.020814 0.302045
0.308683 0.015315 0.287388
0.298654 0.032927 0.282565
0.190790 0.029939 0.303091
0.007942 0.025399 0.303544
0.320421 0.044867 0.291869
0.317358 0.038457 0.293917
0.028195 0.051312 0.307019
0.650611 0.052820 0.299149
0.323106 0.034620 0.302084
0.307860 0.039677 0.287643
0.018417 0.031906 0.293517
0.316138 0.035491 0.286631
0.297995 0.040745 0.300049
0.662535 0.065756 0.297051
0.025762 0.072734 0.286605
0.680627 0.074036 0.297388
0.017798 0.070915 0.307136
0.009472 0.070251 0.300435
0.671280 0.088268 0.304238
0.011944 0.066993 0.309855
0.668600 0.105870 0.296634
0.673919 0.114388 0.298477
0.005614 0.099178 0.302453
0.013724 0.099737 0.311631
0.677435 0.115540 0.296920
0.016592 0.113820 0.304319
0.681358 0.117670 0.308237
0.025120 0.120241 0.291684
0.002466 0.130683 0.303402
0.009140 0.141248 0.301791
0.664424 0.141737 0.304603
0.682851 0.159648 0.291849
0.008859 0.140022 0.298730
0.682581 0.157279 0.278998
0.008422 0.161054 0.298876
0.670576 0.167688 0.304095
0.001444 0.171878 0.310048
0.664976 0.164248 0.294415
0.010318 0.175207 0.294614
0.682405 0.182136 0.289134
0.667377 0.196908 0.292677
-0.008613 0.194981 0.304986
0.688537 0.200314 0.281550
-0.009846 0.196824 0.301569
0.680823 0.216001 0.308017
0.688246 0.231020 0.303950
0.676229 0.234302 0.304216
-0.010816 0.218576 0.283851
0.674844 0.227111 0.301982
0.666799 0.227963 0.298999
0.017200 0.245147 0.292166
0.664508 0.242674 0.285490
0.669938 0.254646 0.305970
-0.005524 0.247130 0.301765
0.662286 0.260045 0.295862
0.011549 0.267204 0.310818
0.667387 0.255116 0.290150
0.007342 0.268400 0.299175
0.673369 0.283278 0.302006
0.007464 0.271787 0.298293
0.684791 0.284635 0.308896
0.010630 0.275533 0.293034
0.687097 0.298663 0.300143
0.001140 0.309322 0.293376
0.013942 0.319265 0.301090
-0.002718 0.327812 0.284446
0.677433 0.330462 0.302336
0.001182 0.331121 0.289800
0.695405 0.322815 0.294056
-0.006364 0.329257 0.296147
0.664531 0.352863 0.316978
0.666774 0.344510 0.301550
-0.000005 0.331217 0.306642
0.683343 0.351582 0.296182
0.008798 0.353066 0.292567
0.663723 0.365365 0.296961
0.007157 0.371564 0.313917
0.691875 0.367841 0.294020
0.018188 0.384016 0.303708
0.682155 0.373986 0.295549
0.004730 0.379334 0.290181
0.682758 0.394259 0.295605
0.004582 0.394262 0.300917
0.673631 0.397991 0.285423
0.016493 0.396809 0.297786
0.670483 0.405397 0.288534
0.007946 0.415768 0.296446
0.682379 0.420122 0.311558
0.007798 0.416198 0.303241
0.004098 0.428912 0.300441
0.666429 0.440776 0.294464
0.008330 0.435938 0.290412
0.683715 0.436808 0.305782
0.010631 0.440502 0.300776
0.683382 0.456818 0.308870
0.006893 0.456790 0.304169
0.679556 0.453409 0.297480
0.002493 0.460865 0.311058
0.006558 0.473604 0.290838
0.008646 0.473231 0.290073
0.683447 0.475038 0.298680
-0.000346 0.479768 0.301829
0.681309 0.496672 0.313204
-0.004391 0.506869 0.292391
0.009941 0.509754 0.299304
0.679934 0.532368 0.306561
-0.005814 0.527665 0.295963
0.016451 0.530437 0.298939
0.665897 0.538140 0.312796
0.664624 0.554785 0.304300
-0.003418 0.531700 0.297899
0.672014 0.546911 0.301361
0.007191 0.547208 0.299509
0.694659 0.550474 0.273015
0.664398 0.554765 0.308066
0.663622 0.564648 0.288334
-0.003396 0.568438 0.306647
0.663059 0.588020 0.295457
0.679813 0.583796 0.296829
0.008216 0.590705 0.292035
0.664453 0.588705 0.295560
-0.007657 0.603140 0.293488
0.679344 0.596852 0.292654
0.675313 0.604174 0.289757
0.000883 0.603845 0.309259
0.653669 0.617688 0.294870
0.023695 0.613252 0.291365
0.663534 0.627279 0.301901
0.645850 0.613189 0.299184
0.643059 0.623389 0.300179
0.649696 0.647072 0.283372
0.016072 0.655816 0.287041
0.636260 0.648590 0.308351
0.036620 0.648134 0.296729
0.040250 0.651661 0.305913
0.613202 0.664944 0.306393
0.621949 0.668736 0.295114
0.039236 0.666073 0.287435
0.048707 0.657152 0.296180
0.614976 0.650051 0.306534
0.061706 0.667911 0.317723
0.591164 0.685579 0.303604
0.066556 0.662026 0.300318
0.581084 0.687159 0.294999
0.559709 0.672106 0.299824
0.106066 0.695602 0.296604
0.545572 0.669589 0.297318
0.549110 0.695393 0.282577
0.093879 0.685008 0.296111
0.529834 0.695300 0.294745
0.521685 0.690815 0.298994
0.507826 0.707053 0.306686
0.115943 0.691310 0.303729
0.494393 0.704192 0.291702
0.490589 0.692047 0.290865
0.123556 0.697909 0.282745
0.129416 0.689559 0.303253
0.131017 0.699546 0.294207
0.497260 0.701989 0.318069
0.494023 0.688415 0.278625
0.462916 0.698426 0.291627
0.160257 0.714545 0.306795
0.138502 0.702810 0.294410
0.140258 0.694077 0.292669
0.150413 0.695955 0.302319
0.195015 0.708919 0.306288
0.191290 0.707808 0.299067
0.177093 0.706837 0.286388
0.181388 0.698121 0.287412
0.458158 0.708305 0.299779
0.200331 0.717360 0.295842
0.461390 0.721847 0.304804
0.221249 0.708834 0.302522
0.205469 0.730188 0.285004
0.465488 0.732892 0.301157
0.442627 0.733675 0.317079
0.243571 0.744261 0.284277
0.229692 0.744211 0.290659
0.240013 0.730151 0.306384
0.435793 0.723574 0.285391
0.247398 0.757459 0.292367
0.441013 0.754433 0.288449
0.262411 0.747097 0.306960
0.430197 0.770266 0.291596
0.436875 0.776302 0.286516
0.409257 0.761603 0.301679
0.264276 0.785461 0.295096
0.413210 0.794378 0.307577
0.296072 0.785064 0.296503
0.433149 0.795649 0.298012
0.420415 0.811941 0.307789
0.309340 0.809898 0.288843
0.308330 0.800166 0.315717
0.256332 0.796691 0.301536
0.291667 0.794133 0.301759
0.268996 0.812080 0.312615
0.417392 0.811505 0.299604
0.307409 0.823888 0.300945
0.295631 0.800877 0.300128
0.272226 0.794925 0.289675
0.289265 0.841183 0.300452
0.416814 0.798029 0.305739
0.292211 0.826228 0.320784
0.313478 0.838930 0.297807
0.280753 0.820730 0.291846
0.428400 0.841868 0.300365
0.265496 0.847148 0.298358
0.422977 0.852477 0.300434
0.297777 0.845913 0.299327
0.289481 0.839017 0.299025
0.409846 0.871712 0.300970
0.257894 0.844252 0.295948
0.409702 0.854276 0.312360
0.262645 0.871300 0.278331
0.268041 0.859956 0.309359
0.307645 0.871517 0.304152
0.308126 0.888816 0.289970
0.265247 0.867249 0.314034
0.317606 0.879826 0.291413
0.264302 0.878547 0.293626
0.430327 0.886918 0.298438
0.362516 0.908929 0.300121
0.306321 0.895504 0.291242
0.312942 0.887249 0.300895
0.288525 0.880450 0.292256
0.404454 0.905614 0.294572
0.360241 0.897834 0.303420
0.318351 0.890614 0.290480
0.269051 0.884815 0.291933
0.375779 0.892031 0.288116
0.332461 0.895438 0.305592
0.312395 0.908009 0.298773
0.316216 0.878737 0.295744
0.272931 0.908742 0.298802
0.368005 0.910325 0.293329
0.321829 0.907881 0.309887
0.312149 0.914820 0.306834
0.296164 0.905973 0.303558
0.417830 0.905255 0.300481
0.382026 0.917950 0.298885
0.304939 0.911347 0.291611
0.321786 0.918133 0.301632
0.255777 0.907163 0.293069
0.430666 0.907928 0.304658
0.297016 0.926869 0.309345
0.417382 0.931748 0.282887
0.384601 0.924849 0.295340
0.310258 0.920902 0.311822
0.245835 0.921183 0.300146
0.429066 0.946236 0.298553
0.299468 0.931689 0.292608
0.423139 0.939951 0.297964
0.372391 0.929855 0.285529
0.307278 0.928504 0.297761
0.263768 0.928548 0.304614
0.291384 0.945459 0.280960
0.433835 0.938641 0.300559
0.376829 0.938271 0.301688
0.305629 0.946916 0.299209
0.257012 0.942767 0.289394
0.421026 0.957518 0.295020
0.308629 0.931876 0.305800
0.386190 0.957703 0.301648
0.286769 0.965689 0.303364
0.257058 0.961963 0.289818
0.242567 0.959725 0.291155
0.414489 0.956334 0.302345
0.365124 0.979244 0.304599
0.313123 0.955813 0.300293
0.439422 0.966008 0.304007
0.392275 0.977356 0.304521
0.283204 0.961273 0.296474
0.253147 0.974580 0.292154
0.433177 0.983788 0.287530
0.279189 0.969622 0.300063
0.374622 0.966402 0.292706
0.249101 0.982281 0.309572
0.420016 0.980782 0.303023
0.383402 0.985707 0.288774
0.288282 0.986464 0.303760
0.424509 0.992618 0.307514
0.399561 0.988481 0.305180
0.285084 0.980345 0.298110
0.245363 0.984605 0.296710
0.286674 0.998160 0.305002
0.262218 0.989026 0.298060
0.269057 1.002362 0.298972
0.252937 1.006170 0.293805
0.660119 0.016584 0.305957
0.021849 0.022294 0.295581
0.422643 0.017664 0.305323
0.177907 0.007477 0.307980
0.143378 0.007039 0.309633
0.391291 0.000485 0.306658
0.046448 0.012757 0.307866
0.653683 0.019633 0.309822
0.393184 0.012584 0.320585
0.172169 0.019661 0.311534
0.013329 0.016113 0.313382
0.664430 0.006066 0.297112
0.164151 0.026824 0.301879
0.379130 0.032597 0.288077
0.375216 0.020370 0.312646
0.202245 0.032677 0.292531
0.026817 0.033373 0.297344
0.656837 0.024756 0.309803
0.346601 0.043160 0.292973
0.031793 0.033710 0.298908
0.335777 0.027440 0.305804
0.330332 0.054390 0.302090
0.334210 0.042622 0.313799
0.666071 0.046550 0.303544
0.319323 0.057478 0.311846
0.324047 0.050087 0.300908
0.665140 0.049864 0.308377
0.320522 0.047221 0.308706
0.665230 0.053198 0.299079
0.029244 0.057754 0.315397
0.669334 0.076258 0.294028
0.018582 0.078323 0.302208
0.677555 0.069899 0.294686
-0.001235 0.096856 0.297669
0.013971 0.101765 0.306025
0.680301 0.097758 0.293242
0.002544 0.112688 0.303616
0.684056 0.121666 0.303965
-0.003001 0.123468 0.315203
0.006376 0.130625 0.298688
0.680544 0.104036 0.308528
0.677861 0.128444 0.291164
0.008387 0.136188 0.313676
0.005658 0.138104 0.299296
0.683769 0.149196 0.302982
0.004523 0.148004 0.307481
0.684342 0.147729 0.291887
0.005808 0.145063 0.302156
0.671298 0.160703 0.300218
0.005778 0.155232 0.305655
0.013350 0.176415 0.291743
0.680279 0.185527 0.305831
0.015989 0.176686 0.296390
0.691105 0.184610 0.305828
0.013430 0.194157 0.298834
0.676900 0.193279 0.302700
0.004119 0.201734 0.294100
0.687220 0.214923 0.308394
-0.001857 0.213036 0.305874
0.688788 0.209840 0.296254
-0.007032 0.206194 0.309795
0.009386 0.230182 0.299412
0.684545 0.222164 0.294418
-0.000500 0.230171 0.324637
0.680987 0.214746 0.312026
0.004488 0.240590 0.302291
0.683596 0.251951 0.320849
0.694656 0.255617 0.295596
0.016538 0.241273 0.310285
0.681905 0.274704 0.304715
0.675799 0.267470 0.305465
0.003070 0.278480 0.300464
0.017204 0.285224 0.297913
0.680829 0.287279 0.300714
0.002830 0.278422 0.303304
0.674193 0.290807 0.297420
-0.008176 0.311062 0.290112
0.002719 0.319212 0.298401
0.675285 0.301257 0.288791
0.703295 0.313439 0.293708
0.003438 0.326891 0.312411
0.675136 0.317124 0.330830
0.003136 0.325630 0.317204
0.675918 0.334036 0.311362
-0.005255 0.356408 0.302896
0.681356 0.363300 0.313520
-0.000319 0.341343 0.299118
0.008840 0.370643 0.302490
0.005729 0.388846 0.293705
0.669346 0.396686 0.308478
-0.000498 0.381836 0.299568
0.680938 0.398734 0.299887
-0.001709 0.406720 0.296814
0.676303 0.410074 0.278841
0.013423 0.403353 0.314043
0.689042 0.433407 0.300499
0.001359 0.411688 0.300654
-0.008383 0.428364 0.309304
0.006473 0.433939 0.302152
0.657763 0.440149 0.303785
0.002033 0.440527 0.302143
0.676884 0.448312 0.305754
-0.004778 0.457918 0.310807
0.690441 0.475235 0.305204
-0.007515 0.465317 0.305998
0.681340 0.457691 0.297275
0.686749 0.470340 0.295316
-0.002134 0.489655 0.296718
0.009902 0.490638 0.305633
0.681225 0.495324 0.317320
0.004037 0.494275 0.311359
0.683465 0.513427 0.311590
0.682401 0.498607 0.311223
-0.010392 0.519793 0.299815
0.680496 0.524967 0.307088
0.667333 0.523211 0.300484
0.008701 0.525744 0.315849
0.684225 0.546142 0.296631
-0.012677 0.540251 0.294033
0.669018 0.546744 0.316580
0.015724 0.553508 0.303164
-0.005469 0.556298 0.313829
0.685706 0.564550 0.316671
0.005442 0.537023 0.299565
0.675324 0.563762 0.299154
0.684999 0.574052 0.310986
0.007565 0.583402 0.304184
0.677008 0.576070 0.303848
0.009893 0.582499 0.303959
0.005232 0.598956 0.302490
0.670572 0.592038 0.313160
0.009289 0.588058 0.305591
0.665129 0.616405 0.314325
0.008784 0.611094 0.314698
0.656178 0.624393 0.295150
0.011788 0.609286 0.317887
0.654441 0.621161 0.297007
0.015300 0.632614 0.319711
0.030995 0.630459 0.302252
0.039866 0.640402 0.299656
0.656165 0.634968 0.287752
0.640531 0.635524 0.304605
0.627874 0.676031 0.295995
0.029154 0.656120 0.296705
0.618305 0.659955 0.308432
0.606742 0.668716 0.313827
0.051085 0.670007 0.298092
0.603420 0.673020 0.302363
0.059690 0.678889 0.312206
0.052368 0.660746 0.310802
0.578608 0.678460 0.302405
0.575659 0.661676 0.311989
0.078228 0.688305 0.298845
0.546164 0.679936 0.309754
0.545610 0.676131 0.306869
0.563544 0.691485 0.300986
0.519757 0.698177 0.295024
0.096479 0.689943 0.314052
0.083544 0.681177 0.315043
0.520634 0.685304 0.289726
0.514530 0.673600 0.301405
0.112566 0.690501 0.295165
0.470162 0.698633 0.317179
0.477346 0.700094 0.306176
0.162626 0.682508 0.302244
0.157710 0.706849 0.314254
0.158728 0.696600 0.294377
0.466446 0.704817 0.302218
0.478842 0.711156 0.313059
0.187338 0.712274 0.314811
0.207729 0.709269 0.302548
0.228259 0.723803 0.302965
0.444823 0.727411 0.319237
0.243308 0.742127 0.298057
0.452329 0.745253 0.300422
0.248640 0.732287 0.293385
0.435715 0.762744 0.304160
0.428028 0.755138 0.307394
0.256603 0.766256 0.306231
0.263712 0.775190 0.304843
0.420538 0.773036 0.298566
0.306508 0.782153 0.309817
0.256431 0.765143 0.308398
0.426801 0.793673 0.300893
0.260774 0.779315 0.298756
0.431437 0.790915 0.291215
0.296133 0.801003 0.320176
0.263784 0.804549 0.299136
0.423605 0.811287 0.307187
0.275530 0.805338 0.321408
0.413845 0.824704 0.306055
0.262309 0.820471 0.320994
0.305139 0.819041 0.305169
0.418731 0.815114 0.287786
0.297605 0.827421 0.314831
0.258415 0.816900 0.311168
0.426201 0.841400 0.308521
0.253696 0.828118 0.311728
0.405241 0.835326 0.315707
0.291020 0.835175 0.304024
0.255386 0.836549 0.299171
0.286659 0.852826 0.302226
0.291324 0.835749 0.301323
0.268445 0.860190 0.291785
0.299891 0.855647 0.308389
0.302682 0.864762 0.298704
0.292851 0.836577 0.319994
0.286624 0.853067 0.300970
0.305468 0.861453 0.299449
0.297774 0.864502 0.309097
0.248154 0.864681 0.309007
0.426127 0.885470 0.314799
0.308248 0.867843 0.298523
0.269824 0.867233 0.310749
0.423399 0.864396 0.317480
0.311248 0.872254 0.311306
0.307089 0.891265 0.294685
0.289481 0.873238 0.301905
0.429607 0.891678 0.306266
0.378582 0.896979 0.304783
0.304162 0.889553 0.310233
0.304136 0.875539 0.297668
0.304545 0.897404 0.299184
0.436086 0.903180 0.309621
0.388658 0.891933 0.312448
0.268025 0.916800 0.311001
0.429724 0.902821 0.300956
0.379157 0.928891 0.310976
0.299423 0.907457 0.312146
0.441705 0.932291 0.306820
0.289078 0.913782 0.298327
0.261555 0.911218 0.314785
0.312626 0.929517 0.300560
0.258354 0.919083 0.295870
0.389789 0.925675 0.320116
0.288992 0.934414 0.287150
0.424415 0.938489 0.288744
0.297709 0.939885 0.309314
0.257644 0.946495 0.303223
0.430539 0.955009 0.309750
0.277813 0.945971 0.303147
0.256994 0.943726 0.307297
0.281165 0.928812 0.310597
0.438510 0.954062 0.313787
0.303271 0.964460 0.309520
0.389270 0.955446 0.297082
0.246991 0.957448 0.313430
0.437530 0.963017 0.288225
0.379985 0.962033 0.306729
0.291116 0.974686 0.305258
0.387048 0.979329 0.282059
0.291145 0.971098 0.300136
0.433938 0.970412 0.298499
0.384790 0.984320 0.285333
0.242090 0.987207 0.301318
0.439715 0.986225 0.301632
0.382155 0.972513 0.300903
0.284607 0.980758 0.292760
0.432730 0.986130 0.305778
0.399120 0.987812 0.299514
0.404095 0.987769 0.301916
0.258460 0.988350 0.314429
0.270100 0.999712 0.297269
0.262421 0.983372 0.308894
0.266869 0.989501 0.294336
0.259505 0.993779 0.300801
0.261465 0.996786 0.314236
0.650877 0.003018 0.313884
0.030418 0.000914 0.322147
0.020684 -0.010330 0.306503
0.424076 -0.013701 0.306940
0.414669 0.013977 0.307553
0.148302 0.008660 0.288465
0.041524 0.018137 0.309918
0.665103 0.020703 0.307245
0.389315 0.020763 0.299609
0.173685 0.012985 0.300019
0.671256 0.010861 0.305533
0.381466 0.023935 0.307200
0.051505 0.010064 0.313636
0.401768 0.019107 0.316447
0.654326 0.025332 0.309423
0.381938 0.030568 0.309199
0.016136 0.025438 0.297703
0.373638 0.035702 0.322253
0.355217 0.042642 0.299665
0.659078 0.050654 0.305906
0.341588 0.033872 0.315277
0.344523 0.048593 0.302952
0.336511 0.039644 0.304440
0.325802 0.041148 0.291411
0.023174 0.040086 0.302604
0.360057 0.050461 0.308425
0.330986 0.046133 0.306344
0.026955 0.050247 0.317242
0.325657 0.044000 0.297133
0.332205 0.058570 0.303490
0.020477 0.058797 0.293989
0.676301 0.052675 0.318524
0.324754 0.054090 0.310491
0.019408 0.055195 0.298614
0.685568 0.061365 0.309588
0.022599 0.066833 0.303300
0.673433 0.068465 0.303913
0.016206 0.067123 0.311415
0.668263 0.078179 0.321346
0.009449 0.094303 0.310566
0.669402 0.086693 0.298320
0.678139 0.097711 0.314700
0.004743 0.108681 0.294061
0.663581 0.096423 0.310879
-0.004912 0.122990 0.300697
0.677828 0.116346 0.307754
0.004008 0.112764 0.307960
0.671159 0.134489 0.299222
0.002775 0.144135 0.307588
0.014681 0.140674 0.312655
-0.009223 0.147092 0.293352
0.704209 0.148780 0.310170
0.680415 0.161124 0.305236
-0.016444 0.165457 0.302799
0.673745 0.182412 0.320895
-0.004685 0.165868 0.309688
0.006002 0.174495 0.308205
0.696656 0.182548 0.302234
0.006820 0.175088 0.321984
0.681180 0.198463 0.316701
-0.007493 0.191701 0.313007
0.669133 0.191426 0.312121
0.658064 0.198668 0.296942
0.680230 0.214062 0.303102
0.012925 0.208448 0.301331
-0.001024 0.226795 0.304449
0.684930 0.213519 0.306363
-0.002369 0.219381 0.309847
0.682387 0.226792 0.304180
0.684008 0.233813 0.305439
0.011284 0.230365 0.310883
0.682152 0.251857 0.305293
0.007162 0.250488 0.305907
0.656552 0.242961 0.309989
-0.000039 0.269396 0.310111
0.673569 0.255517 0.316116
0.674522 0.276614 0.320914
0.009946 0.280235 0.306331
-0.007473 0.279201 0.312725
0.676718 0.299850 0.291607
0.293118 0.295926 0.298913
0.297984 0.310988 0.305449
0.014456 0.301504 0.314215
0.001149 0.308078 0.305490
0.674760 0.320519 0.316919
0.009704 0.307891 0.317465
0.001399 0.311430 0.305655
0.680866 0.327801 0.298432
-0.009774 0.331275 0.311756
0.688570 0.345917 0.301205
0.004423 0.327240 0.304347
0.678073 0.340868 0.304066
0.004511 0.356204 0.311785
0.678427 0.373721 0.321682
0.006689 0.371435 0.301554
0.690995 0.362773 0.305272
0.686838 0.372892 0.306522
0.021981 0.383687 0.285954
0.688870 0.388805 0.306080
0.672473 0.376517 0.297842
0.011243 0.401793 0.301156
-0.008421 0.411103 0.308791
0.685728 0.408484 0.316200
0.683544 0.418498 0.300331
0.001662 0.419100 0.314731
0.014302 0.431215 0.316792
0.681798 0.422285 0.303834
0.690313 0.431905 0.308013
0.001057 0.434416 0.314800
0.688376 0.451072 0.316958
-0.003813 0.449635 0.310002
0.682464 0.449768 0.320042
-0.000337 0.457928 0.311132
0.682200 0.448859 0.310026
0.015116 0.467464 0.300997
0.683321 0.472904 0.313388
0.002161 0.492555 0.298417
0.678876 0.480679 0.309707
0.007494 0.470321 0.311925
0.659604 0.487378 0.297280
-0.002567 0.496648 0.300365
0.671616 0.503319 0.310513
-0.001874 0.506164 0.312260
0.678237 0.508925 0.312182
0.006609 0.507520 0.298992
0.671160 0.530373 0.310696
0.671836 0.524534 0.303064
0.001382 0.518300 0.307857
0.684836 0.529887 0.297745
0.008728 0.533020 0.309092
0.000204 0.539802 0.319950
0.671737 0.555354 0.329481
0.014297 0.547939 0.316117
0.672092 0.567479 0.311713
0.669462 0.586119 0.310798
0.009908 0.577007 0.324201
0.679653 0.585954 0.314205
0.019542 0.576836 0.303705
0.677510 0.578652 0.312663
0.687563 0.582131 0.309026
0.017945 0.583707 0.311018
0.673772 0.594639 0.304027
0.007740 0.588341 0.302266
0.004345 0.613798 0.305945
0.669937 0.610810 0.308722
0.009854 0.613820 0.306452
0.659647 0.600183 0.306353
0.012903 0.625765 0.296391
0.648162 0.623009 0.309269
0.667597 0.638906 0.310590
0.008655 0.643722 0.307771
0.032972 0.624075 0.308127
0.025340 0.637212 0.309745
0.036492 0.647611 0.307672
0.642642 0.660763 0.314071
0.634574 0.646119 0.311327
0.048238 0.660314 0.310936
0.632009 0.656813 0.306182
0.031789 0.665472 0.295781
0.610092 0.688701 0.302934
0.054759 0.649590 0.305620
0.584264 0.667201 0.305242
0.608763 0.679676 0.306480
0.587542 0.681070 0.318537
0.074523 0.684205 0.311179
0.069367 0.682036 0.301137
0.558209 0.700383 0.304516
0.083684 0.679014 0.315421
0.088669 0.690295 0.316906
0.095364 0.680129 0.288351
0.527374 0.694234 0.322228
0.524632 0.685433 0.319768
0.498330 0.695233 0.305627
0.111417 0.699398 0.303583
0.100110 0.700790 0.298713
0.503384 0.710286 0.314619
0.131745 0.705433 0.293382
0.114533 0.698049 0.323919
0.487901 0.694334 0.314472
0.143040 0.695668 0.314462
0.159843 0.694209 0.309467
0.148798 0.712574 0.316315
0.147974 0.694706 0.300758
0.476144 0.701432 0.308805
0.205005 0.708060 0.310485
0.183209 0.709526 0.309813
0.170137 0.696135 0.306677
0.454919 0.720299 0.311907
0.186354 0.710490 0.297439
0.438228 0.714567 0.308540
0.214264 0.720996 0.306063
0.451840 0.731781 0.296794
0.234972 0.719662 0.291009
0.228288 0.738414 0.307811
0.447649 0.739976 0.306842
0.433294 0.759853 0.312116
0.251055 0.762477 0.322439
0.436228 0.768018 0.299441
0.256965 0.762687 0.314705
0.449836 0.766939 0.300649
0.245198 0.760767 0.310360
0.428726 0.765189 0.298174
0.258028 0.772035 0.307270
0.311798 0.786610 0.311005
0.268591 0.786879 0.291027
0.294804 0.796463 0.313372
0.246011 0.792702 0.305435
0.419963 0.781879 0.322507
0.424344 0.789538 0.309948
0.302294 0.800741 0.308930
0.264138 0.787894 0.305269
0.415661 0.798856 0.300001
0.298757 0.816089 0.310439
0.260602 0.802249 0.304312
0.423194 0.809661 0.311236
0.304370 0.832093 0.289180
0.298891 0.817651 0.307752
0.262414 0.804414 0.302684
0.430004 0.813705 0.315976
0.296167 0.824838 0.292492
0.302016 0.827673 0.294448
0.263280 0.822765 0.298399
0.417425 0.824500 0.307056
0.411269 0.838453 0.293620
0.290234 0.831165 0.316458
0.258537 0.845244 0.316641
0.288310 0.846550 0.314056
0.259057 0.847807 0.314848
0.423873 0.835040 0.318234
0.268256 0.854901 0.303650
0.434760 0.845913 0.294374
0.290062 0.842882 0.303039
0.416180 0.869213 0.297016
0.295775 0.867254 0.309861
0.260289 0.874956 0.319514
0.278632 0.880385 0.308521
0.433231 0.866697 0.302843
0.255449 0.861631 0.298989
0.301161 0.867985 0.301753
0.259688 0.886000 0.328910
0.423074 0.890149 0.309907
0.294445 0.878494 0.322345
0.271398 0.890826 0.304141
0.421752 0.884388 0.319094
0.298296 0.880579 0.307675
0.296473 0.889204 0.329905
0.286960 0.889593 0.311117
0.264843 0.895006 0.287821
0.374743 0.901937 0.305392
0.280375 0.891903 0.313480
0.272827 0.901765 0.302318
0.418596 0.905737 0.300398
0.385159 0.893083 0.323508
0.296403 0.909328 0.307787
0.433055 0.912299 0.330060
0.385467 0.914027 0.313662
0.292590 0.904166 0.300364
0.251585 0.910382 0.294684
0.400179 0.936368 0.326435
0.257868 0.917824 0.298108
0.385955 0.934574 0.317779
0.289872 0.902342 0.302553
0.423415 0.921198 0.314661
0.313525 0.926253 0.299736
0.294233 0.945571 0.301863
0.262855 0.938952 0.298999
0.442182 0.944137 0.290222
0.255547 0.935455 0.313401
0.384746 0.937417 0.311909
0.400640 0.939600 0.322952
0.284567 0.953618 0.312584
0.429780 0.957512 0.323323
0.384262 0.945151 0.303671
0.424608 0.958273 0.311139
0.379524 0.941991 0.307321
0.281119 0.953604 0.311608
0.244453 0.964349 0.302388
0.438360 0.959008 0.320985
0.277003 0.967370 0.308076
0.233949 0.961561 0.311940
0.398947 0.971604 0.297595
0.294925 0.971250 0.314593
0.436073 0.972723 0.318049
0.232906 0.978435 0.305637
0.380818 0.987165 0.320398
0.297289 0.994104 0.316735
0.444008 0.980702 0.302621
0.399972 0.967366 0.307380
0.273209 0.978475 0.300435
0.251697 0.986312 0.320851
0.414235 0.985844 0.305528
0.408176 0.987197 0.294855
0.281253 0.981452 0.317019
0.242146 1.000090 0.324039
0.248256 0.991351 0.308035
0.246804 0.997258 0.306557
0.425706 -0.002358 0.308388
0.644991 0.021157 0.317688
0.404615 0.007100 0.318874
0.050658 0.010586 0.316121
0.018491 0.003654 0.332433
0.645058 0.008920 0.329517
0.398749 0.011126 0.312590
0.364419 0.019318 0.314981
0.038098 0.032327 0.303842
0.650359 0.024024 0.311675
0.374676 0.032563 0.303511
0.019848 0.047157 0.313267
0.656907 0.045192 0.309254
0.362415 0.039137 0.330835
0.365885 0.030418 0.300229
0.362271 0.034872 0.313010
0.015760 0.044940 0.325748
0.665845 0.037331 0.303032
0.345766 0.043463 0.321381
0.656209 0.066148 0.315108
0.338477 0.047885 0.307486
0.035135 0.067951 0.310464
0.663617 0.075812 0.331622
0.320157 0.044473 0.310946
0.330928 0.059498 0.319207
0.012368 0.055556 0.310980
0.010256 0.062157 0.307439
0.657963 0.082262 0.326395
0.670746 0.087378 0.316256
0.000664 0.097399 0.314680
0.678995 0.102740 0.330372
0.669686 0.119110 0.312774
-0.001062 0.105159 0.312683
0.005324 0.112365 0.328342
0.679220 0.105707 0.315476
-0.003958 0.116214 0.315098
0.686871 0.132091 0.309969
-0.012002 0.132125 0.308594
0.679349 0.134481 0.320137
-0.003600 0.145137 0.314125
0.682776 0.134475 0.333023
0.676952 0.149653 0.312394
0.679537 0.148228 0.324028
0.677562 0.169696 0.312645
-0.007300 0.156521 0.324889
0.689756 0.183519 0.325360
0.021323 0.183540 0.297136
0.681122 0.183002 0.308323
0.006301 0.200808 0.322609
0.013300 0.201942 0.297303
0.666941 0.206076 0.306199
0.678830 0.204012 0.315165
0.676046 0.215637 0.306382
0.005260 0.234759 0.297760
0.669231 0.226445 0.303464
-0.001483 0.234211 0.311678
0.672713 0.250660 0.318804
0.010759 0.250653 0.306317
0.673201 0.257501 0.297490
0.016212 0.260884 0.307289
0.680277 0.260545 0.306187
-0.001368 0.281449 0.312079
-0.007332 0.287866 0.322500
0.668817 0.271081 0.316116
-0.002571 0.276389 0.304667
0.684086 0.288930 0.313770
0.673094 0.308612 0.316333
0.271501 0.279655 0.315960
-0.007713 0.280050 0.317749
0.276941 0.295261 0.317408
0.672374 0.307264 0.313226
0.317771 0.316700 0.313704
0.263436 0.290583 0.316168
0.010830 0.315896 0.327631
0.683864 0.328910 0.323728
0.013905 0.321559 0.313431
0.688531 0.327498 0.300500
0.012689 0.338273 0.311001
0.686124 0.345411 0.306521
0.006970 0.339643 0.306544
0.679238 0.352313 0.312647
0.007375 0.362154 0.319607
-0.006306 0.355907 0.311556
0.007475 0.371594 0.315521
0.004104 0.360950 0.316498
-0.009289 0.378300 0.315412
0.689727 0.384036 0.314731
0.002280 0.400346 0.321947
0.697377 0.409297 0.308800
0.002757 0.407908 0.308375
-0.010184 0.423436 0.299161
0.682496 0.410363 0.300070
-0.000031 0.425865 0.321497
0.689126 0.430933 0.310428
0.010922 0.428989 0.330591
0.679508 0.447143 0.319880
0.001249 0.447095 0.312799
0.667323 0.452408 0.310348
0.681278 0.468068 0.302325
0.012423 0.462124 0.331238
0.685977 0.468345 0.303674
-0.002935 0.458250 0.306880
0.680032 0.479642 0.305170
0.685415 0.494404 0.307442
0.006902 0.481859 0.331183
0.015989 0.506335 0.304623
0.674694 0.496098 0.324815
0.013542 0.512697 0.302770
0.681182 0.498049 0.301615
-0.009705 0.516919 0.310477
0.670960 0.524058 0.313598
-0.001550 0.529318 0.325512
0.683964 0.523082 0.309286
0.664635 0.544460 0.307829
-0.005813 0.535006 0.312598
0.000643 0.547201 0.320341
-0.011244 0.560003 0.306546
0.012222 0.571589 0.302030
0.006942 0.571877 0.315832
0.689140 0.578122 0.303793
0.670630 0.590940 0.311181
0.020969 0.597477 0.297773
0.682794 0.581040 0.306861
0.011913 0.593047 0.309009
0.010272 0.602593 0.318974
0.684726 0.595210 0.307107
0.650200 0.629196 0.318066
0.026037 0.624173 0.312136
0.664235 0.640874 0.305305
0.650893 0.633943 0.318085
0.020621 0.621960 0.309588
0.636757 0.640727 0.305197
0.016187 0.636469 0.317392
0.637926 0.652309 0.324314
0.020018 0.647758 0.297511
0.053039 0.661732 0.310191
0.623245 0.658551 0.304903
0.614696 0.654763 0.311431
0.064296 0.654303 0.309142
0.624419 0.672307 0.295551
0.600578 0.666759 0.333405
0.591442 0.696737 0.317146
0.070680 0.667910 0.313269
0.072207 0.656014 0.310074
0.582889 0.672351 0.313731
0.085962 0.679244 0.314254
0.574699 0.680725 0.318719
0.556752 0.692366 0.309279
0.564686 0.662507 0.318499
0.546697 0.693481 0.312724
0.537611 0.697125 0.323014
0.093555 0.688093 0.311254
0.528120 0.695751 0.315027
0.107780 0.685714 0.331063
0.499423 0.695756 0.315218
0.499441 0.705267 0.304574
0.492146 0.699377 0.317815
0.114905 0.695460 0.321265
0.491985 0.689912 0.304692
0.467029 0.709744 0.304028
0.168475 0.698054 0.304976
0.172818 0.722350 0.315379
0.458386 0.711623 0.314067
0.210205 0.719696 0.303382
0.197465 0.709932 0.313378
0.445674 0.714481 0.317956
0.211613 0.721808 0.303924
0.462282 0.720407 0.317184
0.231500 0.712387 0.310772
0.458050 0.729207 0.310630
0.242446 0.732146 0.310048
0.444469 0.741206 0.312191
0.229595 0.739718 0.318181
0.445820 0.739447 0.304899
0.242788 0.749183 0.311643
0.246567 0.760401 0.323102
0.243424 0.765921 0.316962
0.435362 0.764920 0.324942
0.255226 0.761512 0.310761
0.426340 0.775179 0.317259
0.297216 0.778453 0.312329
0.249126 0.781887 0.308989
0.439341 0.776822 0.305760
0.428414 0.789937 0.321193
0.308975 0.790507 0.303747
0.253045 0.797888 0.322666
0.304466 0.801805 0.324646
0.252235 0.805700 0.298174
0.427011 0.809856 0.308553
0.287855 0.799956 0.308346
0.262458 0.813836 0.307404
0.412592 0.818529 0.305755
0.426091 0.826938 0.309795
0.276919 0.819509 0.322073
0.252339 0.809519 0.327567
0.291865 0.832830 0.302704
0.260780 0.821995 0.318255
0.421945 0.837411 0.315932
0.296663 0.821283 0.312960
0.286757 0.856445 0.307356
0.427929 0.852741 0.322251
0.425754 0.843468 0.300098
0.299024 0.847560 0.324540
0.289445 0.852781 0.308457
0.434020 0.853607 0.306252
0.291198 0.863120 0.314741
0.260191 0.851832 0.324789
0.292871 0.883963 0.326233
0.289508 0.868776 0.312811
0.431173 0.890319 0.298317
0.255733 0.879388 0.305347
0.257070 0.905068 0.312532
0.419686 0.884512 0.316630
0.426556 0.893694 0.309456
0.289073 0.894214 0.314348
0.250641 0.899287 0.306204
0.431291 0.894056 0.293975
0.258249 0.912502 0.315339
0.297733 0.909702 0.320301
0.433463 0.922271 0.299268
0.279387 0.929289 0.304381
0.259504 0.920820 0.337810
0.441788 0.931533 0.311771
0.409124 0.924129 0.305323
0.284065 0.930852 0.315975
0.400101 0.929967 0.297273
0.277657 0.925528 0.318404
0.252287 0.927258 0.316357
0.432308 0.938592 0.319685
0.383989 0.943611 0.316975
0.269329 0.951542 0.308665
0.415441 0.936086 0.320638
0.247504 0.960860 0.313155
0.443519 0.936179 0.300865
0.250379 0.953910 0.321500
0.389298 0.959177 0.334108
0.295100 0.978350 0.319898
0.438545 0.952096 0.311777
0.268110 0.966848 0.304356
0.225549 0.953654 0.323858
0.424509 0.973844 0.303717
0.400551 0.981221 0.310995
0.287692 0.979165 0.316619
0.404850 0.979055 0.323450
0.267026 0.973421 0.304015
0.427043 0.984479 0.322658
0.400773 0.986078 0.302834
0.235433 0.971890 0.313306
0.429007 0.976969 0.329406
0.427140 0.976303 0.314537
0.397638 0.963467 0.304631
0.273639 0.980921 0.323128
0.265466 1.002942 0.320605
0.246559 0.993787 0.324963
0.259136 1.000814 0.309783
0.650613 0.008044 0.315309
0.034830 -0.000303 0.320486
0.027046 0.007177 0.312814
0.440746 0.008504 0.319139
0.398987 0.000493 0.307245
0.404524 0.009974 0.317393
0.016496 0.023625 0.306486
0.394038 0.027797 0.313250
0.045924 0.016075 0.310464
0.021588 0.031035 0.317063
0.654860 0.013189 0.319873
0.377527 0.016399 0.309532
0.396245 0.011169 0.316689
0.642095 0.031646 0.321894
0.387103 0.033534 0.317072
0.372087 0.053107 0.307152
0.011487 0.022633 0.316924
0.648679 0.039801 0.311158
0.355003 0.035668 0.315698
0.356770 0.047860 0.314832
0.016861 0.032384 0.322573
0.351123 0.031485 0.322317
0.354399 0.048781 0.313548
0.021167 0.054335 0.307266
0.340903 0.054276 0.311908
0.677679 0.078921 0.302582
0.014130 0.066154 0.313873
0.681380 0.074579 0.323008
0.676854 0.075328 0.320056
0.012966 0.085933 0.325308
0.663625 0.084184 0.323125
0.013494 0.080583 0.315287
0.678919 0.103902 0.314910
0.001664 0.093572 0.315433
0.682693 0.102609 0.312688
0.002372 0.112638 0.318006
0.675403 0.119254 0.321284
0.002426 0.121688 0.316388
0.679106 0.128633 0.312431
0.004197 0.134884 0.322015
-0.001453 0.139001 0.343887
0.690781 0.143350 0.314580
0.002564 0.138165 0.311501
0.672066 0.140640 0.308000
-0.002653 0.161073 0.324418
0.658641 0.151103 0.306975
0.691082 0.163733 0.318581
0.004840 0.167213 0.328177
0.676025 0.171751 0.317707
-0.000972 0.168364 0.316229
0.685944 0.183071 0.325719
-0.001351 0.168589 0.321250
0.674004 0.191670 0.331310
0.006703 0.187320 0.321020
0.664828 0.194098 0.319714
0.000751 0.208018 0.319029
0.694161 0.214443 0.306204
-0.003736 0.223974 0.322500
0.004686 0.221322 0.318068
-0.013418 0.226639 0.314383
0.689471 0.229271 0.311283
0.000172 0.221822 0.320874
0.002707 0.234692 0.319901
0.675467 0.248788 0.313138
-0.001338 0.252494 0.331042
0.685874 0.259774 0.325478
0.003455 0.255070 0.328297
-0.002982 0.286774 0.303548
0.690572 0.271328 0.314077
-0.007040 0.275613 0.324193
0.016678 0.280953 0.311283
0.687605 0.273396 0.319561
-0.002425 0.283860 0.333417
0.683640 0.305346 0.306726
0.005279 0.280474 0.329999
0.302326 0.289440 0.316443
0.283252 0.302741 0.330778
-0.001989 0.321853 0.318514
0.680047 0.305026 0.320527
0.281219 0.307367 0.310899
-0.008853 0.296358 0.327479
0.690314 0.320080 0.327269
0.012041 0.314386 0.317541
-0.005364 0.343723 0.305063
0.672599 0.344859 0.321901
0.000733 0.332765 0.317513
-0.000030 0.328865 0.319957
0.695222 0.346226 0.312183
0.695900 0.362164 0.318883
-0.008936 0.350995 0.331323
0.686473 0.371404 0.324993
0.009040 0.380013 0.332197
0.669182 0.370445 0.318016
0.003994 0.391539 0.314577
0.000836 0.393434 0.328458
0.668604 0.386113 0.321263
0.017420 0.387137 0.318911
0.675337 0.396281 0.330393
-0.003607 0.402069 0.322502
0.676412 0.399925 0.317085
-0.004710 0.416576 0.314798
0.679650 0.433349 0.311184
0.680539 0.441646 0.323507
-0.009529 0.434191 0.318362
0.678370 0.445325 0.328670
-0.001147 0.462002 0.325746
0.683340 0.455883 0.306778
0.677344 0.473143 0.313937
0.001413 0.445191 0.306637
0.681700 0.478199 0.325193
0.000320 0.466319 0.318774
-0.013589 0.480225 0.322758
0.682651 0.485098 0.315770
0.677794 0.485757 0.335786
-0.006560 0.501420 0.332341
0.667458 0.492485 0.321545
0.008275 0.503002 0.321834
0.677707 0.512088 0.314794
0.000936 0.515808 0.310754
0.667686 0.538338 0.317720
-0.001512 0.535106 0.313942
0.004798 0.526419 0.330871
0.673804 0.539871 0.315781
-0.002601 0.548517 0.316301
0.682408 0.536076 0.304841
0.678405 0.552064 0.321472
0.678641 0.576224 0.314996
-0.004534 0.566765 0.314033
-0.004034 0.577335 0.315261
-0.012312 0.575753 0.309752
0.692181 0.585258 0.331047
0.687706 0.590148 0.309036
0.669152 0.596733 0.330387
0.007457 0.580287 0.312360
0.669312 0.599271 0.323846
0.657684 0.602967 0.325206
0.000684 0.603677 0.317797
0.685715 0.611851 0.323556
-0.002355 0.619651 0.314916
0.655437 0.617747 0.327694
0.018998 0.635172 0.315811
0.657024 0.638834 0.299837
0.644657 0.641049 0.317456
0.017675 0.628665 0.316661
0.032206 0.631637 0.306522
0.632304 0.644774 0.316743
0.038442 0.638926 0.321339
0.634157 0.647340 0.323887
0.039912 0.673708 0.313719
0.058552 0.666354 0.305504
0.609512 0.657643 0.311117
0.603002 0.652272 0.334482
0.059883 0.660706 0.328670
0.611007 0.682502 0.323608
0.598424 0.668111 0.325093
0.569128 0.666201 0.314403
0.070502 0.665585 0.312921
0.086321 0.693313 0.324008
0.546792 0.701706 0.321839
0.092978 0.672788 0.327595
0.537800 0.687133 0.324735
0.539993 0.698405 0.312802
0.521232 0.690395 0.323894
0.111132 0.693357 0.312668
0.497880 0.697498 0.335639
0.499448 0.686582 0.315665
0.496918 0.696569 0.333083
0.131966 0.699170 0.328409
0.489139 0.713093 0.320432
0.479128 0.713320 0.317147
0.167204 0.690391 0.305459
0.154879 0.699713 0.317813
0.137514 0.704456 0.329005
0.133759 0.683607 0.326996
0.482255 0.695148 0.309149
0.198042 0.698158 0.314515
0.188820 0.705202 0.319066
0.180977 0.711476 0.321659
0.180822 0.706077 0.314455
0.204410 0.715582 0.332799
0.227747 0.700420 0.327932
0.177009 0.725647 0.321852
0.444552 0.720864 0.316868
0.231278 0.727802 0.340730
0.435296 0.728292 0.326643
0.230985 0.720595 0.321754
0.448615 0.737053 0.310069
0.246878 0.731012 0.312268
0.444327 0.741486 0.326827
0.244803 0.755605 0.318693
0.442789 0.773387 0.310513
0.253814 0.755187 0.310389
0.293287 0.788753 0.317367
0.407889 0.777052 0.316709
0.252444 0.764529 0.326698
0.430869 0.788248 0.320706
0.289723 0.777107 0.327814
0.255841 0.787079 0.316196
0.289178 0.790299 0.321437
0.430381 0.797037 0.319972
0.421107 0.797678 0.325431
0.244440 0.787034 0.322838
0.254284 0.803945 0.334947
0.254133 0.808218 0.310315
0.304715 0.810326 0.315652
0.277985 0.814257 0.337844
0.430515 0.832625 0.317673
0.254714 0.818391 0.317177
0.277406 0.833964 0.308882
0.428147 0.837201 0.316982
0.423429 0.852139 0.330907
0.253585 0.830850 0.312623
0.410465 0.864453 0.318675
0.273201 0.840247 0.320044
0.267482 0.855086 0.311559
0.426104 0.863744 0.317836
0.297877 0.870424 0.330209
0.421838 0.870597 0.310909
0.257518 0.861133 0.321708
0.278673 0.883243 0.325208
0.264216 0.885275 0.322510
0.420817 0.893188 0.317726
0.286167 0.883029 0.323166
0.292607 0.892494 0.311571
0.260673 0.881783 0.302740
0.427297 0.886021 0.324812
0.288798 0.880833 0.326649
0.264715 0.901468 0.311691
0.422822 0.917471 0.317155
0.297547 0.913588 0.326416
0.377695 0.905828 0.316522
0.288935 0.929327 0.319767
0.254034 0.897143 0.316051
0.442691 0.911217 0.313169
0.395851 0.916174 0.323392
0.283451 0.924707 0.319274
0.383861 0.925077 0.312269
0.260688 0.937565 0.319058
0.426092 0.926019 0.306805
0.301203 0.935957 0.322030
0.378760 0.934986 0.323843
0.276045 0.928506 0.313230
0.246954 0.941757 0.323127
0.430174 0.941475 0.311775
0.285031 0.946631 0.324316
0.250950 0.925555 0.316379
0.396084 0.946250 0.310709
0.442471 0.972379 0.324720
0.282899 0.959797 0.307143
0.241265 0.943571 0.321957
0.382942 0.954824 0.316746
0.280542 0.967119 0.311998
0.441774 0.965929 0.314968
0.239538 0.968871 0.329564
0.411180 0.973250 0.309429
0.388545 0.972037 0.318694
0.288284 0.981082 0.328760
0.240920 0.986310 0.320561
0.398797 0.983525 0.321455
0.276161 0.981025 0.312415
0.268924 1.002069 0.313438
0.253413 0.986460 0.313162
0.254351 0.995756 0.321253
0.253597 1.006256 0.322972
0.655286 -0.002554 0.326627
0.030123 0.000967 0.322781
0.431544 -0.004392 0.322293
0.434037 0.023087 0.320250
0.412069 0.008275 0.322656
0.663632 0.006449 0.319125
0.416236 0.007604 0.314218
0.038395 0.021235 0.315622
0.021651 0.018748 0.346334
0.041004 0.012519 0.325395
0.042350 0.032614 0.320249
0.658489 0.012805 0.332850
0.403532 0.028242 0.335514
0.655590 0.027312 0.345105
0.394931 0.023167 0.311498
0.035292 0.029995 0.318478
0.370354 0.034517 0.316974
0.674325 0.023887 0.319079
0.377357 0.051849 0.332972
0.014989 0.038363 0.328499
0.372401 0.053118 0.323814
0.666086 0.044702 0.323879
0.373763 0.046775 0.321245
0.356739 0.049059 0.332899
0.347546 0.062804 0.309197
0.667469 0.042403 0.317592
0.361925 0.047083 0.334278
0.025585 0.067724 0.326986
0.675390 0.059946 0.325938
0.359282 0.072008 0.330592
0.023045 0.051910 0.314982
0.367628 0.068761 0.335797
0.024011 0.075112 0.315304
0.670015 0.088076 0.319705
0.026354 0.061435 0.313614
0.008791 0.078007 0.319424
0.011955 0.105017 0.319671
0.673491 0.092994 0.319084
0.003019 0.103963 0.325398
0.678295 0.096663 0.335173
-0.002850 0.112522 0.328057
0.677664 0.115560 0.349236
0.007228 0.097333 0.331775
0.692681 0.130176 0.338318
-0.003160 0.134808 0.325352
0.001791 0.146104 0.308216
0.671337 0.154888 0.318519
0.013498 0.154768 0.320607
0.008873 0.159869 0.324603
0.685491 0.150908 0.306851
0.005695 0.145929 0.317873
0.685312 0.168570 0.341414
0.012907 0.168357 0.301613
0.667085 0.179001 0.329505
0.674611 0.193716 0.328033
0.010822 0.175327 0.327142
0.674335 0.185296 0.322382
-0.004890 0.205232 0.303607
0.008529 0.179493 0.336096
0.683123 0.185407 0.329571
0.011752 0.210964 0.313319
0.680206 0.196495 0.327872
0.006488 0.203248 0.342423
0.677204 0.212773 0.317759
0.674288 0.222163 0.333652
0.013594 0.201253 0.312634
0.691514 0.241429 0.318610
0.006260 0.234194 0.317973
0.680213 0.241936 0.317110
0.000306 0.237113 0.319670
0.010509 0.265534 0.328644
0.672229 0.258909 0.323846
0.011587 0.266721 0.327621
0.674858 0.269630 0.329005
0.007870 0.284302 0.313052
0.676229 0.282722 0.331400
0.003230 0.292673 0.315674
0.280113 0.290523 0.338250
0.290553 0.301631 0.316726
0.300380 0.302550 0.299236
0.268744 0.294705 0.325041
0.272032 0.275585 0.319518
0.675851 0.300284 0.321561
0.319010 0.302241 0.320876
0.271779 0.299723 0.318962
-0.004350 0.296302 0.324545
0.684644 0.322658 0.319291
0.004906 0.316594 0.316911
0.676192 0.332447 0.328113
-0.007425 0.330402 0.316508
0.678301 0.328148 0.321284
-0.005300 0.351379 0.337910
-0.001322 0.334775 0.332619
0.674357 0.351214 0.318328
0.007051 0.338653 0.311145
0.680980 0.392085 0.314563
-0.010799 0.383556 0.313352
-0.000351 0.378849 0.317404
0.686867 0.382273 0.317241
0.679417 0.388005 0.327676
0.004047 0.388052 0.321718
0.660557 0.393143 0.324159
-0.001936 0.385056 0.333442
0.674760 0.414649 0.325782
0.007219 0.407151 0.326468
0.669737 0.407229 0.310652
0.664983 0.428638 0.327454
0.006238 0.405811 0.331766
0.679450 0.426022 0.315095
0.018178 0.409155 0.319273
-0.001912 0.446919 0.314109
0.687974 0.447060 0.339139
-0.003592 0.469770 0.325187
0.689363 0.469294 0.316429
-0.008736 0.450700 0.331803
0.679032 0.465467 0.333006
0.687878 0.469443 0.310633
0.017587 0.484697 0.334377
0.675484 0.493576 0.319332
-0.007392 0.499397 0.325716
0.672182 0.486168 0.322034
0.679538 0.509169 0.330361
0.010692 0.507144 0.339503
0.672307 0.518275 0.323908
0.000226 0.524746 0.333377
0.004629 0.526023 0.325354
0.688701 0.518647 0.325948
0.678059 0.535311 0.325595
0.680800 0.548756 0.327665
0.014878 0.537576 0.332927
0.675068 0.538898 0.327403
0.004043 0.547126 0.320496
0.678944 0.565114 0.332823
0.692785 0.559128 0.319141
0.008162 0.554918 0.316780
0.671626 0.557538 0.330266
0.010383 0.573608 0.326398
0.016756 0.566314 0.324681
0.668708 0.592536 0.331243
0.679905 0.590115 0.324036
0.010797 0.602651 0.331997
0.018449 0.613650 0.344255
0.667319 0.613260 0.310131
0.680852 0.608525 0.307693
0.658679 0.617471 0.327079
0.007172 0.627389 0.323147
0.673236 0.620543 0.324617
0.012584 0.623413 0.320714
0.653895 0.625435 0.328730
0.016438 0.628710 0.325698
0.653433 0.635306 0.326698
0.639350 0.660389 0.335255
0.639142 0.657130 0.336184
0.036268 0.656417 0.317885
0.626961 0.623643 0.321269
0.627358 0.646689 0.318310
0.037905 0.654431 0.338719
0.617493 0.660186 0.321861
0.051217 0.669279 0.310298
0.607452 0.663731 0.327892
0.055233 0.666862 0.330725
0.049009 0.661867 0.320280
0.070675 0.673911 0.313482
0.602337 0.680275 0.333010
0.062303 0.674921 0.328532
0.561718 0.691216 0.319034
0.559331 0.674857 0.325870
0.062238 0.692706 0.326448
0.550601 0.688639 0.326655
0.545446 0.690507 0.310572
0.064346 0.685450 0.323619
0.539584 0.684986 0.325241
0.534074 0.700728 0.326034
0.516363 0.691424 0.335354
0.119541 0.697933 0.315399
0.100821 0.679697 0.326780
0.499834 0.694381 0.328050
0.129624 0.698087 0.305123
0.480741 0.695716 0.326394
0.159563 0.711834 0.317764
0.462281 0.707111 0.323502
0.194407 0.710367 0.323452
0.180654 0.698793 0.328285
0.451137 0.710570 0.325436
0.199232 0.724906 0.328646
0.189527 0.702041 0.307506
0.466294 0.715153 0.323233
0.205320 0.716049 0.320283
0.220669 0.748044 0.319453
0.441593 0.742426 0.328681
0.427029 0.746033 0.322837
0.241438 0.749890 0.308193
0.433227 0.771075 0.329832
0.429009 0.753845 0.336239
0.256592 0.750344 0.331153
0.427801 0.773915 0.309738
0.296420 0.785449 0.338098
0.426562 0.783448 0.317386
0.247503 0.790780 0.314217
0.259104 0.786093 0.321296
0.426610 0.807041 0.330787
0.292365 0.802331 0.314034
0.429149 0.788629 0.319541
0.288459 0.817280 0.331813
0.249541 0.807614 0.335047
0.415504 0.800711 0.328548
0.282478 0.810958 0.321478
0.256778 0.818032 0.327780
0.419640 0.813448 0.331329
0.289481 0.813610 0.339806
0.261869 0.820058 0.317155
0.252810 0.815003 0.325485
0.306114 0.826177 0.317866
0.299203 0.816666 0.320165
0.260000 0.839398 0.324036
0.279726 0.825825 0.331273
0.283741 0.841189 0.325877
0.285808 0.853034 0.327926
0.254176 0.841939 0.309417
0.419723 0.854039 0.324641
0.292061 0.861217 0.318418
0.250721 0.851187 0.314778
0.251279 0.860908 0.309541
0.428311 0.859522 0.327349
0.434883 0.878872 0.331458
0.276514 0.870951 0.323172
0.255891 0.865971 0.318298
0.423935 0.867596 0.328589
0.291465 0.872177 0.312812
0.424106 0.885432 0.314647
0.438094 0.887221 0.325771
0.287033 0.886370 0.338274
0.428416 0.887370 0.329021
0.289589 0.896379 0.327140
0.245689 0.907866 0.323304
0.428978 0.896976 0.319798
0.421844 0.933161 0.326432
0.266597 0.917077 0.325643
0.259841 0.926786 0.321754
0.430651 0.917234 0.337464
0.439525 0.940904 0.317026
0.381956 0.939105 0.333747
0.287497 0.933973 0.324550
0.245439 0.933427 0.320105
0.423620 0.941161 0.324793
0.273371 0.945859 0.328078
0.247025 0.928532 0.316858
0.439808 0.956046 0.320002
0.390491 0.950997 0.316037
0.281824 0.944149 0.311089
0.261901 0.955962 0.325368
0.434266 0.963351 0.332939
0.244718 0.957662 0.314868
0.381815 0.952967 0.324505
0.268151 0.967051 0.313563
0.271537 0.963291 0.319991
0.236241 0.979915 0.313740
0.425896 0.966536 0.328791
0.385750 0.968923 0.320894
0.233163 0.967408 0.325806
0.411150 0.973132 0.329176
0.268729 0.972884 0.327490
0.422853 0.974339 0.316441
0.417883 0.982343 0.347542
0.240538 0.977839 0.315934
0.421154 0.981041 0.315752
0.410959 0.984160 0.333393
0.392458 0.992922 0.327730
0.267726 0.988836 0.319695
0.251031 0.994614 0.317444
0.289080 0.989907 0.323497
0.269250 0.997675 0.324661
0.043436 -0.005606 0.336056
0.437174 -0.006161 0.333425
0.420632 0.010806 0.339745
0.405693 0.020655 0.337617
