# .PCD v0.7 - Point Cloud Data file format
VERSION 0.7
FIELDS x y z intensity
SIZE 4 4 4 4
TYPE F F F F
COUNT 1 1 1 1
WIDTH 1716
HEIGHT 1
VIEWPOINT 0 0 0 1 0 0 0
POINTS 1716
DATA ascii
50.657001 -16.080999 6.7309985 46
50.643002 -16.101999 6.7179985 41
50.641998 -16.127001 6.7069983 42
50.612999 -16.142 6.6909986 38
50.639 -16.173 6.6839986 40
46.967999 -15.023001 6.1869984 5
46.862 -15.009001 6.1619987 8
46.859001 -15.028001 6.1499987 9
46.866001 -15.049001 6.1399984 13
46.862999 -15.067001 6.1269984 18
46.847 -15.080001 6.1119986 22
46.837002 -15.094001 6.0969987 25
46.831001 -15.109001 6.0829988 31
46.838001 -15.127001 6.0719986 32
46.834 -15.142001 6.0569987 39
46.830002 -15.155001 6.0429988 39
46.811001 -15.164001 6.0259986 56
46.805 -15.176001 6.0099988 63
46.805 -15.188001 5.9959984 66
46.801998 -15.200001 5.9809985 70
46.803001 -15.212001 5.9659986 71
46.786999 -15.218001 5.9489985 75
46.771999 -15.224001 5.9289985 75
46.768002 -15.233001 5.9119987 77
46.771 -15.243001 5.8969984 75
46.757999 -15.248001 5.8769984 74
46.758999 -15.255001 5.8609986 76
46.764999 -15.265001 5.8449984 77
46.751999 -15.268001 5.8249984 75
46.743 -15.270001 5.8079987 76
46.750999 -15.279001 5.7899985 76
46.740002 -15.280001 5.7699986 77
46.743999 -15.285001 5.7519984 77
46.750999 -15.291001 5.7339988 72
46.744999 -15.292001 5.7139988 76
46.737999 -15.292001 5.6929984 76
46.736 -15.295001 5.6689987 78
46.73 -15.294001 5.6479983 74
46.741001 -15.299001 5.6289988 83
46.743 -15.299001 5.6089988 74
46.728001 -15.293001 5.5869985 72
46.735001 -15.294001 5.5679984 81
46.736 -15.292001 5.5469985 72
46.722 -15.285001 5.5229983 79
46.729 -15.283001 5.5039988 79
46.738998 -15.282001 5.4829984 79
46.737 -15.277001 5.4599986 80
46.758999 -15.279 5.4409986 85
46.743999 -15.267 5.4169984 80
46.737999 -15.259 5.3939986 79
46.75 -15.255 5.3719988 79
46.751999 -15.248 5.3489985 82
46.754002 -15.24 5.3269987 80
46.776001 -15.238 5.3059988 71
46.775002 -15.228 5.2819986 70
46.799999 -15.225 5.2599988 66
46.82 -15.221 5.2389984 63
46.823002 -15.209 5.2149987 62
46.803001 -15.191 5.1879988 59
46.790001 -15.173 5.1609983 49
46.785 -15.158 5.1349988 54
46.748001 -15.131 5.1069984 39
46.723999 -15.109 5.0789986 48
46.728001 -15.095 5.0539985 50
46.745998 -15.084 5.0299988 46
46.709 -15.055 4.9989986 41
46.714001 -15.039 4.9739985 48
46.698002 -15.016 4.9449987 41
46.699001 -14.997 4.9199986 42
46.702 -14.979 4.8929987 58
46.728001 -14.967 4.8699985 58
46.715 -14.942 4.8409986 61
46.724998 -14.925 4.8139987 64
46.736 -14.906 4.7869987 65
46.723999 -14.88 4.7579985 63
46.743 -14.863 4.7319984 65
46.763 -14.845 4.7059984 62
46.775002 -14.824 4.6799984 63
46.778 -14.799 4.6519985 68
46.786999 -14.776 4.6239986 71
46.813999 -14.759 4.5979986 71
46.813 -14.731 4.5689983 73
46.830002 -14.709 4.5409985 71
46.811001 -14.675 4.5109987 64
46.846001 -14.656 4.4849987 64
46.861 -14.632 4.4579988 62
46.867001 -14.604 4.4289985 56
46.884998 -14.578 4.4009986 39
46.912998 -14.556 4.3719988 37
46.900002 -14.52 4.3419986 37
46.921001 -14.493 4.3129988 40
46.931 -14.463 4.2839985 39
46.951 -14.435 4.2549987 37
46.973999 -14.408 4.2279987 38
46.972 -14.372 4.1959987 39
47.001999 -14.345 4.1679988 40
47.002998 -14.309 4.1369987 51
47.009998 -14.274 4.1059985 55
47.035 -14.244 4.0769987 58
47.058998 -14.213 4.0489984 56
47.075001 -14.179 4.0189986 50
47.077 -14.14 3.9869988 37
47.103001 -14.108 3.9589989 43
47.112999 -14.071 3.9279988 39
47.113998 -14.029 3.8959987 37
47.146999 -13.997 3.8659987 37
47.150002 -13.956 3.8339989 51
47.155998 -13.914 3.8019989 62
47.192001 -13.881 3.7729988 39
47.209 -13.842 3.7429988 21
47.242001 -13.808 3.7119987 7
51.021999 -14.864 3.9739988 49
51.063 -14.826 3.9429989 42
51.064999 -14.776 3.9069989 41
51.078999 -14.729 3.8729987 43
51.104 -14.685 3.8389988 45
51.126999 -14.639 3.8069987 42
51.145 -14.591 3.7719989 44
51.162998 -14.543 3.7369988 42
51.171001 -14.491 3.7039988 45
51.202999 -14.445 3.6699989 44
51.228001 -14.397 3.6349988 43
51.245998 -14.345 3.6009989 44
51.250999 -14.29 3.5649989 43
51.307999 -14.248 3.5319989 43
51.306 -14.19 3.4969988 44
51.312 -14.133 3.4609988 43
51.346001 -14.083 3.4269989 44
51.390999 -14.036 3.3939989 43
51.407001 -13.979 3.3579988 44
51.442001 -13.929 3.3259988 44
51.471001 -13.874 3.2909987 46
51.484001 -13.815 3.2549989 42
51.515999 -13.761 3.2199988 41
51.564999 -13.709 3.1879988 43
51.570999 -13.648 3.1499989 46
51.577 -13.585 3.1159987 43
51.630001 -13.534 3.0819988 44
51.639 -13.47 3.0459988 47
51.678001 -13.413 3.0109987 41
48.473 -12.519 2.7919989 15
48.286999 -12.407 2.7449987 24
48.102001 -12.296 2.7019987 25
47.883999 -12.175 2.654999 66
47.889999 -12.115 2.6209991 74
47.926998 -12.059 2.588999 57
47.991001 -12.01 2.5589991 41
48.025002 -11.953 2.5279992 54
48.028999 -11.889 2.493999 70
48.030998 -11.821 2.460999 65
48.064999 -11.763 2.427999 63
48.122002 -11.709 2.397999 72
48.132999 -11.641 2.3649991 73
48.178001 -11.583 2.332999 77
48.198002 -11.518 2.299999 75
48.236 -11.457 2.269999 78
48.271999 -11.395 2.237999 80
48.303001 -11.333 2.2059991 71
48.328999 -11.267 2.1739991 59
48.365002 -11.203 2.141999 71
48.403 -11.137 2.1109991 52
48.419998 -11.068 2.078999 62
48.363998 -10.981 2.042999 37
48.022999 -10.831 1.996999 27
47.833 -10.714 1.955999 37
47.849998 -10.644 1.924999 35
47.870998 -10.573 1.8929991 37
47.911999 -10.507 1.861999 38
47.957001 -10.441 1.8319991 38
47.981998 -10.37 1.799999 40
48.104 -10.319 1.772999 41
15.282 -3.253 0.55299968 1
15.122 -3.194 0.5369997 6
15.056 -3.1559999 0.52499968 23
14.95 -3.109 0.51099968 40
14.921 -3.079 0.49999973 40
14.912 -3.052 0.49099973 52
14.979 -3.0409999 0.48299974 53
15.027 -3.026 0.47499973 53
14.914 -2.9779999 0.46199974 4
14.754 -2.9230001 0.44699973 5
14.765 -2.901 0.43799973 38
14.752 -2.8729999 0.42799976 51
14.852 -2.8670001 0.42099977 52
0 0 0 0
16.533001 -3.135 0.44899973 64
16.573 -3.1140001 0.43899974 64
16.576 -3.085 0.42899972 64
16.601999 -3.0610001 0.41999972 64
16.547001 -3.0220001 0.40799972 64
16.476999 -2.98 0.39599973 63
16.471001 -2.9489999 0.38599974 63
16.589001 -2.941 0.37899974 64
16.629 -2.9189999 0.36999974 64
16.684999 -2.8989999 0.36199972 65
16.695 -2.8699999 0.35199976 65
16.719 -2.8440001 0.34299976 65
16.726999 -2.8150001 0.33399975 65
16.752001 -2.789 0.32399976 55
16.783001 -2.7639999 0.31599978 53
16.790001 -2.734 0.30599976 38
16.812 -2.7060001 0.29699975 24
16.83 -2.678 0.28799975 25
16.849001 -2.6500001 0.27899978 25
16.865 -2.622 0.26999977 17
16.879 -2.592 0.26099977 12
16.927 -2.5680001 0.25299975 8
16.929001 -2.536 0.24399978 4
16.952 -2.5079999 0.23499978 2
16.944 -2.474 0.22599977 1
17.009001 -2.451 0.21799979 1
16.966999 -2.4130001 0.2089998 1
17.09 -2.3970001 0.2009998 1
13.968 -1.933 0.15799984 1
13.863 -1.891 0.14899984 44
13.765 -1.851 0.14099984 43
13.728 -1.8200001 0.13399984 90
13.726 -1.794 0.12799984 116
13.74 -1.768 0.12099984 116
13.749 -1.743 0.11499985 114
13.764 -1.717 0.10799985 114
13.775 -1.692 0.10199985 113
13.785 -1.666 0.09499985 117
13.804 -1.641 0.08899986 85
13.784 -1.612 0.082999855 1
24.993999 -2.8740001 0.13999975 127
24.945 -2.8180001 0.12899974 116
24.872 -2.76 0.11799976 85
24.659 -2.687 0.10599976 59
24.513 -2.622 0.094999768 61
12.637 -1.326 0.043999884 6
12.568 -1.294 0.037999887 48
12.491 -1.261 0.032999888 46
12.426 -1.229 0.027999893 90
12.446 -1.206 0.022999894 119
12.459 -1.182 0.017999897 118
12.467 -1.1569999 0.012999899 123
12.476 -1.133 0.0079999017 125
12.485 -1.108 0.0039999033 120
12.507 -1.084 -9.4766293e-08 118
12.534 -1.061 -0.0040000929 119
12.563 -1.038 -0.00900009 33
12.727 -1.025 -0.01300009 1
12.684 -0.995 -0.018000087 1
12.702 -0.97100002 -0.022000086 15
12.735 -0.94599998 -0.026000082 37
12.751 -0.921 -0.030000079 37
12.769 -0.89600003 -0.035000078 37
12.778 -0.87 -0.038000073 37
12.73 -0.83999997 -0.042000074 37
14.355 -0.91799998 -0.052000083 57
14.326 -0.88599998 -0.05600008 58
14.252 -0.85100001 -0.060000073 58
14.235 -0.82099998 -0.064000078 101
14.254 -0.792 -0.068000071 110
14.266 -0.76300001 -0.071000069 110
14.279 -0.73400003 -0.07500007 115
14.281 -0.704 -0.079000063 110
14.495 -0.68400002 -0.083000056 57
14.507 -0.65399998 -0.087000057 66
15.54 -0.66900003 -0.097000062 119
15.56 -0.63700002 -0.10100006 114
15.583 -0.60500002 -0.10400005 119
15.594 -0.57300001 -0.10700005 110
15.614 -0.54000002 -0.11100005 108
15.611 -0.50800002 -0.11400004 112
15.645 -0.47600001 -0.11700004 113
15.655 -0.442 -0.12000003 113
15.67 -0.40900001 -0.12300004 105
13.021 -0.31299999 -0.10500003 49
13.096 -0.287 -0.10700002 5
15.72 -0.31099999 -0.13100003 110
15.731 -0.278 -0.13400003 101
15.758 -0.24499999 -0.13700001 112
15.771 -0.21199998 -0.13900001 109
15.79 -0.17899999 -0.14100002 113
15.808 -0.14499998 -0.14300002 43
18.030001 -0.12899998 -0.16600001 18
15.924 -0.079999983 -0.148 1
12.674 -0.035999987 -0.119 1
12.601 -0.0099999895 -0.12 36
12.553 0.016000012 -0.12 43
12.521 0.043000013 -0.12099999 60
12.461 0.069000006 -0.12099999 64
12.413 0.095000006 -0.12199999 67
12.352 0.12100001 -0.12199999 68
12.295 0.14600001 -0.12199999 70
12.247 0.17100002 -0.12199999 62
12.184 0.19600001 -0.12199999 62
12.137 0.22100002 -0.12199998 63
12.093 0.24600002 -0.12199998 59
12.044 0.271 -0.12199998 60
11.979 0.29499999 -0.12199998 57
11.939 0.31900001 -0.12099997 59
11.884 0.34299999 -0.12099997 59
11.696 0.36199999 -0.11899997 65
11.539 0.382 -0.11699997 71
11.501 0.405 -0.11699996 71
11.447 0.42699999 -0.11599996 69
11.414 0.44999999 -0.11499996 71
11.358 0.472 -0.11399996 65
11.33 0.49399999 -0.11399996 87
11.335 0.51800001 -0.11299995 96
11.349 0.54299998 -0.11199996 99
11.363 0.56699997 -0.11199995 107
11.371 0.59100002 -0.11099995 108
11.387 0.616 -0.11099995 112
11.397 0.64099997 -0.10999994 114
11.404 0.66500002 -0.10899994 113
11.414 0.69 -0.10799994 111
11.437 0.71499997 -0.10699994 118
11.449 0.74000001 -0.10599993 115
11.453 0.764 -0.10399994 113
11.468 0.78899997 -0.10299993 104
11.483 0.81300002 -0.10199992 113
11.502 0.83899999 -0.099999927 119
11.51 0.86299998 -0.098999925 112
11.525 0.88800001 -0.096999928 112
11.537 0.91299999 -0.095999919 111
11.544 0.93699998 -0.093999915 114
11.552 0.96200001 -0.091999918 113
11.563 0.98699999 -0.089999914 110
11.581 1.013 -0.08799991 112
11.595 1.038 -0.085999914 115
11.598 1.061 -0.083999909 114
11.615 1.086 -0.081999905 112
11.619 1.11 -0.079999901 111
11.651 1.137 -0.076999903 109
11.647 1.16 -0.074999899 114
11.67 1.186 -0.072999895 115
11.676 1.211 -0.069999896 114
11.681 1.234 -0.066999897 112
11.7 1.26 -0.063999891 111
11.718 1.285 -0.061999887 109
11.729 1.3099999 -0.058999885 115
11.749 1.336 -0.055999886 111
11.749 1.359 -0.05299988 113
11.774 1.386 -0.049999878 110
11.772 1.409 -0.046999875 111
11.799 1.4349999 -0.042999875 112
11.809 1.46 -0.039999872 106
11.825 1.485 -0.03699987 101
9.8120003 1.251 -0.027999891 22
9.7880001 1.267 -0.02499989 73
9.7440004 1.281 -0.020999888 67
9.7089996 1.295 -0.017999886 70
9.684 1.3099999 -0.014999885 66
9.6660004 1.327 -0.011999884 69
9.6400003 1.342 -0.0089998823 71
9.5959997 1.354 -0.0059998818 70
9.5690002 1.369 -0.0019998804 70
9.552 1.385 1.2108055e-07 83
9.5509996 1.403 0.0030001227 114
9.5500002 1.421 0.0070001245 109
9.5620003 1.441 0.010000126 113
9.5539999 1.457 0.014000128 119
9.5760002 1.478 0.017000129 94
9.5869999 1.498 0.02100013 95
9.5909996 1.516 0.025000133 95
9.6079998 1.5369999 0.028000135 99
9.6129999 1.556 0.032000139 104
9.6230001 1.575 0.036000136 104
9.6300001 1.594 0.040000137 100
9.6379995 1.613 0.044000141 100
9.6479998 1.632 0.048000142 38
11.853 2.026 0.064000182 98
11.868 2.05 0.068000183 92
11.861 2.0710001 0.073000178 46
11.883 2.096 0.07900019 16
11.853 2.112 0.084000185 10
11.856 2.1340001 0.089000188 6
11.815 2.148 0.094000183 8
11.943 2.1919999 0.1000002 26
12.012 2.2260001 0.10600019 33
12.053 2.2539999 0.1120002 34
12.1 2.2839999 0.1180002 32
12.138 2.313 0.1240002 34
12.162 2.3380001 0.1290002 34
12.203 2.3670001 0.13600022 35
11.926 2.3340001 0.13800021 15
11.703 2.3099999 0.14100021 4
11.78 2.345 0.14700021 2
11.743 2.358 0.15300021 1
11.773 2.3829999 0.1590002 1
11.9 2.4289999 0.1660002 2
11.715 2.4100001 0.16900021 1
11.633 2.4130001 0.1740002 1
11.513 2.4070001 0.17800021 2
11.385 2.3989999 0.1820002 6
11.362 2.4119999 0.18700022 8
11.341 2.4260001 0.19200021 9
11.329 2.441 0.19800021 7
11.316 2.457 0.2030002 12
11.472 2.5090001 0.21200022 5
11.677 2.572 0.22200023 2
11.668 2.5880001 0.22800022 2
11.638 2.5999999 0.23300022 2
11.57 2.602 0.23800023 2
11.505 2.6059999 0.24300022 1
11.587 2.642 0.25100023 1
11.364 2.608 0.25200024 2
11.113 2.5669999 0.25200024 13
11.323 2.6329999 0.26300025 2
11.578 2.71 0.27500024 1
11.58 2.727 0.28100023 1
11.541 2.7349999 0.28700024 1
11.515 2.7449999 0.29200023 1
11.479 2.7539999 0.29800025 1
11.389 2.7479999 0.30200022 1
10.805 2.6229999 0.29200023 35
10.679 2.608 0.29500023 87
10.667 2.6199999 0.30100024 95
10.634 2.6259999 0.30500025 90
10.636 2.642 0.31100023 91
10.612 2.6500001 0.31700024 88
10.597 2.661 0.32200024 86
10.569 2.668 0.32700023 83
10.552 2.678 0.33300024 86
10.544 2.6900001 0.33800024 84
10.517 2.697 0.34400025 87
10.502 2.707 0.34900025 84
10.493 2.7190001 0.35500023 84
10.468 2.7260001 0.36000025 82
10.443 2.733 0.36500025 81
10.442 2.7460001 0.37100023 83
10.419 2.753 0.37600023 85
10.397 2.76 0.38200024 85
10.397 2.773 0.38800025 82
10.36 2.776 0.39200023 80
10.347 2.7850001 0.39800024 78
10.343 2.796 0.40400025 80
10.319 2.802 0.40900025 77
10.316 2.813 0.41500023 79
10.301 2.8210001 0.42000023 81
10.29 2.8299999 0.42600024 82
10.268 2.836 0.43100023 80
10.253 2.8440001 0.43600023 79
10.249 2.8540001 0.44200024 81
10.225 2.859 0.44700024 78
10.217 2.868 0.45200023 80
10.205 2.875 0.45800024 78
10.203 2.8859999 0.46400023 80
10.172 2.888 0.46800023 74
10.158 2.895 0.47400025 78
10.147 2.902 0.47900027 77
10.133 2.908 0.48400027 75
10.123 2.915 0.49000028 77
10.123 2.9260001 0.49600026 77
10.108 2.931 0.50000024 75
10.095 2.937 0.50600022 73
10.079 2.9419999 0.51100022 73
10.075 2.95 0.51700026 75
10.057 2.9549999 0.52200025 76
10.059 2.9649999 0.52800024 75
10.037 2.967 0.53200024 80
10.035 2.9760001 0.53800023 80
10.018 2.98 0.54300022 80
10.013 2.987 0.54800022 76
9.993 2.99 0.55300021 74
9.9809999 2.9949999 0.55800027 77
9.9829998 3.0039999 0.56400025 76
9.9589996 3.0050001 0.56900024 79
9.9619999 3.013 0.57400024 75
9.9359999 3.0139999 0.57800025 81
9.9420004 3.023 0.58400023 81
9.934 3.0280001 0.58900023 75
9.9320002 3.0350001 0.59500027 79
9.9119997 3.0369999 0.59900022 87
9.915 3.0450001 0.60500026 85
9.9020004 3.0480001 0.61000025 87
9.8929996 3.052 0.61500025 88
9.8870001 3.0569999 0.62000024 85
9.8889999 3.0639999 0.62600023 84
9.8690004 3.0650001 0.63000023 82
9.8610001 3.069 0.63500029 87
9.8719997 3.0780001 0.64100027 87
9.8529997 3.079 0.64500028 87
9.8500004 3.0840001 0.65100032 87
9.8330002 3.0840001 0.65500027 89
9.8369999 3.0910001 0.66100031 87
9.8249998 3.0929999 0.66500032 87
9.8129997 3.095 0.67000031 87
9.8149996 3.1010001 0.67500031 85
9.8070002 3.1029999 0.68000031 88
9.809 3.109 0.6850003 87
9.7950001 3.1099999 0.6900003 88
9.7969999 3.115 0.69500029 88
9.7959995 3.119 0.70000029 88
9.783 3.1199999 0.70400029 87
9.7779999 3.1229999 0.70900029 86
9.7770004 3.1259999 0.71400028 87
9.7620001 3.1259999 0.71800029 85
9.7609997 3.1289999 0.72300029 85
9.7609997 3.1329999 0.72800028 84
9.7600002 3.1359999 0.73300028 85
9.7539997 3.138 0.73700029 85
9.7589998 3.1429999 0.74200028 89
9.7530003 3.1440001 0.74700028 86
9.7539997 3.148 0.75200027 88
9.7419996 3.1470001 0.75600028 88
9.7690001 3.1589999 0.76300031 86
9.7460003 3.155 0.7640003 89
9.7410002 3.1559999 0.76900029 89
9.7390003 3.1570001 0.7730003 89
9.7440004 3.161 0.77900028 86
9.7449999 3.164 0.78300029 89
9.7279997 3.1600001 0.7870003 88
9.7410002 3.1659999 0.79200029 86
9.7220001 3.1619999 0.79500031 88
9.7250004 3.165 0.80000031 86
9.7349997 3.1689999 0.80500031 86
9.7250004 3.1670001 0.80900031 85
9.7390003 3.1730001 0.81400031 87
9.7370005 3.174 0.8190003 86
9.7250004 3.171 0.82200032 86
9.7340002 3.175 0.82700032 86
9.7189999 3.1700001 0.83000028 85
9.7229996 3.1719999 0.83500028 85
9.7379999 3.177 0.84000027 85
9.7220001 3.1719999 0.84300029 85
9.7329998 3.1760001 0.84800029 87
9.7180004 3.171 0.85100031 85
9.7309999 3.175 0.8560003 84
9.7299995 3.175 0.86000031 86
9.7309999 3.175 0.86400032 83
9.7419996 3.178 0.86900032 85
9.7360001 3.175 0.87200028 83
9.7379999 3.175 0.87600029 86
9.7419996 3.175 0.88000029 86
9.7349997 3.1719999 0.8840003 85
9.757 3.178 0.8890003 88
9.7550001 3.1760001 0.8930003 87
9.7510004 3.1730001 0.89700031 86
9.7589998 3.174 0.90100032 87
9.7600002 3.1719999 0.90400028 86
9.7670002 3.1730001 0.90900028 85
9.7580004 3.168 0.91100031 84
9.7700005 3.1700001 0.91400027 83
9.776 3.1700001 0.91800028 87
9.7690001 3.165 0.9210003 84
9.7779999 3.165 0.92500031 87
9.79 3.1659999 0.92900032 85
9.7840004 3.161 0.93200028 85
9.7910004 3.161 0.93600029 84
9.7939997 3.158 0.93900031 85
9.7950001 3.1559999 0.94300032 86
9.8100004 3.1570001 0.94700032 88
9.816 3.155 0.95100027 85
9.816 3.151 0.95400029 85
9.8249998 3.151 0.9580003 87
9.8310003 3.1489999 0.96100032 85
9.842 3.148 0.96500027 83
9.8380003 3.1429999 0.96700031 84
9.8509998 3.142 0.97100031 84
9.8549995 3.1389999 0.97400028 84
9.8620005 3.1370001 0.97800028 77
9.8660002 3.1329999 0.9810003 75
9.8719997 3.1300001 0.98400033 79
9.8839998 3.1289999 0.98800027 77
9.8990002 3.128 0.99100029 75
9.8809996 3.1170001 0.99200028 77
9.908 3.1199999 0.99700028 81
9.915 3.1170001 1.0000002 76
9.9139996 3.1110001 1.0020002 78
9.9209995 3.1070001 1.0050002 76
9.9329996 3.105 1.0080003 80
9.9610004 3.108 1.0130002 82
9.9440002 3.096 1.0140003 80
9.9560003 3.0929999 1.0170002 82
9.9770002 3.0929999 1.0210003 80
9.9890003 3.0899999 1.0240003 81
9.9989996 3.0869999 1.0270002 83
10.005 3.0810001 1.0290003 77
10.018 3.079 1.0320002 79
10.002 3.066 1.0320002 75
10.033 3.069 1.0370002 75
10.025 3.059 1.0380002 79
10.048 3.0580001 1.0410002 75
10.06 3.0539999 1.0440003 77
10.068 3.049 1.0470003 74
10.083 3.0450001 1.0490003 80
10.092 3.04 1.0510002 76
10.095 3.0320001 1.0530002 78
10.118 3.0309999 1.0570003 84
10.123 3.023 1.0580002 82
10.137 3.0190001 1.0610002 80
10.147 3.013 1.0630002 82
10.165 3.01 1.0650003 83
10.17 3.0020001 1.0670003 83
10.167 2.9920001 1.0670003 81
10.193 2.99 1.0710002 80
10.197 2.9820001 1.0720003 80
10.216 2.9779999 1.0750003 76
10.233 2.973 1.0770003 82
10.242 2.9660001 1.0780002 80
10.254 2.9590001 1.0800003 84
10.271 2.954 1.0820003 85
10.289 2.9489999 1.0840002 84
10.299 2.941 1.0850003 83
10.314 2.9349999 1.0870003 83
10.34 2.9319999 1.0900003 85
10.344 2.9219999 1.0910002 81
10.357 2.915 1.0920002 84
10.368 2.9070001 1.0930003 83
10.378 2.8989999 1.0940002 86
10.398 2.8929999 1.0960002 84
10.411 2.885 1.0970002 85
10.443 2.8829999 1.1000003 84
10.446 2.872 1.1000003 84
10.46 2.8629999 1.1010002 80
10.482 2.858 1.1020002 81
10.489 2.848 1.1020002 82
10.508 2.8410001 1.1040002 84
10.522 2.832 1.1040002 82
10.545 2.826 1.1060002 84
10.563 2.8180001 1.1070002 86
10.581 2.8099999 1.1080003 85
10.601 2.803 1.1090002 83
10.617 2.7939999 1.1090002 83
10.627 2.783 1.1090002 79
10.643 2.7739999 1.1100003 77
10.668 2.767 1.1110002 78
10.682 2.757 1.1110002 77
10.702 2.7490001 1.1110002 77
10.715 2.7379999 1.1110002 71
10.745 2.7320001 1.1130003 70
10.758 2.7219999 1.1120002 72
10.787 2.7149999 1.1130003 72
10.788 2.701 1.1120002 72
10.821 2.694 1.1130003 76
10.831 2.6819999 1.1120002 68
10.861 2.675 1.1130003 70
10.883 2.6659999 1.1130003 68
10.898 2.654 1.1120002 66
10.931 2.648 1.1130003 69
10.95 2.6370001 1.1130003 75
10.96 2.6240001 1.1110002 85
10.976 2.612 1.1100003 85
10.998 2.602 1.1100003 92
11.001 2.5869999 1.1070002 92
11.008 2.573 1.1050003 85
11.005 2.556 1.1020002 78
11.016 2.543 1.1000003 74
11.01 2.526 1.0960002 74
11.015 2.5109999 1.0940002 78
11.01 2.493 1.0900003 77
11.02 2.4790001 1.0870003 78
11.01 2.461 1.0830002 76
11.019 2.447 1.0800003 72
11.016 2.4300001 1.0760002 77
11.023 2.414 1.0730002 74
11.006 2.3940001 1.0680002 74
11.021 2.3800001 1.0660002 75
11.026 2.3640001 1.0620003 74
11.015 2.345 1.0570003 74
11.016 2.3280001 1.0530002 75
11.033 2.3150001 1.0510002 75
11.026 2.296 1.0450002 75
11.021 2.2780001 1.0410002 77
11.028 2.2620001 1.0370002 75
11.016 2.2420001 1.0310003 75
11.031 2.2279999 1.0280002 75
11.027 2.2090001 1.0230002 77
11.025 2.191 1.0180002 73
11.046 2.178 1.0150002 75
11.045 2.1600001 1.0100002 77
11.039 2.141 1.0040002 70
11.037 2.122 0.99900019 73
11.039 2.105 0.9940002 73
11.05 2.089 0.99000019 75
11.047 2.0699999 0.98400021 73
11.045 2.0510001 0.97900015 72
11.053 2.0350001 0.97400016 73
11.058 2.0179999 0.96900016 70
11.064 1.9999999 0.96300018 73
11.045 1.9779999 0.95600015 70
9.7329998 1.7269999 0.83700019 32
9.7519999 1.7139999 0.83300018 86
9.7180004 1.6919999 0.82500011 94
9.71 1.6739999 0.81900012 81
9.684 1.6529999 0.8120001 102
9.691 1.6379999 0.8070001 98
9.6949997 1.6219999 0.80200011 89
9.6759996 1.6029999 0.79400015 82
9.6680002 1.5849999 0.78800011 97
9.6630001 1.5669999 0.78200012 88
9.6520004 1.5489999 0.7750001 97
9.6470003 1.5309999 0.76900011 84
9.6400003 1.5139999 0.76200014 88
9.6260004 1.4949999 0.75500011 83
9.6269999 1.4779999 0.74900013 71
9.6610003 1.4669999 0.74500012 67
9.665 1.4499999 0.73900014 65
9.6879997 1.4359999 0.73400015 67
9.7229996 1.4249998 0.73000014 69
9.7440004 1.4109999 0.72500014 75
9.783 1.3989999 0.72100013 72
9.79 1.3829999 0.71500009 73
9.8249998 1.3709999 0.71100014 71
9.8999996 1.3639998 0.70900011 73
9.8789997 1.3429999 0.70100009 23
11.179 1.4999999 0.78500015 77
11.203 1.4839998 0.77800012 75
11.202 1.4639999 0.7700001 77
11.208 1.4449999 0.76200014 75
11.211 1.4249998 0.75400013 74
11.218 1.4059999 0.74600011 77
11.223 1.3859999 0.73700011 76
11.232 1.3669999 0.72900009 76
11.245 1.3489999 0.72100013 78
11.238 1.3279998 0.71100014 76
11.246 1.3079998 0.70300013 77
11.248 1.2879999 0.69400012 77
11.27 1.2699999 0.68600011 83
11.263 1.25 0.67600012 78
11.279 1.2309999 0.6680001 78
11.269 1.21 0.65800011 78
11.287 1.191 0.6500001 81
11.299 1.1720001 0.6400001 80
11.305 1.153 0.6310001 79
11.309 1.132 0.62100011 81
11.311 1.112 0.61200011 76
11.321 1.0930001 0.60200012 80
11.334 1.074 0.59300011 79
11.335 1.053 0.58200014 83
11.359 1.035 0.57300013 80
11.366 1.015 0.56300008 80
11.375 0.99499995 0.55300003 80
11.377 0.97499996 0.54300004 79
11.378 0.95399994 0.53200006 81
11.397 0.93499994 0.52200007 79
11.401 0.91499996 0.51100004 79
11.403 0.89399993 0.50100005 80
11.429 0.87599993 0.49100009 81
11.432 0.85499996 0.48000008 81
11.431 0.83399993 0.46900007 81
11.442 0.81499994 0.45800006 83
11.458 0.79499996 0.44700006 85
11.467 0.77499992 0.43600005 92
11.461 0.75399995 0.42400005 96
11.456 0.73299992 0.41200006 106
11.456 0.71299994 0.40100005 110
11.456 0.69199991 0.38900006 114
11.436 0.66999996 0.37600005 118
11.419 0.64799994 0.36300007 113
11.42 0.62799996 0.35100007 115
11.403 0.60600001 0.33800006 108
11.396 0.58499998 0.32600006 111
11.379 0.56400001 0.31300005 106
11.365 0.542 0.30100006 71
11.418 0.52399999 0.28900006 65
11.443 0.505 0.27800003 68
11.491 0.48699996 0.26600003 68
11.513 0.46699998 0.25400004 69
11.56 0.44799998 0.24200004 67
11.586 0.42899996 0.23000005 68
11.709 0.41299996 0.21900003 72
11.897 0.39799997 0.20900004 60
11.941 0.37799996 0.19600002 61
11.972 0.35799998 0.18300003 64
12.015 0.338 0.16900003 65
12.058 0.31799999 0.15600003 64
12.088 0.29699999 0.14200003 62
12.121 0.27599999 0.12800004 62
12.163 0.25600001 0.11400002 61
12.211 0.23599999 0.10000002 64
12.244 0.21499999 0.086000025 62
12.275 0.19400001 0.071000017 63
12.316 0.17299999 0.057000015 64
12.352 0.152 0.042000014 69
12.394 0.131 0.027000012 60
12.425 0.11 0.012000009 47
12.454 0.088 -0.0019999924 35
12.511 0.067000002 -0.017999994 33
12.564 0.046000004 -0.033999998 17
12.599 0.024000004 -0.048999995 5
12.645 0.0030000056 -0.064999998 1
15.931 -0.022999991 -0.103 32
15.86 -0.04999999 -0.12200001 12
18.040001 -0.087999985 -0.16200002 15
17.972 -0.11799999 -0.18400002 2
15.819 -0.13099998 -0.18300001 24
15.785 -0.15799999 -0.20300001 109
15.773 -0.18399999 -0.22300002 111
15.762 -0.21099998 -0.24400002 112
15.741 -0.23699997 -0.26400003 110
15.726 -0.26299998 -0.28400004 112
15.719 -0.28899997 -0.30400002 110
15.696 -0.31499997 -0.32500002 111
15.695 -0.34099996 -0.34600002 116
13.046 -0.30499998 -0.30400002 38
13.005 -0.32599998 -0.32100004 44
13.03 -0.34799996 -0.33900002 1
15.615 -0.44399998 -0.42800003 112
15.617 -0.46899998 -0.44900003 119
15.605 -0.49399996 -0.46900004 117
15.577 -0.51799995 -0.49000007 114
15.575 -0.54399997 -0.51100004 114
15.557 -0.56899995 -0.53200006 123
15.54 -0.59299994 -0.55300003 121
15.535 -0.61799991 -0.57400006 120
15.518 -0.64299995 -0.59500009 122
15.515 -0.66799992 -0.61700004 122
15.481 -0.69099993 -0.63700008 117
15.474 -0.71599996 -0.65900004 125
12.899 -0.61699992 -0.56700003 1
12.849 -0.63499993 -0.58300006 37
12.827 -0.65399992 -0.60000008 37
12.778 -0.67199993 -0.61600006 57
12.875 -0.69699997 -0.63900006 78
12.727 -0.70899993 -0.65000004 86
12.725 -0.72799993 -0.66800004 81
12.708 -0.74699992 -0.68500006 94
12.712 -0.76699996 -0.70300007 96
12.7 -0.78599995 -0.72100008 96
12.669 -0.80299991 -0.73800004 97
12.677 -0.82299995 -0.75600004 95
12.66 -0.84099996 -0.77300006 114
12.651 -0.85899997 -0.79100007 112
12.65 -0.87799996 -0.81000006 110
12.635 -0.89599997 -0.82700008 112
12.617 -0.91399992 -0.84400004 109
12.62 -0.93199992 -0.86300004 109
12.613 -0.94999993 -0.88100004 121
12.584 -0.96699995 -0.89700007 109
12.578 -0.98499995 -0.91500008 114
12.567 -1.0019999 -0.93300009 111
12.575 -1.0209999 -0.95200008 111
12.553 -1.0369998 -0.9690001 114
12.546 -1.0549998 -0.98700011 106
12.526 -1.0709999 -1.0040001 103
12.526 -1.0889999 -1.0220001 88
12.526 -1.1059998 -1.0410001 84
12.516 -1.1229999 -1.0580001 86
12.504 -1.1389999 -1.0760001 109
12.473 -1.1539999 -1.0920001 119
12.413 -1.1649998 -1.1050001 100
12.391 -1.1799998 -1.1220001 101
12.375 -1.1959999 -1.1390002 100
12.361 -1.2109998 -1.1560001 112
12.376 -1.2299999 -1.1760001 130
12.356 -1.2439998 -1.1930001 127
12.336 -1.2589998 -1.2090001 128
12.329 -1.2749999 -1.2270001 129
12.319 -1.2899998 -1.2440001 127
12.305 -1.3049998 -1.2610002 125
12.304 -1.3209999 -1.2800001 126
12.302 -1.3369999 -1.2980001 123
12.288 -1.3509998 -1.3150002 124
12.282 -1.3659999 -1.3330001 124
12.273 -1.3809999 -1.3510001 89
12.294 -1.3989999 -1.3710002 49
12.329 -1.4179999 -1.3940002 49
12.349 -1.4369999 -1.4150001 47
12.392 -1.4569999 -1.4390001 47
12.427 -1.4769999 -1.4620001 50
12.464 -1.4959999 -1.4850001 48
12.493 -1.5149999 -1.5070001 48
12.525 -1.5329999 -1.5300001 48
12.574 -1.5549998 -1.5550001 47
12.584 -1.5709999 -1.5750002 47
12.629 -1.5919999 -1.6000001 50
12.651 -1.6099999 -1.6220001 52
12.686 -1.6289998 -1.6450001 47
12.718 -1.6479999 -1.6680001 47
12.741 -1.6649998 -1.6900002 48
12.789 -1.6859999 -1.7160001 49
12.811 -1.7039999 -1.7380002 46
12.846 -1.7229999 -1.7620001 44
12.888 -1.7429999 -1.7870001 44
12.923 -1.7629999 -1.8120002 46
12.962 -1.7829999 -1.8370001 47
12.98 -1.7989999 -1.8580002 47
13.025 -1.8199999 -1.8840001 47
13.044 -1.8369999 -1.9070001 45
13.065 -1.8539999 -1.9290001 48
13.101 -1.8729999 -1.9540001 49
13.132 -1.8909999 -1.9780002 49
13.168 -1.9099998 -2.0030003 48
13.188 -1.9269999 -2.0260003 50
13.23 -1.9469998 -2.0520003 50
13.261 -1.9649998 -2.0760002 41
13.269 -1.9789997 -2.0970001 41
13.297 -1.9969997 -2.1210003 45
13.332 -2.0159998 -2.1460001 44
13.369 -2.0339997 -2.1720002 42
13.377 -2.0489998 -2.1920002 42
13.417 -2.0679998 -2.2190003 43
13.441 -2.0849998 -2.2420003 43
13.477 -2.1029997 -2.2670002 43
13.511 -2.1209998 -2.2930002 41
13.509 -2.1329997 -2.3120003 43
13.549 -2.1519997 -2.3390002 44
13.571 -2.1679997 -2.3620002 44
13.593 -2.1839998 -2.3850002 44
13.622 -2.2009997 -2.4100003 16
13.664 -2.2199998 -2.4360003 1
17.940001 -2.9299998 -3.2240002 5
17.641001 -2.8969998 -3.1960003 6
17.35 -2.8639998 -3.1680002 6
17.056999 -2.8299997 -3.1380002 6
16.781 -2.7979999 -3.1110003 6
16.476 -2.7609997 -3.0770001 7
16.181 -2.7249997 -3.0450003 8
15.971 -2.7029998 -3.0270002 12
15.775 -2.6819997 -3.0120003 11
14.651 -2.5029998 -2.8180003 6
14.098 -2.4199998 -2.7310002 4
14.396 -2.4819999 -2.8080003 4
14.108 -2.4429998 -2.7720003 17
13.938 -2.4249997 -2.7570002 47
13.793 -2.4099998 -2.7470002 46
13.557 -2.3789997 -2.7180002 21
13.196 -2.3249998 -2.6640003 20
12.987 -2.2979999 -2.6390002 18
12.776 -2.2689998 -2.6130002 25
12.571 -2.2419999 -2.5880003 25
12.371 -2.2149997 -2.5630002 19
12.178 -2.1889997 -2.5400002 30
11.993 -2.1639998 -2.5170002 32
11.841 -2.1439998 -2.5010002 31
11.693 -2.1249998 -2.4850001 33
11.54 -2.1049998 -2.4670002 28
11.393 -2.0859997 -2.4500003 31
11.242 -2.0649998 -2.4320002 31
11.107 -2.0469997 -2.4170003 30
10.944 -2.0239997 -2.3960001 29
10.809 -2.0059998 -2.3800004 28
10.686 -1.9889997 -2.3660002 25
10.573 -1.9749998 -2.3550003 27
10.436 -1.9549998 -2.3370001 22
10.324 -1.9399998 -2.3250003 25
10.192 -1.9209998 -2.3080003 23
10.099 -1.9089998 -2.2990003 25
9.9729996 -1.8899997 -2.2820003 24
9.8579998 -1.8739997 -2.2680001 24
9.7609997 -1.8609997 -2.2580001 23
9.6610003 -1.8459997 -2.2460003 23
9.5690002 -1.8339998 -2.2360003 22
9.4639997 -1.8179997 -2.2220001 22
9.3870001 -1.8079997 -2.2150002 19
9.2779999 -1.7909998 -2.2000003 20
9.2130003 -1.7829998 -2.1960003 21
9.1140003 -1.7679998 -2.1830003 20
9.0380001 -1.7569997 -2.1740003 20
8.9420004 -1.7429998 -2.1620002 19
8.875 -1.7329998 -2.1550002 19
8.7860003 -1.7199998 -2.1440003 19
8.7189999 -1.7099998 -2.1370003 19
8.6280003 -1.6959997 -2.1240003 18
8.5670004 -1.6869998 -2.1180003 18
8.4890003 -1.6749997 -2.1080003 18
8.4209995 -1.6649997 -2.1000001 17
8.3579998 -1.6549997 -2.0930002 17
8.29 -1.6449997 -2.0850003 17
8.2329998 -1.6359998 -2.0800002 17
8.1820002 -1.6289997 -2.0750003 16
8.118 -1.6189997 -2.0670002 16
8.0509996 -1.6079998 -2.0580003 16
8.0030003 -1.6009997 -2.0540001 16
7.9489999 -1.5919998 -2.0480003 15
7.8889999 -1.5829998 -2.0410001 15
7.836 -1.5739999 -2.0350003 15
7.7849998 -1.5659999 -2.0290003 15
7.7449999 -1.5599998 -2.0260003 15
7.684 -1.5489999 -2.0180001 14
7.6279998 -1.5399998 -2.0100002 14
7.5890002 -1.5339999 -2.0070002 14
7.5419998 -1.5259999 -2.0010002 14
7.506 -1.5199999 -1.9990001 14
7.448 -1.5099999 -1.9900001 14
7.4109998 -1.5039998 -1.9870001 13
7.362 -1.4949999 -1.9800001 13
7.3369999 -1.4919999 -1.9800001 13
7.2930002 -1.4839998 -1.9740001 13
7.2470002 -1.4759998 -1.9680002 14
7.2030001 -1.4679999 -1.9620001 14
7.184 -1.4649999 -1.9630002 15
7.1290002 -1.4549999 -1.9540001 15
7.099 -1.4489999 -1.9510001 15
7.052 -1.4409999 -1.9440001 15
7.0229998 -1.4349998 -1.9420002 15
6.973 -1.4259999 -1.9330001 15
6.9679999 -1.4249998 -1.9370002 15
6.9380002 -1.4199998 -1.9350001 15
6.8990002 -1.4119998 -1.9290001 15
6.8639998 -1.4059999 -1.9240001 15
6.8270001 -1.3979999 -1.9190001 15
6.8099999 -1.3949999 -1.9190001 15
6.789 -1.3909999 -1.9180001 15
6.7690001 -1.3869998 -1.9170002 15
6.7389998 -1.3809999 -1.9130001 15
6.7150002 -1.3759999 -1.9100001 15
6.691 -1.3709999 -1.9080001 15
6.6609998 -1.3649999 -1.9040002 15
6.645 -1.3609998 -1.9040002 15
6.6129999 -1.3549999 -1.8990002 15
6.5770001 -1.3469999 -1.8930001 15
6.5630002 -1.3439999 -1.8930001 15
6.546 -1.3399999 -1.8920001 15
6.5229998 -1.3349999 -1.8890002 14
6.5050001 -1.3299999 -1.8880001 14
6.4809999 -1.3239999 -1.8840001 14
6.467 -1.3209999 -1.8840001 14
6.4499998 -1.3169999 -1.8820001 14
6.428 -1.3109999 -1.8790001 14
6.4070001 -1.3059999 -1.8760002 14
6.3889999 -1.3019999 -1.8740001 14
6.3720002 -1.2969999 -1.8730001 14
6.3540001 -1.2929999 -1.8700001 14
6.3439999 -1.2889999 -1.8700001 14
6.3400002 -1.2879999 -1.8720001 15
6.3169999 -1.2819998 -1.8680001 14
6.3080001 -1.2789999 -1.8680001 14
6.2849998 -1.2729999 -1.8640001 14
6.2690001 -1.2689999 -1.8620001 15
6.2639999 -1.2659999 -1.8630002 14
6.2550001 -1.2629999 -1.8630002 14
6.2319999 -1.2569999 -1.8580002 14
6.2290001 -1.2549999 -1.8590001 14
6.2119999 -1.2499999 -1.8570001 13
6.1890001 -1.2439998 -1.8520001 14
6.2010002 -1.2439998 -1.8570001 14
6.1830001 -1.2389998 -1.8540001 13
6.1589999 -1.2329999 -1.8480002 15
6.1609998 -1.2309998 -1.8510001 15
6.152 -1.2279999 -1.8500001 15
6.1529999 -1.2259998 -1.8520001 15
6.1440001 -1.2219999 -1.8510001 14
6.1370001 -1.2189999 -1.8500001 14
6.1389999 -1.2169999 -1.8520001 14
6.1259999 -1.2129999 -1.8490001 15
6.1139998 -1.2079998 -1.8470001 14
6.1100001 -1.2049999 -1.8470001 14
6.1079998 -1.2029998 -1.8470001 14
6.112 -1.2009999 -1.8490001 15
6.0999999 -1.1959999 -1.8470001 15
6.1090002 -1.1959999 -1.8500001 15
6.1020002 -1.1919999 -1.8490001 14
6.092 -1.1879998 -1.8470001 14
6.0949998 -1.1859999 -1.8480002 15
6.0890002 -1.1819999 -1.8470001 14
6.0840001 -1.1789999 -1.8460001 14
6.0910001 -1.1769999 -1.8480002 15
6.0890002 -1.1739999 -1.8480002 15
6.098 -1.1729999 -1.8510001 15
6.0819998 -1.1669999 -1.8460001 15
6.0840001 -1.1649998 -1.8470001 15
6.0819998 -1.1619998 -1.8460001 15
6.0970001 -1.1619998 -1.8510001 15
6.1170001 -1.1629999 -1.8570001 16
6.1009998 -1.1559999 -1.8510001 15
6.1139998 -1.1559999 -1.8550001 15
6.098 -1.1499999 -1.8500001 14
6.119 -1.1509999 -1.8560001 14
6.119 -1.1469998 -1.8550001 14
6.1220002 -1.1449999 -1.8550001 14
6.1170001 -1.1399999 -1.8530002 14
6.1469998 -1.1429999 -1.8620001 15
6.1339998 -1.1369998 -1.8570001 14
6.1440001 -1.1349999 -1.8590001 15
6.151 -1.1329999 -1.8600001 14
6.1599998 -1.1309999 -1.8620001 14
6.1690001 -1.1289998 -1.8630002 14
6.1919999 -1.1299999 -1.8690001 14
6.1919999 -1.1259999 -1.8680001 14
6.1900001 -1.1219999 -1.8650001 14
6.2129998 -1.1229999 -1.8710002 14
6.2129998 -1.1189998 -1.8700001 14
6.2259998 -1.1169999 -1.8710002 14
6.2420001 -1.1159999 -1.8750001 13
6.263 -1.1159999 -1.8790001 13
6.2740002 -1.1139998 -1.8810002 13
6.2849998 -1.1119999 -1.8820001 14
6.302 -1.1109998 -1.8850001 14
6.3010001 -1.1059998 -1.8820001 13
6.323 -1.1059998 -1.8860002 13
6.3509998 -1.1069999 -1.8920001 14
6.3639998 -1.1049999 -1.8940002 14
6.3930001 -1.1059998 -1.9000001 13
6.3920002 -1.1009998 -1.8970001 13
6.4120002 -1.0999999 -1.9000001 14
6.434 -1.0989999 -1.9040002 14
6.4520001 -1.0979999 -1.9060001 14
6.4689999 -1.0959998 -1.9090002 14
6.48 -1.0929999 -1.9090002 14
6.5100002 -1.0929999 -1.9150001 14
6.5050001 -1.0879999 -1.9100001 13
6.5479999 -1.0899999 -1.9190001 13
6.5830002 -1.0909998 -1.9260001 14
6.6009998 -1.0889999 -1.9280001 13
6.6339998 -1.0889999 -1.9340001 13
6.651 -1.0869999 -1.9350001 14
6.6719999 -1.0859998 -1.9370002 14
6.6950002 -1.0839999 -1.9400002 15
6.7350001 -1.0849999 -1.9480001 15
6.7459998 -1.0819999 -1.9470001 14
6.7779999 -1.0819999 -1.9520001 14
6.8119998 -1.0819999 -1.9570001 14
6.8439999 -1.0809999 -1.9620001 14
6.8639998 -1.0789999 -1.9630002 14
6.8889999 -1.0779998 -1.9660001 14
6.9219999 -1.0769999 -1.9710001 14
6.9650002 -1.0779998 -1.9780002 14
7.0019999 -1.0779998 -1.9840001 15
7.013 -1.0739999 -1.9820001 14
7.0599999 -1.0749999 -1.9900001 14
7.1279998 -1.0799999 -2.0039999 14
7.1409998 -1.0759999 -2.0020001 14
7.1789999 -1.0749999 -2.007 15
7.198 -1.0719999 -2.007 15
7.2589998 -1.0749999 -2.0179999 14
7.2719998 -1.0709999 -2.016 14
7.3280001 -1.0729998 -2.0250001 14
7.3639998 -1.0719999 -2.029 14
7.4120002 -1.0719999 -2.036 14
7.4499998 -1.0709999 -2.04 13
7.5040002 -1.0729997 -2.049 14
7.5619998 -1.0739998 -2.0580001 14
7.612 -1.0749998 -2.0650001 14
7.6350002 -1.0709997 -2.0639999 14
7.6950002 -1.0729997 -2.073 14
7.7470002 -1.0729997 -2.0799999 14
7.8060002 -1.0739998 -2.089 15
7.8730001 -1.0759997 -2.099 15
7.9260001 -1.0769998 -2.1059999 15
7.9759998 -1.0759997 -2.112 15
8.0450001 -1.0779997 -2.122 16
8.0860004 -1.0769998 -2.125 16
8.1549997 -1.0779997 -2.135 16
8.2089996 -1.0779997 -2.141 16
8.2799997 -1.0799998 -2.151 16
8.3280001 -1.0779997 -2.155 17
8.4200001 -1.0829997 -2.1700001 17
8.4840002 -1.0829997 -2.177 17
8.566 -1.0849998 -2.1889999 18
8.6239996 -1.0849998 -2.1949999 18
8.7069998 -1.0869998 -2.2060001 18
8.783 -1.0879998 -2.2160001 18
8.8780003 -1.0919998 -2.23 19
8.9530001 -1.0929998 -2.2390001 19
9.0410004 -1.0949998 -2.2509999 20
9.1440001 -1.0989997 -2.266 20
9.2410002 -1.1019998 -2.279 20
9.2959995 -1.0999998 -2.2820001 21
9.4119997 -1.1039997 -2.3 21
9.5340004 -1.1089997 -2.3180001 22
9.6260004 -1.1109997 -2.329 22
9.7349997 -1.1139997 -2.3440001 23
9.8120003 -1.1139997 -2.3499999 23
9.9329996 -1.1179998 -2.3670001 24
10.045 -1.1209998 -2.381 23
10.164 -1.1249998 -2.3970001 23
10.317 -1.1319997 -2.4200001 25
10.428 -1.1339997 -2.4319999 26
10.547 -1.1369997 -2.447 26
10.684 -1.1409998 -2.464 27
10.829 -1.1459998 -2.484 28
10.944 -1.1479998 -2.4960001 28
11.118 -1.1559998 -2.5209999 29
11.239 -1.1569997 -2.5339999 30
11.357 -1.1589998 -2.5450001 31
11.467 -1.1589998 -2.5539999 31
11.528 -1.1539998 -2.552 34
11.578 -1.1469997 -2.5469999 41
11.621 -1.1409998 -2.54 45
11.642 -1.1319997 -2.529 48
11.655 -1.1209998 -2.516 51
11.674 -1.1119998 -2.503 54
11.709 -1.1039997 -2.494 57
11.74 -1.0959997 -2.483 54
11.8 -1.0899998 -2.4790001 48
11.948 -1.0919998 -2.493 42
12.057 -1.0899998 -2.4979999 34
12.114 -1.0839998 -2.4920001 41
12.115 -1.0719998 -2.474 42
12.112 -1.0599997 -2.4560001 45
12.108 -1.0479997 -2.437 45
12.124 -1.0379997 -2.4219999 44
12.129 -1.0269997 -2.405 43
12.127 -1.0149997 -2.385 42
12.122 -1.0029998 -2.3659999 34
12.156 -0.99399984 -2.3540001 35
12.21 -0.98699981 -2.345 35
12.275 -0.98099983 -2.339 35
12.335 -0.9739998 -2.3310001 36
12.425 -0.9689998 -2.3280001 47
12.476 -0.96199983 -2.3180001 64
12.518 -0.95299983 -2.306 88
12.515 -0.94099981 -2.286 96
12.529 -0.92999983 -2.2679999 92
12.554 -0.91999984 -2.253 96
12.563 -0.9089998 -2.234 96
12.562 -0.89799982 -2.2130001 96
12.572 -0.8859998 -2.194 94
12.568 -0.87399983 -2.1730001 96
12.568 -0.8629998 -2.152 90
12.576 -0.85199982 -2.1329999 92
12.594 -0.84099984 -2.115 101
12.583 -0.82899982 -2.092 96
12.607 -0.81899983 -2.0739999 104
12.603 -0.8069998 -2.052 101
12.62 -0.79699981 -2.033 104
12.626 -0.78599983 -2.013 104
12.629 -0.77399981 -1.9920001 99
12.63 -0.76299983 -1.9700001 105
12.639 -0.7519998 -1.9490001 105
12.652 -0.7419998 -1.9290001 106
12.652 -0.72999984 -1.9070001 106
12.66 -0.7189998 -1.8860002 104
12.668 -0.70899981 -1.8650001 102
12.657 -0.69699985 -1.8410001 85
12.668 -0.68599981 -1.8200002 76
12.688 -0.67599982 -1.8 89
12.699 -0.66599983 -1.779 95
12.704 -0.65499979 -1.757 101
12.721 -0.6449998 -1.7359999 100
12.717 -0.63299984 -1.7130001 104
12.717 -0.62199986 -1.689 104
12.724 -0.61199987 -1.6670001 102
12.736 -0.60199988 -1.646 104
12.742 -0.5909999 -1.623 107
12.753 -0.58099985 -1.601 102
12.754 -0.56999987 -1.5779999 107
12.761 -0.55999988 -1.5549999 110
12.778 -0.54999989 -1.534 113
12.769 -0.5399999 -1.5089999 105
12.787 -0.52999985 -1.487 113
12.785 -0.51899987 -1.4630001 108
12.794 -0.50899988 -1.4400001 113
12.797 -0.49899989 -1.416 111
12.798 -0.48899987 -1.393 109
12.81 -0.47899988 -1.369 110
12.824 -0.46999988 -1.347 115
12.828 -0.45999989 -1.323 114
12.839 -0.44999987 -1.299 117
12.841 -0.43999988 -1.275 114
12.85 -0.42999989 -1.251 115
12.847 -0.42099988 -1.226 111
12.859 -0.41099989 -1.202 114
12.867 -0.40199992 -1.178 113
12.87 -0.3919999 -1.153 107
12.873 -0.38199991 -1.128 114
12.881 -0.37299991 -1.104 107
12.885 -0.3639999 -1.079 104
12.891 -0.35399991 -1.053 106
12.899 -0.34499991 -1.028 109
12.907 -0.33599991 -1.0039999 110
12.899 -0.32599992 -0.977 109
12.917 -0.3179999 -0.95300001 110
12.928 -0.3089999 -0.92799997 107
12.918 -0.29999992 -0.90200001 109
12.934 -0.29099992 -0.87800002 111
12.933 -0.28199995 -0.852 120
12.935 -0.27399993 -0.82599998 114
12.952 -0.26499993 -0.801 102
12.949 -0.25599995 -0.77499998 91
12.943 -0.24799994 -0.74900001 74
12.94 -0.23899993 -0.72299999 62
12.927 -0.23099995 -0.69599998 57
12.913 -0.22199994 -0.66900003 51
12.896 -0.21399994 -0.64300001 53
12.89 -0.20599994 -0.616 53
12.884 -0.19699995 -0.58999997 50
12.891 -0.18999995 -0.56400001 47
12.869 -0.18099995 -0.537 46
12.862 -0.17299995 -0.50999999 47
12.853 -0.16499996 -0.484 45
12.861 -0.15799996 -0.45699999 47
12.845 -0.14999996 -0.43099999 51
12.822 -0.14199997 -0.403 53
12.823 -0.13499998 -0.377 52
12.821 -0.12799998 -0.35100001 50
12.813 -0.11999997 -0.324 48
12.793 -0.11299998 -0.29800001 37
12.781 -0.10599998 -0.271 27
12.797 -0.098999977 -0.24600002 10
12.826 -0.09299998 -0.22000001 1
21.992001 -0.14799997 -0.331 110
21.943001 -0.13599998 -0.285 73
17.962999 -0.10199998 -0.19600001 4
0 0 0 0
15.975 -0.073999994 -0.10800001 20
15.931 -0.065999992 -0.07500001 26
15.979 -0.058999997 -0.042000003 2
18.037001 -0.057999998 -0.010000004 74
18.072001 -0.049000002 0.025999997 55
0 0 0 0
20.427999 -0.037000012 0.115 95
20.313 -0.027000014 0.15700001 93
20.112 -0.018000016 0.19599999 92
19.938 -0.0090000201 0.236 90
19.85 -2.421611e-08 0.27700001 89
19.591999 0.0069999727 0.31400001 83
19.212 0.014999969 0.34799999 44
18.649 0.021999966 0.377 79
18.406 0.029999964 0.41100001 17
18.127001 0.036999963 0.442 73
18.106001 0.043999959 0.479 74
18.298 0.050999954 0.52200001 76
18.499001 0.058999952 0.56599998 78
18.735001 0.065999947 0.61299998 80
18.601999 0.072999939 0.64700001 78
18.407 0.078999944 0.67900002 77
12.849 0.058999956 0.5 1
12.862 0.063999958 0.528 9
12.83 0.067999959 0.55299997 25
12.79 0.071999945 0.57800001 37
12.787 0.075999945 0.60399997 33
12.799 0.079999946 0.63099998 14
12.781 0.083999939 0.65700001 2
17.634001 0.12099992 0.94400001 71
17.485001 0.12599991 0.972 69
17.34 0.12999991 1 68
17.301001 0.13399991 1.034 68
17.184999 0.13799991 1.063 67
16.646 0.13799991 1.064 63
15.831 0.13499992 1.044 57
15.852 0.13899991 1.0779999 5
16.042 0.14499989 1.124 52
16.177 0.1499999 1.1670001 46
16.202999 0.15399989 1.202 60
0 0 0 0
14.777 0.1479999 1.159 50
14.779 0.15099989 1.1900001 88
14.746 0.15399989 1.217 111
14.758 0.1569999 1.249 113
14.742 0.15899989 1.277 111
14.758 0.16199988 1.308 108
14.738 0.16499989 1.336 111
14.758 0.16799988 1.368 109
14.762 0.16999988 1.399 109
14.77 0.17299987 1.4299999 103
14.766 0.17499986 1.459 107
14.764 0.17699987 1.489 109
14.782 0.17899987 1.521 110
14.779 0.18099986 1.55 102
14.792 0.18299986 1.582 106
14.778 0.18499987 1.609 102
14.786 0.18599986 1.64 104
14.79 0.18799984 1.671 108
14.786 0.18899985 1.7 97
14.791 0.19099985 1.73 98
14.8 0.19199985 1.761 104
14.795 0.19299985 1.789 104
14.804 0.19399984 1.819 106
14.802 0.19499983 1.848 104
14.809 0.19599983 1.8789999 96
14.817 0.19699983 1.909 101
14.813 0.19799984 1.938 103
14.785 0.19799982 1.9630001 76
14.707 0.19699982 1.9809999 50
14.573 0.19599982 1.992 49
0 0 0 0
13.336 0.17999984 1.874 41
13.34 0.17999984 1.901 76
13.354 0.17999984 1.929 100
13.32 0.17999984 1.949 100
13.331 0.18099982 1.977 105
13.314 0.17999983 2 96
13.333 0.17999983 2.0280001 96
13.327 0.17999983 2.053 90
13.323 0.17899983 2.0780001 96
13.33 0.17899983 2.1040001 92
13.343 0.17799981 2.132 96
13.332 0.17799981 2.155 96
13.323 0.17699981 2.1789999 92
13.32 0.17599981 2.2030001 82
13.295 0.1739998 2.224 79
13.263 0.1729998 2.243 77
13.224 0.17099981 2.2609999 75
13.21 0.16999981 2.283 78
13.173 0.1679998 2.3010001 72
13.148 0.16699979 2.3210001 73
13.141 0.1649998 2.3440001 65
13.13 0.1639998 2.365 59
13.164 0.16299979 2.3959999 55
13.151 0.16099979 2.4170001 54
13.171 0.15999979 2.4449999 55
13.186 0.1579998 2.471 55
13.195 0.15599978 2.4960001 61
13.203 0.15499978 2.5209999 71
13.202 0.15299977 2.5439999 79
13.186 0.14999978 2.5639999 85
13.167 0.14799978 2.5840001 82
13.14 0.14599977 2.6010001 74
13.112 0.14299978 2.618 66
13.098 0.14099978 2.638 59
13.089 0.13799976 2.6589999 52
13.092 0.13599977 2.6819999 45
13.112 0.13399976 2.7079999 40
13.126 0.13199976 2.734 13
13.139 0.12899975 2.7590001 1
0 0 0 0
0 0 0 0
0 0 0 0
0 0 0 0
0 0 0 0
0 0 0 0
0 0 0 0
0 0 0 0
0 0 0 0
0 0 0 0
0 0 0 0
0 0 0 0
0 0 0 0
0 0 0 0
0 0 0 0
0 0 0 0
0 0 0 0
0 0 0 0
0 0 0 0
0 0 0 0
0 0 0 0
0 0 0 0
0 0 0 0
0 0 0 0
0 0 0 0
0 0 0 0
0 0 0 0
0 0 0 0
0 0 0 0
0 0 0 0
0 0 0 0
0 0 0 0
0 0 0 0
0 0 0 0
0 0 0 0
0 0 0 0
0 0 0 0
0 0 0 0
0 0 0 0
0 0 0 0
0 0 0 0
0 0 0 0
0 0 0 0
0 0 0 0
0 0 0 0
0 0 0 0
0 0 0 0
0 0 0 0
0 0 0 0
0 0 0 0
0 0 0 0
0 0 0 0
0 0 0 0
0 0 0 0
0 0 0 0
0 0 0 0
0 0 0 0
0 0 0 0
0 0 0 0
0 0 0 0
0 0 0 0
0 0 0 0
0 0 0 0
0 0 0 0
0 0 0 0
0 0 0 0
0 0 0 0
0 0 0 0
0 0 0 0
0 0 0 0
0 0 0 0
0 0 0 0
0 0 0 0
0 0 0 0
0 0 0 0
0 0 0 0
0 0 0 0
0 0 0 0
0 0 0 0
0 0 0 0
0 0 0 0
0 0 0 0
0 0 0 0
0 0 0 0
0 0 0 0
0 0 0 0
0 0 0 0
0 0 0 0
0 0 0 0
0 0 0 0
0 0 0 0
0 0 0 0
0 0 0 0
0 0 0 0
0 0 0 0
0 0 0 0
0 0 0 0
0 0 0 0
0 0 0 0
0 0 0 0
0 0 0 0
0 0 0 0
0 0 0 0
0 0 0 0
0 0 0 0
0 0 0 0
0 0 0 0
0 0 0 0
0 0 0 0
0 0 0 0
0 0 0 0
0 0 0 0
0 0 0 0
0 0 0 0
0 0 0 0
0 0 0 0
0 0 0 0
0 0 0 0
0 0 0 0
0 0 0 0
0 0 0 0
0 0 0 0
0 0 0 0
0 0 0 0
0 0 0 0
0 0 0 0
0 0 0 0
0 0 0 0
0 0 0 0
0 0 0 0
0 0 0 0
0 0 0 0
0 0 0 0
0 0 0 0
0 0 0 0
0 0 0 0
0 0 0 0
0 0 0 0
0 0 0 0
0 0 0 0
0 0 0 0
0 0 0 0
0 0 0 0
0 0 0 0
0 0 0 0
0 0 0 0
0 0 0 0
0 0 0 0
0 0 0 0
0 0 0 0
0 0 0 0
0 0 0 0
0 0 0 0
0 0 0 0
0 0 0 0
0 0 0 0
0 0 0 0
0 0 0 0
0 0 0 0
0 0 0 0
0 0 0 0
0 0 0 0
0 0 0 0
0 0 0 0
0 0 0 0
0 0 0 0
0 0 0 0
0 0 0 0
0 0 0 0
0 0 0 0
0 0 0 0
0 0 0 0
0 0 0 0
0 0 0 0
0 0 0 0
0 0 0 0
0 0 0 0
0 0 0 0
0 0 0 0
0 0 0 0
0 0 0 0
0 0 0 0
0 0 0 0
0 0 0 0
0 0 0 0
0 0 0 0
0 0 0 0
0 0 0 0
0 0 0 0
0 0 0 0
0 0 0 0
0 0 0 0
0 0 0 0
0 0 0 0
0 0 0 0
0 0 0 0
0 0 0 0
0 0 0 0
0 0 0 0
0 0 0 0
0 0 0 0
0 0 0 0
0 0 0 0
0 0 0 0
0 0 0 0
0 0 0 0
0 0 0 0
0 0 0 0
0 0 0 0
0 0 0 0
0 0 0 0
0 0 0 0
0 0 0 0
0 0 0 0
0 0 0 0
0 0 0 0
0 0 0 0
0 0 0 0
0 0 0 0
0 0 0 0
0 0 0 0
0 0 0 0
0 0 0 0
0 0 0 0
0 0 0 0
0 0 0 0
0 0 0 0
0 0 0 0
0 0 0 0
0 0 0 0
0 0 0 0
0 0 0 0
0 0 0 0
0 0 0 0
0 0 0 0
0 0 0 0
0 0 0 0
0 0 0 0
0 0 0 0
0 0 0 0
0 0 0 0
0 0 0 0
0 0 0 0
0 0 0 0
0 0 0 0
0 0 0 0
0 0 0 0
0 0 0 0
0 0 0 0
0 0 0 0
0 0 0 0
45.004002 -3.1030009 10.968 4
45.004002 -3.102001 10.902 8
45.092999 -3.108001 10.857 14
45.165001 -3.1120009 10.807 22
45.221001 -3.115001 10.752 31
45.208 -3.1120009 10.682 27
45.233002 -3.1120009 10.619 27
45.285 -3.114001 10.564 29
45.278 -3.1100008 10.492 28
45.348 -3.1130009 10.438 32
45.401001 -3.114001 10.379 36
45.435001 -3.114001 10.317 34
45.478001 -3.1130009 10.256 35
45.493 -3.111001 10.187 26
45.402 -3.1000009 10.096 18
45.308998 -3.0900009 10.003 11
45.273998 -3.0830009 9.9230003 12
45.407001 -3.0870008 9.8780003 15
45.401001 -3.082001 9.8030005 16
45.488998 -3.0830009 9.7480001 13
45.617001 -3.085001 9.6999998 13
45.771 -3.0900009 9.658 12
45.901001 -3.0930009 9.6090002 10
0 0 0 0
47.637001 -3.1960011 9.8140001 17
47.671001 -3.1910009 9.7419996 30
47.738998 -3.1880009 9.6759996 38
47.837002 -3.1860011 9.6149998 36
47.848 -3.1790006 9.5360003 41
47.841999 -3.1710007 9.4549999 41
47.880001 -3.1640007 9.3809996 41
47.971001 -3.1600008 9.316 42
48.094002 -3.1590006 9.257 39
48.094002 -3.1490006 9.1730003 39
48.196999 -3.1460006 9.1090002 50
48.421001 -3.1500008 9.0690002 41
48.536999 -3.1490006 9.007 29
45.691002 -2.9540007 8.3990002 4
45.723999 -2.9450006 8.3240004 12
45.696999 -2.9320006 8.2379999 26
45.805 -2.9270008 8.1780005 45
45.896 -2.9210007 8.1120005 44
46.013 -2.9180007 8.052 37
46.007 -2.9050007 7.9679995 38
45.960999 -2.8890007 7.8789997 35
46.110001 -2.8850007 7.8209996 30
46.271 -2.8820007 7.7649994 26
46.382 -2.8750007 7.6989994 32
46.467999 -2.8660007 7.6289997 27
46.494999 -2.8540008 7.5489993 20
46.532001 -2.8400006 7.4689994 11
46.638 -2.8320007 7.3999996 13
46.723999 -2.8210008 7.3289995 16
46.874001 -2.8140006 7.2659993 33
47.015999 -2.8070006 7.2019997 47
47.075001 -2.7930007 7.1249995 53
44.07 -2.5990005 6.5879998 3
43.841999 -2.5700004 6.4720001 17
43.661999 -2.5430005 6.3639998 30
43.582001 -2.5220006 6.2729998 40
43.620998 -2.5080004 6.197 47
43.664001 -2.4930005 6.1209998 50
12.85 -0.72800016 1.7769998 3
12.817 -0.72100019 1.7479999 3
12.776 -0.71300018 1.7179999 73
12.774 -0.70800012 1.6929998 104
12.795 -0.70300013 1.6719999 112
12.805 -0.69800013 1.6489999 114
12.836 -0.69400012 1.6289998 117
12.874 -0.6910001 1.6099999 127
12.877 -0.68500012 1.5859998 128
12.888 -0.68000013 1.563 124
